ply
format ascii 1.0
element vertex 847
property float x
property float y
property float z
end_header
-0.0683030212636766 0.00480610141227184 0.651340836812857
-0.064024150991955 0.00884616733627214 0.651340836812857
-0.0561477806868315 0.00708986871654551 0.651340836812857
-0.0370112851502314 0.0121152830406999 0.651340836812857
-0.0288858560271086 0.00670634876279511 0.651340836812857
-0.0144379886903673 0.0139051195720361 0.651340836812857
-0.00297005600483817 0.0106871917631692 0.651340836812857
0.0122901904220614 0.0148573482293264 0.651340836812856
0.0269308538048569 0.015167935238088 0.651340836812857
0.0287027256339401 0.00786111753611149 0.651340836812857
0.0501489451374283 0.0117897279687721 0.651340836812857
0.0557223680170074 0.00795857004411143 0.651340836812857
0.0784912604306428 0.0134362928285557 0.651340836812857
0.0905718420944441 0.0145376033468951 0.651340836812857
0.105650314464183 0.0097434334972546 0.651340836812857
0.116247281606209 0.00814333129420593 0.651340836812856
0.125124000921572 0.0129768398540007 0.65377213481626
0.12561407416394 0.00549976706416606 0.666504369483378
0.125537925554035 0.006661570341469 0.68027925066537
0.125602039540039 0.00568337994306374 0.685313977212907
0.125453909820401 0.00794340273215173 0.696915313615607
0.125280081455371 0.0105955110822924 0.712436945598639
0.125520774470521 0.00692324530915404 0.724958497432179
0.125435202204495 0.00822882579498851 0.726807539199225
0.125609783119833 0.00556523574589509 0.744131302170725
0.125379402504172 0.00908016470700276 0.750254395173842
0.125113948871623 0.0131302044996466 0.758744008591467
0.125171109677843 0.0122580991246167 0.767014171551308
0.125304135355207 0.0102285194892021 0.78215519120613
0.125471508380979 0.00767490058378294 0.793003288681759
0.125377423290226 0.00911036167648097 0.799486701736657
0.12521225278122 0.0116303766697712 0.818238508107685
0.124958658070391 0.015499484280762 0.824362997815592
0.125008813221536 0.0147342645473052 0.836797934612108
0.125235082975954 0.0112820552086491 0.841983668339487
0.124959879492208 0.01548084898496 0.855463471409981
0.125286885035906 0.0104917085024072 0.865233034087626
0.125118987372232 0.0130533318354274 0.877299875441186
0.12562703850615 0.00530196942496571 0.888234789292204
0.125558048501757 0.0063545534879605 0.895793100001152
0.125824860675797 0.0149517678298369 0.903192855595931
0.127816398670769 0.0150015579191461 0.908160592367924
0.136243517222539 0.013888903672373 0.913572337315047
-0.498778415300776 0.0186377808976479 0.486934700573616
-0.499075027844605 0.0141123479850703 0.49973304923671
-0.498949946801312 0.0160207159278012 0.504729657225026
-0.498796023699486 0.0183691286483717 0.514573584316872
-0.499048257309094 0.0145207874290775 0.526323892168688
-0.499003453704871 0.0152043583345208 0.527667245056876
-0.498701051057941 0.0198181311494161 0.539292005564349
-0.499005053983565 0.0151799427997722 0.547269785949336
-0.498981904884992 0.0155331297932439 0.561006462234863
-0.498771453508147 0.018743997327633 0.566882634081577
-0.499001813214852 0.0152293873755433 0.577822637966002
-0.499055255411515 0.014414017018722 0.577305062649503
-0.498976185401686 0.0156203922456765 0.586591272804935
-0.4989409185955 0.0161584597305231 0.594452715522366
-0.498646429697593 0.0206514920675238 0.606651328826579
-0.49906669099418 0.0142395437429146 0.622061277050937
-0.498747679441687 0.0191067194884645 0.618508014083047
-0.498736129236679 0.0192829415632767 0.636906019199493
-0.49897762066353 0.0155984943815266 0.63894074409845
-0.499052936962187 0.0144493897199504 0.654025419267465
-0.498693538562403 0.0199327496821355 0.658337208199306
-0.498647105536324 0.0206411807610745 0.661584578112724
-0.49899405994346 0.0153476794379258 0.677277255309967
-0.498866837502728 0.017288718792076 0.676473395791698
-0.498749252477674 0.0190827195970902 0.690763603825
-0.498638603474796 0.0207708971532706 0.704006309506569
-0.498658418588516 0.0204685769390293 0.708929877510722
-0.498637122095474 0.0207934986341428 0.71653724437402
-0.499182131358033 0.0124782641446943 0.721459065065661
-0.499051201578579 0.014475866557365 0.733186333833717
-0.498996947281835 0.0153036271670915 0.739856600442716
-0.499130667786361 0.0132634465177676 0.743226977778464
-0.499114696704342 0.0135071181416408 0.75675246572666
-0.498693174421685 0.019938305395892 0.759776070979586
-0.498911095749324 0.0166134684361311 0.781500291217064
-0.49902299494654 0.0149062166003295 0.785813348240305
-0.498846561842186 0.0175980655929697 0.789366538287979
-0.498975174426597 0.0156358167448625 0.795106213743952
-0.49903009235297 0.0147979311035724 0.812107726412277
-0.498940845394435 0.0161595765629693 0.817213669743645
-0.498689736806494 0.019990753268541 0.827622319934981
-0.49869356632262 0.019932326143075 0.829324477690743
-0.498725653042018 0.0194427774066986 0.834473581299539
-0.499173799158037 0.0126053889507036 0.845566281656003
-0.499063617046867 0.0142864431159508 0.859245401899052
-0.498814612885402 0.0180855124780089 0.864299753504507
-0.499042780147481 0.0146043527669087 0.875359511560924
-0.498905383000147 0.0167006281456026 0.883063028114103
-0.498841548340381 0.0176745568491551 0.889559333053723
-0.497666847228805 0.0167171194941026 0.904712365675401
-0.497090021827234 0.0174581059993183 0.90668385353594
-0.494592694398065 0.0200531527811478 0.909428440113809
-0.486608250338209 0.0161274895096423 0.913881926356155
-0.158461278531253 0.0185596713222298 0.651340836812857
-0.147959687360444 0.0171312243432407 0.651340836812857
-0.133914868298463 0.021131575345296 0.651340836812857
-0.121077931033988 0.0217004223853404 0.651340836812857
-0.110678059064912 0.0233109670728886 0.651340836812857
-0.100166679545178 0.0156012977706893 0.651340836812857
-0.0854703552952863 0.0179295569157876 0.651340836812857
-0.0749258487198794 0.0201334395455599 0.651340836812857
-0.072814420922297 0.0242888161011542 0.651340836812857
-0.0526687507881299 0.0203960041668757 0.651340836812857
-0.0371824530811826 0.0156347175829355 0.651340836812857
-0.0209669726434356 0.0200251701947268 0.651340836812857
-0.0087958632320201 0.0180290212433346 0.651340836812857
0.00356681815626226 0.0247992551611568 0.651340836812857
0.00235931307050718 0.0181429507215088 0.651340836812857
0.0302192999142842 0.0246278012224964 0.651340836812857
0.0355026071819 0.0209844910723018 0.651340836812857
0.0542052294560984 0.0173036727742936 0.651340836812857
0.0587390015960387 0.0227605324608996 0.651340836812857
0.0801426237292471 0.0200200089252922 0.651340836812857
0.0950290927566511 0.0170110550476894 0.651340836812857
0.0990532087579884 0.0222501145487132 0.651340836812857
0.111412351237485 0.0221385557174041 0.651340836812857
0.124442178018717 0.0233794471251082 0.661585740651274
0.124411563066504 0.0238465410334574 0.667100929189884
0.124835322693274 0.0173812185044187 0.677245747339828
0.124603327606378 0.0209207795366238 0.687097103902561
0.124934990930428 0.015860575058495 0.69054228265493
0.124834015632621 0.0174011603963625 0.707258664382511
0.124793023425454 0.0180265806199312 0.720221566734666
0.124656394970821 0.0201111280143549 0.729070016522521
0.124329158343518 0.0251037941514112 0.737057657653489
0.124457493915232 0.0231457717003197 0.744878990367683
0.124293875688213 0.0256421034471038 0.767903853786366
0.124616922006526 0.0207133690708903 0.770377585461164
0.12444223039444 0.023378648025985 0.786274333786504
0.124813267549867 0.0177177149673871 0.790240475468108
0.124426883584548 0.0236127950977733 0.802884890646312
0.124332623447227 0.0250509268850135 0.814906460591505
0.124659539082187 0.0200631581447198 0.822775831595661
0.12465302580789 0.0201625315073458 0.834458460069219
0.124359768199815 0.0246367779917178 0.840505226950149
0.124741590876088 0.0188112896840646 0.857134345803353
0.124440219156698 0.0234093335841683 0.867941837315028
0.124640872479345 0.0203479554691333 0.870259439025517
0.124818930019153 0.0176313223807932 0.885038366075788
0.12519523228857 0.023967485453522 0.903048398976913
0.126198647877455 0.0213977422138502 0.906164608101618
0.136883826246358 0.0194011417821101 0.913840715279077
0.137999095903752 0.0178537853832563 0.91411237571809
-0.498595889959263 0.0214225794675368 0.495322710766119
-0.49853545029626 0.022344710529997 0.498961111235082
-0.498339077052095 0.0253407872663988 0.503752513543371
-0.498254873700255 0.0266254821577595 0.519158097225575
-0.498211933752736 0.0272806191565447 0.529663725583235
-0.498228198144131 0.0270324724963494 0.528758622036463
-0.49861400951336 0.0211461284941039 0.547623916219028
-0.498201691721202 0.0274368823610443 0.545930734955261
-0.498623730162003 0.0209978200553057 0.558445572469214
-0.498351319230883 0.0251540077118582 0.564082257323723
-0.498261628154727 0.0265224290967577 0.572893160119792
-0.498256513778802 0.0266004593945896 0.577920865326665
-0.498561518255913 0.0219469903221475 0.593430965998642
-0.498234090145298 0.0269425779299939 0.596006143555784
-0.498419854628238 0.0241083596119481 0.605385564163405
-0.498439691385139 0.0238057091865761 0.613923670855317
-0.49840571754636 0.0243240498008741 0.617458091674029
-0.498305816336576 0.0258482477222635 0.630328000441453
-0.498477266806943 0.023232419033905 0.634652757804585
-0.498495810672142 0.0229494943240514 0.647723719279712
-0.498543116070423 0.0222277534173541 0.655543781599531
-0.498460827140603 0.0234832398729891 0.662388423497539
-0.498347294312323 0.0252154161023736 0.667903629987888
-0.498371545208655 0.0248454189235583 0.679547049837395
-0.498598331267315 0.0213853323043985 0.692708121313176
-0.498132755047305 0.028488652757911 0.696421009643872
-0.498368721240694 0.0248885043486931 0.704706088473349
-0.498324851438645 0.0255578281861192 0.718278636958208
-0.498477139833415 0.0232343562755825 0.723581323901358
-0.498403544569623 0.0243572030192748 0.730452719761628
-0.498492453797829 0.0230007103289655 0.737058270730738
-0.498123368435962 0.0286318647723518 0.749668183254618
-0.498445737463594 0.0237134638550876 0.763868929388508
-0.498241062001663 0.0268362079570831 0.766380130433417
-0.49822475746772 0.0270849670741967 0.773177996552142
-0.49822688009316 0.0270525820681398 0.782242869779747
-0.49843360328746 0.0238985956075482 0.796336716317054
-0.498106822298688 0.0288843100439834 0.795010352087892
-0.498576448360804 0.0217192009401285 0.806435162445029
-0.498284244385237 0.0261773720988679 0.813101920587451
-0.498200398172408 0.0274566181018664 0.819893649191534
-0.498554418497259 0.0220553117069114 0.8314042786445
-0.498373372589479 0.0248175384798602 0.842953629337481
-0.498549158258817 0.0221355674367209 0.852939742038008
-0.498198559918229 0.0274846644408776 0.861866654014402
-0.498426575026153 0.0240058261535915 0.86346260447996
-0.498370849562583 0.0248560324316247 0.876890140315319
-0.49813287699283 0.0284867922287339 0.884911800800882
-0.498445593040723 0.0237156673222888 0.887262042558767
-0.498208364704726 0.0273350723065133 0.899485273652965
-0.498298052207501 0.0223838257601146 0.90097053491625
-0.493049484517204 0.0222745590649668 0.91082605133451
-0.489213009489732 0.026792747379711 0.912996676595502
-0.159496533714766 0.028896080081178 0.651340836812857
-0.14850961127342 0.0263693746539287 0.651340836812857
-0.134358385785016 0.0306319933522617 0.651340836812857
-0.121017613142699 0.0294043781131078 0.651340836812857
-0.103543992956009 0.0319692066365032 0.651340836812857
-0.100990400243901 0.0274646205284937 0.651340836812857
-0.087587700741965 0.0274125115789441 0.651340836812857
-0.0831433939660578 0.0330686271949026 0.651340836812857
-0.0659579833123947 0.0327933689765098 0.651340836812857
-0.0514663813248782 0.0270563710953022 0.651340836812857
-0.0333983226866744 0.0288198288875072 0.651340836812857
-0.0275835616052033 0.026022212493835 0.651340836812857
-0.00884450632883845 0.0270009478192449 0.651340836812857
0.00736172422925802 0.0285447798515071 0.651340836812857
0.00110471519285844 0.0303648749393488 0.651340836812857
0.0269000411533907 0.034105794422875 0.651340836812857
0.0404804781154038 0.0275826391767761 0.651340836812857
0.0594067126620435 0.0310339488771156 0.651340836812857
0.0566926899444915 0.0317036177932875 0.651340836812857
0.0798003712889133 0.0272511012174488 0.651340836812857
0.0904415727842216 0.0358098326885022 0.651340836812857
0.102937730361838 0.0293084393934062 0.651340836812857
0.117060031478191 0.0286706943422393 0.651340836812857
0.123988242059837 0.0303051715129045 0.663401397350071
0.123714884426278 0.0344758030574925 0.669033612858186
0.124138334673398 0.0280152007497838 0.684037623811611
0.124081774246786 0.0288781461021016 0.690739510139179
0.123606580583966 0.0361282003776937 0.691663418444582
0.123586743486362 0.0364308560011876 0.706927718627622
0.123920771919401 0.0313345669329522 0.718239558993763
0.123747763413277 0.0339741666533931 0.725848468527559
0.123612711265834 0.036034664247545 0.742998456309481
0.123896398410348 0.0317064348203991 0.747178934692981
0.123790464531263 0.0333226734891395 0.755627012133945
0.123878447992966 0.0319803052662217 0.772509941902808
0.123646039841941 0.0355261684391778 0.777404184350754
0.123995619353936 0.0301926157555159 0.784409955156829
0.123776515776086 0.0335354903678488 0.805923387934211
0.123750059985895 0.0339391277262569 0.814212516284721
0.124220004462709 0.0267691605528893 0.826116361528891
0.124144420253787 0.0279223527352399 0.827258058047731
0.123613405057597 0.0360240790307548 0.838179439854699
0.123995429738 0.0301955087356634 0.848331553324691
0.124023504815943 0.0297671658203184 0.86229823369109
0.123916194302255 0.0314044078743605 0.874830648276938
0.124029949197339 0.0296688435602781 0.892754760457113
0.124365287806835 0.0264532084326692 0.900559040512985
0.126135788264258 0.030547982831476 0.907498948484564
0.132508186904442 0.0266298440695969 0.912795219018839
-0.497608077014902 0.0364936926179915 0.48754375824695
-0.497584917553231 0.0368470377217758 0.49540347916695
-0.497910330443902 0.0318821964287716 0.503530301083124
-0.497693017829571 0.0351977462181464 0.51840609240578
-0.49792272487938 0.0316930938860431 0.528495486898675
-0.497865403646641 0.0325676468967737 0.534549008412593
-0.49782527971709 0.033179819763877 0.53741763551946
-0.497550970253051 0.0373649734352987 0.54410021547662
-0.497988834560681 0.030684455061334 0.552103273327766
-0.497733206640218 0.0345845834568047 0.559812221301872
-0.497607158542702 0.0365077057958154 0.572735044138271
-0.4977989970515 0.0335808157512935 0.581835039212858
-0.49762573728678 0.036224248937122 0.58766557732173
-0.497802179614894 0.0335322592170877 0.594984206393957
-0.497807781517881 0.0334467906936491 0.602450110108552
-0.497956320372456 0.0311805257116845 0.614929184751411
-0.49801295358125 0.0303164699178449 0.61760909331285
-0.497982068599965 0.0307876836736963 0.631941888084692
-0.497777298882643 0.0339118658350723 0.640622182954224
-0.497758651851564 0.0341963645520803 0.649082821062314
-0.497950697394267 0.0312663157805602 0.651372164437938
-0.49785809933825 0.0326790891074353 0.662648830881125
-0.497976538937206 0.0308720500242334 0.66712894181518
-0.49783346200754 0.033054982135555 0.680244377008628
-0.498013033594241 0.0303152491555016 0.690821515972006
-0.497893122668618 0.0321447363457249 0.702478138672924
-0.497981560351181 0.0307954380516791 0.708283105946942
-0.497596365874339 0.0366723700948827 0.716735140215234
-0.497635060856707 0.0360819987488118 0.72133492773905
-0.498088345873537 0.0291662058175271 0.73069296928923
-0.497602174191635 0.0365837522976786 0.741966899148505
-0.497878737858114 0.0323642061431153 0.74945893329452
-0.497977998582336 0.0308497801430303 0.758059444659868
-0.497843351004322 0.0329041052004932 0.767288066992813
-0.497890864243269 0.032179193258016 0.776679173281833
-0.498069277109025 0.0294571389433317 0.785455377824543
-0.497702677983959 0.0350503607433227 0.791577737371214
-0.497713846210788 0.0348799665293296 0.799364139847353
-0.498033153486094 0.0300082789255445 0.805768546707242
-0.497984697163842 0.0307475795387583 0.818367000302779
-0.497823269282229 0.0332104930724604 0.824265523324656
-0.497564012255977 0.0371659909225351 0.834680985737823
-0.498021026100042 0.0301933070813832 0.84143411488323
-0.498002104246824 0.0304819987739687 0.845152490667034
-0.498052194283608 0.0297177724936961 0.855053562642521
-0.497978869006039 0.0308365000436125 0.865296988628751
-0.497845272955272 0.0328747818955187 0.879069550537885
-0.497887046130429 0.0322374464029611 0.884212460245978
-0.497856230128535 0.0327076077366867 0.886822643003968
-0.497646821456396 0.0359025666714764 0.895662076651544
-0.497186038238817 0.0299897548412962 0.903260129571155
-0.493870737911943 0.0376510420438155 0.908996969999417
-0.487128312113323 0.0340940322512233 0.913427042087759
-0.160100537611043 0.0388140676784013 0.651340836812857
-0.139444776878304 0.0347435611637502 0.651340836812856
-0.133647937554071 0.0355464922825124 0.651340836812857
-0.131839573881621 0.0361676865360366 0.651340836812857
-0.113146823874918 0.0378571243545075 0.651340836812856
-0.104562922193801 0.040599153007321 0.651340836812857
-0.0891465636054855 0.0403441122810781 0.651340836812857
-0.0686711345660606 0.0402543838327931 0.651340836812857
-0.0619330197428422 0.0367481553733598 0.651340836812857
-0.0534542971796553 0.0400811134923449 0.651340836812857
-0.0338481512578184 0.0444161155983336 0.651340836812857
-0.0267218285789662 0.0371013853939435 0.651340836812857
-0.0250143467074374 0.0445827505892849 0.651340836812857
0.00313302580345099 0.0411158992788254 0.651340836812857
0.0167393564954634 0.0446775606602932 0.651340836812857
0.0273886489121155 0.0402874393035374 0.651340836812856
0.0439967811207301 0.0374665918114304 0.651340836812857
0.0486743521811759 0.0425094916127014 0.651340836812857
0.0610981969129118 0.041347120178061 0.651340836812857
0.0703194312459277 0.0402336241391482 0.651340836812857
0.0810041070014429 0.0372454304046888 0.651340836812856
0.109972254190895 0.0363255783516056 0.651340836812857
0.10640042029938 0.043396196406474 0.651340836812856
0.123576742887743 0.0365834356512253 0.66365507231846
0.122093072119442 0.045651870890187 0.669356168975221
0.122920792468617 0.0414906396903485 0.673577963555964
0.121869241198558 0.0467771449183126 0.688989463671799
0.122511266421424 0.043549466160454 0.695770124274669
0.121895619459531 0.0466445324451845 0.715816596443592
0.12322720051617 0.0399502224121776 0.719963517306009
0.122538271747604 0.0434137012176563 0.733080093677673
0.123196760597036 0.0401032542197779 0.737528818397288
0.12331323590056 0.0395176933265158 0.754362566254649
0.122812315089042 0.0420359923046876 0.76586846170727
0.123324174597319 0.0394627007843081 0.776376408475871
0.122720975981977 0.0424951850048107 0.787733687366109
0.123306419884221 0.0395519597546326 0.793916514167755
0.121953350970454 0.0463542965403815 0.801274945735906
0.121959180281518 0.0463249906146595 0.809781056435086
0.122683528362886 0.0426834468991532 0.818480606158504
0.122257192581176 0.0448267816114476 0.841913806704074
0.122124907483297 0.0454918237082364 0.838104308887655
0.122624519723051 0.042980103364572 0.852644735488721
0.122352626863579 0.0443470010746248 0.86488951854834
0.123506905547312 0.0376489475639479 0.873784003209675
0.123329652813182 0.039435159933349 0.889545728242985
0.123194957844842 0.0401123172670752 0.89697183824024
0.123369030984172 0.0433565566116969 0.903099812071774
0.12797917848103 0.043055169031724 0.910613202655186
-0.497162711152695 0.0429088079161277 0.488141047210624
-0.496678439045143 0.0453434082073658 0.499153475283994
-0.496912697660878 0.0441657106171107 0.509323411771707
-0.49731008274291 0.0410402066285643 0.507324539361185
-0.496939359413534 0.0440316729350517 0.51803327758582
-0.497298051862811 0.0412237623881024 0.527612276398881
-0.497347444857885 0.0404701709092244 0.535294622292002
-0.49751334200005 0.0379390696362791 0.550998681599674
-0.496636317664427 0.0455551666880959 0.557076736087095
-0.49738420711575 0.0399092872407894 0.568169900263252
-0.497227262574032 0.0423037982259769 0.566213305280032
-0.496584463133524 0.0458158570191525 0.583208974908646
-0.497452180905435 0.0388722076181168 0.588663028788646
-0.497235413494137 0.0421794392166253 0.600609931673273
-0.496953556256492 0.0439603005857853 0.608947669834077
-0.497346591239239 0.0404831946130278 0.615587046044928
-0.497228132558145 0.0422905248333958 0.616395494645257
-0.497526697102008 0.0377353101553929 0.635195997430303
-0.496981296403965 0.0438208414468758 0.641965513885962
-0.497336785119595 0.0406328070872837 0.649230121138109
-0.497241766201282 0.0420825156353509 0.657166859579951
-0.497521123401818 0.0378203483872872 0.663013793708932
-0.497201798617343 0.0426923031293602 0.67662471300281
-0.497314404114813 0.0409742752340945 0.680085582169768
-0.497232926816969 0.0422173785787159 0.691031408321804
-0.497147808407678 0.0429837290746969 0.695963627006368
-0.497278456294842 0.0415227329814623 0.705364716720104
-0.49715835615254 0.0429307019803974 0.719543332861557
-0.496768670183898 0.0448897856400811 0.723022042883646
-0.497285597246951 0.0414137831060318 0.727184197955776
-0.496745450434793 0.0450065192017558 0.736576901475736
-0.496553110140064 0.0459734791613722 0.741691287135865
-0.497247896489 0.0419889855187755 0.761648544476195
-0.497316805275063 0.0409376406080485 0.763696463583326
-0.497268008547532 0.0416821348021955 0.766147353346667
-0.497476959860179 0.0384941538248049 0.776578734695165
-0.49702816934908 0.0435851952387885 0.788368185333077
-0.497209792535279 0.0425703395102282 0.791750841717924
-0.497253856290134 0.0418980565248276 0.804902903219021
-0.497415781842703 0.0394275499996283 0.813349034391621
-0.49680340742144 0.044715149753937 0.815915306703335
-0.49671011145652 0.0451841802428371 0.837576337707912
-0.496803378843463 0.044715293425131 0.839191729696227
-0.497116147715206 0.0431428981243083 0.849226628845961
-0.497209341142134 0.0425772264387792 0.850773514478394
-0.497376046896461 0.0400337881282705 0.863077444643893
-0.497411445018523 0.0394937171503091 0.87446143762629
-0.496778765982452 0.0448390306333064 0.883996835665951
-0.497469233445702 0.0386120361298477 0.890494668434292
-0.496714718419817 0.0451610194743111 0.899751836873661
-0.494346003990356 0.0441493141359594 0.90786147007406
-0.495606192243164 0.0382117586167455 0.907144998144509
-0.483077025582333 0.0448164411140884 0.914186589443928
-0.482599570267702 0.0428795627315453 0.914413800425084
-0.142628898574685 0.0457676802032048 0.651340836812857
-0.137396238185555 0.0468209176993913 0.651340836812857
-0.126219511365455 0.0507431788623521 0.651340836812857
-0.111206687243194 0.0503938150811041 0.651340836812857
-0.103435834048951 0.0460725834661773 0.651340836812857
-0.0864699966745183 0.052596956125333 0.651340836812857
-0.0691237513148391 0.0485168106349833 0.651340836812857
-0.0638340536316843 0.0439994701277205 0.651340836812857
-0.0569396295849255 0.0465867314728652 0.651340836812857
-0.0417978843559131 0.0489976663805728 0.651340836812857
-0.0221808344996451 0.0472728082313018 0.651340836812857
-0.0149809426934467 0.0501618206813878 0.651340836812857
0.00748330612927073 0.0484564390718663 0.651340836812856
0.0150140267995717 0.049455679860256 0.651340836812857
0.0253293143620234 0.0468392703017226 0.651340836812857
0.0358630320206174 0.0557437576184465 0.651340836812857
0.0505458472196598 0.0470875110703248 0.651340836812857
0.0603173335651972 0.05425230761129 0.651340836812857
0.0816741115535277 0.0488841552068545 0.651340836812857
0.0883339406441995 0.0533135355761589 0.651340836812857
0.105593044296429 0.0563140258993716 0.651340836812857
0.119993272426739 0.0562082768108723 0.656746954787388
0.119943623137679 0.0564578806425141 0.656251545462958
0.120848066363973 0.0519109374925844 0.663421034413912
0.121049981769713 0.0508958401992405 0.673038197920224
0.121850725260496 0.0468702308249642 0.682513236642233
0.121287976444112 0.0496993601737147 0.699354543773459
0.120684192670897 0.0527347861815055 0.706932776719766
0.121720733170112 0.0475237451946138 0.721330572534674
0.119860302927645 0.0568767596249114 0.7401678744657
0.120550452945 0.0534071411871773 0.742730926238957
0.121859713695843 0.0468250429089677 0.745359483844793
0.120904928968753 0.051625069873948 0.76088832494618
0.121026819615037 0.0510122842141659 0.772160227695869
0.119969948217769 0.0563255355277474 0.791484405266337
0.12126288222913 0.0498255173117178 0.802788949021905
0.120584924694148 0.0532338400013221 0.801457049736645
0.121424762602132 0.0490116897195267 0.818183825844765
0.121429553317648 0.0489876051662229 0.828099288367893
0.120129107965437 0.0555253854427409 0.834122317709584
0.120272047322663 0.054806780767182 0.849002592602847
0.1201787203929 0.0552759669268577 0.862319955660342
0.12161336576237 0.048063517603722 0.867205186127647
0.121781014194205 0.0472206920215684 0.878838324616912
0.120246291585023 0.0549362636041667 0.883655393478459
0.120342017667997 0.0562105871027907 0.901375072261779
0.121928756028569 0.0519984111444652 0.904122126064446
0.131448746474021 0.0472375733411458 0.91312387584988
-0.495099850315545 0.0532795096694958 0.485142705041691
-0.495062806172741 0.0534657431515672 0.501168662430147
-0.496085705772651 0.048323279596461 0.508677796443495
-0.495353652353627 0.0520035606602656 0.511213234279996
-0.496029231533813 0.048607194767659 0.523288093528834
-0.495490859411569 0.0513137741992734 0.531683674822544
-0.495244181895812 0.0525539058160586 0.540417833718826
-0.495718794933059 0.0501678649504278 0.550179107084101
-0.496097072222886 0.048266136592306 0.554472270218432
-0.496271044685802 0.0473915179589465 0.559868772155905
-0.495845285909853 0.0495319518673947 0.573347244510422
-0.495830654241678 0.0496055102306498 0.579394291499875
-0.495102309873288 0.0532671446377206 0.586943058238897
-0.494955598190206 0.054004714076035 0.595084160886874
-0.495826055038888 0.0496286319844636 0.603130529396742
-0.495700008950709 0.0502623084613927 0.611833129553958
-0.495507557495226 0.0512298272638594 0.615866370455482
-0.495272291258548 0.0524125905066764 0.626595101357593
-0.496198069946946 0.0477583867455273 0.63717426208288
-0.495902869803215 0.0492424580861876 0.644439888841116
-0.49564489555476 0.0505393822133941 0.654950668215784
-0.496539483829538 0.0460419832504107 0.665282021472719
-0.495663647298507 0.0504451108315088 0.671222254556756
-0.495645114516678 0.0505382814174966 0.679195372468253
-0.496089759964319 0.0483028977985784 0.684996112768457
-0.496480230792098 0.0463398683855641 0.697617826229487
-0.495104514091673 0.053256063283584 0.706976114332511
-0.49600554356846 0.0487262822113629 0.71241823644449
-0.49520317898787 0.052760041354449 0.720214072969137
-0.495022941727687 0.0536661552505206 0.723507447918487
-0.495509182613385 0.0512216572431633 0.732828805028405
-0.495774218237397 0.0498892331837501 0.749438539339604
-0.495563037723642 0.0509509093205157 0.750182301110187
-0.4958611089497 0.0494524040742869 0.758821862530545
-0.495470618277327 0.0514155332528149 0.769542806934373
-0.495967775862858 0.0489161532892633 0.780711191883773
-0.495634336904115 0.0505924641347673 0.785006310216227
-0.495328057381978 0.0521322352720358 0.793685282355288
-0.495928912165344 0.0491115342905867 0.80313387881308
-0.494928983985276 0.0541385127195312 0.809546420271047
-0.495401625549733 0.0517623831169165 0.821632676651893
-0.496507275682393 0.0462039045405237 0.832710959938239
-0.495260677250981 0.0524709780655805 0.837402440776858
-0.495302395020787 0.0522612486739121 0.84528832948499
-0.495692672204752 0.0502991927740909 0.850961104686207
-0.496428928256617 0.0465977836482318 0.866193776528695
-0.495235451272464 0.0525977976236076 0.866912658698246
-0.495905281194806 0.0492303352020084 0.882255856107446
-0.496152396791106 0.0479880012056078 0.889387158868024
-0.495572969743983 0.0509009776824174 0.895126415542372
-0.49476041029774 0.0461704418598719 0.906526379035703
-0.488738265133889 0.0464550448213146 0.912609779234091
-0.483964229108072 0.0532842045483074 0.913509335393713
-0.152811982105165 0.0569930452881872 0.651340836812857
-0.149409190484377 0.0581020034488661 0.651340836812856
-0.134418022684827 0.0584327664647815 0.651340836812857
-0.124487895308685 0.0595088213084801 0.651340836812857
-0.116958534817202 0.0549322737511885 0.651340836812857
-0.104150626875262 0.0616869362239485 0.651340836812857
-0.0875047220323135 0.0576069908594047 0.651340836812857
-0.0754869731523457 0.0584126034077839 0.651340836812856
-0.060697962135567 0.0594597367530855 0.651340836812857
-0.0478816930084925 0.0619868010428931 0.651340836812857
-0.0378529024944558 0.0555060589009191 0.651340836812857
-0.0302453573398369 0.0612552581221301 0.651340836812857
-0.012063504426923 0.060897775559812 0.651340836812857
-0.00122498964894575 0.060674370922162 0.651340836812857
0.00984779611871792 0.0642482521452941 0.651340836812857
0.0141805487426905 0.0651902486016997 0.651340836812857
0.03202517604436 0.0615710757456319 0.651340836812857
0.0560046762827513 0.0648061901038137 0.651340836812857
0.0733462834470334 0.0610660883753228 0.651340836812857
0.0739866626334403 0.0615747355701484 0.651340836812857
0.0820709831202906 0.0585319341937623 0.651340836812857
0.0970037663646318 0.0628099467715589 0.651340836812857
0.110708743988345 0.0674313745219285 0.651340836812856
0.119088840499779 0.0607551631552147 0.665280854054952
0.119172025046304 0.0603369661993369 0.668673224877025
0.118369541579231 0.0643713230251295 0.690178164601784
0.119227445131296 0.0600583506174012 0.686563484607474
0.119372101223759 0.0593311153309851 0.706660088486267
0.118864411656122 0.061883443144105 0.715615842883563
0.118117557127422 0.0656381344111151 0.723093323784637
0.11891898747292 0.061609071984999 0.728529487232922
0.119800115927123 0.0571793401095566 0.748331422839673
0.117785019143492 0.0673099157503567 0.750003409734339
0.118889575019991 0.0617569383711706 0.764689244745284
0.118549021438845 0.0634690168388531 0.775891759058717
0.119285905704984 0.0597644494665664 0.778423705161476
0.119590497407788 0.0582331635700875 0.801695474065262
0.118018664770672 0.0661352998616716 0.805946861970837
0.118731370097556 0.0625522882255784 0.815547290253112
0.118590033703478 0.0632628342612042 0.831302237902709
0.117836698553556 0.0670501058112118 0.838594511523328
0.117933822998409 0.0665618282539531 0.847944565874239
0.119390800500143 0.0592371077203477 0.862509695281392
0.119588527675465 0.0582430660831821 0.869842855413705
0.119641626546858 0.0579761200300377 0.878750372822496
0.11930067980649 0.0596901750426063 0.891322688352582
0.11782763884589 0.0670956520373468 0.896640108951619
0.121845270552185 0.0620101307282943 0.908290111712381
0.128404896656901 0.0612920672668571 0.913058498993021
-0.494162027241399 0.0579942646467782 0.481980550658638
-0.494164085819208 0.0579839154772606 0.498275666583023
-0.493865989229769 0.0594825482338118 0.497068059895381
-0.494368897360083 0.0569542583293754 0.513155653073149
-0.494039091650919 0.0586123035957813 0.524115962920514
-0.493964396621416 0.0589878208674687 0.52760595801467
-0.494705259870069 0.0552632497992515 0.53655205196832
-0.493560209274566 0.0610198078785063 0.537584630267994
-0.494685450586823 0.0553628377912239 0.557541210657424
-0.494600008891489 0.0557923822004524 0.566651708071381
-0.493712830718849 0.0602525280643175 0.567940419859963
-0.493588641759335 0.0608768681249684 0.579202222589526
-0.493881698663042 0.0594035715795205 0.577944289166016
-0.494106325456102 0.0582742964317819 0.593067359001304
-0.494682541451494 0.0553774630021544 0.602979917610868
-0.49435642941092 0.057016938942589 0.609224996270008
-0.494867307053453 0.0544485835946392 0.615539598343744
-0.494380560790126 0.0568956223069104 0.635905988329974
-0.494663163222043 0.0554748839403628 0.636169467225927
-0.493373723389624 0.0619573357325998 0.645876398590266
-0.494571509570767 0.0559356579610137 0.654199110420869
-0.493573516343015 0.0609529087277715 0.657486113460886
-0.494562616428428 0.055980366806705 0.667972888119649
-0.494829622454826 0.0546380368655597 0.681142738622633
-0.493354898331922 0.0620519756886291 0.68237243348445
-0.494021569435166 0.0587003937230288 0.690813820618221
-0.494750491392251 0.0550358555814997 0.706701111381189
-0.493967503999559 0.0589721990226163 0.7110007936986
-0.494338549833246 0.05710682564953 0.719006207088174
-0.494578659505885 0.0558997128098296 0.724591195295095
-0.493488324271362 0.061381198194007 0.738887962358887
-0.494030697112772 0.0586545057889286 0.747014710343914
-0.494024025977238 0.0586880438520552 0.758782264989569
-0.494112746217789 0.058242017082985 0.763914986906463
-0.49441143583778 0.0567404029605145 0.77421417218028
-0.493528906040706 0.0611771798623274 0.781509938083563
-0.494169177281957 0.0579583189655085 0.789619431965357
-0.494643653713105 0.0555729648651165 0.790023219463704
-0.494032240969834 0.0586467442953504 0.802752729060813
-0.494695553277317 0.0553120481363245 0.814928734853116
-0.494830578204943 0.0546332319852542 0.824886758547249
-0.493859385416897 0.059515747843066 0.828141955231538
-0.494386737514376 0.0568645698171544 0.831375129040724
-0.494751860135058 0.0550289744467312 0.843998384516014
-0.494668036906187 0.0554503822755895 0.855705371337804
-0.493229030398255 0.0626847565223416 0.861064874430776
-0.49443356103345 0.0566291720905511 0.87239431628022
-0.494469576145448 0.0564481118956873 0.877266609885973
-0.494292134736992 0.0573401700959607 0.888246801893237
-0.493633289628262 0.0588050432976701 0.901442049549289
-0.494569298254321 0.0550596143288803 0.900741437322982
-0.489054587195604 0.061861907092573 0.909599379312268
-0.486933628066987 0.0626614699620406 0.911527726567774
-0.477582701227589 0.0565952938599066 0.913811053749413
-0.151118933630613 0.0675439102674336 0.651340836812857
-0.129081530843109 0.0632123304716389 0.651340836812857
-0.121613620636485 0.0662728554460418 0.651340836812856
-0.107003845259875 0.0685781610637245 0.651340836812857
-0.0931343057457221 0.0682036576041647 0.651340836812857
-0.0950105600432863 0.0689394760581502 0.651340836812857
-0.0676748678458056 0.071339752111732 0.651340836812857
-0.068501406720795 0.0667642924843568 0.651340836812857
-0.0576644509635967 0.0653774274990719 0.651340836812857
-0.0384190793095526 0.0644048527201668 0.651340836812857
-0.0299052653085182 0.0726933874713071 0.651340836812857
-0.010421288339998 0.0713604662402813 0.651340836812857
0.00844466019437392 0.0740001764640618 0.651340836812856
0.016997701722371 0.0714274128613466 0.651340836812857
0.0244821867203744 0.0688717024193396 0.651340836812857
0.0337581241390997 0.0740574209732197 0.651340836812857
0.0435926398610108 0.0745757335100432 0.651340836812857
0.05845925152607 0.0731817707667998 0.651340836812857
0.075744212360366 0.0680290928621775 0.651340836812857
0.0937256407281587 0.0682728881434521 0.651340836812857
0.105607238677034 0.0734977692528486 0.651340836812857
0.11566403642775 0.0776946113685539 0.657841351885132
0.115915785165644 0.0767071895472139 0.665344730221639
0.117736668054594 0.0675529930890624 0.674432862399692
0.117422734684682 0.069131242717513 0.681065536145141
0.116321517490001 0.0746674354097434 0.694819854857376
0.116520710524991 0.0736660243983818 0.70959532625744
0.117358190815252 0.0694557266612763 0.719000277363108
0.11645775111052 0.0739825427491523 0.733876532490457
0.116895789304924 0.0717803760353605 0.739260906885739
0.117662610332632 0.0679253063993777 0.74919030884043
0.117378086590323 0.0693557038455375 0.757615154013977
0.116631316217641 0.0731099720316674 0.769954653033546
0.116239683211028 0.0750788441122298 0.775668145761814
0.116444636466577 0.0740484745165697 0.784091813849789
0.116793443229614 0.0722949045016377 0.802032804361299
0.116882942205383 0.071844962766247 0.808629208752701
0.117721979560817 0.0676268371339052 0.819743795582738
0.115870765885085 0.0769335167542754 0.835846917897873
0.115593957810246 0.0779010563185723 0.839775108607275
0.117605951136811 0.0682101514121219 0.849501118246114
0.116951603532978 0.0714997789624464 0.863154451046487
0.115839160782773 0.0770924063332808 0.870274596673738
0.117703063225646 0.0677219359727582 0.880899506663736
0.116315494021827 0.0746977174291772 0.885605120573997
0.115794817471186 0.0773093428381971 0.898679509538289
0.119121285574409 0.0682583417313463 0.905687824526227
0.12965915171379 0.07659023840734 0.914190242253071
-0.493164899874281 0.0630071624381697 0.483255474625507
-0.492206335773532 0.0678261895975976 0.489384355944904
-0.492025225998112 0.068736689923976 0.506779652849652
-0.492804458914958 0.0648192215075545 0.512639391408699
-0.49214686405008 0.0681251741415743 0.524087761331299
-0.492018498152688 0.0687705130869721 0.528928299329384
-0.492738985557284 0.0651483783042713 0.535532848707234
-0.492726152963877 0.0652128921078893 0.540866278522812
-0.492333692629199 0.0671859234475098 0.552788630281969
-0.492193099725327 0.0678927317054576 0.559322649866331
-0.492254978611718 0.0675816455361771 0.571382858011914
-0.492627202361437 0.0657103503793026 0.575605081810767
-0.492283977582443 0.0674358578654222 0.579107751920616
-0.492762845162552 0.0650284279684351 0.589124367722528
-0.492275941932468 0.0674762558058828 0.599141372059566
-0.491570503512847 0.0710227342321084 0.611490385531563
-0.49278243847284 0.0649299257458446 0.613921268466372
-0.492619585781264 0.065748641513604 0.626475651115844
-0.49223197498127 0.0676972925959897 0.638778697551929
-0.492441601140139 0.0666434307289225 0.643017130518691
-0.492207936940907 0.0678181399856207 0.646921056702671
-0.491612865009713 0.0708097686059676 0.662315103757371
-0.492234886377523 0.0676826560186267 0.669833025363076
-0.491542388152994 0.071164079691033 0.674504067623164
-0.49231146106664 0.067297689059934 0.690510447572447
-0.492213052925374 0.0677924201948654 0.694756056695859
-0.492708760566729 0.0653003295929352 0.70755614071655
-0.491820631610974 0.0697652553663026 0.714252063143813
-0.491796811643624 0.0698850064288619 0.71586334348308
-0.492609772826414 0.065797974569056 0.724620267458533
-0.4926122004881 0.0657857698895885 0.734458887127075
-0.492963464716961 0.0640198453596673 0.742897707653037
-0.492882144580624 0.0644286692925762 0.750227286824566
-0.491854287963491 0.0695960534561322 0.76106058823202
-0.492759841505977 0.0650435283697607 0.767391878300834
-0.492916052655006 0.0642582018911371 0.775189278482415
-0.493010817282752 0.0637817879356128 0.785849309254878
-0.492765262383046 0.0650162757803878 0.791271798539092
-0.492548670907437 0.0661051546593743 0.798608265481289
-0.492801416990284 0.0648345142955978 0.811503344454213
-0.492061820835964 0.0685527152504355 0.822333450218222
-0.49319952226617 0.062833103920115 0.825645191787218
-0.492993445845617 0.0638691200475548 0.838037271744363
-0.491739626184658 0.0701724971450953 0.84258853423678
-0.491552047095877 0.0711155209060212 0.85167389622811
-0.49180059918534 0.0698659651708163 0.86068850979964
-0.492803936934592 0.0648218456800642 0.876123155816299
-0.491778452107078 0.0699773060519997 0.87445166115611
-0.493066784094984 0.0635004237702291 0.88794746612407
-0.491663404499364 0.0705556894337327 0.894742040831957
-0.492524046313287 0.0662289508540224 0.898177114037061
-0.491450682628193 0.066482507939324 0.903846420133194
-0.486277621703767 0.0707646572665235 0.910588263068615
-0.151625131558213 0.0772541052485368 0.651340836812857
-0.147364408044524 0.0737474953936849 0.651340836812857
-0.138941263236149 0.0791057554820698 0.651340836812857
-0.127611262869192 0.0793894022805802 0.651340836812857
-0.111237396459978 0.0788617763929171 0.651340836812857
-0.0908389873927133 0.0727865318378628 0.651340836812857
-0.0851906974900768 0.0747980116482811 0.651340836812857
-0.0697315081657598 0.0735770255342001 0.651340836812857
-0.0618470269771744 0.0748512455452412 0.651340836812857
-0.0495639524337031 0.0829916011999165 0.651340836812857
-0.0446789661632943 0.0831958351715818 0.651340836812857
-0.0236958220586645 0.0778101056028096 0.651340836812856
-0.0222803831130595 0.0842121390787265 0.651340836812857
-0.00283644055904578 0.0837497740569977 0.651340836812857
0.0192504846356489 0.0761203587280365 0.651340836812857
0.0279675865037115 0.0824734705697121 0.651340836812857
0.0384550308519794 0.0766709512694991 0.651340836812857
0.0482408186254588 0.0775131019467762 0.651340836812857
0.0686738674736788 0.0821788820672 0.651340836812857
0.0742929590729946 0.0861463058059924 0.651340836812857
0.0837839804029616 0.0808726024134948 0.651340836812857
0.0997127650110887 0.0824794058931434 0.651340836812857
0.114312762829775 0.0816753350233414 0.653085214890482
0.112103970597281 0.0881822271150478 0.670019353853318
0.114906547648023 0.079926101355641 0.673020757311442
0.114337884328742 0.0816013294738134 0.685742774214444
0.113179829801326 0.0850128481016643 0.694092250674768
0.113056165173488 0.0853771523476988 0.70258537449892
0.112217992096264 0.087846330610567 0.723238886335969
0.112564849242856 0.0868245224065591 0.725675043699995
0.11221674766537 0.0878499965857644 0.738054461400024
0.114564540112866 0.0809336230650518 0.741537002009995
0.114332354560455 0.0816176196458814 0.751401340409353
0.112177660050808 0.0879651449851181 0.764937953974468
0.113285868681721 0.0847004676332331 0.780706853157589
0.114665102997707 0.0806373743593249 0.783300381264726
0.112687192196778 0.0864641116863293 0.803787773854321
0.113472068466028 0.0841519407567979 0.807726251549475
0.11425497179673 0.0818455819168038 0.818499990459282
0.114092591097206 0.0823239400321728 0.82570835276748
0.115353735928232 0.0786087271629983 0.839353196000793
0.114662541218157 0.080644921118524 0.846295393673447
0.115566486505207 0.0779819841735687 0.857744105475223
0.112361925774845 0.0874223156665126 0.869513719714077
0.114035629550044 0.0824917433390259 0.882378864143668
0.113884529805794 0.0829368688317986 0.890833614237732
0.114147022874598 0.0868359176348913 0.905711205808667
0.114795493209845 0.0856152016307152 0.906540263837396
0.128278444327181 0.0787328443985858 0.9139388564703
-0.490492201319824 0.0764437254315394 0.48813225683705
-0.491073661701472 0.0735205266917691 0.49559875038605
-0.490653004900469 0.0756353112400852 0.500630320932936
-0.490251165897632 0.0776554923285282 0.511861023068411
-0.491193079117344 0.0729201748009123 0.516743463869701
-0.490154014792257 0.0781439039172842 0.523738746920247
-0.490495253653726 0.0764283803127684 0.52846835702836
-0.489980898816246 0.079014216700198 0.542554403493997
-0.490927863407861 0.0742535042111295 0.549551107579908
-0.490578052133934 0.0760121242433272 0.555491440251137
-0.491321193742708 0.0722760990853007 0.561787213503489
-0.49144548708249 0.0716512342696066 0.578006846610332
-0.490084397663602 0.0784938928574965 0.579213841223266
-0.49034757856833 0.0771707931015829 0.596593774523609
-0.491444554731259 0.0716559215157746 0.607196989512238
-0.491138037197172 0.073196889219918 0.609171878774919
-0.491517345920682 0.0712899754945078 0.614323826955885
-0.490107804753588 0.0783762174696148 0.618517365367043
-0.490181987062936 0.0780032778162127 0.630349230261161
-0.489889596482466 0.079473224528536 0.640553996107132
-0.491108872908465 0.0733435080002928 0.648781987124886
-0.490357656451703 0.0771201281605057 0.662721189807031
-0.490147878079368 0.0781747552563404 0.664325660104252
-0.491232628550171 0.0727213463753694 0.674151628963496
-0.490683546902455 0.0754817662273328 0.685591272980023
-0.490871077616748 0.0745389856613809 0.691428932559559
-0.491181114037232 0.0729803273206832 0.696609467214092
-0.49102936913894 0.0737432004405961 0.706572177112926
-0.489866370221106 0.0795899908295214 0.71236727121915
-0.49075514000949 0.0751218433729709 0.726537225097394
-0.490183376908151 0.0779962905924772 0.731836089908983
-0.490309343877906 0.0773630118707232 0.745157961002089
-0.491103513913487 0.0733704494873789 0.751095462568637
-0.49047948768134 0.0765076412083785 0.760834483733612
-0.491124015683877 0.073267380127439 0.765524973649387
-0.490644241172502 0.0756793694757938 0.779366007031116
-0.490050537379939 0.0786641199987719 0.780693815759456
-0.490229533076921 0.0777642478624116 0.787907709411082
-0.490324057590195 0.0772890410438553 0.797280295569569
-0.491201171559341 0.0728794913476724 0.809945915337768
-0.490482563524635 0.0764921778999112 0.811123062867588
-0.490132217476022 0.0782534864260125 0.828030584305479
-0.489912509168434 0.0793580346774968 0.834331618797601
-0.490198226980595 0.077921634236818 0.83431359628911
-0.490289889989737 0.0774608131709898 0.854739280487563
-0.490727635065712 0.0752601200630561 0.863752835950504
-0.490763258434264 0.0750810292954908 0.871530444986903
-0.489868307481109 0.0795802515658069 0.875226999127102
-0.491453338106379 0.0716117645071556 0.881533996398465
-0.491123629688142 0.0732693206590415 0.896422496689367
-0.489932394820175 0.075033552260571 0.903176532048399
-0.489378478337334 0.078979748489286 0.902329066344579
-0.48799576779463 0.0713196098225809 0.90879101675794
-0.481057908210147 0.0730629227724138 0.913238620180649
-0.470880781209638 0.0772439856191092 0.913127717701483
-0.128688679741835 0.0820081881631366 0.651340836812857
-0.130473455682426 0.0854611854155826 0.651340836812857
-0.119243884317625 0.0854735263332634 0.651340836812857
-0.102650327017275 0.0840215029775564 0.651340836812857
-0.0917195158223561 0.0894117040460798 0.651340836812857
-0.069532522080849 0.0911144902765878 0.651340836812857
-0.0665614326052268 0.0927636641680877 0.651340836812857
-0.0572294306980702 0.0858363893657265 0.651340836812856
-0.0382412376339903 0.0870603334482038 0.651340836812857
-0.0255109464572011 0.0920501881137413 0.651340836812857
-0.00724180565753433 0.0916411244484152 0.651340836812857
-0.00457609350376065 0.086093066161915 0.651340836812857
0.0183949294531492 0.0951938924225426 0.651340836812857
0.0267929719274446 0.0933811255383522 0.651340836812857
0.0358979165403892 0.0900529508232274 0.651340836812857
0.0522867407917114 0.0870620454680101 0.651340836812857
0.0690142331088249 0.0913732119789848 0.651340836812857
0.0793727466460371 0.0924617591165174 0.651340836812857
0.0840906218946095 0.0896218528317612 0.651340836812857
0.101404902976902 0.097674108582009 0.651340836812857
0.111316675535234 0.0905015235783845 0.663497340134251
0.111212935547074 0.0908071317286788 0.670151623276403
0.109219742307212 0.0966788896690153 0.682379126666195
0.108696110749209 0.0982214584962737 0.682779695585927
0.108712480440038 0.0981732349421366 0.698831112524635
0.109101131420453 0.0970283060739101 0.710412487802236
0.109165255702352 0.0968394020309506 0.720623987145607
0.111063089996028 0.0912485624874113 0.72580804960618
0.111262014007061 0.0906625512477866 0.73136469353142
0.109117974832652 0.0969786869816198 0.751477826059774
0.110919270723305 0.0916722404026752 0.763885434893566
0.111524898893506 0.0898881173451902 0.768406116446482
0.10999601178868 0.094392073518682 0.788956991904386
0.111477577427316 0.0900275218892601 0.787132269783902
