ply
format ascii 1.0
element vertex 852
property float x
property float y
property float z
end_header
0.0421154152810001 -0.353863989712343 0.696262463305758
0.0550702234864232 -0.338303432557439 0.719479060345165
0.0598630034933974 -0.333440470118372 0.733230381792248
0.0635174083207685 -0.321455918132499 0.751050657319296
0.0639152471272283 -0.325475187311327 0.758146516409155
0.060115518143402 -0.329191628120202 0.766541468226725
0.0531980545906542 -0.331016440414047 0.778346474821525
0.0480176908144722 -0.352695940811487 0.770557507237135
0.0453322612694934 -0.349741641803371 0.77520881474449
0.0144554127372558 -0.374218613459536 0.766171106041996
0.0624207174832729 -0.34544497131354 0.176558189889116
0.0623901354249551 -0.345985061547084 0.177069191269697
0.0588529906211191 -0.346964257218631 0.188384945130571
0.0588633042289612 -0.357503366973229 0.196544915944169
0.0510377273549731 -0.356945925581832 0.208300117591558
0.0456674197239463 -0.356339202846478 0.213277672641782
0.047875359943754 -0.359083981477384 0.213108320980115
0.0442064254304366 -0.367609967988275 0.223385107159075
0.0422699409577438 -0.372534172209485 0.231463838700123
0.0335714567335534 -0.374929183820914 0.239960640415813
0.0389703650160652 -0.377702570199059 0.244784593822265
0.0299041508709034 -0.37922219358478 0.248626474697684
0.0354689217936118 -0.383749379332684 0.256824748125406
0.0225895714676183 -0.388339137478091 0.266982653249737
0.0199305814132869 -0.390223207523225 0.2708620775242
0.0178178322756424 -0.397288783685411 0.284648546803299
0.0225556600055336 -0.396826638661441 0.283330350828298
0.0104165267554211 -0.399445173300818 0.289467863330481
0.012104826619722 -0.405982994032716 0.301894708716861
0.0105910421295336 -0.408120356604283 0.315220503675909
0.00945068131408807 -0.408433401860687 0.317581155436156
0.00631962678038409 -0.409816646531291 0.327443311660021
0.00203647510730494 -0.411550587928925 0.339912654315119
0.00443580797431986 -0.413891627348015 0.354308450105019
0.00274330731272728 -0.41306751773733 0.349493518844525
-0.00198475318530695 -0.415444028168395 0.365059756096848
-0.00342107847228521 -0.416137044295155 0.369104870067894
-0.00304723500969162 -0.418586784885403 0.385029102887693
0.0020631641366057 -0.419770085295848 0.392960549776029
0.00320769638391071 -0.421473689377407 0.403615879733121
-0.00010027577278209 -0.422172782551017 0.40905487540747
0.00360877990370674 -0.424635651715503 0.423906383237398
0.000230860255384692 -0.424750660699548 0.43629270096394
-0.0114239245397051 -0.424944367340838 0.441590374525013
0.00519599885950523 -0.423625321004949 0.458756725229253
-0.00876347121513032 -0.4235367200071 0.462941714278674
-0.00181769547730324 -0.421591997258741 0.489951860096203
0.00274389963790457 -0.421143202046379 0.49810900080797
0.00182081326262427 -0.42027905417746 0.51175668289734
-0.00272091261754386 -0.420012864965949 0.516861650162645
0.00433141962001968 -0.419779110356878 0.521968407273754
0.00788405414259302 -0.418649405231306 0.543430461318996
0.00747477510342146 -0.416774446923967 0.555240374264602
-0.000714774529494788 -0.414975981158592 0.560142356138303
0.00900691732684355 -0.410317688218843 0.576776132942034
0.0159987594757644 -0.403367910628976 0.600771513039858
0.0125736869158867 -0.402066977888 0.604540904809578
0.0186990073757125 -0.395276319395007 0.627955095274547
0.020936797433283 -0.392342053926959 0.638014812932927
0.0353287388481297 -0.379316355683214 0.657753793704873
0.0457501861276991 -0.3601152446103 0.692932944333026
0.0507276187536921 -0.352321144369948 0.706203672806613
0.059757098807248 -0.344304846671101 0.726124837327365
0.0642392429944673 -0.347995903022843 0.743092754485961
0.0617146813752823 -0.339905810646941 0.75529977336419
0.0586835917084737 -0.346405846881964 0.759776936443691
0.0519888900676534 -0.364297107294733 0.75913207191686
0.0475240258754103 -0.369469170237418 0.760525506841231
0.0433938420547483 -0.36513786187434 0.76754566912731
0.0577762128448637 -0.36238216354158 0.158495569566231
0.0645371359739725 -0.356278327978128 0.178989883619636
0.0651942858336134 -0.36775125695837 0.186568199938908
0.0616029944898831 -0.363848584730423 0.193413504282135
0.0585473085499744 -0.364582804221692 0.202989809522255
0.0582085020873663 -0.367680867629598 0.206408540474745
0.0569148701896175 -0.37143697807444 0.21318786373954
0.0488176553658565 -0.372892127908592 0.222902100787114
0.0475645511735145 -0.379801723413267 0.235452458986259
0.0459536698224418 -0.379370620142939 0.237803542694519
0.0476156576746141 -0.385414911027448 0.246591142130506
0.0411131794424711 -0.382500932541101 0.252938137419889
0.0406257881196391 -0.384091253506066 0.2568753441546
0.0404017041414517 -0.390568852135273 0.269518007670964
0.0316208751519759 -0.396095916814615 0.281079560478002
0.0323678381515655 -0.396637288691601 0.282051803983801
0.029749015048941 -0.40122686568671 0.291145732134935
0.0287428115249556 -0.405213580241353 0.29890784387483
0.0276464429337564 -0.406260846026769 0.301022198489139
0.0280771564140769 -0.410250799192642 0.323759007035866
0.0197227339302668 -0.410311470518141 0.326641388758315
0.0193891461953181 -0.412384445271056 0.340121642387818
0.0187079082652613 -0.413609521595663 0.348232462242908
0.0194824124147165 -0.414421867768604 0.353245149934357
0.0181960776539689 -0.414798140355787 0.356057446515192
0.0192762169253401 -0.417543271609708 0.373454905142512
0.0219228113414989 -0.419347921077194 0.384314651636728
0.0166566825535373 -0.419740068245197 0.388415937342736
0.00936788832370631 -0.421221214496389 0.400149609009428
0.00848413166908319 -0.42183749174271 0.404391083271467
0.00371417989177016 -0.423738071706459 0.418081190265085
0.0112597668882224 -0.425182482923558 0.437511407023636
0.0137298795091727 -0.4250685148705 0.441282897881283
0.0117220238580227 -0.423698012562049 0.462513832399035
0.0190283594085818 -0.423925199726283 0.464298984197604
0.0164574369887296 -0.422688301249639 0.482883009301132
0.00680588464388622 -0.421909968467791 0.48846610716954
0.0169001588718567 -0.421798766212619 0.497991206375104
0.0174280934712088 -0.420702581192244 0.51659580823411
0.0182611335092121 -0.419950909574687 0.529711581606019
0.010909153225055 -0.419880584334586 0.525286893371553
0.010859454463438 -0.418924916580491 0.541118702311436
0.0128625761476943 -0.415670045829337 0.559706081982736
0.0287797747064581 -0.40783877857546 0.588001667541927
0.0233759890069747 -0.408770855481788 0.584071903155851
0.0290949596498667 -0.402567489698772 0.605486526546793
0.0402161071058602 -0.396273365628538 0.628066561811099
0.0283280395558252 -0.394728974816252 0.631291098660233
0.046987934114396 -0.379886584692885 0.666992468862559
0.0503616484858782 -0.38304862871141 0.667531316497634
0.0490699192752702 -0.374491295790265 0.677706168975722
0.0576159960080694 -0.365876908626582 0.705126983288231
0.0627651527252883 -0.360353467897524 0.724558041051559
0.0641860883107103 -0.355627405594949 0.731528498379298
0.0632755270265541 -0.350884630039784 0.7440001202589
0.0591118500330577 -0.362790056129311 0.748281428324195
0.0575225242041336 -0.368478542496484 0.749197401727597
0.0448282469231941 -0.380947421082437 0.756113601362503
0.0367606180311035 -0.397572426446744 0.750286541234234
0.0652364573450382 -0.370141900325668 0.188412458366937
0.0628901532534951 -0.372659199613295 0.197043772485324
0.0603376862145232 -0.379483046579219 0.209786787161084
0.0606857509299296 -0.383001637216902 0.21170096537324
0.0595020300802271 -0.38199897540901 0.214190094306036
0.0525549295850659 -0.381454875411532 0.22880506156989
0.0538902316648984 -0.386340065310845 0.235923384700764
0.0563741702975073 -0.392764651459259 0.243832404232252
0.0513391335470725 -0.392664073311738 0.253678013245931
0.0504462430448754 -0.39655649060454 0.263254448017641
0.0498634260892162 -0.399336209571555 0.26998392658295
0.0464615019702441 -0.400188795268351 0.27767271984309
0.0431742641885473 -0.402036108027581 0.287061062094275
0.0374048378463833 -0.403281914762751 0.294396619809902
0.0382187533327373 -0.405243391994098 0.298107254590071
0.0388954410791135 -0.409383303997185 0.314934109201956
0.0324158749647157 -0.410851360080454 0.326342025241954
0.0419606574365525 -0.413777657156288 0.334724545047847
0.0324429070284691 -0.413727492958632 0.344899052741415
0.0299118430431172 -0.414044621755625 0.347700682207558
0.0259479320785472 -0.416077330951878 0.362003357332496
0.0265244657921056 -0.416722181076262 0.36599390062334
0.0298517774294267 -0.419116715463671 0.380458335846936
0.0234118891153328 -0.42024700961645 0.389674210456482
0.0328009877509647 -0.423104217562942 0.405317908937883
0.0268311469982183 -0.423101330600088 0.407079099544405
0.023878542086794 -0.424444815573927 0.416631409486608
0.0311989758073308 -0.426602398530797 0.429099922605672
0.0197139558883997 -0.425481418593361 0.4389782660871
0.0313139964972737 -0.425150793973518 0.453292450278069
0.0233651861878237 -0.424432781869909 0.459169115334429
0.0325356745498297 -0.423484395842175 0.481893604541763
0.0326507024296706 -0.423302369002684 0.485003802438665
0.0276109118553847 -0.422554618923206 0.493587119009202
0.0260617925799812 -0.421837431482503 0.504318197920672
0.0248385555458587 -0.421033545011876 0.516736873973053
0.021579436024438 -0.419993717896856 0.531524877509921
0.0293421073673411 -0.419700598114145 0.542297259731172
0.0351209650721571 -0.417262627288367 0.557848162931464
0.0381269524238664 -0.4125013933619 0.57406094178511
0.0367590462221672 -0.409882963396034 0.582504730240727
0.0432659881668907 -0.405560158336675 0.60543360725731
0.0395029466466428 -0.402277410458732 0.608095037873671
0.0358931140527414 -0.399287997845001 0.617410644443485
0.0459413612974266 -0.398967994341852 0.635682073879452
0.0529054223905007 -0.392350300772634 0.658137744470342
0.054532333017947 -0.382133551603558 0.675015725024641
0.0591798128484139 -0.379976595025354 0.691568262418425
0.0615369528942365 -0.376436411231529 0.706229975565496
0.0646586408870673 -0.380079693987307 0.713842341170919
0.0649367018660979 -0.379130779021338 0.720221450636094
0.061220620398703 -0.376375109428319 0.73379850681728
0.058482837267502 -0.387789510081516 0.734362200643824
0.0488272994073857 -0.401694299160269 0.733891929726405
0.0416274536184295 -0.407424367768804 0.736587237601432
0.0634724690986812 -0.391989840459177 0.211281143675327
0.0650574312563544 -0.398654737109547 0.212316919875565
0.0616164616504105 -0.398788945039382 0.228440947043561
0.0592794968942251 -0.394568045084216 0.232648702864563
0.0599001552477432 -0.401248590073823 0.24266443497184
0.0556304316336461 -0.401823744382449 0.263457719910592
0.0585112415080317 -0.409018037542671 0.265747421847422
0.0528957810081854 -0.401389492548367 0.268044892009238
0.0570895791622325 -0.41169496982124 0.278809829310866
0.0502267092312626 -0.40829734868768 0.286687627817151
0.0504540103895469 -0.413929107349842 0.297174055015922
0.049771445484468 -0.415959213631501 0.303508853854771
0.0452873168170499 -0.414001202903099 0.316875092062938
0.046654125465743 -0.41657881785702 0.325586711646346
0.0420912299709793 -0.414049095090427 0.335719411070811
0.0480760105728731 -0.421210402668138 0.347237058543604
0.0391908606058954 -0.415884565630216 0.356810884400045
0.0455460417428316 -0.421549333605311 0.364096956504401
0.0425985456967349 -0.420580773848842 0.374938536096851
0.0391227437370864 -0.421007370957207 0.389898275721612
0.0358909050777433 -0.421952211321312 0.39696063304387
0.032266485712251 -0.422241192230407 0.399906540140163
0.0346900025700001 -0.42354073605268 0.407572398829927
0.0408167393409768 -0.426400302212282 0.422836201387791
0.0378063810579371 -0.426823258464268 0.430458481717421
0.0295440348643546 -0.425889922152881 0.439672274340899
0.0385156199411111 -0.425282885728191 0.456577083789947
0.0367515562039239 -0.424657958377208 0.465612607789469
0.0396066899738915 -0.42401433161745 0.47847237486304
0.0421589775193663 -0.424329333727988 0.497586121959261
0.0424907573848829 -0.424669766369094 0.496855815962543
0.0344821185059898 -0.421420813506897 0.517641628410598
0.0353410400420209 -0.421047668002702 0.524491365843303
0.037931873599857 -0.420522239367906 0.535187312692502
0.0428621873227152 -0.422227525243843 0.542956536858059
0.041412193081426 -0.419452251031569 0.553969179166592
0.0456733635803394 -0.420067679771528 0.564612781309577
0.046447927529833 -0.415926792007013 0.580613593029881
0.0495348901205202 -0.409359563913534 0.611928231738036
0.0531416281348476 -0.411072578994636 0.617461308060128
0.0551129418642872 -0.410730440247459 0.624793556575523
0.0523434012937411 -0.404600368369938 0.636769625747478
0.0579767353114173 -0.401591944474956 0.656042275047029
0.0606954494648143 -0.396021361872016 0.675021606159426
0.0642393019781072 -0.399675511233393 0.684176645135557
0.0630155096639198 -0.393867129772907 0.687503494148536
0.0629947995923496 -0.40211157807992 0.695411209489812
0.0575431563807478 -0.408293765257685 0.70888336626255
0.0535325776153556 -0.410627778931253 0.713910034640906
0.0498170661072448 -0.412808080100427 0.71642681466254
0.0453289097715365 -0.407833263517076 0.730393600830908
0.0573890969178506 -0.412628844332224 0.20012808814389
0.0643064917453684 -0.405779758380646 0.228004662513918
0.0636856409136907 -0.406910813077195 0.233605799107489
0.0634187168199378 -0.409225176333682 0.239848133899624
0.0618770432117184 -0.412973723054183 0.255728124303681
0.0598101393758353 -0.409981222655918 0.260639579809247
0.059186613877338 -0.413218886250701 0.270501041638699
0.0598578960850227 -0.414940786196005 0.270354836638637
0.0540767711000271 -0.412317238690385 0.287571624888482
0.0544132267672024 -0.420504532082264 0.305929102669505
0.0519770086812467 -0.417836171320738 0.302833593889378
0.0544639830635867 -0.422034119596191 0.315508057617246
0.0570274857161117 -0.426208148152803 0.323831203708913
0.0571060291266607 -0.428017932814779 0.3342765101463
0.0535708061509753 -0.424777917441153 0.338398783202993
0.0497084196396191 -0.423368843802586 0.351702654367269
0.0546164748815204 -0.430118353869124 0.36680648909681
0.0517763307805957 -0.42867817030657 0.373981222445367
0.0474121389759517 -0.427174916320824 0.389587307884724
0.0460631869636701 -0.427706377155873 0.400840850723522
0.0487856262465069 -0.430932836872507 0.405878929902468
0.0480783144343097 -0.43163417857347 0.414507946855614
0.0496461792110245 -0.435058760926214 0.42971541079591
0.0511454784734043 -0.435963971336839 0.436890328756149
0.0470693422504546 -0.431736432009447 0.447070584027186
0.049066278290741 -0.432832591824049 0.458467112546477
0.0463438699832064 -0.429564522815244 0.472734404921256
0.0466868875910337 -0.42979991905486 0.473902826983736
0.0469462658032525 -0.429259628096309 0.486746770811418
0.0488072737328068 -0.429912326112527 0.503536495470961
0.0474075687561396 -0.428036952317177 0.513915491754926
0.0498989967330792 -0.429899881609771 0.51995552025642
0.0485989856348623 -0.427200352616887 0.545510718869106
0.0506698291224498 -0.427950212465652 0.553408131133692
0.049427871337927 -0.425238698497975 0.558681075985683
0.0500057522841195 -0.420624477602427 0.575662217015749
0.0569040384811248 -0.422617719507589 0.591714473219781
0.0576109166236597 -0.423483669816211 0.594812009686798
0.0546392184533412 -0.414558781889953 0.610407646013582
0.0591146982838561 -0.42134029004561 0.614832367746092
0.0594851774897264 -0.413986795030085 0.642765464454904
0.0610121624000757 -0.413409502658501 0.651491103267087
0.0618544059771235 -0.409040958228526 0.661140680923596
0.0631776529387514 -0.417162829311463 0.673179504335991
0.0628377806708228 -0.415596970036023 0.676811832740361
0.0573109739832071 -0.423717818164482 0.687679041456973
0.0577600207156504 -0.414260403343641 0.699430802145342
0.0642575035987572 -0.423596277181745 0.265627759664907
0.0628621580928084 -0.426687261891632 0.279367571042404
0.0649245666554775 -0.432609817277015 0.281063535587307
0.060779613523948 -0.428812937761555 0.294656669050605
0.0583250605959963 -0.427228214653978 0.309985720830936
0.0592908098499701 -0.430784179075948 0.317733646130077
0.0609474074015755 -0.434730665565071 0.317125164940763
0.058204591121124 -0.430253547620118 0.331410641106809
0.0555607719942575 -0.42745190919731 0.3441186059566
0.0604312957066959 -0.438800886766628 0.351523972960962
0.0575740293352118 -0.433566782268797 0.362725169364639
0.0574293638883732 -0.43441308714457 0.370465677743162
0.0579209527280788 -0.436958216387144 0.379154281657419
0.0572081591673201 -0.437986470369943 0.397014241356043
0.0511824351778023 -0.433357556256229 0.40763030912272
0.0516269128204523 -0.434694869632649 0.413684834834439
0.0566722184065981 -0.441339945144761 0.429641720962694
0.0551522409761238 -0.439552570514629 0.436411534817798
0.0527163548568181 -0.436338706290199 0.454048586983676
0.057818471343788 -0.442181982990709 0.462223697316396
0.0563619276604752 -0.438659036602534 0.469489786238593
0.0573065236760597 -0.439954785747941 0.478779576533579
0.0537179068268981 -0.435234283753467 0.487563022284695
0.0567997667445368 -0.437093244808723 0.506207156691487
0.0578350484655318 -0.439440114276247 0.508976344647784
0.0526940423395981 -0.431629099561466 0.532726311396863
0.060093831053011 -0.443052339514457 0.540363068514417
0.0533484248164306 -0.430913995214014 0.551575528967463
0.0570699193122032 -0.433763049220094 0.555563688961483
0.0585224354632252 -0.433502783824408 0.568719240215148
0.0596280618087601 -0.42950784796024 0.591677663174439
0.0603413452523654 -0.429992195295051 0.596115658537988
0.0632186333271917 -0.435553490819024 0.601257716627312
0.0611256477892815 -0.422770614174453 0.627125939307149
0.0636338451336219 -0.429245738075906 0.626560720752794
0.0639435354642255 -0.423334684005449 0.649205864095621
0.0648815962256708 -0.42485310653665 0.655194446984699
0.0631848249937895 -0.41897482965048 0.670551500578993
0.0607614352576425 -0.426538208550154 0.669566246180276
0.0651528367252561 -0.437105622720892 0.289305860742506
0.0640058265073381 -0.447087833865691 0.304396034188533
0.0647894277022166 -0.443236764462166 0.311539678408167
0.0604380739033482 -0.457075307751785 0.312690897240039
0.0639618616063526 -0.444971158629921 0.335764745807342
0.0631571377623203 -0.444949918150201 0.348297754649103
0.0619389458368177 -0.443010216984332 0.354957245486464
0.0600056163741919 -0.439683753429264 0.363924955053407
0.0635717608743175 -0.449216968385845 0.369312955873843
0.0584530525316248 -0.439588476082422 0.387754560741294
0.063054464442825 -0.451072236031399 0.389433152977418
0.0612710875050319 -0.448871532294279 0.403306556074161
0.0609739889364852 -0.44906306139394 0.409220573601156
0.061705553481661 -0.452758442523515 0.42155557893953
0.0598071456524339 -0.448957743533173 0.428725089816299
0.0604731086128202 -0.449535451097842 0.446300775816555
0.0621502774027055 -0.453035858104623 0.455620746834264
0.0611205397757993 -0.44975408223063 0.469246781926195
0.0619369343604796 -0.451234139768185 0.477607160811984
0.0605676061072868 -0.447591866605381 0.483392455015428
0.0618489246370266 -0.449416957972614 0.504960901294158
0.0610093204097816 -0.446730178987855 0.515881558399746
0.0606242861285042 -0.445146115163104 0.52680386511943
0.0624802503281044 -0.449394470904271 0.531077721043222
0.0612035493000393 -0.445438201146789 0.545511748467499
0.0616187550100523 -0.446238949714955 0.548983047538801
0.0627228467472587 -0.443685448210301 0.568970406776008
0.063008413102382 -0.443162381411907 0.57318767843299
0.0627270873261977 -0.452324145367396 0.585217791344599
0.0636652240067272 -0.443574254436631 0.60728829465475
0.0574365813743538 -0.459029142334629 0.607201009498228
0.0585907883526599 -0.453201175325368 0.617844737426652
0.0570263038626824 -0.456017929509173 0.621388313652227
0.0585036977665915 -0.465369765312406 0.335774534999977
0.0636066960820208 -0.455069744839711 0.349634184906766
0.0649948121800608 -0.453909867993562 0.364002766638483
0.0652978646701905 -0.455335996073457 0.377979729679246
0.0649205852999568 -0.459093369847653 0.396293007325947
0.0634236021010081 -0.4550120090124 0.409051971676256
0.0637253288550238 -0.457530387841704 0.420557221245262
0.0624818588434161 -0.454649819197018 0.441714386954185
0.0616736444668551 -0.470398190828274 0.448006157561951
0.0635091028803065 -0.465234270758513 0.460672891073051
0.0632166879693554 -0.454064582236282 0.481994385112996
0.0650965441620493 -0.458067797207352 0.491077810564028
0.0608346649976349 -0.470105317633368 0.488233097418948
0.0647614860815278 -0.456264717022466 0.508071575526083
0.0626766760288072 -0.463965647166286 0.51684251209021
0.0616492378727191 -0.465652002889125 0.530614687614339
0.0621874602826898 -0.463869710926454 0.538755788350839
0.0610695744877991 -0.465609496189201 0.552580809779263
0.0614551446780488 -0.463209939147492 0.557736925541084
0.0588361654713568 -0.463692021839881 0.578635816784723
0.0580188272067271 -0.480311029759506 0.428984387733651
0.0573805315740184 -0.479890071326458 0.463029219135599
-0.328282091741739 0.17626999945445 0.193829404306309
-0.314489005980202 0.264075647662208 0.310810515819254
-0.316031056006603 0.260352809574613 0.322568825358168
-0.316197394072488 0.259951233960015 0.335482873348916
-0.315929517228016 0.260597945870985 0.359071431427398
-0.324635530813156 0.20396837962504 0.328519686340086
-0.315776845380272 0.260966528316402 0.40357854312561
-0.316168408582844 0.260021211122226 0.429193189349178
-0.317012471315881 0.257983463424635 0.451028906424616
-0.317641186323887 0.256465611125439 0.463791663598887
-0.323494612817531 0.212634512182594 0.458313430472164
-0.318984086079355 0.246895364204648 0.511469765092232
-0.317513829687452 0.256773077244378 0.53316078338055
-0.328765793120585 0.17259592271675 0.465895156159744
-0.315540883980371 0.26153618952824 0.560602151566388
-0.317344443221987 0.257182012346586 0.57350276108052
-0.322250525506158 0.22208429349454 0.561731297713476
-0.317346189974955 0.257177795311882 0.600639153512064
-0.317196304410928 0.257539651073358 0.603899189067906
-0.320743055248161 0.233534666906531 0.603500875136555
-0.316464120099444 0.259307300368299 0.630029279144788
-0.326939741799133 0.186466159551715 0.625747816376964
-0.315556353583194 0.261498842603298 0.721649399356594
-0.315813992869021 0.260876846345256 0.7306665380565
-0.328770539799416 0.172559868111498 0.657614656450993
-0.315260377073446 0.262213393107277 0.741205899476606
-0.315878607939736 0.260720851765202 0.781072747019928
-0.321956839153439 0.224315062816059 0.757123484018082
-0.327144918140825 0.184907690510475 0.758999851342637
-0.316828934311678 0.255976605580828 0.819579549010135
-0.324463994787882 0.193756716321261 0.82312394134522
-0.310315051990111 0.274152463993808 0.262770813120394
-0.314963293099802 0.262930617265613 0.256361760419692
-0.306194878958269 0.284099441606605 0.295139313829465
-0.306494284197945 0.283376613416333 0.299689003361577
-0.310221169986749 0.274379115199586 0.299624666740155
-0.309469313333232 0.276194257729468 0.311201131969218
-0.304722168628904 0.287654878857204 0.338190456341408
-0.304421741815108 0.288380173345571 0.349481391935437
-0.312739133004356 0.268300214732926 0.334145992561103
-0.303518921176204 0.290559775176402 0.357125817458027
-0.312883285860331 0.267952198952976 0.35894112562851
-0.30458382345325 0.287988873656558 0.374967439682937
-0.302754730703458 0.292404694179943 0.392959055597163
-0.313145763332832 0.267318522279047 0.374967128602778
-0.305349868803753 0.286139476581979 0.406121751126012
-0.313100340752431 0.267428182088688 0.392061893628455
-0.305434737533831 0.285934585342805 0.421466075820315
-0.306405108094011 0.283591903575891 0.424813693652672
-0.314052303906446 0.265129939731386 0.426291635676367
-0.309719501922266 0.275590249044672 0.4425888129672
-0.313083241433887 0.267469463495425 0.443981740720718
-0.311611202614751 0.271023279576924 0.452467137060754
-0.306903483179251 0.282388719685956 0.473205138873411
-0.310626513564291 0.273400529237265 0.472495621320753
-0.31113288644715 0.272178036955848 0.481121142222887
-0.308700911628307 0.27804934354685 0.503764876495586
-0.303303963047556 0.291078730005927 0.522202972067462
-0.313782564696893 0.265781147789393 0.509723377856335
-0.303208649766566 0.29130883662157 0.543571922019915
-0.305840049774197 0.284956075035117 0.539619868820683
-0.309190176238445 0.276868154289465 0.53940551637226
-0.313603143287508 0.266214309389312 0.535644369637232
-0.311394639844129 0.271546108354863 0.554818515388913
-0.303584700947155 0.290400968761243 0.578842545471325
-0.302818162266327 0.292251556840582 0.586387608222602
-0.303300047257736 0.29108818355882 0.594655220561807
-0.30501885486806 0.286938614914865 0.597854189429592
-0.310604137950812 0.273454548746791 0.595051673395919
-0.312105622523533 0.269829644327635 0.612348017885286
-0.307679541448808 0.280515149286399 0.630861273699
-0.312716567068861 0.268354693720446 0.616696603753932
-0.303094880125405 0.291583500832245 0.65050096250149
-0.304575572710961 0.28800879271049 0.664736383720322
-0.309907232965116 0.275137026214945 0.658980935568724
-0.306713998731082 0.282846175610582 0.667990535035504
-0.307501273509308 0.280945526163675 0.675383861550976
-0.31250821360669 0.268857703474586 0.683535526909423
-0.306575353677083 0.283180894380303 0.698406834233842
-0.30475656812435 0.28757183112876 0.711405934587134
-0.302574097964493 0.292840780188161 0.729282481630336
-0.305196367369804 0.286510061825664 0.727364739056299
-0.301797008130375 0.29471684100487 0.750180790285349
-0.314012635774496 0.265225707073533 0.730253668881324
-0.311652237118779 0.270924213520774 0.746089480814623
-0.306492604089181 0.283380669557697 0.76489380193603
-0.313583413839013 0.266261940491446 0.757270435304794
-0.30815048863433 0.279378182203951 0.778822974444398
-0.302778012417705 0.292348487149653 0.796060028634407
-0.314493379311403 0.264065089506711 0.783926432387191
-0.3034610215521 0.290699557234173 0.812319862317621
-0.31115671787391 0.272120502802154 0.80264206911766
-0.306151610480417 0.280725623455994 0.822046464558647
-0.3075058353553 0.273508576725794 0.831516785471557
-0.305632377744889 0.274574307537803 0.834526747054758
-0.30562604514991 0.26309935485428 0.838305268421479
-0.314306943988484 0.240677892867462 0.835630003577021
-0.317976529665935 0.228105462112065 0.833913810987683
-0.313721876269639 0.222298219813239 0.838189985356146
-0.314219554877616 0.214531595117809 0.838637110909332
-0.316228870719037 0.202432113650146 0.838282362233547
-0.317775230876474 0.195685925873041 0.837721592450886
-0.319250125635551 0.187673845346205 0.837363695373117
-0.317301158085757 0.156185141407937 0.83922643136151
-0.290370202297992 0.322303590620014 0.315655271229845
-0.293067306363961 0.31579220540482 0.316825127767538
-0.296679259686369 0.307072178707203 0.318139023651667
-0.294548510925319 0.31221626126414 0.331808950293938
-0.290302819287193 0.322466267598558 0.352321934462344
-0.290221916966933 0.322661583077358 0.35296598789732
-0.2940586840086 0.313398808049699 0.357437584401546
-0.298480293937715 0.302724097391307 0.355688987251191
-0.297773388348742 0.304430718451523 0.375421932187411
-0.291327167951836 0.319993271159779 0.388955253846854
-0.291325213293973 0.319997990121302 0.398252658767172
-0.297748896589012 0.304489846790028 0.395106395132285
-0.299218063317247 0.300942964549337 0.398786868780951
-0.290477525429597 0.322044489660136 0.424092060158326
-0.295008401843847 0.311105986371419 0.426204583618152
-0.296780493413714 0.306827778869678 0.428198101521278
-0.297149036996145 0.305938035954648 0.43784249490499
-0.298240485479422 0.30330304622369 0.44655195218898
-0.296110514631241 0.308445250732827 0.457551011690299
-0.293487846340035 0.314776932091062 0.475252331014771
-0.300195472699819 0.298583289561941 0.472321925902288
-0.298355821741557 0.303024599855409 0.484201007421344
-0.294913227644984 0.311335757213101 0.500457698000679
-0.297059617428857 0.306153913886736 0.497074980429752
-0.30077417131455 0.297186187517731 0.506945109902227
-0.29059696321752 0.321756141332674 0.532971963721161
-0.296986095167952 0.306331412326149 0.528067580083611
-0.292123936450628 0.318069701843923 0.551292235956368
-0.292468775168855 0.317237187533549 0.551021943864206
-0.292970705137554 0.316025421395754 0.566703517659389
-0.300937438719395 0.296792025134661 0.552972762391225
-0.291400641871104 0.319815889427402 0.585571828253105
-0.299135346770758 0.301142659957702 0.582400938121818
-0.298474294364492 0.302738581642349 0.592160866491346
-0.298826470556896 0.301888353102303 0.600827328063954
-0.293869194295046 0.31385627668609 0.621464298713688
-0.299272564755022 0.300811386439091 0.62078993019446
-0.294678244338031 0.311903057099678 0.63592673231885
-0.301144483854259 0.296292173962047 0.637024235274137
-0.295555921924374 0.309784155967339 0.646596410639745
-0.299717732045932 0.299736657527851 0.654948108121418
-0.299778616110166 0.299589670394245 0.66105526320392
-0.302367219950842 0.293340227894473 0.656510691360632
-0.298680905007967 0.302239779424741 0.686053382948919
-0.293678071007409 0.31431768911919 0.696802168126746
-0.291641202407651 0.319235124917497 0.713011404673824
-0.29913214395039 0.301150392250072 0.699703082463521
-0.29799553208692 0.303894416026015 0.720909411811024
-0.298845312635005 0.301842864301789 0.731256081458761
-0.296706008286933 0.307007601872949 0.740536088521895
-0.293092193978595 0.315732121388035 0.759849247869309
-0.29984040374064 0.299440501858768 0.749559942089131
-0.297722497960833 0.304553578716208 0.758560167400888
-0.295964906524244 0.308796779799531 0.774682486135827
-0.296819957630867 0.3067325038214 0.783846475190602
-0.299147205531531 0.301114030376612 0.785799949931265
-0.298711882367934 0.302164993462183 0.801079327750757
-0.292390062427763 0.317427216900626 0.810309910229032
-0.299227876152598 0.29911139726722 0.818039221263919
-0.291918211009637 0.309724380537816 0.833855524180976
-0.30182861060616 0.288679759182671 0.828001933547489
-0.295960641818329 0.291228424128243 0.836728542778476
-0.300294806056402 0.278961463047452 0.837321571737438
-0.295814416609683 0.278927592366181 0.840889712710544
-0.296605648184684 0.272289181201091 0.842444566040702
-0.298761712392988 0.265421816058224 0.84299116281075
-0.300091180184851 0.250257138368894 0.845348651072197
-0.307951169398353 0.231226877197586 0.842104956873759
-0.310861466777567 0.217671829508088 0.841145864742009
-0.302699444087998 0.20861437851531 0.845348651072197
-0.307077027503509 0.203804876839643 0.845348651072197
-0.31175964958861 0.183400224712551 0.844224660690441
-0.309784877303962 0.17053647164923 0.845348651072197
-0.315336727560124 0.156218202690605 0.840903765289492
-0.309117162522174 0.155822585994421 0.845348651072197
-0.318559047897146 0.117210524907463 0.83378323214094
-0.28243826774374 0.338719882679612 0.326970137271004
-0.288993080072964 0.325628257772722 0.325042099147942
-0.282184743871756 0.339050281422203 0.343283016727954
-0.281118957698756 0.340439241004879 0.363538637037776
-0.289819092014366 0.323634088541107 0.352125469046423
-0.285199593745553 0.334786543913035 0.362529049602924
-0.286267663342134 0.33220799580741 0.378247949811051
-0.283373688459337 0.337500818668766 0.392730471877832
-0.281302461625442 0.340200094031607 0.400762579090773
-0.286901590610371 0.330677559998876 0.398656315072638
-0.283523681824556 0.337305343509455 0.417633118810403
-0.290328293022239 0.322404768561926 0.412231789482207
-0.284260029255321 0.336345716854454 0.428596907546372
-0.286068360963227 0.332689154313581 0.440214893131679
-0.282768953187124 0.338288925019366 0.456099317453489
-0.278809204636209 0.343449369800988 0.466237641475758
-0.28231032697544 0.338886618335082 0.465733144525983
-0.279043390674209 0.343144172614302 0.480822020210401
-0.279260665983822 0.342861013917923 0.4968922088161
-0.288077317602084 0.327839103949834 0.483595299261938
-0.283345265483267 0.337537860212352 0.500922543082649
-0.280504693285903 0.341239765973344 0.523667384277298
-0.280034305881064 0.341852786774394 0.525837920561506
-0.290590268100629 0.321772304774673 0.513554265664236
-0.285202863534903 0.33477864994324 0.540276612072276
-0.287318602128381 0.32967080513643 0.537456710499522
-0.280956219135936 0.340651326029087 0.554722301900648
-0.282524818909128 0.33860708700483 0.568909322223306
-0.283507414905421 0.337326542971209 0.573139387133472
-0.283672776355255 0.337111039734096 0.587995934753
-0.290023084050509 0.323141608200835 0.583975662854287
-0.288947863116779 0.325737421161592 0.595745861477583
-0.280599552236462 0.341116143382134 0.614625384385879
-0.285424644960137 0.334243222218557 0.618093943456597
-0.281052933032262 0.340525286025489 0.63625574720338
-0.288704948841543 0.326323868099361 0.627551129763415
-0.286887958578628 0.330710470634791 0.636324079473596
-0.28943079314324 0.324571524942033 0.64699111508918
-0.28365600553607 0.337132895891181 0.6702392901798
-0.284223533182133 0.336393279463042 0.675617992395499
-0.278961112320744 0.343251399852174 0.68961377020279
-0.282533113278791 0.338596277571832 0.698368594151234
-0.281339852881021 0.340151364798614 0.697201014221678
-0.280677797929202 0.34101417161004 0.71425362585152
-0.290238716647465 0.322621025060774 0.708155970524684
-0.288724415983777 0.32627687026056 0.716123816577496
-0.290440442710146 0.322134015264366 0.723891624856894
-0.279495832850781 0.342554538490051 0.750677517236623
-0.283553188120394 0.337266890156059 0.755237899326511
-0.283749388475551 0.337011196875058 0.761658340204988
-0.288335015267996 0.327216966749797 0.760994350407661
-0.280172530112283 0.341672649449128 0.787287493140612
-0.283765795702319 0.336989814560837 0.790229049590678
-0.279837475669253 0.342109300900568 0.800008608663837
-0.279214307863868 0.342708221678902 0.814515820200584
-0.280499371069331 0.340016095354992 0.818398432477977
-0.285399892466091 0.330841447918183 0.822006292845426
-0.284370246467358 0.329914757055532 0.830192726220456
-0.290023037828516 0.318213158404308 0.825525654375971
-0.288697660030951 0.31818973989079 0.833257932135127
-0.291561873538229 0.308377689240989 0.834581276447191
-0.289121136306532 0.298715696702576 0.839696298418852
-0.289938187731408 0.28905228895518 0.842225411693626
-0.287191214898805 0.291541690524361 0.84358761654179
-0.287299542770925 0.27102353615976 0.845348651072197
-0.295972684643863 0.260665729709325 0.845348651072197
-0.294283892613323 0.253812517077654 0.845348651072197
-0.291515537206522 0.229756086117648 0.843974604402252
-0.299841320409228 0.230104166473771 0.845348651072197
-0.292951543660032 0.217711527055117 0.843847073929483
-0.302732663795409 0.197981152625586 0.845348651072197
-0.299328407017302 0.193672285925619 0.845348651072197
-0.303665995197031 0.170299538855232 0.845348651072197
-0.303256379131058 0.165268910592042 0.845348651072197
-0.305112229163176 0.143039853445914 0.845348651072197
-0.302298951619793 0.143395720598689 0.845348651072197
-0.311036693399737 0.122776267718723 0.840816285455933
-0.31371495102133 0.104168235814121 0.836447366072942
-0.312531392137677 0.0866208188850968 0.835343576314045
-0.270478832515407 0.354305722114027 0.353667453841576
-0.27486268594755 0.348592573090442 0.340456649152717
-0.273162363986386 0.350808475812229 0.358719597537421
-0.274777028754619 0.348704203717636 0.362114105007012
-0.270264528731115 0.354585008243212 0.382015975274494
-0.278630722178198 0.343681972668875 0.380311903151069
-0.273801340297837 0.349975745670501 0.396972883043018
-0.27778846694059 0.344779621064935 0.397826588220791
-0.272413243418461 0.351784748743667 0.416200157749226
-0.273969835473225 0.349756158482735 0.419666134821263
-0.272077803397865 0.352221902689573 0.43261183562795
-0.276378717438331 0.34661684238563 0.440373729930496
-0.278111149643832 0.344359092778693 0.445448892886118
-0.271115931494344 0.353475438559665 0.454166695139855
-0.278739535342401 0.343540164592387 0.459071498593596
-0.270242472591156 0.354613752364434 0.481144783666166
-0.269090437621664 0.356115113567076 0.484881767536389
-0.271176415720691 0.353396613981233 0.494392703045146
-0.269264215800088 0.355888641435708 0.505027066277246
-0.278006407566102 0.344495595311995 0.502945705791014
-0.270144431162652 0.354741522441649 0.527037525676935
-0.277791334780178 0.344775883623619 0.520417367340937
-0.274738157781472 0.348754861356107 0.532754787973601
-0.272940241266196 0.351097951777066 0.545564309552394
-0.270516010682903 0.35425727058283 0.561223191409982
-0.278155582567328 0.344301186665404 0.551419993245799
-0.274892101991969 0.348554237354985 0.572913104177612
-0.273217677260496 0.350736390149954 0.580716994583406
-0.269492845916064 0.355590684867573 0.594574018769697
-0.271069870973031 0.353535465799726 0.595472480263312
-0.273222102304872 0.350730623319848 0.612957512841471
-0.270716547864365 0.353995925439752 0.623287759476818
-0.27053697893919 0.354229944219212 0.626286697507648
-0.270895049399959 0.353763297709475 0.637416009074834
-0.276988133534543 0.345822635866428 0.637097589200798
-0.27638179706261 0.34661282894113 0.646051054349749
-0.277179134828959 0.3455737181333 0.653653128792471
-0.278774262786995 0.343494906905458 0.665487887137986
-0.273945673410275 0.349787647096231 0.681443250928313
-0.277235793006085 0.34549987975929 0.681322470910675
-0.276940052980056 0.345885295664976 0.691258171176261
-0.276282531791571 0.34674219396099 0.698671000291374
-0.277751343602821 0.34482800114064 0.708567180734582
-0.272655263874905 0.351469341544081 0.727320086766732
-0.276755110998593 0.346126316747721 0.72566699893144
-0.273728603830302 0.350070537680524 0.738125826976807
-0.271458082528093 0.35302953865114 0.749057740366833
-0.276565856516369 0.346372957990881 0.755862265122673
-0.27667861578857 0.346226007246325 0.764472924267805
-0.277399573970727 0.34528643625058 0.76892333010845
-0.273636012860365 0.350191204581842 0.784838498669319
-0.275891373249063 0.34725196169839 0.791303083748776
-0.279218833442931 0.342915531146622 0.788918272107349
-0.269595495364182 0.355456909502277 0.812486974374254
-0.273957826136462 0.348211512687829 0.819656599635316
-0.273834376146108 0.347029731112669 0.824780493797352
-0.272389049230833 0.344772349229701 0.834632682315161
-0.27472812365226 0.336455803291299 0.837388578571357
-0.273345736591873 0.336082834910744 0.838526115941529
-0.273069886921103 0.326300160356834 0.843368418126444
-0.279742670710221 0.313540358525546 0.842266874554274
-0.280471712624716 0.303359782923989 0.845035927654856
-0.27540087151484 0.300378995081698 0.845348651072197
-0.285459984587217 0.282086350160825 0.845348651072197
-0.282604996593916 0.274257952416649 0.845348651072197
-0.286548064383696 0.266405135664313 0.845348651072197
-0.2819790908265 0.237780497398893 0.836749931761818
-0.285033535789327 0.233416205979481 0.838862698172247
-0.289300255566569 0.224419206920398 0.841488660333461
-0.291303002354382 0.206359525666867 0.841169296748027
-0.292967881049058 0.194173976199052 0.841220943430287
-0.287036702112688 0.182187642338821 0.834823360707089
-0.295807667383706 0.166524815745279 0.8415492491955
-0.289617663146427 0.158260086425253 0.837202582491029
-0.292181632809516 0.149975806302365 0.840316186713015
-0.298082142484168 0.138923500484861 0.845348651072197
-0.297467253933857 0.127946230574739 0.845348651072197
-0.296276166606214 0.104976224518183 0.845348651072197
-0.30004379472114 0.101869538046456 0.845348651072197
-0.304637238933005 0.0816825239296766 0.839986843279407
-0.264022272793093 0.362720074565411 0.357742091158357
-0.263023710763699 0.364021425938473 0.362765953858023
-0.262145506440295 0.365165924095273 0.36900555980998
-0.261929465979038 0.365447473505943 0.382968968626786
-0.26211597883156 0.365204405224174 0.391998879921192
-0.262825933359815 0.364279174469389 0.394789487959652
-0.259271990903099 0.3689107624526 0.41303860801088
-0.266091673025236 0.360023179676319 0.414521821792521
-0.261407908187369 0.366127180853449 0.425953163323163
-0.266315539231638 0.359731431556014 0.426016261669291
-0.265712386501966 0.360517475497021 0.438633678990534
-0.266273333301297 0.359786435395319 0.455598508819931
-0.264876497876827 0.361606826762171 0.461468261398915
-0.258792941444917 0.369535071861348 0.480855943569507
-0.26073670789659 0.367001906102651 0.476308880309954
-0.260997777234848 0.366661673916961 0.486234827550283
-0.26509178279209 0.361326261998211 0.490307593834587
-0.268006430474004 0.357527819186247 0.49778567919223
-0.265691745709466 0.360544375101523 0.512325231056633
-0.262374033654683 0.364868101631097 0.521065216651471
-0.267483052023575 0.358209899262445 0.529581060737798
-0.266077420169451 0.360041754359613 0.533574909783923
-0.267607061441959 0.358048287041937 0.541940518805515
-0.263338026034281 0.36361180230278 0.550910353852055
-0.266389750845782 0.359634717097502 0.565014457704988
-0.260651415043129 0.367113061913403 0.576145983406031
-0.261660753580382 0.365797666321868 0.581731055116205
-0.267229778332797 0.35853997196254 0.589414069463655
-0.259762171437835 0.368271946742459 0.605783544798117
-0.26157685477007 0.365907005380218 0.614228240744815
-0.267869111827795 0.357706776330152 0.606830068009754
-0.262908004446839 0.364172217346403 0.626596583325066
-0.261195350633443 0.366404191250914 0.642023751221009
-0.260831396877345 0.366878505020402 0.649048958115006
-0.26671518653137 0.359210601054816 0.649244384843144
-0.265273604970189 0.361089306722367 0.664793240336875
-0.260863584514292 0.366836557275241 0.674687395813351
-0.266517313240271 0.359468474548384 0.676768720052531
-0.259078121904848 0.369163417450127 0.698469714465907
-0.268310858584934 0.357131080747878 0.696810815245254
-0.260144818321402 0.367773271614955 0.710115922173878
-0.261019939909782 0.366632790956658 0.71548150040636
-0.263754042523313 0.363069639058753 0.716581596900561
-0.267336262331847 0.358401199313176 0.723219903841688
-0.261421284434374 0.366109748588958 0.741267923936693
-0.260506468993171 0.367301959283401 0.75224928504643
-0.263230149955875 0.363752389145281 0.757277187961544
-0.260787050164252 0.366936298782106 0.771408479230833
-0.259512160016353 0.368597767970434 0.784693283341207
-0.265585948670291 0.360682252487347 0.781111658539534
-0.258721252185272 0.369628499123477 0.799935501783107
-0.262561601963286 0.364623657852184 0.797145134625191
-0.268867269737413 0.356405951616235 0.808355554090169
-0.26084768707944 0.364641384921175 0.822158484336733
-0.26490490473156 0.358101400266497 0.826938350485637
-0.260151290644763 0.362676870772564 0.833118935805531
-0.267076613754684 0.350005398588435 0.835516884340049
-0.268728666109305 0.339210209413908 0.840037776598317
-0.269180463621403 0.332555558937412 0.843210939341579
-0.268060633770241 0.330803052625367 0.84489114260113
-0.268086813991212 0.319820288758338 0.845348651072197
-0.266608648088087 0.310349608877431 0.845348651072197
-0.274848102391753 0.290224362365123 0.845348651072197
-0.274154049663349 0.284005826140484 0.843831085547884
-0.277216306957781 0.267493409616162 0.840832181757843
-0.281316567976839 0.150971341187255 0.759074634067376
-0.278891978027237 0.224204842970333 0.825733715356095
-0.28189983827513 0.216633238872591 0.834310465069494
-0.283459043052013 0.20681734756834 0.834537869968179
-0.28424027467022 0.194966051661048 0.833874171385622
-0.284166051231382 0.183643896011852 0.825324279109898
-0.284623935208775 0.162238819389502 0.825038520030296
-0.287416720890909 0.160339065423018 0.8350942719115
-0.282705486019235 0.142136143639704 0.829563909288936
-0.282538132426802 0.135539889039608 0.833719443494959
-0.28580733530226 0.120535467574223 0.838187634853695
-0.292818505075515 0.123483423244596 0.843830252607694
-0.285638593786223 0.10953002275737 0.839278280023382
-0.293681464449302 0.104725989032295 0.845348651072197
-0.287577103126783 0.080895155163684 0.845348651072197
-0.298944533783024 0.0520244474428128 0.834753365324218
-0.290018610579439 0.065893547041904 0.845348651072197
-0.295052811328165 0.0405476071527796 0.834068907877278
-0.253451513502898 0.37649615628259 0.368937941779408
-0.251403655428467 0.379164976885166 0.381194419206457
-0.256475556944145 0.372555146141383 0.379336317802166
-0.258175920824927 0.370339188788886 0.387130279359125
-0.252726120511841 0.377441506833817 0.407427369274048
-0.256533305905334 0.372479886229905 0.400386827592805
-0.251082613481497 0.379583366896204 0.426969587865353
-0.258814914286993 0.369506436296042 0.422995651171016
-0.257253753562749 0.37154098056296 0.432398399526422
-0.253322565326816 0.376664204817443 0.44902912302581
-0.254400803005595 0.375259018116503 0.454348484083154
-0.257825323539377 0.370796096067064 0.454738778757865
-0.254166689361378 0.375564120957776 0.469705159804704
-0.249611497876833 0.381500562078585 0.483082845128588
-0.258523873285049 0.369885728314311 0.483084303442222
-0.257552554310109 0.371151575847576 0.487505232015535
-0.256426958988559 0.372618480230171 0.508279013317568
-0.256609014496379 0.372381220873114 0.517003407788104
-0.255985984070216 0.373193169932542 0.522342189964364
-0.251229843110829 0.379391493507625 0.535819104922694
-0.253838968378499 0.375991215257876 0.540108481375821
-0.255071449911116 0.374385014053011 0.546551941740851
-0.251716432407197 0.378757357990445 0.559675204943611
-0.257677268627845 0.370989044984346 0.564764226197051
-0.249586735655631 0.381532832833544 0.584921303328806
-0.257068495208222 0.37178241395111 0.584271764219631
-0.254769513214761 0.374778505616693 0.590328829303119
-0.250936282244579 0.379774069476995 0.604291590169411
-0.249865638470786 0.381169359608276 0.615256256973488
-0.254693570067638 0.374877476652917 0.620070681422195
-0.255166195920313 0.374261538649851 0.62653677740721
-0.251829693728855 0.378609752962298 0.645520950634814
-0.255162577862412 0.374266253794707 0.643443628011461
-0.256330173127926 0.372744614019481 0.660831243287572
-0.249340356824045 0.381853919978196 0.671268428089562
-0.253917508346903 0.375888859978269 0.671903924308203
-0.250216197097573 0.380712502711179 0.690858146840246
-0.251125663477072 0.37952726304967 0.699455172320879
-0.258280611768538 0.370202752894864 0.692335651757627
-0.252696064506689 0.377480676582337 0.71683750557695
-0.255953205932415 0.373235887233399 0.712378713598982
-0.254862191875598 0.37465772443437 0.726841253137807
-0.248404128384691 0.383074036635139 0.741670335524959
-0.258392199087471 0.370057329469544 0.736645506672108
-0.257925730831472 0.370665242736387 0.750074447368384
-0.25250014574258 0.37773600288674 0.757646865736737
-0.250002041263457 0.380991596027941 0.774462289552618
-0.254985518208526 0.374497002428157 0.77314417441126
-0.254070786542992 0.375689103944024 0.788809194004628
-0.257273596968261 0.371515120133412 0.793656847521654
-0.252099883376205 0.378257634958394 0.800627665865093
-0.249942864080819 0.379874607780178 0.818259151354046
-0.254605122715012 0.373603726841278 0.819002958648348
-0.252805234312668 0.37355632149982 0.828135405799264
-0.249936406282445 0.375507847697955 0.833861268260011
