ply
format ascii 1.0
element vertex 853
property float x
property float y
property float z
end_header
-0.279535297596126 0.32227581548198 0.418243213989752
-0.276552710699405 0.323511243425559 0.431541947647138
-0.280464338191364 0.321890994267438 0.440950904624655
-0.280143640611526 0.322023831554427 0.446748376390199
-0.278971519964404 0.322509339823202 0.462311129693618
-0.27519000783922 0.324075693431732 0.463806896677606
-0.272869119608493 0.325037036813651 0.475172413343871
-0.274468431451484 0.32437458015782 0.489788952766564
-0.276260705515126 0.32363219593317 0.493848637693818
-0.273899844270802 0.324610096679449 0.498863781735147
-0.272861441170051 0.325040217326991 0.511862422108845
-0.277733382134027 0.323022193304632 0.517291482416851
-0.2754290679708 0.323976671483008 0.537347419706414
-0.28124540248483 0.321567466843998 0.536723626590603
-0.277814171240584 0.322988729361003 0.539667246981035
-0.280357224061038 0.32193536239294 0.547080036704308
-0.271401382627716 0.325644993377086 0.567071750064009
-0.276475375200324 0.323543276838131 0.577484247144922
-0.272323260961792 0.325263138868253 0.580865880196767
-0.27752396914614 0.323108935004351 0.588399416112046
-0.280687339077041 0.321798624276169 0.601608031458472
-0.275087085654541 0.324118325196495 0.615259115533881
-0.277352180665613 0.323180092122845 0.619108609709366
-0.280183652134604 0.322007258238917 0.626941075394434
-0.278475946518757 0.322714613065541 0.639044890164833
-0.273482107961603 0.324783128724216 0.647879876357952
-0.276824385069263 0.323398712217014 0.646240010015029
-0.281414760148665 0.321497316602746 0.65633274965468
-0.280061490140485 0.322057859393687 0.674533760918182
-0.280109872127095 0.322037818918659 0.679023657356555
-0.275614075053633 0.323900039040164 0.690285107095852
-0.276930294092902 0.323354843263045 0.701500875536128
-0.278318288380956 0.322779917204437 0.706819228049899
-0.27327200012217 0.32487015824087 0.720090372950116
-0.273270612028358 0.324870733208153 0.727727413756809
-0.274909609190317 0.324191838354978 0.733325732460128
-0.276658103139337 0.323467588447567 0.746509585396445
-0.27856351767226 0.322678339906088 0.746530796956832
-0.277161117562157 0.323259233051565 0.755776770817272
-0.276000355781503 0.323740036323797 0.76924615797564
-0.273378834940088 0.324825905810355 0.784425555539471
-0.277985486847033 0.325632523800675 0.790834892956656
-0.278757819861828 0.323615978988407 0.795690784358636
-0.277296524110712 0.313432313338131 0.802916970153698
-0.276275303999239 0.311600549172366 0.80319358636372
-0.340199413230231 -0.249453652013167 0.360371272911904
-0.340949359815116 -0.248878197759042 0.364804447295989
-0.335157178993178 -0.253322694422969 0.378098984465374
-0.338420323557029 -0.250818795533449 0.393808020466739
-0.334257425091257 -0.254013099874451 0.392276070707066
-0.336407816188093 -0.25236304675114 0.407607102969389
-0.33965815127961 -0.249868976915444 0.426992114758154
-0.330900971035449 -0.256588597655386 0.42681188071993
-0.338338947519029 -0.250881237563581 0.444357523705459
-0.338129675578057 -0.251041817571716 0.454000310110742
-0.334943430318568 -0.253486709549642 0.460543813725928
-0.34065875486376 -0.249101186781058 0.473785694213457
-0.33186414693395 -0.255849526794294 0.484053676079332
-0.334190261990802 -0.254064635934028 0.499014854750026
-0.332845849014267 -0.255096240293913 0.502261745133154
-0.33275687426474 -0.255164513020473 0.516042992835128
-0.338902522000807 -0.250448791653977 0.533852471292193
-0.337409335576829 -0.251594553895179 0.54413257198249
-0.331062044998377 -0.25646500125657 0.546036193002814
-0.33493435895149 -0.253493670254419 0.562477461570111
-0.337659258190939 -0.251402781528467 0.573208030862332
-0.332375658065746 -0.255457030498215 0.583123557470007
-0.338886121819501 -0.250461375955701 0.592380288514939
-0.334234245050051 -0.254030886545653 0.59658805603065
-0.331213155278995 -0.256349050260091 0.612239438459869
-0.337397323987002 -0.251603770712222 0.622579931977857
-0.341068058570329 -0.248787117000727 0.634269362796065
-0.332079801586814 -0.25568404915907 0.643922553105795
-0.331809823625884 -0.25589121053465 0.656609066552483
-0.336026831928065 -0.252655386255855 0.664411180156448
-0.336948007166572 -0.25194854363469 0.686894345866999
-0.339941278307576 -0.24965172590586 0.690263374982754
-0.335723037202003 -0.252888496147969 0.707802860626153
-0.340625334281923 -0.249126831295456 0.712023330606613
-0.337412533484816 -0.251592100054076 0.721274552010727
-0.333255284261526 -0.254782069578861 0.73716195049723
-0.338283818600818 -0.250923539470343 0.749311058184302
-0.338662011120091 -0.250633342143653 0.759686309434566
-0.339335980126756 -0.250116187535778 0.771548652634602
-0.337847894617208 -0.251258035707675 0.773328447265359
-0.333709229637257 -0.254433745040994 0.77953665106847
-0.340496933413707 -0.257497783662638 0.795321239155954
-0.338452022682949 -0.261168526894336 0.797785771022275
-0.266704214787924 0.327590624001069 0.318238947182911
-0.265983553790864 0.327889131559925 0.321027708527884
-0.268671944652386 0.326775563604123 0.335745581267411
-0.265347255981465 0.328152694742287 0.350597499046892
-0.263287210421779 0.329005993552215 0.355419518332694
-0.271068739020833 0.325782778870493 0.364838644885575
-0.269342041230012 0.32649800051357 0.366785547871241
-0.264964175783043 0.32831137175595 0.389775070119226
-0.263788749016433 0.328798249464256 0.391330849652082
-0.268234925275092 0.326956582957218 0.390110009511097
-0.263781006206501 0.328801456641141 0.413035118108602
-0.26996742908085 0.32623895638401 0.410397596134074
-0.263291674564412 0.329004144443792 0.421498806520479
-0.265345857670872 0.328153273941499 0.439960882184124
-0.262429831112889 0.329361131690055 0.447963311454902
-0.263093024603769 0.329086427951655 0.456311610061208
-0.265032658539269 0.328283005269532 0.45992794718624
-0.267496160003158 0.327262589552263 0.475034559661881
-0.266958932961281 0.327485116279083 0.475118084982991
-0.267302539998088 0.32734278958431 0.489072412084521
-0.264900858424781 0.328337598664475 0.493113910488866
-0.266132337385133 0.327827503377321 0.505813705597362
-0.268127305521448 0.327001160518757 0.515590019536254
-0.271420587587845 0.325637038422135 0.518226473852063
-0.264234802784912 0.328613487943805 0.532184394368995
-0.270715909283444 0.325928925732928 0.540132501737122
-0.264525830735077 0.328492940219817 0.54906327731708
-0.264952901295311 0.328316041801677 0.560801149761948
-0.265497197126284 0.328090587086545 0.565065350707953
-0.270971801265802 0.325822931803333 0.572835487703067
-0.264303713413209 0.328584944226972 0.585013165478713
-0.267225838945875 0.327374560200385 0.600551858244377
-0.264241830091054 0.328610577138293 0.60487845565781
-0.270684519755015 0.325941927701319 0.60830033000324
-0.264200965241504 0.328627503913201 0.62036184499092
-0.266251859784042 0.327777995578685 0.624335736696039
-0.264466540023293 0.32851749923676 0.63978115069265
-0.270619613144098 0.325968812899849 0.653437213078869
-0.268270854520972 0.326941700576289 0.657163205464249
-0.266594829771008 0.327635932758597 0.669581397327624
-0.270433473640664 0.326045914406665 0.671492948059708
-0.26930287817458 0.326514222382274 0.678332487102679
-0.264149645930204 0.328648761067953 0.697096521950565
-0.270199280111074 0.326142920542841 0.699770874229096
-0.268381774388642 0.326895756062763 0.705496223499451
-0.267300506473688 0.327343631897695 0.716213620375627
-0.265202566904819 0.328212626920161 0.722142414997942
-0.266171109782862 0.327811443324336 0.731022311190443
-0.26371565258204 0.328828526998742 0.751837068824738
-0.263344905501186 0.328982095467842 0.754945062082269
-0.265352341499922 0.32815058825157 0.757537884594269
-0.268085444919646 0.327018499747752 0.768913884045905
-0.269612324401099 0.329168867125649 0.790353114761441
-0.270967995623385 0.328503174027192 0.791090340834298
-0.26372145130143 0.327631400594211 0.798480903647554
-0.268379799944781 0.323628313127385 0.800163847938176
-0.324071729719522 -0.261828858824518 0.339844669764482
-0.330566745004085 -0.256845058309337 0.352661945722515
-0.325538006066117 -0.260703745411939 0.357299804800341
-0.328320982010125 -0.258568292863206 0.369262420549519
-0.330327098325097 -0.257028945673704 0.385829937607172
-0.32926439803979 -0.257844384282753 0.392847768832055
-0.32323184948769 -0.262473321593073 0.399642253263429
-0.328785224261415 -0.258212067254831 0.418527185219338
-0.322884562633269 -0.262739804169039 0.426615579054305
-0.321533765866515 -0.263776306983445 0.435901334147001
-0.324916709742864 -0.261180482848304 0.439004189840017
-0.32465340720669 -0.261382521990313 0.451589664187012
-0.324445392930581 -0.261542136958257 0.46578563252166
-0.328543100359998 -0.258397855458824 0.476119400186947
-0.325116955787417 -0.261026828654082 0.487645614568916
-0.323062419718128 -0.262603329627824 0.492047784797778
-0.320985877091344 -0.264196716827044 0.511830617607821
-0.322465134189013 -0.263061642933844 0.520397696238782
-0.324773964463774 -0.261290015153355 0.533048558457529
-0.329934827749206 -0.257329945473174 0.544896565590755
-0.323472120049205 -0.262288955506805 0.548452123349557
-0.321463725904535 -0.263830050536509 0.554586127384235
-0.326239032688449 -0.260165828765333 0.577156256090617
-0.322107754956417 -0.263335869663957 0.577542220673957
-0.326184514249781 -0.260207662234665 0.605373287091259
-0.328912009832313 -0.258114781264595 0.615918202492457
-0.326919214463616 -0.259643906932516 0.62748911317759
-0.32463247752997 -0.26139858189611 0.623398949014125
-0.322343887525924 -0.263154678770634 0.638535703954163
-0.323515157208158 -0.262255931933254 0.659711202524868
-0.327876159454239 -0.258909617215199 0.670063285231182
-0.324959120664715 -0.261147939803382 0.67852153631212
-0.321879874902934 -0.263510728179017 0.688435284060753
-0.321932440342284 -0.263470393298769 0.693951338592172
-0.321508886107627 -0.263795397893893 0.704881660688303
-0.327997289830481 -0.258816670608443 0.712371450764781
-0.325994139091071 -0.260353742231785 0.729478284507558
-0.323742250072303 -0.262081677449819 0.737416974202062
-0.329010900117563 -0.258038900079873 0.753818360263687
-0.322473158383549 -0.263055485752819 0.756202818519299
-0.326675060753738 -0.25983125266332 0.773529075207894
-0.324099542677919 -0.261807517190923 0.786191536539948
-0.32537560708111 -0.260828358535956 0.787898117838768
-0.325039337586583 -0.268224814764422 0.793130520646054
-0.32605207765976 -0.275687248936233 0.801329132674071
-0.259238857770452 0.330682876125664 0.315968414357913
-0.2557707604354 0.332119409077472 0.328330253729348
-0.26231784563379 0.329407517594287 0.338268328564637
-0.258213131513215 0.331107745852694 0.351800846166209
-0.261250667072601 0.329849557427805 0.3569727933569
-0.259045195242975 0.330763093771069 0.36311172526066
-0.259549544167498 0.330554185606362 0.373446182249438
-0.258940907179019 0.330806291301553 0.389562472028497
-0.259571887155962 0.330544930837517 0.391037937400725
-0.256896565069107 0.331653085529609 0.402241747256298
-0.260062712815029 0.330341624192771 0.4146838529533
-0.26140758837016 0.329784558498131 0.416132345811466
-0.256428912526824 0.331846793555101 0.430609718380642
-0.255711453091908 0.332143974983495 0.439697443679478
-0.261607846312796 0.329701608942318 0.444330373431651
-0.255373651727727 0.332283896889927 0.452957427627163
-0.262303706020779 0.329413374413763 0.461361042919114
-0.261422846878794 0.329778238216913 0.479328828843242
-0.26236559737195 0.329387738176714 0.477771031956446
-0.258146835200267 0.331135206684652 0.493420178318942
-0.255052339398665 0.332416988814382 0.500529433304534
-0.255916590422469 0.332059004319028 0.507583440066821
-0.258494285556798 0.330991288034725 0.513075582302098
-0.260939553603129 0.329978424846298 0.527302865096959
-0.260593610057551 0.330121719354692 0.531359834982415
-0.256996519687773 0.331611682970935 0.540669672947546
-0.255561913574623 0.332205916279665 0.556544608054283
-0.254417388832796 0.332679993950201 0.561391169499658
-0.256527953394883 0.331805769484321 0.5707704825677
-0.262137034549413 0.329482411997664 0.574662045545231
-0.259852699680968 0.330428614481175 0.587028369146935
-0.257042435325355 0.331592664091123 0.598526960005906
-0.262059617526075 0.329514479178689 0.602240036083902
-0.258281938969064 0.331079244871288 0.61571860528505
-0.257655525220975 0.331338713941404 0.622453253430942
-0.261302774533784 0.329827973810682 0.626317288116092
-0.261187455968839 0.329875740324276 0.64380216144084
-0.254922508046157 0.332470766721413 0.654376078595523
-0.255671208406546 0.332160644877985 0.655940574747277
-0.258678297122968 0.330915067948384 0.672590461144172
-0.257291743033645 0.331489397457146 0.681694059301542
-0.259291708502107 0.330660984635831 0.679917524600337
-0.261364110229061 0.329802567733841 0.696575257108554
-0.254092769506636 0.332814455677705 0.705906639705099
-0.259316994133811 0.330650510984246 0.710230350716342
-0.258819481198572 0.330856587589478 0.724320578246162
-0.259887543188027 0.33041418182799 0.728385300673638
-0.258543449796715 0.330970923539768 0.744123872939219
-0.254229373914447 0.332757872279311 0.745765778850158
-0.253545389259353 0.333041187999905 0.756677586021301
-0.256484549665961 0.331823747897498 0.768069624700659
-0.256918328417762 0.331644070855433 0.781020511734961
-0.254755046276747 0.335565114589482 0.788639068525377
-0.261735817820778 0.33090761954995 0.795148842272915
-0.259755667828975 0.32695627092746 0.800338512869174
-0.256401790192538 0.321081784738567 0.803040314547717
-0.313300472738288 -0.270093935000675 0.328991385406821
-0.315497476403303 -0.26840811479582 0.335105114532853
-0.314082648632657 -0.269493750327578 0.344223425469111
-0.313928962085207 -0.269611678163126 0.358132040456419
-0.315195409282651 -0.268639899049677 0.376306220715149
-0.316316580230427 -0.267779594323311 0.390721464104285
-0.315311957168193 -0.26855046871171 0.403333751792751
-0.320490194161763 -0.264577067716392 0.409464023215681
-0.313346702245767 -0.270058461851945 0.411235986875432
-0.311257987082596 -0.271661189366848 0.432300098283462
-0.319490201298007 -0.265344389228539 0.435272916057321
-0.319744079695275 -0.26514958148265 0.44463258723543
-0.321516306790542 -0.263789703803624 0.46585323925235
-0.315260762710864 -0.268589751600453 0.472981955864021
-0.315672120112222 -0.268274105964686 0.478760443348703
-0.316910460387572 -0.267323894051108 0.49466569269061
-0.315327016983386 -0.268538912909077 0.507586754896366
-0.32074789429587 -0.264379327448685 0.515214769666011
-0.311254605324843 -0.271663784280838 0.523590410131741
-0.312007423379065 -0.271086126670795 0.533577854975973
-0.319441542951219 -0.265381726091218 0.544899934351746
-0.313547893993816 -0.269904081993908 0.559173238329522
-0.320697929229318 -0.264417666992707 0.575036929059633
-0.316165802966399 -0.267895289787173 0.583158641348483
-0.313890142924411 -0.269641465152857 0.593700507274975
-0.320189834427504 -0.264807541846592 0.606897874280999
-0.315475789510565 -0.268424755733904 0.613823958647632
-0.312268851226334 -0.270885526028176 0.625189317979066
-0.318151143121914 -0.266371884705529 0.64155691968125
-0.318721335810989 -0.265934360466852 0.650006858522751
-0.316833986062021 -0.267382574864991 0.657459698184949
-0.315201834416012 -0.268634968871448 0.665104737872487
-0.317585202235771 -0.266806146421066 0.680150300271239
-0.317309605023106 -0.267017619600156 0.684108702631634
-0.316984346997993 -0.267267198860883 0.704944941399044
-0.314151442349417 -0.269440963052106 0.71214075271261
-0.319788985823318 -0.265115123798676 0.720849243151468
-0.312606586690035 -0.270626372492081 0.732816215043831
-0.314168353293198 -0.26942798682855 0.739141386577046
-0.31129445264066 -0.271633208360013 0.747356719807643
-0.314317964577684 -0.269313186052257 0.765305225552766
-0.317958134328932 -0.2665199855613 0.783786790862535
-0.313065945398913 -0.270273894157596 0.786184438289675
-0.317557899664528 -0.274485942082143 0.794135891195647
-0.316503968825379 -0.280744897148845 0.799951261085483
-0.312932338320228 -0.297173668773612 0.80293044285685
-0.247956036493567 0.335356373720381 0.323004212227687
-0.244232806549125 0.336898586059203 0.339140059773355
-0.252519317412796 0.333466200874718 0.343399245760594
-0.245708533955728 0.336287319753022 0.358982106371409
-0.248537586203566 0.335115487943305 0.359675425987639
-0.246881439217544 0.335801486486199 0.367084314530042
-0.246213600598971 0.336078114299489 0.373750402517676
-0.245537348824883 0.336358226955895 0.391536166794147
-0.252913313456334 0.333303002369964 0.400359304484501
-0.245479867320211 0.336382036574715 0.407764861307708
-0.252702531329125 0.333390311185759 0.413981859860646
-0.250204401868293 0.334425070289 0.430544300790958
-0.252143302824178 0.333621951216974 0.431237120017731
-0.251208961818986 0.334008967933206 0.439501794840858
-0.253375977518327 0.333111360640664 0.448905724982389
-0.251473346574552 0.333899456181765 0.458254866722063
-0.246321336827988 0.336033488492271 0.466508991482144
-0.245641596375145 0.336315046206732 0.481096997127118
-0.245946826532762 0.336188615735802 0.490230253453671
-0.253005818468544 0.333264685539319 0.499810200500034
-0.246975236533901 0.33576263436565 0.502677212763568
-0.245269642302067 0.336469114628381 0.514904263323031
-0.247771078028917 0.335432986024915 0.521778763953227
-0.247230087838127 0.335657071499051 0.531138432809188
-0.25070366611089 0.334218268268508 0.538583300202269
-0.250230856405539 0.334414112460886 0.55097960869464
-0.24843774314668 0.335156844291577 0.560506064894737
-0.246651284330422 0.335896819761891 0.56746435499943
-0.245837799060806 0.336233776393357 0.573526876043639
-0.250239421573968 0.334410564651959 0.580517408229714
-0.250416497682618 0.334337217326184 0.597602200031896
-0.24662397120064 0.335908133230678 0.60231533581612
-0.248111997562294 0.335291772530512 0.609008693208074
-0.252348661781047 0.333536888751885 0.616234193689438
-0.247823261088751 0.335411371093806 0.628662078911013
-0.247623037165974 0.335494306558132 0.637622591091227
-0.246970831613251 0.335764458943525 0.648744148472496
-0.250896607185438 0.334138349458691 0.649167228619819
-0.244111132651079 0.336948985037961 0.668240200009858
-0.252190081223792 0.333602574969428 0.666887238820432
-0.249605738240326 0.334673044883003 0.6776051676574
-0.247047896352835 0.335732537683208 0.695297650159333
-0.245672871426579 0.336302091656265 0.701912695693876
-0.250054486178447 0.334487167400946 0.706978070698304
-0.252041883885375 0.333663960316907 0.713411656962046
-0.2465633588283 0.335933239697349 0.728862406210579
-0.24673944265067 0.335860303390009 0.740709729646442
-0.248385863109963 0.335178333706401 0.742080926503627
-0.25107082032405 0.334066188013935 0.75153176786106
-0.248481588487625 0.335138682956711 0.7659645505262
-0.251847482972694 0.333744483811478 0.769664096022395
-0.251568945350231 0.333859857872333 0.771536991560042
-0.251760009072465 0.336265133850443 0.792392075699349
-0.253540120237459 0.333022085218867 0.797055864141867
-0.253490090477002 0.328019751321914 0.801377406122057
-0.248257809022886 0.319028158635555 0.802867304701733
-0.301869601752868 -0.277781361513891 0.317278319208544
-0.301733847640126 -0.277837592708537 0.327819587381425
-0.303282633597967 -0.277196064559586 0.353733777680495
-0.306862562643993 -0.27503391716221 0.365246719503456
-0.308275498274936 -0.27394973352031 0.37024667556085
-0.303466495188038 -0.277119906595379 0.38546964794513
-0.302621656089356 -0.277469850408077 0.393381114805627
-0.306074477821441 -0.27563863591537 0.402018990262622
-0.303085409882529 -0.277277757297341 0.415831432679175
-0.303712529738826 -0.27701799574763 0.421882597804313
-0.310427223818471 -0.272298656440032 0.432481395100472
-0.304704264315812 -0.276607205835568 0.453269461254188
-0.309126256978134 -0.273296923407087 0.465188642329199
-0.300440773129231 -0.278373201708108 0.465573397229281
-0.305005013058894 -0.276459265090365 0.481100350740641
-0.30382804600419 -0.276970147343841 0.487699965860273
-0.306259011861409 -0.275497037966303 0.503109407248913
-0.309018237785616 -0.273379809448727 0.509333953222531
-0.30709095044848 -0.274858669036102 0.520327377811031
-0.304359642385732 -0.276749952912898 0.5301094371309
-0.310167390500319 -0.272498033557426 0.551406463174624
-0.309286189455731 -0.273174202900773 0.557628673503965
-0.301451462200146 -0.277954560587594 0.557525144683754
-0.301004337683292 -0.278139765626543 0.568401874430422
-0.302061156312062 -0.277702017017538 0.580594237445642
-0.307180329627165 -0.274790085980132 0.60452434243193
-0.309703868196536 -0.272853706730648 0.615749218787983
-0.30745292591017 -0.27458091549536 0.615392739316012
-0.303335674289881 -0.277174094385637 0.626430045467086
-0.300296945017113 -0.278432777262798 0.635172754050667
-0.306818024102259 -0.275068092787288 0.655418596903552
-0.303114795886188 -0.277265585216083 0.665451889656904
-0.309727586713631 -0.272835506872367 0.680981621173465
-0.301532356437772 -0.27792105309725 0.682977956777752
-0.306940373094395 -0.274974211103669 0.689760860601243
-0.304212129371187 -0.276811054804149 0.702556685756264
-0.309379203723555 -0.273102830542805 0.71806158936994
-0.309891848485119 -0.272709464382011 0.728402787136173
-0.30205663819836 -0.27770388848151 0.740702053491437
-0.306568814843005 -0.275259317777566 0.746729518694514
-0.305307276244902 -0.276227330390269 0.763325093070126
-0.308809754083767 -0.273539784619709 0.776091650013099
-0.309846285612147 -0.272744426004092 0.786795018631451
-0.301492493741655 -0.28016985705651 0.788541689118006
-0.307829473240443 -0.28454706966889 0.798181626828905
-0.302039666735186 -0.2950425021097 0.802827986307994
-0.24213604139886 0.337767094621554 0.328918241955282
-0.239518657422252 0.338851250562602 0.334958038466944
-0.242931056114239 0.337437788744157 0.343394986386033
-0.240134612045114 0.338596113804007 0.359387938567038
-0.235975658936553 0.340318808586847 0.371651652721129
-0.240144926562213 0.338591841391136 0.371993990346304
-0.235864019124139 0.34036505131125 0.386360541617693
-0.234585326135261 0.340759212117368 0.397768457286414
-0.24143006902184 0.338059517954776 0.403227132732428
-0.241861475486444 0.337880823546241 0.40941249028745
-0.237768899599438 0.339576023983681 0.428150455605329
-0.236724405727015 0.340008667511454 0.433404054890207
-0.234993284579445 0.340705503369279 0.439106511771383
-0.237579756014589 0.339654369821761 0.448462233455716
-0.244436467652562 0.336814226868031 0.446436082782733
-0.238148818847244 0.339418656278633 0.456916490330292
-0.241614871879004 0.337982970104974 0.47712367480568
-0.236277931167626 0.340193603329208 0.483613525849691
-0.235874694622983 0.340360629374843 0.487914959578148
-0.238143217987265 0.339420976230797 0.50116649991978
-0.243648353727966 0.337140674344294 0.502906604571521
-0.239831056371006 0.338721850681157 0.512497420670267
-0.24022477110384 0.338558768699112 0.519939205397459
-0.239815410634169 0.338728331357549 0.529439792330369
-0.24317906733205 0.33733505913412 0.540387867839693
-0.241202473747036 0.338153791004333 0.549159031914702
-0.235287071950144 0.340604030655492 0.561770152203958
-0.234798418184591 0.340731158016857 0.570644953820972
-0.236004391062494 0.340306907350606 0.578617022424759
-0.237612737040948 0.339640708633342 0.585644212636857
-0.23652567008351 0.340090986510321 0.595760726677131
-0.240197063147696 0.338570245710332 0.601932018905405
-0.237744038142742 0.339586321936225 0.613674837050558
-0.23709298638352 0.339855996404701 0.623486782504173
-0.243542530757124 0.337184507654027 0.624533213386365
-0.235519246400615 0.340507860849269 0.6355109025233
-0.240736696089609 0.338346722427089 0.646783203869906
-0.238127890061956 0.339427325265344 0.661545515461054
-0.234540725960254 0.340765083841801 0.671066664254017
-0.235369318196532 0.340569963144782 0.681268431642148
-0.236676970650942 0.340028315763296 0.685705914436204
-0.235309602597997 0.340594698155581 0.691285732980556
-0.237499879944641 0.339687455573243 0.710053179503347
-0.238101581287159 0.339438222716674 0.7140408061354
-0.240517829232713 0.338437380047569 0.7224814836037
-0.238457684924455 0.339290719760495 0.72527539920932
-0.23891521711873 0.339101203720404 0.739721878946481
-0.239875781064947 0.338703325106354 0.750500360080927
-0.235561994702738 0.340490153922761 0.759167599292266
-0.236122854483442 0.340257838195004 0.761488759902667
-0.239869166016714 0.338706065149048 0.771058649562345
-0.242256579625198 0.33771716605342 0.782291028709435
-0.242406022509791 0.338472898932922 0.796037069716664
-0.242287080716134 0.334479013421601 0.800133285836525
-0.235584477372564 0.332208687084369 0.802463084638402
-0.238161199836981 0.318845354548516 0.801360692300855
-0.296911392133215 -0.27983511918344 0.315183771163939
-0.296341395165931 -0.280071219657801 0.324160284341764
-0.299158659727114 -0.278904270467765 0.343540154027146
-0.291135527857232 -0.282227560500978 0.350878492328359
-0.295900245375441 -0.280253949884059 0.366174526495705
-0.293918441933779 -0.281074839747554 0.376736878317279
-0.29705261684584 -0.279776621992129 0.390228907897104
-0.296764194527225 -0.27989609042819 0.400395138865365
-0.294075287231237 -0.281009872298151 0.41018714058159
-0.293606390088018 -0.281204095854232 0.415831534657306
-0.293144971690639 -0.281395221612354 0.431840789755157
-0.294429075773029 -0.280863328285929 0.443372026091956
-0.292859263616618 -0.281513565771494 0.454066348569644
-0.298034155780799 -0.279370055253271 0.465294817967626
-0.289876458778384 -0.282749083989401 0.471471264895756
-0.297128882673406 -0.279745031652005 0.492163104568923
-0.300169000602585 -0.278485773574526 0.495957217581599
-0.300305129706888 -0.278429387053289 0.507868268977569
-0.293787461577849 -0.281129093587384 0.51932926128836
-0.290075884644392 -0.282666479091013 0.525325131294187
-0.289726644926769 -0.282811138918572 0.538869533197069
-0.300915655344122 -0.27817649905417 0.548274462540083
-0.297501082009315 -0.279590861639165 0.561352475436454
-0.299031515734657 -0.278956935233815 0.568866754502364
-0.30066143722526 -0.278281799646804 0.580972076751873
-0.298639080400349 -0.27911948727164 0.593936801700687
-0.299964234980953 -0.278570590272113 0.613049886907943
-0.297603623267157 -0.279548387659464 0.613115112201244
-0.290443963246679 -0.282514015941927 0.628268924980621
-0.290143645963952 -0.282638411433447 0.63857690124649
-0.292404350430093 -0.281701996983054 0.652812442025131
-0.296364998116348 -0.280061442995626 0.658131199628347
-0.300537786423449 -0.278333017485912 0.674425049698882
-0.299380472865418 -0.278812392457567 0.689623867339169
-0.300039537894685 -0.278539398783959 0.695430491593512
-0.294199153347794 -0.280958565272755 0.706169537559948
-0.290381822881708 -0.282539755323868 0.713189456309411
-0.291689991677966 -0.281997894066584 0.726973923776852
-0.296199924651703 -0.28012981866347 0.731482497737291
-0.297232471312787 -0.279702123832665 0.751495216140389
-0.291663976733283 -0.282008669809497 0.754017432797024
-0.297374837857585 -0.279643153678982 0.771626533137298
-0.290375397834151 -0.282542416665705 0.772357084893839
-0.29160624741578 -0.287362400150456 0.789125478502554
-0.291475301543639 -0.287801697923708 0.791850965238427
-0.299261877644513 -0.295879897857836 0.802789562479071
-0.228843546654268 0.341515131726637 0.338448027080513
-0.229948411606117 0.341369673496229 0.345899652270157
-0.231821209870301 0.341123114927272 0.343688091843128
-0.230626749277265 0.341280368647615 0.356719681581
-0.225880046576647 0.341905283913456 0.369408483543273
-0.230836399046868 0.341252767731828 0.368816092601044
-0.228467649248831 0.341564619558899 0.384054653630788
-0.233098203986314 0.340954995462494 0.391314701975725
-0.235316548080741 0.340591821242432 0.397430906622104
-0.227491391164378 0.341693146374007 0.41887388770162
-0.230294596933342 0.341324097333271 0.426142658521097
-0.233571251959671 0.340892717515323 0.426362959815307
-0.234181737054606 0.340812345627835 0.439372316410771
-0.227378831249331 0.341707965167951 0.447506672977263
-0.228679949395762 0.341536669714317 0.452968778745936
-0.231515372148224 0.34116337922724 0.472539362991193
-0.226603623016104 0.341810023268006 0.472370069551084
-0.233027272999442 0.340964333704072 0.482708280195841
-0.227666225523036 0.341670128994026 0.489369335822389
-0.233816127349579 0.340860479058644 0.502815888944837
-0.234783327160058 0.340733144787929 0.506845173165507
-0.231791808709303 0.341126985663549 0.521041186395191
-0.234536865834097 0.34076559203705 0.52474284934961
-0.226335468877855 0.341845326430045 0.53075844517804
-0.226271126406998 0.341853797277033 0.54595846429125
-0.234269739424724 0.340800759896015 0.5534726145998
-0.22736477500749 0.341709815707296 0.566301343740797
-0.229798997054472 0.341389344295129 0.57748403158092
-0.23440701716965 0.340782686938032 0.585869716257543
-0.227341843875473 0.341712834648099 0.593369180222648
-0.233566447214801 0.340893350071986 0.599393080768124
-0.230055675405 0.341355551949205 0.605533876338177
-0.227862069332928 0.341644345667317 0.614595677219842
-0.22892813296664 0.341503995727351 0.622198807356912
-0.234220897555339 0.340807190050107 0.635373996294519
-0.230747406252026 0.341264483855536 0.641744299741636
-0.235356524767664 0.340575262356529 0.643310240485837
-0.233351152486058 0.340921694160742 0.660857618127447
-0.231804755102668 0.341125281238528 0.666510156481385
-0.232688331112853 0.341008956249978 0.684507157485804
-0.226896194229541 0.341771505537035 0.688158077618895
-0.227339474112492 0.341713146633314 0.700692527729924
-0.226968735665663 0.34176195527579 0.701422145996321
-0.22880019359828 0.341520839264735 0.714389957378767
-0.229528486147073 0.341424957731712 0.724308882879699
-0.226243312055739 0.341857459105846 0.733096448694356
-0.234513028030517 0.340768730343428 0.743471417954402
-0.227893366747434 0.341640225284528 0.74543540450736
-0.235122769108714 0.340672087120748 0.75190241653128
-0.233833549756319 0.340858185355282 0.764998856645869
-0.230328094875393 0.341319687245536 0.773111029291699
-0.234111718750828 0.340821563712404 0.781682644860959
-0.230312784869634 0.342683061210195 0.791374535820136
-0.22635864401178 0.34133561236977 0.796260222105563
-0.235938973074701 0.327353875973166 0.803262715114124
-0.286013546454012 -0.284349154664414 0.31330530999937
-0.284488631634543 -0.284980795064102 0.316602464192732
-0.283597314799966 -0.285349990585356 0.326800125188182
-0.286515504012471 -0.284141237035965 0.333339978562038
-0.283269264346238 -0.285485873532433 0.34934449767287
-0.280659390217291 -0.286566918792729 0.363508580007883
-0.28264542798816 -0.28574427501265 0.372931100927981
-0.288217567372243 -0.283436219308329 0.382692574569994
-0.280557002006168 -0.286609329378402 0.394685515541357
-0.281251305132146 -0.286321739607225 0.402176149389199
-0.282980360673445 -0.285605541351922 0.415312707654028
-0.287674516293841 -0.283661158430065 0.422067713961737
-0.280329469270733 -0.286703576523304 0.431176837774595
-0.283988278026311 -0.285188048314615 0.451361041649559
-0.280761781999154 -0.286524506728006 0.454397741525736
-0.285059424930317 -0.284744364739681 0.470277312381113
-0.288848389584494 -0.283174924192569 0.486322091837104
-0.283531390055722 -0.285377297508518 0.49297005500517
-0.285547292272498 -0.284542283469911 0.502015398056242
-0.285305572169523 -0.284642407214861 0.517033817114173
-0.288794211811113 -0.283197365361082 0.523806176890089
-0.283093764903437 -0.28555856778183 0.537827921153534
-0.281906715492296 -0.286050259747131 0.548622416016361
-0.286864366271251 -0.283996733556978 0.556203364400712
-0.285805260453541 -0.284435429550662 0.567984690732268
-0.282073721722024 -0.285981083501778 0.574312741112135
-0.280939359136086 -0.286450951869521 0.590617412717376
-0.283199738739139 -0.285514671981826 0.603868924324993
-0.290005247482364 -0.282695737961533 0.607676725864718
-0.282898517946923 -0.285639441719229 0.6250768706542
-0.284018471983983 -0.285175541567845 0.635747669621412
-0.285949140508098 -0.284375832480709 0.653004422993613
-0.281715463448608 -0.286129478937458 0.655795188297387
-0.28896878269922 -0.283125055731633 0.669199301535699
-0.287989892439463 -0.283530525353299 0.680002973042109
-0.281721003696941 -0.28612718409146 0.688660371726
-0.284692141999569 -0.284896498310825 0.701618980535805
-0.279719982831203 -0.28695603407264 0.710854911130152
-0.280179735690123 -0.286765598203135 0.72095914765509
-0.285026549554378 -0.284757982166263 0.734351220114621
-0.288431621020348 -0.283347555384209 0.749499371024427
-0.279998779697175 -0.286840552629607 0.754880769809765
-0.283947522387648 -0.285204929852892 0.761104409810515
-0.282978712728446 -0.285606223953091 0.777487495159503
-0.28009142890632 -0.286802176070636 0.782076789163261
-0.28194143721071 -0.292668353040011 0.794261144044092
-0.288478887179525 -0.302264262288202 0.803024852030807
-0.222102742747705 0.342402575396682 0.335931888761295
-0.220004198534634 0.342678853983631 0.340309699926423
-0.22546178252812 0.341960349420095 0.351891451152294
-0.22290136497039 0.342297434786437 0.357865642920379
-0.218295364189005 0.342903826293196 0.363820011442125
-0.221058900740367 0.342539999804035 0.385145278888865
-0.220394103452694 0.342627522027347 0.39292337935549
-0.226111763409531 0.341874777813673 0.393185008584153
-0.219169244048465 0.342788777827107 0.408747677962668
-0.224168277047433 0.342130642647271 0.4160784972702
-0.221564653984654 0.342473416126262 0.417728893307304
-0.225064968248179 0.342012591011128 0.430043693839748
-0.217333321179073 0.34303048165824 0.438859111666873
-0.217118344052172 0.343058783933921 0.454214777924881
-0.220506823485339 0.342612682153521 0.463106621935977
-0.218019942211555 0.342940086284418 0.465256428880216
-0.222759383295691 0.342316127028523 0.47371280478056
-0.217754159748307 0.342975077209519 0.477728495011396
-0.218615396864749 0.342861693192125 0.494681917975078
-0.221885049154509 0.342431235301936 0.50403413804248
-0.224136776692447 0.342134789747679 0.504832360675334
-0.22169297183044 0.342456522761379 0.522070895958477
-0.217703178359107 0.342981789036738 0.526814195934232
-0.225747455660074 0.34192273983878 0.538754319905644
-0.222461542635277 0.34235533849535 0.547202529984932
-0.222003453851771 0.342415647027814 0.549742192175489
-0.216683930943266 0.343115975504693 0.564545597474789
-0.219992919804052 0.342680338856682 0.568780485966164
-0.222478197021721 0.342353145903779 0.57931813854429
-0.223312516713943 0.342243305632511 0.593025508470491
-0.217322642379884 0.343031887548824 0.601441088326065
-0.224366528912322 0.342104542294107 0.608615680021711
-0.223053487497654 0.342277407475783 0.611324757068477
-0.217429519405616 0.343017816921452 0.628593342998756
-0.219275995981338 0.342774723668521 0.640167746248621
-0.218138218571022 0.342924514906289 0.646769685913625
-0.220330442298042 0.342635903177356 0.658753611583211
-0.218884567897475 0.342826256153388 0.659267778091332
-0.224617340467717 0.342071522326415 0.671306287450103
-0.22320187034384 0.342257872503484 0.673068859805022
-0.220974092914623 0.34255116496611 0.687988122192439
-0.225940746122782 0.341897292666605 0.694162838593017
-0.225375433799569 0.341971717445872 0.709853822830766
-0.218709563568504 0.342849295910386 0.71363262417964
-0.225199299414515 0.341994905977576 0.72025383926881
-0.218157769565282 0.342921940969064 0.728129788881989
-0.222681398075376 0.342326393977552 0.739271909465806
-0.225591551071142 0.341943265067298 0.753436016837417
-0.217712764601516 0.342980526983982 0.75768841293284
-0.224354452441519 0.34210613219165 0.763086659674558
-0.221385266546194 0.342497032930571 0.769040055765463
-0.218247895835576 0.342910075620481 0.780966886018962
-0.222485178030792 0.343395901936079 0.792812359525798
-0.222502885932039 0.338852300033715 0.799668703671782
-0.223900151573005 0.331502967863697 0.802977617442783
-0.275118873719448 -0.288861875868688 0.312186097996432
-0.278655017011662 -0.287397157358558 0.320024593328759
-0.276071822448004 -0.288467151581073 0.323187653831172
-0.278539593169024 -0.2874449674796 0.337276224437406
-0.275555651146296 -0.288680956734748 0.345336947292104
-0.271365631839404 -0.290416519558268 0.359620837420768
-0.270879414522721 -0.290617917365099 0.370264502537364
-0.269024543752272 -0.291386229994668 0.379238817350642
-0.275039743090595 -0.288894652848358 0.387740399433691
-0.271444637775549 -0.290383794228009 0.403620183845293
-0.277774831722607 -0.287761742042686 0.41129205633259
-0.278410282051035 -0.287498529898436 0.428110988105239
-0.271901751102309 -0.290194451688523 0.431090857514587
-0.268781379990185 -0.291486951722803 0.449094341564189
-0.272785378175136 -0.289828441370879 0.454597962886565
-0.274128015855034 -0.289272302634512 0.47127060606679
-0.270111668341928 -0.290935928245643 0.47578373873196
-0.2761268920843 -0.288444340990845 0.487270792770987
-0.27350738236237 -0.289529377444436 0.506965850978603
-0.275211090864726 -0.288823678276431 0.506147220185064
-0.276806887793294 -0.288162677545824 0.522072714910746
-0.268928280105288 -0.291426103702813 0.530448088909466
-0.273370103427599 -0.289586240241047 0.550462595133698
-0.271264032795272 -0.290458603260271 0.558301865447564
-0.277792980487523 -0.287754224578117 0.565094734424945
-0.268984000123094 -0.291403023715742 0.581439831233496
-0.271467577064025 -0.290374292463612 0.587546172467304
-0.276786608305887 -0.288171077584545 0.597773679249398
-0.278067769575966 -0.287640403210892 0.612920699615925
-0.276677745849493 -0.288216169890418 0.618522124333929
-0.270061972918454 -0.290956512764034 0.627200933382192
-0.277236513738787 -0.287984720652453 0.649163709002536
-0.275293980730365 -0.288789344169899 0.652668397097414
-0.278490658206861 -0.287465237004602 0.66686529109497
-0.27635085304992 -0.288351573321444 0.675690533149886
-0.275554046774467 -0.288681621287319 0.68869878033044
-0.278081516180454 -0.287634709180876 0.704782597482549
-0.279035866539821 -0.287239404318771 0.7079293270728
-0.273486979859674 -0.289537828437759 0.719811957715381
-0.273424531282623 -0.289563695485324 0.731597714756109
-0.273259378023812 -0.289632104204995 0.739034293533256
-0.274037403477397 -0.289309835510247 0.75457545530489
-0.273424324632244 -0.289563781082715 0.763085432637562
-0.27817439419933 -0.287596237845811 0.778226147310035
-0.269792709946394 -0.291121752657663 0.788541689118006
-0.270141957834582 -0.297160651907967 0.79337205457661
-0.276732972008257 -0.302195065125927 0.801636536673347
-0.27896401147366 -0.310900411985068 0.802972571185024
-0.210547727681471 0.343923821989812 0.337031484158009
-0.213615278603665 0.343519971249428 0.351148399292397
-0.216808800152541 0.34309953616142 0.34582643401033
-0.209568448876485 0.344052746490323 0.361021845379063
-0.215737754501179 0.343240541996452 0.367279455295592
-0.208742934790656 0.344161427481516 0.377536912681275
-0.208509926559213 0.344192103597144 0.386215790870867
-0.216372336986359 0.343156997627353 0.401793832687613
-0.208556552139941 0.34418596522299 0.403773232952103
-0.209280838561016 0.344090611106687 0.408519631972492
-0.20997118793854 0.343999724886927 0.428129267524807
-0.208524036209155 0.344190246026489 0.430119111642584
-0.212248751234613 0.343699877990586 0.441890075831634
-0.212189204800817 0.343707717427318 0.449916582660586
-0.215083094707176 0.343326729593403 0.458411004931028
-0.208740703578139 0.344161721226217 0.469039645789912
-0.214227700542489 0.343439344371605 0.477521149607202
-0.215098261650672 0.34332473282741 0.4865523895348
-0.213865500304231 0.343487028937598 0.487582274383125
-0.213486216051922 0.343536962656711 0.508396422192819
-0.2105341605698 0.343925608133948 0.511170996524504
-0.215152951063144 0.343317532829667 0.524107690414045
-0.215952587806176 0.343212258655284 0.531667591770598
-0.208482392240702 0.344195728558945 0.534718526231036
-0.215338993781204 0.343293039841176 0.547664484375306
-0.216946575499758 0.343081397692853 0.555203767495131
-0.212073462171979 0.343722955233482 0.569812676439604
-0.214122647260901 0.343453174898507 0.574950481296745
-0.211633158906087 0.343780922258132 0.577387628209825
-0.215910825610462 0.343217756752655 0.588497620698611
-0.213377840454542 0.343551230574783 0.599342689293257
-0.216190203418318 0.34318097596648 0.608230415224052
-0.210576687626065 0.343920009340776 0.621332145602286
-0.216417892652299 0.343151000110153 0.624514880174036
-0.209682301369996 0.344037757525195 0.634130635442056
-0.215860670232242 0.343224359833465 0.64355976712251
-0.214381604850323 0.34341908248509 0.647577648015104
-0.217116808398665 0.34305898610654 0.659196656255561
-0.213545067472147 0.343529214720252 0.66660051601108
-0.209493920890395 0.344062558285832 0.68523673450373
-0.212227244038923 0.343702709466615 0.687606484762388
-0.210724594581588 0.343900537020671 0.702262640668808
-0.213184060661975 0.343576742168457 0.704872019024674
-0.214626591870532 0.343386829332002 0.716659236747827
-0.208520593706996 0.344190699240496 0.724067114049561
-0.208561896830891 0.344185261581077 0.729552848042678
-0.214772453914623 0.343367626229595 0.736256335782729
-0.214559222534717 0.343395698673323 0.756306868960354
-0.210406771716407 0.343942379194662 0.765302794270547
-0.217120167684332 0.343058543848192 0.766067941889932
-0.215347366514247 0.34329193754996 0.781158650186049
-0.207758568389425 0.344291021776779 0.785816701149423
-0.213061374594479 0.344092451398343 0.794125976090602
-0.20975576434612 0.338281813038647 0.801356011338618
-0.214354053536311 0.335803614638755 0.802131759670317
-0.26741689781026 -0.292052138747344 0.306918343883906
-0.258912295773639 -0.295574860253498 0.307804313962711
-0.268119314991735 -0.291761188024333 0.326540701091214
-0.258559174399438 -0.295721127915856 0.324829260951063
-0.262270181176619 -0.294183978578689 0.341015869257419
-0.26406554870616 -0.29344031299851 0.362783664382078
-0.26369963262772 -0.29359188040089 0.35839335820713
-0.260006435094792 -0.295121652907551 0.379716531323039
-0.260951974300641 -0.294729997744733 0.384880120386333
-0.268918389191732 -0.291430200653351 0.400070512856006
-0.264719177415532 -0.293169571122331 0.406680998642447
-0.265332907658476 -0.292915355732065 0.424211290692052
-0.261424358976228 -0.294534329605448 0.429540230490922
-0.267338175068187 -0.292084746774778 0.442092901790699
-0.26751694275052 -0.292010698776242 0.459566455577931
-0.263303999759832 -0.293755756900489 0.455624970414755
-0.265185529603077 -0.292976401721407 0.478066952943313
-0.262625027944783 -0.294036996234752 0.480604265109197
-0.262126283228546 -0.294243583060379 0.490391715573428
-0.268039102766384 -0.291794413015941 0.514556172981731
-0.263449098646102 -0.293695654973912 0.524187449399483
-0.268616081953381 -0.291555420411481 0.529557861497184
-0.264629943636735 -0.29320653296373 0.535359850150521
-0.267378419710485 -0.292068076898125 0.557192113842086
-0.262148799023023 -0.294234256712938 0.561164832834247
-0.26178675288201 -0.294384221134751 0.566990980073433
-0.262236471166133 -0.29419794172222 0.5792869920328
-0.259840465933161 -0.295190399585234 0.59069210883222
-0.263226038441632 -0.293788049535828 0.607173204819819
-0.261310855439354 -0.294581344309798 0.611247572449916
-0.258300235214109 -0.295828384038249 0.628893824794944
-0.260859438793841 -0.294768327206651 0.636003727931279
-0.265356602333176 -0.292905541076448 0.654992190753714
-0.267028556332364 -0.29221299505432 0.663011800193033
-0.261650243519939 -0.294440765163912 0.671538021610493
-0.259745599000057 -0.295229694755547 0.682695846831351
-0.267812257457641 -0.291888375419384 0.692446976265959
-0.263059784174364 -0.293856914308132 0.697627974770271
-0.260213661730321 -0.29503581682463 0.722940548423014
-0.26742183768621 -0.29205009258373 0.730334360546219
-0.259595168107143 -0.295292005271592 0.741801329068709
-0.266696719559605 -0.292350446346092 0.746920737990671
-0.266035536996318 -0.29262431713101 0.757397060022564
-0.268784949870325 -0.291485473030033 0.772450586192083
-0.261322755164035 -0.294576415282447 0.782171433256615
-0.262032056424555 -0.301251311822091 0.795017541738804
-0.264400360793353 -0.30063429246855 0.795836348489304
-0.268303453027682 -0.316814811385028 0.802788715722521
-0.206447742782477 0.344463595241835 0.332432434125493
-0.199962186639306 0.345317434906327 0.344115527202483
-0.200858286328107 0.345199461144209 0.347305528265336
-0.205416999065333 0.34459929522657 0.35745549537507
-0.200377287882454 0.345262785790915 0.372157878702478
-0.205818434547249 0.344546445242756 0.379073890604381
-0.204684547699635 0.344695724278225 0.385434344270936
-0.208071295415815 0.344249850482692 0.395760696588922
-0.202376442842427 0.34499959204737 0.400737609555301
-0.200308916146078 0.345271787100773 0.416024381398527
-0.200054188012612 0.34530532269575 0.423209136942177
-0.202152324179539 0.345029097829096 0.437592059187571
-0.202062787091607 0.345040885610349 0.441121564342222
-0.199905041948472 0.345324958147599 0.45700496140693
-0.199235660469485 0.345413083891147 0.465022679615342
-0.201944358544426 0.345056477024371 0.471018866104245
-0.199434882530696 0.345386855809214 0.480262963637839
-0.20602311954728 0.344519497951283 0.493061493650067
-0.199898086802417 0.345325873809948 0.497224985379653
-0.206364711428225 0.344474526527001 0.503405012248875
-0.207725066977905 0.344295432321278 0.51452434073832
-0.199763834257353 0.345343548492813 0.521957364229031
-0.199247892081287 0.345411473568904 0.528581458952274
-0.206181687151957 0.344498622130091 0.540799824808458
-0.202729455800024 0.344953117009822 0.541878881548561
-0.200389139894281 0.345261225443957 0.556206779013498
-0.205912485254216 0.344534063232283 0.564438866201999
-0.203876740751138 0.344802074080563 0.575495440844427
-0.205211421065464 0.344626360083702 0.588661496641091
-0.202298195607022 0.345009893491341 0.588815719612788
-0.203189616215019 0.344892535741896 0.593705949829459
-0.207048097323638 0.344384557067054 0.605905555767692
-0.206242497779964 0.344490616259034 0.616080088231486
-0.198884795883336 0.345459276090228 0.630111650256853
-0.207820710039591 0.34428284067333 0.633009916432274
-0.205656804807308 0.344567724201703 0.651822868094517
-0.199693234584586 0.345352843116062 0.654422081469303
-0.200419126082993 0.34525727768732 0.659472800254747
-0.201173126606576 0.345158011635208 0.675415652639487
-0.205946688330468 0.344529560311869 0.684506102700803
-0.206389558484823 0.344471255349942 0.687846545717598
-0.200654267343753 0.345226320753054 0.702289822379587
-0.205397162248101 0.344601906793103 0.705339406408699
-0.200711280072048 0.345218814884981 0.713046638471952
-0.207160781979713 0.344369721850641 0.726079116934399
-0.207164061864894 0.344369290045565 0.737190353059253
-0.206920196088587 0.344401395584092 0.737630235014832
-0.204916002859794 0.344665252628311 0.74585419791616
-0.203874307454532 0.344802394430139 0.756993357810805
-0.20465898968422 0.344699089054788 0.771076141514073
