ply
format ascii 1.0
element vertex 836
property float x
property float y
property float z
end_header
-0.0531427379969698 0.493786457275729 0.562477021507348
-0.0512909978837282 0.492438767473826 0.580220957654148
-0.0514613713558153 0.492354668293415 0.58255314081533
-0.0513721880454629 0.491870463714249 0.591396378303582
-0.0535859855272922 0.491894798082771 0.600416717556292
-0.0492493260431731 0.490823583615305 0.602247647967539
-0.0461864489789615 0.48932986423315 0.615324725053335
-0.0536705922764605 0.489721756203641 0.630058094827986
-0.0525605397308464 0.489366974443122 0.631258519775844
-0.0508820476470542 0.488462506705925 0.637273678014504
-0.0487012810769418 0.487170457860451 0.646423287716095
-0.0541036986752627 0.48737389905134 0.65796524618983
-0.0518792295590945 0.486776428767403 0.659075595497303
-0.0531431340721309 0.485506412718037 0.676813536822732
-0.0538172044228131 0.48576237213862 0.675622128068758
-0.0532306422365249 0.484872124789966 0.684277125121274
-0.051136166843428 0.483956542338847 0.689130235254127
-0.0510489819646484 0.482977465762498 0.696932684339208
-0.0545205900692614 0.48195992056442 0.711555273044535
-0.0463247777708022 0.480128130205717 0.711465245755561
-0.0541105100158599 0.480230611948239 0.724868203192036
-0.0521631990439206 0.478730745966213 0.73350444949051
-0.0543041659703457 0.478873659592106 0.736257066950983
-0.0544540207204841 0.477500386571403 0.747698559413707
-0.0486961949473159 0.475589302880679 0.752711245780273
-0.0503100278514888 0.47500415195176 0.760420623795101
-0.0480173509020603 0.474230569586514 0.762519211411163
-0.053779951333792 0.473754337432466 0.774232705679072
-0.0478372934582085 0.471338027908822 0.781041666716396
-0.048607425543175 0.470320505194739 0.788547932640891
-0.0508835869457082 0.468827733044292 0.801185043566658
-0.0541718703489529 0.469237174767048 0.803265040689298
-0.0522643166990457 0.466787838807697 0.816002001461322
-0.0526919535979764 0.465814414419993 0.822744775723886
-0.051264015131454 0.464538236544131 0.828765852838286
-0.0500335995481148 0.463553616191124 0.833228903539684
-0.0513051893526534 0.463244792638174 0.836978257799793
-0.051215365986491 0.460893188085145 0.84968222829059
-0.0547178289186526 0.459896229063748 0.858848590656584
-0.0481212400792919 0.456883042899474 0.866707239203353
-0.0497300150529318 0.455334538799047 0.876519493226565
-0.0537041714889553 0.456174730231931 0.876793859668076
-0.0505643723739589 0.453333757293796 0.887760488710437
-0.0549935762864696 0.45225202073549 0.898432706169995
-0.0536199647307349 0.451645966657854 0.899959277888037
-0.0494008247104143 0.45014874909546 0.902776870036775
-0.0503721612503273 0.447789516573106 0.916017313704398
-0.0508653892000745 0.452843275551923 0.927675307358877
-0.0535186736767459 0.453549846497781 0.940017494159983
-0.0492937476179905 0.452597180201229 0.940026826954278
-0.0469637918826813 0.445555745073763 0.953582151313823
-0.0537562596263909 0.445654129598494 0.955468963038224
-0.0480432696776178 0.440023064876733 0.958867650574327
-0.0493884519634976 0.43308561753864 0.962840839940669
-0.050874147514325 0.424467001972698 0.964511840035524
-0.0495806336219867 0.415767235117667 0.963225860853929
-0.0693366222425236 -0.313333394215313 0.410881738796519
-0.0665507967206164 -0.313359131201085 0.413534044752928
-0.0609803029791217 -0.313608767166761 0.42449818994105
-0.0704792873734912 -0.316519106824787 0.435512575846632
-0.0707818958121947 -0.317753630484844 0.444825081135771
-0.0615285947472362 -0.318003754851462 0.461665831575826
-0.0665185594352369 -0.319760232099312 0.470215422236735
-0.065428648924623 -0.319371329984348 0.468273870780579
-0.0641567247811391 -0.320118438248319 0.48296433376393
-0.0621683352088098 -0.320733237428844 0.49811993092691
-0.0677465529224331 -0.322590576433728 0.506177913172712
-0.0678343730738019 -0.323151003556454 0.513804568378717
-0.0679213486428089 -0.324102817734142 0.528185971408311
-0.0650607141211922 -0.323468985320594 0.539692548380758
-0.0683621007093202 -0.324258001611631 0.552147416907818
-0.0629640940918842 -0.323042695201779 0.565241189509327
-0.0697570639189676 -0.324126537622224 0.569271744704171
-0.0629883201045891 -0.3230993490888 0.588086567803902
-0.0681798741727912 -0.324311699542457 0.594964356814844
-0.0613641919003783 -0.322574206637981 0.608809680872781
-0.069772676369738 -0.32331991941042 0.619288124923772
-0.0677604161704237 -0.32267728345257 0.629494806213209
-0.064430871930925 -0.321028616127657 0.64277203889331
-0.0623845391401621 -0.319753487445323 0.654879757977857
-0.0617006359393773 -0.318407769982627 0.672788632347208
-0.0632971900231847 -0.318807693453214 0.67231082660414
-0.0708981331015905 -0.318376236298698 0.6872842635432
-0.0685969388693703 -0.316056603885532 0.708003520205605
-0.060827469347577 -0.312828949859815 0.718581528948653
-0.0707544145119238 -0.31333643152929 0.724709028603252
-0.0613975211232737 -0.310310610015329 0.738133306912882
-0.0618072077116759 -0.309993295732845 0.741172433801005
-0.0632986186629893 -0.308420057879265 0.755320750632491
-0.0701204038700827 -0.304566203255593 0.781131160039929
-0.0695376126382875 -0.303691656630811 0.78603341921527
-0.0645943745512857 -0.299621565974415 0.802133114922734
-0.0707157791591487 -0.298106369433684 0.811804591420643
-0.0668620903894965 -0.295255973800007 0.825867463247803
-0.0609308330908514 -0.292423865329838 0.832951507302335
-0.0705571813916817 -0.290888033529627 0.845330472532637
-0.0697220321889987 -0.286716552706949 0.861001919633249
-0.0681262657892161 -0.280332133236272 0.88430505293466
-0.070541675897933 -0.278713868771621 0.889032948660952
-0.0694427286011932 -0.275867844395849 0.900169227984588
-0.0650530505144249 -0.269382256658171 0.919044704711924
-0.0667131914605799 -0.265790537426089 0.930476535287717
-0.0621796067975723 -0.267997013413187 0.949094726139948
-0.0678783085846355 -0.268533361122964 0.948050967420607
-0.0708669767434095 -0.280648251468124 0.96039110495384
-0.0679454488793262 -0.281608760871056 0.960777642913961
-0.0624565400700436 -0.304655973862883 0.962702653363711
-0.0436340070144608 0.493924159703537 0.48706200582734
-0.0393649131810252 0.492947586105666 0.488014500985563
-0.0407830407194497 0.492910108296511 0.50839914337538
-0.0443960827368418 0.493623737730054 0.514049617912354
-0.0376280201002632 0.492161241570595 0.510655716137744
-0.0412353074585167 0.49269760853931 0.526372307430348
-0.0430420479501639 0.492990383681341 0.532863692848228
-0.0424059128381918 0.492513356959744 0.540735893032703
-0.0382197503695005 0.491044931989591 0.550779404584461
-0.0456310052610485 0.492446362007258 0.555828698374145
-0.040637123768575 0.49081081118277 0.565596082444171
-0.0414181893658481 0.490811434526088 0.568930312769371
-0.0448835439702411 0.4909946377422 0.580285510673087
-0.0453817550341452 0.490481959497046 0.592187656004019
-0.0410423781751401 0.489284117678065 0.596419511022635
-0.0427526851164765 0.489018799868939 0.608801477140014
-0.0428545091756282 0.488423199368845 0.617121845998219
-0.0393315325717755 0.487436376277166 0.619343556800323
-0.0405379677955455 0.486824326752826 0.62942475632602
-0.0435839949839451 0.487111170913224 0.633967831293996
-0.0416632206685211 0.485398195337618 0.648588605653487
-0.042452372383664 0.485121788410971 0.653768330023435
-0.0400779905614784 0.483539784937005 0.665730284255201
-0.044755612320115 0.484396564043875 0.667955818875366
-0.0419705334114818 0.483340496846695 0.672861409951662
-0.039214291242237 0.482235631435464 0.678397928410735
-0.0426060247344503 0.481149059465308 0.696363229187529
-0.0407936895742402 0.480398395384363 0.699153757852509
-0.0411477811800863 0.479533888772926 0.706831403335559
-0.0408058808063825 0.478288665245708 0.716332412630698
-0.0399648338298993 0.477336818804353 0.722534976402569
-0.0457199003313838 0.477122600633345 0.734800237097772
-0.0455083190823944 0.476935927549251 0.735931386099044
-0.037922745665461 0.47411015635898 0.745040260497639
-0.0409826684577352 0.47426651828158 0.749363842241604
-0.0405836877956925 0.473363811549833 0.755975126625064
-0.0420810669883614 0.471689953355671 0.770663579410304
-0.0403321201390365 0.470618412539535 0.774939565357184
-0.0380928708048459 0.468741132818741 0.783600026892924
-0.0396273853738756 0.468858687158507 0.785034137193566
-0.0437876420838741 0.467593418610343 0.798907757699445
-0.0448418308759169 0.467075129817462 0.803669440419335
-0.0450790396840859 0.466137000231154 0.80991977808027
-0.0426706225903735 0.464074813142272 0.8195061231013
-0.0396076003186648 0.462550216400795 0.824775519258031
-0.0429624739668062 0.461746418664534 0.834598329426456
-0.0440621778053518 0.460876720269877 0.841504911103438
-0.0444383347170605 0.460008154156266 0.846400891744811
-0.039519042026139 0.456775049997429 0.857326453233382
-0.0465097443294937 0.457724648060325 0.860522935648084
-0.0433101509915446 0.454642754011557 0.872658030177159
-0.0437453214280889 0.453546379692425 0.878792342412698
-0.0401082314298054 0.452116597127932 0.881935810210645
-0.0467357139618986 0.451574941326736 0.892372825347755
-0.0389570475119293 0.447689734272633 0.903345445250023
-0.0451658002268136 0.44816546550636 0.908072867098916
-0.0444624813933814 0.447404103676496 0.911171386177598
-0.0419846717019491 0.450244016619757 0.925363181202002
-0.0435997591703219 0.451665379641204 0.938810813193914
-0.0397706458248235 0.450911511518794 0.93843704673216
-0.0459726524870741 0.447781075622346 0.950349465891503
-0.0456495790116899 0.440580944963631 0.958190216734083
-0.0433152073159449 0.436782482239871 0.960213394220941
-0.0455067680341106 0.435058684318764 0.961583315436108
-0.0448775628673811 0.422233754791318 0.964630205077123
-0.0584967127521205 -0.30942779343293 0.398747547433724
-0.0500603919700472 -0.308307402706356 0.404656134588372
-0.052142910770244 -0.310046733810111 0.413639027528339
-0.0565514869742025 -0.312261146639935 0.422178945612271
-0.0500363098285286 -0.313033655561902 0.438432629157977
-0.0585566786088322 -0.315309264876905 0.440631647494352
-0.0510138089268353 -0.315201735698828 0.456346097068247
-0.0555370178900011 -0.316951838999164 0.466325704134035
-0.0542183645072192 -0.317666194369128 0.480705906240793
-0.0595895220607638 -0.319851019287592 0.494061947551885
-0.0527819566842747 -0.319042709217327 0.504818580498391
-0.0589706720854776 -0.32093640411521 0.511401758256096
-0.0503229452710122 -0.319337588679195 0.516989845638287
-0.0546772672998734 -0.321057638536658 0.531945865068934
-0.0608904636619025 -0.322519625836515 0.545124480012002
-0.0518451071823826 -0.320445848168208 0.550376038631629
-0.0513606013421868 -0.320374274879905 0.568330606178617
-0.0532825722631565 -0.32082540486272 0.571907709227214
-0.0593428528936329 -0.322245962899803 0.582324977536016
-0.0581434152741284 -0.321995394800732 0.593945703098629
-0.0514237010637235 -0.319976655257418 0.613405792950316
-0.0516538376622869 -0.319768350689285 0.617346152403083
-0.0509620177327371 -0.31896613477267 0.627034197354886
-0.050274014494496 -0.317484638249673 0.646975690138307
-0.0543045406216659 -0.318212460805308 0.650017464472216
-0.0534300622766949 -0.316568289942519 0.671762923601266
-0.051450604054635 -0.315654099930116 0.678661996282685
-0.050133307299582 -0.31380460183676 0.693164501389811
-0.0557448900502685 -0.31409851027108 0.700555881005705
-0.0567910698647628 -0.312256066087014 0.715931942894828
-0.0557194956205941 -0.310185019780817 0.729386862022854
-0.0527213917467641 -0.309387518997747 0.730163366609797
-0.0600107960245847 -0.308208952519758 0.751277189402189
-0.0594416923522719 -0.306267214901437 0.764092980569413
-0.0571500166795535 -0.302753506973391 0.778572459449086
-0.0603604936197214 -0.303534784198071 0.778386186860362
-0.0550308037396694 -0.297307850404864 0.802621979612224
-0.055384186272825 -0.29574146076069 0.810621028713887
-0.0564705604569861 -0.293580001968735 0.822331319822459
-0.0511425467048214 -0.287801648946671 0.843333591055412
-0.0557163997250566 -0.286499426768484 0.851821268286877
-0.0562867639639178 -0.280931626307215 0.872282063732236
-0.0597939575969466 -0.280295732298631 0.877488675566909
-0.0569184574573003 -0.275827590683987 0.891129338663941
-0.0586536561175706 -0.269818876237534 0.914143943147571
-0.0504998505931528 -0.266226890534942 0.918563501676351
-0.0556305910480282 -0.264714597364506 0.924039217295568
-0.0545412050026825 -0.264969303885924 0.946559418828021
-0.0545834250836751 -0.269340272665748 0.953201125662328
-0.0556224805653426 -0.276901470750865 0.959639672949507
-0.052265145007467 -0.288418108343816 0.9640158689132
-0.0536992482281714 -0.312466107242313 0.956808225530167
-0.0309397131055768 0.491166623292112 0.481523152243748
-0.0363629715876879 0.492160006449544 0.494454600391994
-0.0346965602674371 0.491776534805401 0.494956418246665
-0.035046656680636 0.491671178134636 0.505486387944231
-0.0296901277707585 0.490332145130502 0.513185835216913
-0.0344615249890228 0.491196591902184 0.525108362462228
-0.0350512076954659 0.491111215925468 0.535942406561374
-0.0326273665392907 0.49057889669506 0.535700609181069
-0.0307413259542467 0.489238647304091 0.553155842830937
-0.0335186781563787 0.489900629962841 0.552441680554824
-0.0354265157395467 0.489658597352085 0.565226232461352
-0.0308208751204336 0.488625189650579 0.565184527368737
-0.0341359439526874 0.488509804836557 0.581584741318019
-0.03441457310222 0.488426430811831 0.584366878768787
-0.0294073820495528 0.487022892876715 0.589656821852954
-0.0329548113407611 0.487116449713772 0.603071616413658
-0.0337911833407193 0.486930728274762 0.610193112359572
-0.0303529327628924 0.485201219194864 0.621811960090587
-0.0326415188430224 0.485588255318373 0.623267799292686
-0.0358684950564826 0.485600533082839 0.63140881026617
-0.0296616034032699 0.482840830950915 0.646976575740765
-0.0320205510726399 0.483357895897698 0.647128980944692
-0.0300352728750469 0.48208898806448 0.656516152532913
-0.0319025840523807 0.481085009475436 0.672766327450868
-0.0324825903937218 0.481448288941693 0.670108703741435
-0.0305121495496429 0.479926349503328 0.682421759029339
-0.032703499834003 0.479226748367353 0.693888565802799
-0.0322993626999088 0.478512946807529 0.698954241282741
-0.037446449132795 0.478168646147118 0.71116563343089
-0.0351324463830397 0.477410150175984 0.713102543642193
-0.0301249569929574 0.475429444924096 0.720053396323705
-0.03125957947413 0.474837269372335 0.726943654474659
-0.0304402989993318 0.474129811975281 0.731198642613593
-0.0301587851366863 0.472015367305106 0.747878591399458
-0.0369446953673786 0.472482332313516 0.756489373285775
-0.0315867820826298 0.471277984000867 0.756486121652894
-0.0342250673209403 0.470516118529773 0.766927637592869
-0.030320239113038 0.469356853506869 0.768700667119535
-0.0380068176779746 0.469383320863367 0.779429608095036
-0.0355394434860586 0.467462449371013 0.788041508829622
-0.0340910281581379 0.465194612628747 0.80028510744352
-0.0373090280325458 0.465436079036683 0.803324415457245
-0.0374671077171711 0.46484483157153 0.807275796454186
-0.0356970085624709 0.46217612748306 0.82159052569197
-0.0364602490498364 0.462314170148373 0.821802186910263
-0.0365088474515972 0.460427192463544 0.833766830550287
-0.0375337579779793 0.459952534724808 0.838211955172366
-0.0318258368477599 0.45767050800947 0.84384117389079
-0.0334131525887649 0.45500894283785 0.859346048542367
-0.0315585685489936 0.454554092862201 0.859540416111547
-0.0325560829500085 0.451848490452597 0.874590276249003
-0.0304905693681418 0.451413976447009 0.874436562180787
-0.0368833679583134 0.451810401000816 0.879783927068566
-0.0325454758454745 0.448179998688537 0.893421785982407
-0.0352041800803921 0.44808399333045 0.89698572579695
-0.033464757808601 0.446143758824213 0.904943006328274
-0.0308464787630594 0.443422593369593 0.915896579975972
-0.0348496846923044 0.448718919416527 0.925523515427504
-0.0355282862960884 0.449763008106335 0.931760275010502
-0.036231659020781 0.449527966318946 0.94048791883619
-0.0357713048957127 0.44606974915897 0.94958032776588
-0.0359335735121205 0.440651159309955 0.956783416897106
-0.0342812205338222 0.435290127195831 0.959880290643872
-0.0351927630438046 0.426822215684944 0.96341411901745
-0.0356673992472568 0.426237833210012 0.963543112649025
-0.0322740718451164 0.415662898270946 0.96398641081996
-0.0420461594575758 -0.307154664582657 0.409638065417899
-0.0389810624839244 -0.308064129926832 0.421182379437659
-0.0489946760601025 -0.3114595951806 0.428913709432264
-0.0408232278241775 -0.31112872951481 0.440021454680345
-0.0428070771822334 -0.312230231652921 0.44461405890289
-0.0423064432781846 -0.313634551781092 0.46257500483186
-0.0428533567752608 -0.314892709524934 0.478557830186089
-0.0391216846388434 -0.314093489775935 0.479426031726996
-0.0488246194479249 -0.317599020126411 0.497322436472907
-0.0481619523023936 -0.317415815587073 0.496893783607349
-0.0495433553114178 -0.318757948433061 0.511344699030668
-0.0395916982796732 -0.317522869757265 0.526314673569016
-0.0489348250991934 -0.319732375178794 0.531376177408545
-0.0487227670442415 -0.319717736918953 0.54669982734057
-0.0495210545293448 -0.319914300757847 0.552295701895624
-0.0430820774371712 -0.318476884176365 0.573396241389593
-0.0436914336032905 -0.318626958676155 0.577681862054419
-0.0432451228628026 -0.318559399371101 0.593492568478903
-0.0486119636561461 -0.319814486014906 0.601408970886152
-0.0488108060036963 -0.319233084306462 0.615530383123943
-0.0417860132841849 -0.317490124914692 0.617381074195242
-0.0444804598396468 -0.31644979655613 0.642432371200093
-0.0460635393823966 -0.31630320759068 0.650146408902492
-0.0436230284585708 -0.315143516878853 0.659143380075344
-0.0388217575854534 -0.313500223541963 0.667222558078551
-0.0461181427386667 -0.314378027373053 0.679358414540781
-0.0403989695112507 -0.311572817456096 0.693047510831329
-0.0441541548752282 -0.311777012277575 0.697938256549977
-0.0393160988286701 -0.307604393129809 0.720482287702395
-0.0449742773863122 -0.307922578089689 0.727773932415792
-0.0436027119443066 -0.306491503610384 0.735995991955821
-0.0467124706302004 -0.304800960060034 0.753766817509139
-0.0480951041753946 -0.302900464125498 0.767690147851274
-0.0446276821103388 -0.300880346912558 0.773600341521211
-0.0411548666667738 -0.297795665644419 0.784671144204185
-0.0442841311489437 -0.294568237185138 0.80384918272334
-0.0472976369859309 -0.291413720878208 0.822543353240889
-0.0481437659253778 -0.2914131927524 0.82349615801086
-0.0421026149469645 -0.28740005575407 0.83618869136576
-0.0442794541289714 -0.282778188624233 0.855642891530039
-0.0486346193712656 -0.278043203552856 0.876269916656321
-0.046439036495078 -0.276820617214041 0.878827750026733
-0.0454935012747061 -0.273283300958891 0.890736378579592
-0.0452790860731759 -0.270352099180472 0.901078967865842
-0.0447016646349901 -0.262976504008729 0.922401282515574
-0.0436188460233539 -0.259866627309764 0.936389870329763
-0.0473199522722855 -0.265293709552304 0.950095194969906
-0.0426604051583242 -0.266502511106388 0.953121752738677
-0.0431240112989296 -0.273632485966069 0.959415020142755
-0.0410154447762908 -0.28222572998142 0.963347525371027
-0.0248749381917611 0.489743395783809 0.484929007956486
-0.0254376261093353 0.489731675977078 0.492837039087436
-0.024259130378753 0.489388552151266 0.497306643432942
-0.0250066899720848 0.489443834901591 0.503759778938046
-0.0252911793809094 0.489290670393314 0.516180677646645
-0.0243131506001642 0.488880688353486 0.527053364027203
-0.023145665251218 0.488486785626383 0.534569350525182
-0.0275204628289357 0.488935586587765 0.545131636583441
-0.0280860326452195 0.488855703060804 0.54907653310432
-0.0222298648028475 0.487336069899372 0.5529413389435
-0.0236833674340386 0.486825284432694 0.568899917565094
-0.0245846705221556 0.486839752388116 0.572485474331559
-0.028136436002224 0.48751698508324 0.574798368787848
-0.0291088690408259 0.487147617375323 0.586001672051866
-0.0231936908913984 0.485648805097565 0.589216986500815
-0.0245622929399762 0.485255863735868 0.602566625454875
-0.0250854397780042 0.484794264325001 0.612938915916325
-0.0262118561118919 0.484261469317244 0.621910250602558
-0.0213564556622081 0.482476202998945 0.629825167159007
-0.021469110518446 0.482283912090703 0.632308848711368
-0.0212218048669685 0.481960429686922 0.635366058737321
-0.0286628878614195 0.482055117665585 0.653380866139898
-0.0262855671353011 0.481520102101865 0.653386179022174
-0.022100327075097 0.479261370742773 0.668424453467759
-0.0271831684636124 0.479712017250828 0.676324995359611
-0.0224805675012461 0.477980978003728 0.684013144638699
-0.0214365089044063 0.477606319795813 0.685609771262401
-0.0246991499937366 0.477089310115161 0.696634164891223
-0.0291364268128086 0.477474060436018 0.70161900285494
-0.0244452995884632 0.474870276884268 0.714215212799415
-0.0227888053130868 0.47376715905823 0.720156859218429
-0.0259597742298443 0.47397841686263 0.724237076361775
-0.0239049279374854 0.472505647699381 0.732456340729044
-0.0215007126126607 0.470699456034164 0.742748175714956
-0.0260263970796938 0.470472341136544 0.752870367341276
-0.0271035031795179 0.470263442493049 0.756538641217019
-0.0222821416542102 0.468375646466972 0.763074292319916
-0.0233682692957711 0.467159788305788 0.772696774364886
-0.0215391249690375 0.466278576862966 0.775659218314346
-0.0277456075941139 0.465939033325888 0.78659749061026
-0.0229912307893285 0.463744479755772 0.793692872183526
-0.0232635988400234 0.462129731845242 0.804258539101887
-0.0254786076874397 0.46107517273092 0.814046413238111
-0.021168709134706 0.459878805047026 0.814439827222956
-0.0290919116403586 0.459902914960898 0.826558371110149
-0.0294068085215049 0.458796027680133 0.833982702970502
-0.0229978971731511 0.457084279057932 0.83531320410448
-0.0291372306016161 0.456284619330152 0.84785466945118
-0.0271935483651138 0.454033153094534 0.857174719148653
-0.0226603621483612 0.452095768650693 0.860694217404753
-0.0242232009716824 0.451224963156653 0.867651960129586
-0.0238989287490327 0.448956237290296 0.878438359332111
-0.0293930492143717 0.449373990406143 0.883647626141263
-0.022125295734659 0.446042129248147 0.890026933803692
-0.0283992482489935 0.446051252839951 0.899567531951069
-0.0285533010929471 0.445502962276058 0.902561839557083
-0.0254859921000111 0.442191006219718 0.914867802704635
-0.024207624517261 0.444917439210414 0.923236669452809
-0.0256228068005778 0.447873175827739 0.936101493411161
-0.0273586533605973 0.447502639557715 0.940593276628642
-0.0278664435223404 0.443928681736963 0.950060475669954
-0.0265651780438074 0.441800547609956 0.952313482514292
-0.0295290657144804 0.435798338638692 0.958905822173089
-0.0241823474385731 0.429459971189148 0.961639397435653
-0.0249157561025726 0.421378896475674 0.96383725504239
-0.0231059645660837 0.406515305392734 0.962883056746863
-0.0318011804658974 -0.305090101477871 0.411788316216768
-0.0281002224947487 -0.304847627455583 0.417190656077493
-0.0342106231980773 -0.309186956019279 0.437060723649236
-0.0366999571341002 -0.310412115152891 0.441702790021924
-0.0346927660621756 -0.310856747975098 0.448167492944601
-0.032442104364235 -0.311241928217672 0.460917300148801
-0.0360271185714857 -0.312554730785189 0.467777949044111
-0.03451313071259 -0.313021564794563 0.479299523260308
-0.0322852873473346 -0.313554805722155 0.494083394596437
-0.0362331471137825 -0.314836307677681 0.499320489557258
-0.0284007746428089 -0.31386198254723 0.511070491274871
-0.037224476137342 -0.316215938554412 0.515571130519808
-0.0361518650587575 -0.316790314559077 0.533705202551214
-0.0288413566679844 -0.315133980373002 0.546764424602477
-0.0281486726317844 -0.315004399616106 0.56024126673687
-0.0297472983679425 -0.315392952464436 0.569174947707746
-0.0364798444833297 -0.316963386363158 0.577300389517194
-0.0290252640636689 -0.315282114781083 0.594063739108068
-0.0343253410035581 -0.316523611222199 0.602786719896868
-0.0288529355986316 -0.314595073856361 0.616057088093989
-0.0309717923683435 -0.314733275400711 0.621340741577958
-0.0303931422972042 -0.313755067125317 0.634075357073596
-0.0319016241097817 -0.313159710008033 0.648295220885899
-0.0294044430431592 -0.311873086604592 0.659008670341272
-0.0299818174973039 -0.310837293246172 0.676630760844686
-0.0351004984999094 -0.311881755082788 0.678682589763084
-0.0275905253754108 -0.307630271845825 0.69946239279473
-0.0285838933159546 -0.305935353805079 0.714023349100493
-0.0366704396305851 -0.307905379427008 0.713754435061834
-0.0369018236022737 -0.305901804007793 0.728931260623585
-0.0299241392037002 -0.302585916457322 0.741284830366791
-0.037059422434254 -0.301891671411465 0.758787026427507
-0.0347869859386235 -0.299954801574457 0.767040752583271
-0.0313016140103888 -0.296562151513484 0.779311385977384
-0.0363916550211632 -0.294379990203672 0.79589919216104
-0.0337931753405636 -0.291610721387854 0.806421117629807
-0.0335730289721928 -0.291325959400349 0.807555923141
-0.0369419183678039 -0.287105340154056 0.831823340411258
-0.0371606422696774 -0.282606553581809 0.850323676957141
-0.0281861182963109 -0.276726855319034 0.860685907342184
-0.0364684262581752 -0.278405225861396 0.864625562308979
-0.0337988988997895 -0.274546814697799 0.874924586701819
-0.0277644366875867 -0.267712690559264 0.891622207906073
-0.0288235741056228 -0.261132571866514 0.915821167092504
-0.0284451957467291 -0.255619713386831 0.928101088919926
-0.0321669101379418 -0.256094667499028 0.936572002419731
-0.037551504385153 -0.258668706232866 0.940136921794617
-0.0322798355099268 -0.267528080292644 0.957676891435651
-0.0329707286528151 -0.272569206070477 0.960560641926502
-0.0281160460398946 -0.278918706786723 0.96344941455618
-0.0191264327592226 0.488650648564691 0.473498079369097
-0.013915382938842 0.487077148413886 0.488951071932301
-0.0130531516539262 0.486564488428218 0.50142302271142
-0.0161007644042717 0.487426830788698 0.504587592588909
-0.0131495666031068 0.486326380834008 0.516455991255518
-0.0158130025831816 0.487144732823775 0.517023392136207
-0.0129267242972895 0.485942749275048 0.533643741688288
-0.0127296288929754 0.485765459074527 0.536695001486092
-0.0186463230601498 0.486916293468449 0.545587132081051
-0.0185921013919365 0.486563708883692 0.552072458030618
-0.0155066313300419 0.485388188222315 0.56088221731758
-0.0138961936455006 0.484310930161351 0.570858210563714
-0.0208966905185674 0.486039467107696 0.571933490829758
-0.0195833619032556 0.485032303010482 0.585496135265267
-0.0195770343311386 0.484318461710603 0.599069479563152
-0.0162840907442722 0.483296439228953 0.604436643511204
-0.0208999651353928 0.483746709544338 0.614153630845733
-0.0179628305448864 0.483201358111484 0.612840299031433
-0.0158198946097201 0.481774986263683 0.622604868533764
-0.0129158687906649 0.479901860761498 0.632610407739104
-0.0177901130134127 0.480712037302496 0.640807273389741
-0.0200670786194142 0.48013551666236 0.653230205508692
-0.0179657297842371 0.479327041917957 0.65706466763393
-0.0178603857537693 0.478469110047478 0.666585765767652
-0.018419417042667 0.478375559104347 0.669088045170509
-0.0146666319981941 0.476266266139608 0.679438704675654
-0.0148976554435917 0.476027882765233 0.682940430597096
-0.0191459494883711 0.475794196454548 0.697011932749929
-0.0182545469638077 0.474828027201378 0.702920989116577
-0.0134895892429191 0.473090790025556 0.704056456211377
-0.0152894408975197 0.472212524769311 0.715757056474225
-0.0126160068370836 0.469957205795504 0.726517059405084
-0.0130941069572524 0.469703330366521 0.729787797675314
-0.0192375018174672 0.469855600848747 0.744825122866955
-0.0200930150939287 0.469430520027226 0.75044693647777
-0.015796631932658 0.467609331260809 0.753484762374111
-0.0188942883578294 0.468206044733043 0.756957035870779
-0.0175206771532545 0.466520716888291 0.766262441930699
-0.0205947315990871 0.465625114333627 0.778050638511629
-0.0141578162288074 0.462904860204764 0.781528177991022
-0.0184432640141367 0.462535946177564 0.792571526508933
-0.0164703085701046 0.460903155874215 0.798533707610194
-0.0155797688026472 0.458612279840129 0.810746901932086
-0.0174910966861443 0.458297110241768 0.816595343913608
-0.0196840025219452 0.458514473173285 0.819757545357404
-0.0134450795880391 0.455540265233379 0.825197060420359
-0.0199862698034423 0.456143637587994 0.834905285600627
-0.02072824782704 0.453857640005299 0.84867067908531
-0.019708774922911 0.453169404296266 0.850404686340094
-0.0152220586081374 0.449878358791924 0.8593448083199
-0.0184394091417618 0.448856925002156 0.869817485177745
-0.015849982706586 0.447189310034949 0.873819961263475
-0.015522975484791 0.445777312117331 0.880324095221307
-0.0171947019755819 0.444942265035984 0.887285123298843
-0.0148417210852243 0.442954758529127 0.893279674425316
-0.0162202410547547 0.441372477704331 0.903482069034837
-0.0149574311275244 0.439665271780408 0.909897516735058
-0.0192732944888336 0.439883382744942 0.916015451826087
-0.0161026132391327 0.443998023178988 0.928650042218564
-0.0169927033695636 0.443214149565926 0.943762720263529
-0.0171061807819907 0.44279283046296 0.94532037844717
-0.0205609119574189 0.439081639680064 0.953225866237484
-0.0148593943145864 0.432314487790828 0.958051379383604
-0.0180390716383443 0.434130851805561 0.957599037127246
-0.0162121110621727 0.419213623427205 0.963701985031238
-0.013302260031607 0.402220915510444 0.962698788823362
-0.0183743623980331 0.404731180338671 0.962846464399392
-0.0180063910358259 -0.302178594510129 0.422413527260131
-0.0255949889275894 -0.306590579184074 0.435165346231336
-0.016505502956941 -0.305223352356595 0.447053540080756
-0.0256610737610865 -0.309002667856523 0.455223259223742
-0.0240985843638133 -0.308878425190771 0.460784549810383
-0.0255592799449339 -0.31076618817666 0.479881743061638
-0.0238132265152532 -0.311121642337181 0.492875189602992
-0.0204692093124268 -0.310271189131057 0.496760769629207
-0.0254533491668968 -0.312818354996867 0.508518001922991
-0.0268309653484622 -0.313909082997891 0.517070841609628
-0.0252351999196899 -0.314090701962443 0.528072074912874
-0.0181006077187132 -0.311689684709948 0.535870089103861
-0.0174469537683117 -0.311500619656969 0.550015613933287
-0.0195520342333503 -0.312251677499096 0.566238867546964
-0.0268662626946404 -0.314731761472573 0.570546888370446
-0.02336082204124 -0.313574012961627 0.579698756667957
-0.022196063198494 -0.313207981474911 0.592246233974271
-0.0249167333458988 -0.31415787187868 0.604175836659437
-0.0245219100067532 -0.313763117522362 0.609800272779932
-0.0272328012329216 -0.313775444529111 0.622779987289728
-0.0182282375415421 -0.310171338618743 0.631148384303704
-0.0187007827206082 -0.309314035963987 0.646047680368653
-0.0197338582036155 -0.308643983518507 0.660987918068758
-0.0219026430499226 -0.308362256757842 0.67588032376473
-0.0173127537881852 -0.306066098718247 0.685698673996006
-0.0268998145724248 -0.307667400795955 0.697517943632066
-0.0216402336529126 -0.304399678636438 0.70815692159705
-0.0249704229503012 -0.303752772595424 0.720885183097629
-0.0220170417513225 -0.300689203411011 0.73566484831449
-0.0202972078417688 -0.298344795521161 0.748287797346299
-0.021733936496123 -0.298240665431593 0.75252517454454
-0.01725725459034 -0.294672161911107 0.765772320814967
-0.0224464240343176 -0.291633188021806 0.788394767921437
-0.020104154979342 -0.288610526302077 0.798901431160961
-0.0185786313160422 -0.287436919469295 0.801996032821469
-0.0208658616748939 -0.283423450507761 0.824574165752688
-0.0211936840547711 -0.281399808076016 0.834638915912377
-0.0196423838843742 -0.279742220158904 0.839974107498841
-0.0256041861795771 -0.277616631641582 0.854530261993817
-0.0169723794856559 -0.269905871457197 0.871213981664929
-0.0213109934781279 -0.265326235785161 0.892314197916338
-0.0221679441465149 -0.263096077045317 0.901104592455296
-0.0190587650577886 -0.258955233946095 0.911868712143903
-0.0266110112470764 -0.254930432157969 0.928826725772064
-0.0270233982627452 -0.254443551343126 0.935573241607643
-0.0247606386604448 -0.25733862067177 0.948871523789248
-0.0226865590754829 -0.261723931711103 0.955393685970813
-0.0168256786950631 -0.271525669243476 0.962803502380432
-0.0198267107399179 -0.279198760262962 0.964009350447549
-0.0106346327805191 0.486200234887248 0.476701242822391
-0.00426216489445131 0.483960075425735 0.48275947031791
-0.0117987067334035 0.486277580975683 0.494048172806534
-0.0108642238339718 0.485841315675597 0.500928562904994
-0.00759113716450751 0.484569495054632 0.510780073988206
-0.00653715771157943 0.484125565240408 0.515864425776056
-0.0068834093527304 0.484046150945886 0.52671934785107
-0.00555353963448127 0.483517546474634 0.531381429697738
-0.0123825064566854 0.484855061187211 0.551405480118173
-0.0121184318174212 0.484820034023079 0.550418554795344
-0.00879264908324899 0.483157271765681 0.560613529823936
-0.0111767140279565 0.483861315537563 0.562341122482618
-0.00606563787268021 0.481647773221479 0.571678745316831
-0.00708054751213883 0.481283245668927 0.584715908169265
-0.00579860355143251 0.480362120677172 0.593834955360504
-0.00733513405819213 0.480652833087802 0.597967949044312
-0.00977950641685664 0.481043615338725 0.605870648253303
-0.0095566153271091 0.479883492674397 0.620350631176612
-0.0079817541270448 0.479664975136054 0.616931751155632
-0.00689223955853418 0.47790139537433 0.632454235584826
-0.0092336636532504 0.477818792789362 0.642057796878587
-0.00786558465152365 0.476742991993049 0.648916659457243
-0.0108252549999995 0.477665288497281 0.649665888324758
-0.00789227546772849 0.475621225417212 0.661460351845098
-0.0121542633281062 0.47638971672455 0.668747742561043
-0.0108763697249169 0.475081578099605 0.678518723666385
-0.00974546423340838 0.474119392288195 0.684997127775701
-0.00445918619687685 0.47104483623361 0.696355896985817
-0.0126642963844588 0.473950387047638 0.695079813875119
-0.0121201681498899 0.472470159254032 0.705342088938654
-0.007504467504467 0.470437396182753 0.709208183319854
-0.005198933129106 0.467706000753725 0.724704026084496
-0.00478201570223489 0.467584195980177 0.724564673250961
-0.00556032427239876 0.466521075407835 0.735025898562084
-0.00868822158770035 0.466189295556223 0.745917580987629
-0.0119087353534711 0.467001965649101 0.748007573495432
-0.011703344857797 0.464829029468588 0.764641005222683
-0.00530014050162579 0.462069875682798 0.768491802920652
-0.00467799732585339 0.461158338754179 0.772802587752891
-0.0101719394260278 0.461544502501849 0.781695598046982
-0.0060767075445206 0.45908066457142 0.788400931739099
-0.00588296968701428 0.458137061455548 0.793786197122597
-0.0124036743071151 0.458862798398107 0.802702599510999
-0.00538794698312118 0.454747463698389 0.813542839752115
-0.00736708117225845 0.455335429963752 0.813995909580624
-0.009792625106104 0.454853368140981 0.821920896100104
-0.00967181405740482 0.453103002562724 0.832399387130463
-0.00875174898718837 0.451017207758154 0.84285381603742
-0.00614617350121898 0.448490076942469 0.851120943419789
-0.00465886068021592 0.447033397057924 0.855910605317027
-0.00640227201130247 0.446823205522362 0.859871394331081
-0.0060774531544747 0.445106997510381 0.867898123296618
-0.00623232696606895 0.443323461525369 0.87706205475656
-0.0102417440718141 0.44399064809608 0.880425997556652
-0.00502290687875968 0.440237652897987 0.890450109688628
-0.00759839164545186 0.438336896639366 0.904241461265499
-0.00808728633263975 0.437138859485046 0.911039734191074
-0.00632198900500383 0.436288788535995 0.912336357411031
-0.0110781447390129 0.439320789675386 0.920865189824891
-0.0110218422449596 0.442678312600568 0.932741143269072
-0.00534852408735 0.439559639845749 0.942949517993789
-0.00915305559923608 0.437948017367338 0.949783931774287
-0.0109555710622202 0.43563947768932 0.953520758416856
-0.00464709912725293 0.422761456904276 0.961738609638399
-0.0088656141948647 0.420073364741716 0.963100233387386
-0.0109399992908647 0.418316656821232 0.963544822818914
-0.00845598752009946 0.391483264730929 0.957394773843708
-0.0107176314677997 -0.299587593210017 0.421583086948621
-0.0108910376222863 -0.300991423489933 0.430909252344461
-0.0147351238117554 -0.304965164800056 0.450655212940846
-0.00719834069334018 -0.303119786333233 0.46039152499212
-0.015202394085828 -0.305611646693638 0.457348471611913
-0.0153764421652839 -0.306799941618069 0.472835638851869
-0.00943336843464498 -0.305553890450032 0.483380873755024
-0.0161796833918954 -0.308400769607403 0.491054757655774
-0.0134989659642375 -0.308469547342795 0.504462629091121
-0.014147486173488 -0.309594299349476 0.516872186828809
-0.0106681295181446 -0.309161458181404 0.532278570865299
-0.00884758923537309 -0.308553942326368 0.536507847151215
-0.0127844638874987 -0.309910004992338 0.545752785259687
-0.0115443611194894 -0.309516257492941 0.557356982025156
-0.011610441115781 -0.309581055166976 0.575777706012574
-0.0108039106303964 -0.309338807277252 0.589336425256565
-0.0152574861303314 -0.310873519545228 0.600086369728134
-0.0151650734602475 -0.310649254122566 0.608942996990125
-0.014772299220922 -0.309762143236549 0.619982807234967
-0.012279761045295 -0.308111915709982 0.631772292034275
-0.0143389164292959 -0.308318231945974 0.638974122112483
-0.0146360566888843 -0.307894916342509 0.646647823673169
-0.0139458835348746 -0.306455791050949 0.664294197758259
-0.0126951313157125 -0.30521499211238 0.676253472677757
-0.00680350687824622 -0.302384308553624 0.686549084341989
-0.0096242560097077 -0.30161268747742 0.698933272109209
-0.0143815295904531 -0.302061007542265 0.707279900967084
-0.0144075099025057 -0.299334169732573 0.726885797648107
-0.0138923087428351 -0.299003376563477 0.728004651090425
-0.01464038155297 -0.297439217069686 0.741032443250198
-0.0109669697069131 -0.293164181269855 0.76274488023111
-0.015622991547812 -0.293868229336842 0.766950225908486
-0.0110305293962974 -0.289161048304466 0.78180188377668
-0.00775490648157003 -0.2846773913704 0.797704652940034
-0.0122235376705013 -0.282224047024928 0.816414303313737
-0.0126167898130378 -0.282566160375516 0.815429971333618
-0.0150339642150824 -0.280118517420773 0.830833522516188
-0.00793023719706653 -0.274303375047488 0.845187688554744
-0.00898857864986068 -0.271490761300497 0.856247378796789
-0.0112520863073115 -0.265831779071533 0.878658069741746
-0.00903495981708858 -0.262313394793332 0.888306223335867
-0.0118797816477185 -0.260519976463527 0.897923945279467
-0.0140430925920434 -0.257242441778784 0.911911404771259
-0.00874004465298424 -0.248593119952656 0.931821707672597
-0.0128636534573409 -0.250373617174791 0.9403918107142
-0.00721040022682988 -0.251760234492704 0.949348296764347
-0.011569086105919 -0.265035282292662 0.960394009829349
-0.00643038722180056 -0.273021010588986 0.963712986114871
-0.0143092557746978 -0.277788032506473 0.964092683253372
-0.00241801665019266 0.483397704950002 0.47973530460835
-0.00328605800218135 0.483555089895551 0.487126484712334
-0.000309183271337665 0.482427170040347 0.494484908516892
-0.00354924103726121 0.483382111066531 0.501639276990905
0.00270329340363704 0.481119523589976 0.511174963836714
-0.00410515775721324 0.483266685401389 0.518395660524794
-0.00320433156938243 0.482933682612476 0.520160033120427
-0.00269305261382331 0.482645668947362 0.526667019180523
0.00384369136626452 0.480079095236844 0.539354125877132
-0.001616679255944 0.481482535450716 0.547182979131304
0.00249507302636179 0.479653552804075 0.555588203246316
-0.00263158708194959 0.480749138332685 0.56705156118531
-0.00349481969489819 0.480503584959157 0.576945876198764
-0.00233914241723075 0.479664027417236 0.585336372148364
-0.00153712366261298 0.479147162518175 0.589941119757846
0.00278256775588557 0.477371527085584 0.596070425203595
-0.00378715243520562 0.479404893064317 0.599104199236155
-0.000423079792276687 0.477409849696301 0.613905383352538
-0.00171695861388613 0.477319304622544 0.619710440153818
-0.00424218832092365 0.477001681511926 0.632603232312155
0.00139994103140021 0.474701204756734 0.637190774994581
0.0040873597653335 0.473001022129878 0.646081377631505
-0.00318135703150162 0.474606414979643 0.65523995000492
0.0013918769910846 0.472680376364223 0.659639377828374
0.00319540164957299 0.47168878795519 0.663948407804703
0.00159393499350751 0.471390671321659 0.673197440405765
0.000703013866358297 0.47062811809167 0.684962567905273
-0.00203579755968042 0.470957488061674 0.69063976996757
0.00352095832983261 0.467833935238449 0.700640412333698
-0.00309092897870386 0.46951249131718 0.704851434825799
0.00279764100165802 0.467033939800384 0.708876334455623
-0.00361552501904384 0.467661991116336 0.720865934323008
0.00173108708624748 0.464597118764149 0.73095827142195
0.000810060151393566 0.464483459497762 0.734291585674323
0.000811004970778145 0.463920455575761 0.738739465892281
-0.00242095180259641 0.46302532146837 0.754359392242654
0.00367421864439594 0.460900890682111 0.755038894118748
-0.000125577998969914 0.460783697894539 0.765768540519703
-0.00418212243917871 0.461132042265171 0.771947475064207
-0.00131856926177865 0.458157450215938 0.784306889484385
-0.00145289638580053 0.456901202281463 0.792280356781134
-0.00373357883240379 0.456503157003383 0.799393615615386
-0.0035704839596835 0.455015105630223 0.8081780114432
0.00426109123017619 0.452231825052357 0.809183529576718
-0.00268786707937662 0.453123612862942 0.817960058200851
0.00374747076046938 0.449835014207276 0.824923595040334
-0.0036445187325543 0.450757134090241 0.834422207791442
0.00105180961597049 0.44892876653698 0.836001537665258
-0.00422172520440528 0.449396772246782 0.843380155840072
-0.00146132409082243 0.447399329048104 0.848743978313608
-0.00384782768569017 0.444764873632529 0.865883161263142
0.00146605261155225 0.441740005492972 0.87211297719216
-0.00366208324510195 0.44248154123914 0.876973816681158
-0.00108817164908239 0.440032490473177 0.884903960240619
0.00334464616476095 0.4381147770095 0.887076950487094
-0.00180112895530821 0.437435184853472 0.899063029078342
-0.00108306872452746 0.435803584296884 0.906010641329885
-0.00194282297674409 0.43437809100107 0.914563908756309
-0.00380281767170308 0.43978580756042 0.927586347341242
0.00134046164387759 0.438683751762674 0.934249164998649
0.00176949148575415 0.43719380482576 0.94289961276908
0.00253469408388977 0.433577152812917 0.950376938158038
0.00252238609753749 0.432791853172498 0.951390175017119
-8.7087749696038e-007 0.427346962624402 0.958050322043882
-0.00267628368682419 0.419856606111872 0.962764005936967
-0.00115323031126609 0.41034479946305 0.964397323530654
0.0040132534536907 0.400977585361798 0.963523875538379
0.00140560296508508 -0.296780195800562 0.430617438287254
0.0017788030349968 -0.297851496436246 0.438922924331634
0.00176297849296461 -0.298628735981369 0.444274914654039
0.00416327704211543 -0.299420992775023 0.46249433171614
-0.00296437028593934 -0.302054463762738 0.465468408529046
0.000417491058451939 -0.301769902963157 0.477290683114186
-0.00487735726606569 -0.30438480884539 0.488532197493682
0.00299532110256453 -0.302932209775078 0.505216968311741
0.002870906282616 -0.303017850151584 0.505812955850337
0.00335265940679219 -0.303909033482959 0.520274798624221
0.00155998807073006 -0.305020814300918 0.534566438369407
0.000729939813648455 -0.305313133961292 0.539300129942004
-0.000616649260615011 -0.305803884741242 0.554157835543209
0.000166862680412013 -0.305569751036334 0.567851173568243
0.00247453499317513 -0.304802905450342 0.574614137284594
0.000682372668998403 -0.305451136811829 0.592257197989251
0.00333672165211506 -0.304557205712158 0.594872356311418
0.00175614835843605 -0.304446224663046 0.615765604106533
-0.000964418526864432 -0.305042047182704 0.620547617612874
-0.00263322715602054 -0.304563387557786 0.635841489309945
-0.00167639722604624 -0.303695853926474 0.643794325309958
0.00283479344557149 -0.301371007753085 0.655440312936157
-0.00388581577087575 -0.302507444556516 0.672164821177594
-0.00503967112709608 -0.302354055670845 0.680139287737357
-0.00553153671170156 -0.301425320949555 0.690331230103994
0.00317578507871172 -0.297205934381543 0.69941298242554
0.00386079140141252 -0.294032465173026 0.720492187265958
0.00401322129786777 -0.292580272700363 0.730529407339085
-5.24664850963993e-005 -0.292992969469567 0.737450863450707
-0.00107898352291762 -0.29234795447903 0.744567897837389
0.000254732577359017 -0.2883850060451 0.767421336536982
-0.00485814389700954 -0.28780889163572 0.778310351789193
-0.00162765059368299 -0.283605104687669 0.792965775578932
0.00537940770115835 -0.278111868394586 0.807663704208175
0.00251015458341373 -0.277951200800946 0.813007645891266
-0.000770523248170872 -0.276074055824793 0.827101804152921
-0.00236316586472917 -0.274883590290878 0.835260224841777
-0.00221023623788648 -0.270200699745884 0.85273179864074
0.00539758287072886 -0.263045151692285 0.868690053425156
0.00158008433558355 -0.2591537385696 0.886774106608691
-0.00474366713943311 -0.258946679250545 0.894973073692987
0.000987924706378801 -0.253780028512481 0.906213854793886
-0.00272003475657024 -0.246746268068153 0.929730946080743
-0.00430307929255536 -0.246927575140126 0.933557094234412
0.000375132197793771 -0.247323515540153 0.94526372673688
-0.00263662987426364 -0.252386286331734 0.952138357568917
-0.00496804270271255 -0.256801282661405 0.956784072070799
-0.0024260211671821 -0.271907087494075 0.963757147532122
0.00947812206593844 0.479602013206206 0.469567735388206
0.011964961900014 0.478643605982326 0.476613361882608
0.00568997055969343 0.480450885439559 0.492812717662364
0.00693423322271861 0.479973657729338 0.4962099886406
0.0108541373527094 0.47856008445071 0.501915087326124
0.0078555612207288 0.479394631162834 0.511273260826024
0.00841213583012931 0.479132937400687 0.515474384556165
0.0110542049477541 0.478055828535576 0.526233691304093
0.0124488605913076 0.477483869100349 0.532101732891801
0.00740443055484443 0.47834395210048 0.549434315124987
0.0122800531312474 0.476700019153571 0.549681176912196
0.00770722999834787 0.477678222144474 0.559888093866501
0.0043143744552921 0.478280502798995 0.569748576090619
0.01002146360206 0.47590842405257 0.578330694490042
0.00929389648659126 0.475749719325334 0.585776295765831
0.0124616818434961 0.474198874820767 0.594877168267681
0.00756525427930387 0.475361771199178 0.603667921404204
0.0107138648932844 0.474357170185255 0.602771179188007
0.00627610058532952 0.474702821472175 0.619081244925102
0.00458812768645278 0.475189954422642 0.619939825548506
0.012289293517559 0.471855661070721 0.628356866156236
0.0113174600272237 0.47176704429483 0.632945673753037
0.00661542437580065 0.471819342373946 0.649811046499305
0.0116068081082668 0.469818123496688 0.653493084932527
0.00688462582509554 0.470737666339881 0.660812158516686
0.0108925534254646 0.46869927074805 0.66855546083502
0.00728159733848024 0.468854641743351 0.680229223898699
0.0117596980173224 0.466359871156325 0.690512115437174
0.00993829807442896 0.467172496271333 0.688903698025223
0.00766141005855641 0.466250944567142 0.702207581303546
0.00772560962138483 0.465192667801462 0.710403222227516
0.00721244174212007 0.463983006462581 0.721321869720476
0.0078795449315137 0.462977610560821 0.727505637800078
