ply
format ascii 1.0
element vertex 855
property float x
property float y
property float z
end_header
0.168805563173562 -0.299083438064292 0.761478636245501
0.17258568876668 -0.298585775088762 0.776032480927052
0.166185196650392 -0.299428415861662 0.785516183791211
0.173326286273462 -0.298488273577287 0.797045057715232
0.162058474627519 -0.303410631618319 0.804843925623058
0.164707991807176 -0.30319434375484 0.805000542733331
0.151205288886514 -0.310747282787988 0.810747368429696
0.152185983956559 -0.320346857085202 0.815626068005101
0.138638633130009 -0.332278195344553 0.816636967900369
0.13015372470987 -0.344451117227012 0.812069762351077
0.488899672145559 0.0843153609519214 0.39677926939073
0.489045371090195 0.0832086675939802 0.405191495433407
0.488607335735942 0.0865358764375571 0.410054665036059
0.488952170593784 0.0839165956479031 0.415144015399917
0.488645393125773 0.0862468018622362 0.427944667415632
0.489241090658639 0.0817220298770428 0.437736531200266
0.488054126978269 0.0907379141338398 0.45078224478886
0.489224884692646 0.08184512640988 0.456457225372789
0.48847314024931 0.087555192357048 0.467658613596099
0.487972737860926 0.0913561258566251 0.480707634035944
0.48853917137915 0.0870536361310054 0.488288838891934
0.488612286256691 0.0864982734992192 0.498039632398869
0.488590911918054 0.0866606277198284 0.506924648767638
0.489521340101833 0.0795933240163131 0.505145434456767
0.488078453779497 0.0905531337333602 0.520933828382429
0.489538282401309 0.0794646344753892 0.524254535369869
0.488029877107386 0.0909221101903306 0.541777432970086
0.48878542516992 0.0851831528869937 0.545456186531115
0.488503797523543 0.0873223272402098 0.55476496590852
0.488316041883453 0.088748472915609 0.562946332978462
0.488737064045849 0.0855504920940503 0.577161278503648
0.48818716943545 0.0897273563425419 0.586548836433173
0.488313841331562 0.0887651877666832 0.587921329714369
0.489325481444334 0.0810810182195223 0.599201072463631
0.488054599117487 0.0907343278804304 0.603080979797096
0.489213145499905 0.0819342944314202 0.6150833013929
0.487978714527363 0.0913107285679571 0.626173799341596
0.487860898572525 0.0922056295914549 0.635527311748995
0.48898446940419 0.0836712618259243 0.632359430167851
0.488238732775315 0.0893356938916979 0.655967780757571
0.488084239943553 0.0905091834539384 0.663216210219039
0.489099333038201 0.0827987859054851 0.666319536915758
0.488982420426712 0.083686825355029 0.674109451009475
0.488314640027957 0.0887591210652541 0.685575067140046
0.488634000571242 0.0863333369051695 0.695988164862254
0.488255424813901 0.0892089052709584 0.702712251973155
0.487831320854678 0.0924302946634357 0.71700626600699
0.488770042266453 0.08529999763927 0.709714055611603
0.489099791941954 0.0827953001854201 0.725670993803202
0.488880325254331 0.0844623151805333 0.73914099446561
0.488245526322789 0.0892840917755307 0.749957697111721
0.48870489048453 0.085794874554759 0.754919650382569
0.489323262841865 0.0810978701783478 0.759047818665694
0.488117959747064 0.0902530561177376 0.77336840001123
0.489737858677588 0.0779487021540474 0.773866942789565
0.48824838301304 0.0892623930588084 0.787076259467127
0.487785278479476 0.0925414507900924 0.796934758101192
0.485786308552098 0.0866849742029119 0.804090519074246
0.481687335707414 0.0809965702845847 0.809387244268565
0.477374648807608 0.0742170300707235 0.813042677438587
0.474907830145674 0.0648057106050341 0.814876889956991
0.474822278785677 0.0655697329438551 0.81487241167491
0.470428464222758 0.0580366000986616 0.816408880557133
0.45486544469608 0.0501706857700723 0.814740988706972
0.449848629143787 0.035372044414823 0.81057503804768
0.32238373218015 -0.122455236658661 0.651749903851266
0.305798522758572 -0.136371172789089 0.651749903851266
0.303814277108252 -0.144823272793593 0.651749903851266
0.293222194427606 -0.153637495497869 0.651749903851266
0.291947844677964 -0.158388037475252 0.651749903851266
0.288390310497879 -0.169723209665963 0.651749903851266
0.275950293519074 -0.185735686516119 0.651749903851266
0.269744834533409 -0.189219550111948 0.651749903851266
0.258325047050957 -0.196637100616519 0.651749903851266
0.246230825876473 -0.216535014788574 0.651749903851266
0.244196559723383 -0.214205627922111 0.651749903851266
0.239927217237639 -0.227253480367018 0.651749903851266
0.227021873108636 -0.238534616497967 0.651749903851266
0.215828944893945 -0.248592191983487 0.651749903851266
0.207349807014604 -0.268172755620191 0.651749903851266
0.198386539357974 -0.276196307291312 0.651749903851266
0.193492053890555 -0.286678389509621 0.651749903851266
0.185827934212566 -0.286454340833517 0.651749903851266
0.175197984052015 -0.298241859890011 0.660915166308319
0.183847056832055 -0.297103187856701 0.668540901095584
0.191870759343956 -0.296046847381108 0.680346497447563
0.182321564002475 -0.297304022797767 0.693473128137832
0.180212408972479 -0.297581698325266 0.700015254605914
0.181631287510787 -0.297394899421924 0.718468322133248
0.187445399514839 -0.296629457055335 0.724707950152079
0.176948428824781 -0.298011409463787 0.724413974688421
0.178495640119449 -0.297807715232548 0.740267076543771
0.184233802241109 -0.297052271857669 0.74897825158877
0.180736625215819 -0.297512683947554 0.757404909656135
0.183970794921739 -0.297086897428147 0.770905236266224
0.188405949633795 -0.296502998233117 0.78803603262855
0.18961587151588 -0.297131133711536 0.800483865579009
0.180883709100091 -0.299919826591888 0.80341915782194
0.180092215721672 -0.305663955831626 0.809721510142933
0.175685126073455 -0.313482922055337 0.814326369578568
0.162941214942375 -0.315772140296385 0.814646650982363
0.160802023836445 -0.325434730019084 0.816734789723466
0.490106284072185 0.0751502334478126 0.392828019491347
0.490579844637554 0.0715531838357973 0.400586031791764
0.489626484339916 0.0787946742374705 0.411432198299067
0.489745059385777 0.0778940073452019 0.424245302841944
0.490688173592373 0.0707303437317056 0.427355119672727
0.49030145956575 0.073667728389862 0.440471697195883
0.490779519086877 0.07003650581615 0.439979153610431
0.490863114583985 0.0694015349751887 0.445928237623314
0.490569901270685 0.0716287112055846 0.460738124327432
0.490193842209509 0.0744851633661342 0.468923466730432
0.490565802046461 0.0716598479048485 0.476822198503415
0.491222517064877 0.0666716021028389 0.484310705726336
0.48992053410445 0.0765611445291676 0.494731303482652
0.489898939836534 0.0767251692785057 0.504075494033571
0.490880984988059 0.0692657957799496 0.513283147602746
0.490591935515169 0.0714613445024242 0.522931128376886
0.490937433369113 0.0688370277574002 0.525342976661588
0.489964430111422 0.0762277212536758 0.540675927283106
0.490073074737092 0.0754024833914295 0.551419771723231
0.489789033418464 0.0775599914055748 0.55674238611696
0.490281330241083 0.0738206257904935 0.558243700767023
0.490718689344147 0.0704985535846657 0.568912301785451
0.489993776998768 0.0760048095134234 0.579537990566573
0.490989821686239 0.0684390989821347 0.587395733932521
0.490977932194695 0.0685294086364232 0.595087037422191
0.490420080464876 0.0727667132074829 0.61191042749031
0.48986473813431 0.076984956998829 0.619856254181979
0.490868016525398 0.0693643010335401 0.626861112936325
0.490102934470545 0.0751756761982478 0.632895437661203
0.490317977149934 0.0735422648818671 0.637310440722706
0.490548937785928 0.0717879446811483 0.645996241588555
0.490585665952365 0.0715089665598769 0.659243201892454
0.490411032721445 0.0728354376418584 0.668464568567524
0.490834868968975 0.0696160817215646 0.67907815110373
0.491200535822747 0.0668385662131527 0.683732022617492
0.489965694169167 0.076218119781864 0.690786593843646
0.489919421539786 0.0765695952967901 0.70242052915184
0.489529677582506 0.0795299945632013 0.712238996978128
0.490203806693497 0.0744094755959015 0.721667955519105
0.489724072153993 0.0780534211973458 0.732672873113143
0.490320238605351 0.0735250874225828 0.72939365203959
0.491071912357317 0.0678155584296772 0.744198793621098
0.491150872912259 0.0672157934697343 0.755258449009987
0.490709052116763 0.0705717555942067 0.754439913762172
0.490524314983119 0.0719749734368484 0.768914790984692
0.490402266218046 0.0729020258460985 0.778629544742975
0.490430018327617 0.0726912276456906 0.78510024047959
0.489448035744323 0.080150125891349 0.798237147473713
0.486176515264075 0.0758685880092397 0.805312228917588
0.485902326245306 0.0634502813956898 0.807568332327705
0.485313561730386 0.0614841801891806 0.80857000755068
0.473338451941961 0.0539593158864818 0.81576972112667
0.471651513430394 0.0470311260387255 0.816430743362028
0.467427383617612 0.0413485337344797 0.816912071683064
0.326836802196376 -0.122554448120613 0.651749903851266
0.326740237933985 -0.134490476189821 0.651749903851266
0.320505644554189 -0.137934477393774 0.651749903851266
0.314034241114147 -0.151966172934382 0.651749903851266
0.300368783434204 -0.166300034053384 0.651749903851266
0.297750777823574 -0.171691179382584 0.651749903851266
0.290986769984482 -0.173686723855838 0.651749903851266
0.277065124902412 -0.190164261828988 0.651749903851266
0.276057154913237 -0.200484540541553 0.651749903851266
0.260280875397447 -0.21202669902506 0.651749903851266
0.265113745940862 -0.215406560437715 0.651749903851266
0.255611644524373 -0.225045178243748 0.651749903851266
0.242881242323783 -0.238811823590111 0.651749903851266
0.234730514088543 -0.247920091784304 0.651749903851266
0.230583860681411 -0.255372786520499 0.651749903851266
0.214326876263724 -0.273372869788251 0.651749903851266
0.201482922213095 -0.288495932360847 0.651749903851266
0.195549829642882 -0.286211345879029 0.651749903851266
0.196385972810351 -0.295452408251115 0.656771908823535
0.190715247979863 -0.296198973338181 0.660344777448357
0.203840879626421 -0.294470951149495 0.676801407932012
0.203781784120218 -0.294478731220483 0.685094299126005
0.193955683898797 -0.295772361856181 0.699217970822296
0.197577807884484 -0.295295500186893 0.709497463339174
0.20177242861899 -0.294743267890761 0.721621234208071
0.196380259485811 -0.29545316042456 0.732442480057163
0.189485605443256 -0.296360858849266 0.733760640836709
0.195728780632045 -0.295538929242784 0.749762452456095
0.198382437288492 -0.295189568716222 0.757313052516993
0.193862200361317 -0.295784669197373 0.76902285039771
0.19441182787233 -0.295712309362806 0.783968738949258
0.187633251209736 -0.296604725910526 0.784120036308233
0.199600274486406 -0.295965050421684 0.800749601551937
0.18936089671502 -0.299444956543323 0.804405202151346
0.188507511573287 -0.304712928439758 0.809847203175943
0.183765435355715 -0.313039747191567 0.814651452985229
0.179525696918194 -0.324097136836047 0.816843927609936
0.164738237791702 -0.326221589586709 0.816861124316085
0.149503239394618 -0.345072915217893 0.812164482250385
0.491319191186128 0.0659372892487496 0.392119382544483
0.491199009238183 0.0668501617741307 0.393456184512269
0.491687639603249 0.0631386456690874 0.399490041454566
0.492797014310945 0.0547121081705746 0.40279732258939
0.492351107535545 0.0580991063937048 0.412865954200931
0.491517267588049 0.0644327496042326 0.434948868461393
0.491391217263311 0.065390196876768 0.442605235418819
0.492384157267265 0.0578480687580628 0.442121836100819
0.491988080087312 0.0608565736266383 0.455771847088404
0.492561695962454 0.0564995284839197 0.45937998935177
0.492280860554991 0.0586326851851504 0.467087645885272
0.491779092985098 0.0624439882677851 0.476549282023164
0.492377652928782 0.0578974741138483 0.485935839843712
0.491625391099201 0.0636114699997218 0.501643073430889
0.491393947907996 0.065369455571171 0.505564241874703
0.492144494170931 0.0596684907077078 0.512742216300368
0.492067727281889 0.0602515931208632 0.525486604303237
0.492239399599651 0.0589476124071901 0.529660920151186
0.491838630030716 0.061991759508672 0.540614753079979
0.491995763359793 0.0607982133780929 0.545121486971284
0.491732115777223 0.0628008155877062 0.560017295038501
0.492670250311369 0.0556749763416906 0.561297063615832
0.492480248858398 0.057118180659517 0.573094420765057
0.492502552565702 0.0569487671830365 0.585338112261691
0.491699223570527 0.0630506567019905 0.587725724354044
0.492215686715593 0.0591277296437957 0.602401677464428
0.492151616869468 0.059614388441 0.601988462699365
0.491909250086138 0.0614553469322645 0.618961994763875
0.491976377132972 0.0609454663901994 0.628621288484424
0.492617008249578 0.0560793899515143 0.632003577433376
0.492527103818668 0.0567622819023493 0.638202397534655
0.492674269122642 0.0556444504394439 0.649620819243199
0.491254896490623 0.0664256559465545 0.669105776362106
0.49228642868988 0.0585903910016617 0.662076308575953
0.492955162247957 0.0535108553275982 0.672217615814384
0.492148180735075 0.0596404884729431 0.6843061751734
0.492432029079178 0.0574844462458438 0.694984949355614
0.492618893100356 0.0560650730884645 0.697788956116068
0.492500358141741 0.0569654354878609 0.709971155438289
0.491378171133258 0.0654892920727724 0.726652960453324
0.49146022568639 0.0648660258633502 0.735312779094741
0.492151577516065 0.0596146873597756 0.73888699854373
0.491663379285982 0.0633229210737393 0.751060552420018
0.490942873701651 0.0687957043291475 0.761756165396899
0.491864889326763 0.0617923003527261 0.766536446674068
0.490970870982193 0.0685830438703288 0.782530922410462
0.492034874901717 0.0605011317226673 0.789267700121922
0.492213009003943 0.0591480688830782 0.796285547430452
0.49217557881158 0.0594323794206579 0.796897804959692
0.488966027727451 0.0582010608076801 0.804764433650011
0.48737750065419 0.049411894883265 0.808009148972929
0.485288946702941 0.0490036956866684 0.809876283880508
0.476256241235273 0.0462057448336842 0.815204648236742
0.475575186450675 0.0387742233506532 0.815698952193279
0.465482425652926 0.0321578710049854 0.816642313018587
0.327836332453964 -0.147775221720093 0.651749903851266
0.323875135392244 -0.156095338186796 0.651749903851266
0.318760459314631 -0.164775521968007 0.651749903851266
0.312943027049804 -0.165603108643144 0.651749903851266
0.298500928107754 -0.176665337832871 0.651749903851266
0.291520200687333 -0.188389275391836 0.651749903851266
0.290093858986437 -0.194327118503177 0.651749903851266
0.276724454194966 -0.20534569727036 0.651749903851266
0.269112692853805 -0.221755538650134 0.651749903851266
0.262855507715632 -0.2272004215885 0.651749903851266
0.255909562252799 -0.234274671818883 0.651749903851266
0.246884651116419 -0.252233152840012 0.651749903851266
0.242817510304475 -0.255938273658014 0.651749903851266
0.233821191998683 -0.263519732443897 0.651749903851266
0.218616001829962 -0.282294468543008 0.651749903851266
0.210885879398775 -0.288848838761678 0.651749903851266
0.216724992203654 -0.2927747255495 0.66066797425655
0.205477786500194 -0.294255448271244 0.660519609878048
0.207820096805836 -0.293947077269381 0.668978599191588
0.215542012446052 -0.292930467789184 0.690378913871838
0.205654658225284 -0.294232162666884 0.691191806784101
0.214163402514901 -0.29311196522982 0.707838718814887
0.208131434083469 -0.293906088939189 0.71126486757129
0.213215296972327 -0.293236785692477 0.725624743149055
0.212740965563782 -0.293299232607096 0.744817936003399
0.206220661675692 -0.294157646898994 0.743066853753385
0.214034443130694 -0.293128943054838 0.761928378262973
0.212975717942737 -0.293268326870092 0.768476859600705
0.208831094684742 -0.293813976873567 0.779172890081913
0.217054605767187 -0.292731331100622 0.796349829958797
0.209384693327169 -0.29374109422963 0.79764276880902
0.207987021398955 -0.297857835576933 0.80542749713826
0.207378029511535 -0.299991107993003 0.807853783565237
0.200704590279674 -0.309504808700854 0.813967961445414
0.184536785266422 -0.324012748028478 0.816899621490325
0.178728641558219 -0.333069187219181 0.815703113055147
0.494296212375732 0.0433245683042123 0.370702464162882
0.493898068994035 0.046348767533183 0.387365424235845
0.492900039772445 0.0539295520976736 0.397693695146657
0.493110767269015 0.0523289178489458 0.405257667454444
0.493463748714349 0.0496477575838407 0.409560823995411
0.494231025782137 0.0438197096406036 0.410450378033367
0.493680464791921 0.0480016355463278 0.435297910379989
0.492954450102375 0.0535162646103315 0.442697438187992
0.494479137756167 0.0419351120934553 0.438289834590989
0.493671603257708 0.0480689455812767 0.455770121800441
0.493018264356715 0.0530315472254838 0.469700137140128
0.492752682825592 0.0550488392327686 0.477560401918853
0.493080717534632 0.052557168242467 0.475551578398225
0.492931841974083 0.0536879903937869 0.490694580895742
0.492691469102489 0.0555138036217855 0.502133526355987
0.492510161693543 0.0568909701189494 0.510247721910118
0.493112531999113 0.0523155133930435 0.520017137740148
0.493308035473711 0.0508305170718118 0.517869684767467
0.494155476465542 0.0443935636728423 0.530345117541934
0.492798411628958 0.0547014944865263 0.544156378176558
0.493851108075074 0.0467054711265183 0.552793748466069
0.492833727086024 0.0544332469582748 0.562389666287365
0.494024204575632 0.0453906726705139 0.562729795967423
0.493074568901635 0.0526038717468428 0.575434051584559
0.492858198550334 0.0542473677326051 0.591465077968836
0.493192226770655 0.0517101715043416 0.597477947096369
0.493091459586146 0.0524755742604985 0.60395669531054
0.493739537661167 0.0475529325568074 0.607875024973817
0.49403075993208 0.0453408797948138 0.610070837962237
0.49415331911492 0.044409950377703 0.625448453751205
0.493206629307519 0.0516007733757244 0.637047886946714
0.493927791513027 0.0461230025873032 0.64030084267669
0.493306089587474 0.0508452975452042 0.648809255841653
0.494022899453018 0.0454005860609753 0.659512340776006
0.49345295705028 0.0497297284105693 0.674694187443948
0.493288507926331 0.0509788435201347 0.68082439817331
0.492731017697412 0.0552134022192452 0.695281483649537
0.494156160571158 0.0443883673747989 0.692244199943753
0.492919216771166 0.0537838883307691 0.713592049746078
0.493041241790493 0.0528570162883638 0.720962000675845
0.492662116401288 0.0557367595226427 0.731470837478421
0.49374365294068 0.0475216739055257 0.7342430764013
0.493549904480763 0.0489933395667657 0.740271628454824
0.493593758219196 0.0486602373527046 0.755876228720883
0.493052411072112 0.0527721771715661 0.766019252942908
0.493996594674981 0.0456003906869289 0.770017353754879
0.494128656188023 0.0445972839061148 0.778711466651128
0.493723592020718 0.0476740517208308 0.789784002905188
0.493622341856819 0.0484431230696774 0.789420479217365
0.490337127950427 0.0441835201220991 0.805324998684189
0.485839969974845 0.0495602898836135 0.809376050981475
0.486047729952205 0.0339231950790228 0.810859123143148
0.481652818828443 0.0355540980426243 0.81346795628218
0.480174541975301 0.0261296844055365 0.814824786706799
0.472931806863711 0.022520898978716 0.816619173762949
0.464639991516194 0.00795703914488051 0.815994942208491
0.330172505831483 -0.154352752317667 0.651749903851266
0.33001308912566 -0.161354538168134 0.651749903851266
0.314306388235111 -0.173513545060075 0.651749903851266
0.302900071041358 -0.189364911493177 0.651749903851266
0.308984579387348 -0.186369307711824 0.651749903851266
0.290504425062979 -0.201767725180615 0.651749903851266
0.288271889029564 -0.213963993148924 0.651749903851266
0.277172381117324 -0.223688708834228 0.651749903851266
0.265165998484865 -0.237869184138804 0.651749903851266
0.262411079844658 -0.238325074599516 0.651749903851266
0.258461984312443 -0.253418169760865 0.651749903851266
0.242506443085444 -0.261386951676769 0.651749903851266
0.243049244289427 -0.274769789904702 0.651749903851266
0.229723369356681 -0.286671842400843 0.651749903851266
0.221405793973765 -0.292091508951441 0.655364142217036
0.22360985464981 -0.291178557127129 0.657946006237926
0.227048664938412 -0.289754155267161 0.679182403725817
0.229796543689282 -0.288615946620792 0.693612734525937
0.217734831676875 -0.292641777660688 0.690861931661921
0.218798946177422 -0.292501684328972 0.69972434851076
0.219040471903766 -0.292469886863868 0.709803431632228
0.230414001162089 -0.288360187361366 0.728697301885772
0.229804215553532 -0.288612768830571 0.741888743572353
0.232954176293942 -0.287308012370949 0.751441571784247
0.227695637085109 -0.28948617062952 0.756025843203352
0.23297440671055 -0.287299632658017 0.768720385116819
0.228320572998318 -0.289227313698655 0.780820496115977
0.218827049528312 -0.292497984452637 0.785636965724873
0.230252104488686 -0.291454013193572 0.804124721561995
0.223906502878878 -0.297692113751017 0.808088174421656
0.216797121725757 -0.299149371994682 0.808373541122287
0.211462345592878 -0.306114765254087 0.812934095253057
0.205239842207469 -0.308863457794868 0.81394477063846
0.192709713033462 -0.325738654332854 0.816688938368461
0.494746362798194 0.0399053363814593 0.362877906108733
0.495102579171457 0.0371996043992359 0.380643813137174
0.495447925140299 0.0345764413360964 0.380677421430473
0.49486032329448 0.0390397204731133 0.391473838857782
0.494005640628347 0.0455316798494491 0.410636844429714
0.495653376826829 0.0330158808431747 0.404981562298755
0.495270155496471 0.0359267358393161 0.416814841023511
0.495087742103965 0.0373123031156621 0.432588832273505
0.494988204408666 0.0380683669740978 0.442243222934905
0.495520693388514 0.0340237116154461 0.444150825368283
0.49517431367979 0.0366547267125372 0.457083407015404
0.495509036556511 0.0341122540450738 0.459444002746157
0.49450962674421 0.0417035252371306 0.481731752074085
0.495260410401369 0.0360007571855197 0.478698057941979
0.494880454207149 0.038886811010409 0.494036009887453
0.494711439370495 0.0401706061510368 0.501943337919792
0.495220203581172 0.036306158305391 0.506662458943705
0.494630197127898 0.0407877022493638 0.522168996935581
0.49605701904915 0.0299499137729192 0.519382350932599
0.495194418342312 0.0365020166395093 0.537636938166859
0.494831130180955 0.0392614641852299 0.546602733187622
0.495242419028407 0.0361374152306932 0.548386818196987
0.495382127158565 0.0350762266264602 0.560974425952419
0.494532865467274 0.0415270096108498 0.576618449123133
0.495204461999453 0.0364257274894669 0.569004373123548
0.495015010167186 0.0378647570235714 0.589194566457999
0.495430218898561 0.0347109335945992 0.598905812458711
0.49453789200368 0.0414888292762676 0.610802353167274
0.495566770437177 0.033673721683562 0.613588582908479
0.494599506894354 0.041020817717035 0.622184803928633
0.495372309341844 0.0351508003482023 0.627795803981639
0.496013949518163 0.0302770593400533 0.637506574381556
0.494635930041989 0.0407441564435776 0.650525887445067
0.494718842716902 0.0401143721521186 0.653169845963437
0.49433224679672 0.0430508597027903 0.671432028650114
0.495318999565372 0.035555728302083 0.670558876671746
0.494765460005051 0.0397602786939381 0.685750695079347
0.494896577634351 0.0387643414219292 0.693646834996359
0.495269848717754 0.0359290660550129 0.701050242511988
0.4955356982456 0.033909738410521 0.70932813044994
0.495282649387456 0.0358318353154869 0.717426107445276
0.494712615846968 0.0401616699250248 0.724251678719352
0.494712518432956 0.0401624098579083 0.740353117286023
0.495240876866956 0.0361491291098703 0.742290480319302
0.495838851765476 0.0316070588151504 0.748757871965137
0.494853023754482 0.0390951659840718 0.764314234491084
0.495533830569893 0.0339239248159534 0.763877518338983
0.495613100370511 0.0333218109019008 0.774264754399779
0.494397849097636 0.0425525607558107 0.790157511345486
0.494808788010517 0.0344649127394108 0.800244604530068
0.493450628139153 0.0357621972830352 0.802370962825008
0.493219576681506 0.0321530184130776 0.803635652180857
0.488652962625889 0.029247553911352 0.809264858604176
0.482976315962197 0.022859909587528 0.813650096427395
0.474067397372138 0.0111504350059497 0.816654154363957
0.465030607210859 0.00112290492892261 0.815843289440759
0.466301275850613 -0.00506183528273085 0.816376259237624
0.324618477822578 -0.179757501044241 0.651749903851266
0.321087516179409 -0.178060793241521 0.651749903851266
0.311183501422399 -0.19362805122552 0.651749903851266
0.308201587303328 -0.199611328783273 0.651749903851266
0.299467328366517 -0.216819416494953 0.651749903851266
0.290616214148794 -0.217157582924472 0.651749903851266
0.286489896818653 -0.233093793737291 0.651749903851266
0.282250307229195 -0.237737963976149 0.651749903851266
0.272065272556574 -0.248050185398382 0.651749903851266
0.264371498063619 -0.255944778750552 0.651749903851266
0.249912791068333 -0.275480402604426 0.651749903851266
0.240183453737276 -0.278575248255548 0.651749903851266
0.246586100288513 -0.281661484571152 0.659733800556692
0.252811576716274 -0.279082807802537 0.679148553737512
0.239266670326903 -0.284693291730094 0.673961470009052
0.24366967948968 -0.282869505619618 0.68834920676188
0.256209657538684 -0.277675276639853 0.712283891370342
0.258072688318657 -0.276903584023669 0.717606075484419
0.247141085453998 -0.281431602188692 0.722066478931754
0.244960843243992 -0.282334688081336 0.735408781657083
0.248314242578322 -0.280945664597002 0.741939421181842
0.243018628701143 -0.283139179686023 0.75032780995712
0.247347242619505 -0.281346209094759 0.761683316443387
0.250653592733981 -0.279976674035388 0.778001768919815
0.254946199901119 -0.278198617928817 0.790021720855318
0.248936257359111 -0.280688017638803 0.791608690763187
0.242094138279805 -0.284449791833021 0.80062181454921
0.235448132017186 -0.288789121455898 0.803269263609732
0.240524711013004 -0.291209561098887 0.808529696908534
0.22244693153061 -0.303398998857579 0.812269061699275
0.223671994624499 -0.311752939716253 0.815869549536656
0.21529493110948 -0.319771945299246 0.816881091888892
0.209995157792692 -0.327432063041966 0.816156124384455
0.496444589182146 0.0270060263412536 0.363685796218375
0.497518893231621 0.0188458769391638 0.365527565813737
0.497627890093786 0.0180179635751016 0.371758090931886
0.497269541214566 0.0207398935482184 0.385882848359078
0.495796594201866 0.0319280368777325 0.400855559117173
0.497184804418093 0.0213835334185225 0.40499369681625
0.496098360941171 0.0296358909265798 0.423315123291685
0.496508235661446 0.0265225833343558 0.419539692291021
0.496442642742474 0.0270208110183995 0.432107299282141
0.497654264320384 0.0178176314349458 0.436333108805331
0.496157680087034 0.0291853172804205 0.454686848177988
0.49621778337342 0.0287287874956676 0.460400469000294
0.496171890568768 0.0290773779553519 0.470636479086165
0.496421842606538 0.0271788037364779 0.477387217329105
0.496610447257863 0.0257462091804977 0.48096844681167
0.495746075518557 0.0323117643742373 0.493384900205363
0.497628202423097 0.0180155911984532 0.494849501747967
0.496743878887066 0.0247326953342204 0.5060823610042
0.495963126696191 0.0306630969990609 0.518386221546985
0.496905691872048 0.0235036036880478 0.529091305318348
0.496642997556488 0.0254989651158592 0.530477185909046
0.496090292586039 0.029697176168256 0.549452337548839
0.495903036186993 0.031119529731436 0.556992599087169
0.497260016590634 0.0208122402496237 0.556279330015633
0.496189608517602 0.0289427967726231 0.574867179389827
0.496084408409399 0.0297418709271678 0.584202942396881
0.496795561315652 0.0243401283147352 0.591124935889432
0.496352325231888 0.0277068406208803 0.598805350713951
0.496828631612439 0.0240889344719056 0.601849167422291
0.496851127064522 0.0239180645492276 0.62054817692615
0.496595908033347 0.0258566455549181 0.628444471476826
0.496619573943117 0.0256768851234515 0.634028052350692
0.496584915707205 0.0259401405614199 0.635949200067763
0.496633575904026 0.025570529671288 0.643598835245229
0.496493913333607 0.0266313722149386 0.653429933682507
0.496112157133506 0.0295310984419038 0.673507306524254
0.496535236805722 0.0263174892816744 0.68062082848853
0.496687761401171 0.0251589499584997 0.67974739913987
0.497298629367375 0.020518947091889 0.690738911980175
0.497058895195702 0.0223399089123295 0.701278383331336
0.497470959249213 0.0192099716831788 0.704658277060604
0.496370875414905 0.0275659379919339 0.718944642197728
0.497265419418507 0.0207712016975847 0.724107367543833
0.495919167988121 0.0309969965366718 0.736718254328543
0.496194875817745 0.0289027876558977 0.749214976628638
0.496210501600416 0.0287840980529111 0.763380053270147
0.496683837130153 0.0251887577562232 0.760847805498868
0.496072512732303 0.029832227565386 0.776753846512264
0.497022397182015 0.0226171388498951 0.77294867498566
0.496200651484164 0.0288589171139413 0.793039670670707
0.493248134441485 0.0292291870739509 0.804211499110216
0.491970326628505 0.0249014590059251 0.806394892911234
0.493671176406751 0.0201214596746565 0.805128567292534
0.485673904811523 0.0141187096497023 0.812839879676874
0.483247327267064 0.00817458264482355 0.814520844515636
0.479109524729047 0.00390966577187848 0.816013409435977
0.471861816624403 -0.00987711711834495 0.816883888289117
0.457269999873666 -0.0175212004941612 0.813748988744589
0.452583581231067 -0.0293785096702642 0.812134219339907
0.443560809574699 -0.0411469511401696 0.805039144223265
0.320062658146102 -0.209483779600744 0.651749903851266
0.315059456139765 -0.211738112296032 0.651749903851266
0.295315349100791 -0.2274851709205 0.651749903851266
0.287534588228273 -0.240251358247652 0.651749903851266
0.291181368340254 -0.24550558050494 0.651749903851266
0.277523494854743 -0.251080545335698 0.651749903851266
0.274982691494239 -0.265363394790774 0.651749903851266
0.25860715534953 -0.272925607259955 0.651749903851266
0.258993065388582 -0.276522351358809 0.66334114834625
0.263550278057419 -0.274634692064756 0.675349622687515
0.258390295029193 -0.276772027016664 0.684828883032944
0.27166849258056 -0.271272017507013 0.703099225577439
0.264998651379958 -0.27403475619118 0.710848349816173
0.273499151835239 -0.27051373361564 0.72114846039296
0.267206032105715 -0.273120429157249 0.726564974426202
0.269008757131712 -0.272373716002252 0.736968561252662
0.272399330469515 -0.270969294541512 0.753158699052755
0.254092490012301 -0.278552236143098 0.750522084288832
0.253961876817328 -0.278606337899881 0.757087460677864
0.264624436385712 -0.274189761117041 0.776437496122508
0.270968476927526 -0.271561973484374 0.790295189624389
0.259610381771582 -0.276266650540695 0.793659391130036
0.264952035530909 -0.280274401724482 0.807629955929059
0.258150969916382 -0.285222957733472 0.809494112964849
0.251266054618807 -0.290341718237456 0.811186752979422
0.238320720922432 -0.303000100907855 0.814916737122393
0.238265956007428 -0.309048800622472 0.816445528877005
0.232881142406379 -0.315177113655851 0.816797137687385
0.220685487536091 -0.324740183491666 0.816429060685682
0.498112962993539 0.0143334691018409 0.347643260802485
0.498494153529045 0.0114380395240477 0.355223259240455
0.49851028359408 0.0113155195162208 0.366493374061902
0.497757173595545 0.0170359578849105 0.382296304585315
0.498306160781064 0.012865986212683 0.38546778553018
0.498495753853772 0.0114258838509157 0.39737493903977
0.498772271491568 0.00932552386639923 0.397144740361099
0.49778372427882 0.0168342854232282 0.415667894274887
0.499164533175467 0.0063460005676604 0.421858041346589
0.498741926077014 0.00955602017379297 0.428129787930861
0.498091778535627 0.0144943810351476 0.439317914558528
0.498913458067157 0.0082531053542049 0.448569607449417
0.497334753132136 0.0202445598571349 0.460686619673999
0.497997599356367 0.0152097429233459 0.477525063105797
0.498693521965781 0.00992368590076608 0.474047843719783
0.498685628167279 0.00998364525319981 0.484077072594876
0.498047893797844 0.0148277187126503 0.500102586458273
0.498866855328963 0.00860708829450648 0.501716283559106
0.497994190612352 0.0152356349047121 0.516538035486939
0.498385479263287 0.012263502525119 0.518940526520457
0.498162731914918 0.0139554366125898 0.5280699854634
0.497475471492707 0.0191756977910984 0.539186209026573
0.498400440719348 0.0121498589837177 0.548546616880821
0.498613847837671 0.0105288709870343 0.545162045063526
0.497962199682864 0.0154786301389385 0.570492980029804
0.498852958223337 0.00871264729172408 0.571276628685453
0.498345645551873 0.0125660696024211 0.573410713538182
0.498633232167209 0.0103816323862247 0.588822733815326
0.498903092673027 0.00833183833929868 0.592897277969057
0.498126042599709 0.0142341196294809 0.61137474904772
0.497674519990224 0.0176637743474591 0.617305652282344
0.498277821627576 0.0130812434543408 0.61804310136591
0.498176491520312 0.0138509220333296 0.636749191936966
0.498150826467536 0.0140458674635015 0.639679410733539
0.498489704219563 0.011471835384845 0.652220931665183
0.498858123009617 0.00867341684509226 0.658462392156673
0.49835294448287 0.0125106287172817 0.665537359862454
0.499015795716186 0.00747577373571137 0.675003086765993
0.497766596001489 0.0169643876062014 0.686650189246708
0.498633875117532 0.0103767486936608 0.696287776362083
0.498221344111851 0.0135102327766839 0.705395648822107
0.497903999927302 0.0159207011716139 0.710264868936606
0.498528615249622 0.0111762767682471 0.718734608400541
0.498693100074109 0.00992689048616428 0.727080033667709
0.497374550039413 0.0199422723350214 0.745009900499788
0.498519494433397 0.0112455562455962 0.749452006079948
0.498047644859937 0.0148296095837796 0.755472392381523
0.499213291253634 0.00597564619489665 0.767678001691155
0.498315499299075 0.0127950531260923 0.774282056218384
0.497819925376161 0.016559310789218 0.783313388329676
0.498715654432453 0.00975557312602066 0.796771226521592
0.495039629414605 0.0139789140855738 0.804467046666035
0.494656476003354 0.0116146766580745 0.805287680231881
0.4935135968848 0.00244576726693438 0.808064824202554
0.482502686374124 -0.00490488702943602 0.814963642173567
0.484959237068837 -0.0105711977236605 0.813458864574036
0.471631952450323 -0.0183346353730859 0.816798354396717
0.470074257579327 -0.0278190116212913 0.81682827159069
0.455153140962436 -0.0378218819589225 0.814040107774279
0.446363633921149 -0.047355087138907 0.809046698066164
0.448134722850429 -0.0519947943802497 0.810955256746966
0.31019208663609 -0.224523773481074 0.651749903851266
0.31253017390509 -0.235711297355759 0.651749903851266
0.295830740099947 -0.246914843894765 0.651749903851266
0.294401507337813 -0.258831865130564 0.651749903851266
0.28308895174931 -0.262286143405294 0.651749903851266
0.284085425282929 -0.266128755578612 0.658283451880032
0.277527492925723 -0.268845140102095 0.666549582167868
0.285480348230103 -0.265550959575427 0.683514243331084
0.287376680209435 -0.264765473150825 0.691171354690714
0.282109132995645 -0.26694736264722 0.692807400532052
0.277499469032692 -0.268856747978659 0.709460774190173
0.285696885165441 -0.265461267040056 0.71876145059892
0.281674175021222 -0.267127528139289 0.735899016867811
0.291233917205943 -0.263167753273583 0.73872610815159
0.280743550066878 -0.267513005616861 0.748012964914329
0.283073100983804 -0.26654807403283 0.764459688353097
0.282036592301285 -0.266977409986648 0.7662746258162
0.282740724838699 -0.266685748739942 0.776933618638687
0.270867895844485 -0.271603635533087 0.7786656695557
0.272930448509517 -0.270749298246122 0.788956117532796
0.280054064900204 -0.272078311004125 0.805492874584321
0.268796947350401 -0.279450804886833 0.808476823961504
0.276721435054772 -0.280964739849053 0.81206213814659
0.259810275002979 -0.292986861408983 0.81451112452428
0.251424406993714 -0.308519249523346 0.816889418931783
0.250377964117624 -0.313049614279902 0.816600806403733
0.238691258368385 -0.321359602500217 0.816104257292193
0.500008809570153 6.69153298994255e-005 0.344540040802881
0.499999999999869 1.838721106219e-013 0.359503307924136
0.499609647679993 -0.00296502023893384 0.361555172708602
0.499504496784066 -0.00376372058912381 0.365938776007754
0.499277724815535 0.00548622470209207 0.385521495785895
0.498812236543628 -0.00902195915752642 0.386122006936009
0.499840133548012 0.00121430625936038 0.39388355397236
0.499705132783221 0.00223973887373802 0.409391560188732
0.499606252347767 0.00299081034800608 0.415797944970306
0.499450823864637 0.00417140688797544 0.433969425353638
0.499271680597425 0.00553213509666214 0.437698612900269
0.499999999999869 1.838721106219e-013 0.442432252799406
0.499397953018353 0.00457300083607641 0.45049770752724
0.4991149934528 -0.00672229211952039 0.454129433730672
0.499491487081521 0.00386253909108666 0.474324255897996
0.499361831776883 0.00484736890452691 0.486332374880761
0.499295270241738 -0.00535295395851578 0.483577725335091
0.499388234047928 0.00464682374565648 0.495717423099088
0.499252185001733 0.00568021884781268 0.507882826331158
0.50001556312597 0.000118213679274649 0.509753249444346
0.499814642054541 0.00140793337573387 0.523809683812717
0.499931262006909 -0.000522116892545355 0.52317715909499
0.499112210276218 0.00674343244481757 0.539276229226703
0.498906117509534 -0.00830886242463951 0.542503299395631
0.499777210999175 -0.00169225046810526 0.555181855597332
0.499681903799602 -0.00241618052124171 0.558392140699384
0.499498369164531 -0.00381026448041582 0.56942785876226
0.498968031468455 0.0078385792168499 0.584379544515736
0.49950063170643 0.00379307876882961 0.595787754529685
0.499634204676385 0.00277849133294697 0.605729627370937
0.499806302673652 0.00147127726241851 0.616738303435637
0.499966806110341 0.000252132623083348 0.616248521382035
0.499869060184547 -0.000994586640567048 0.628658228532064
0.499184750618939 -0.00619243383792798 0.628780090203857
0.499377794432978 -0.00472612049350169 0.645086360916247
0.499590419485533 0.00311107287643552 0.652717858341278
0.499173991248297 0.00627415937206712 0.661762456963552
0.499689540820793 0.00235817158648068 0.674280605568719
0.499248732903628 0.00570644013619477 0.68208021413318
0.499756921139175 0.00184636725601264 0.696111610117055
0.499849373334569 -0.00114412311225404 0.693353942650764
0.499420038904318 0.00440524187692755 0.703594784914297
0.499661670240281 0.00256986966302822 0.720171433174983
0.499327277439938 0.00510983515148713 0.73089430235082
0.499625907898945 -0.00284151161395302 0.729823023394392
0.499443615462588 0.00422616013747711 0.741036450286574
0.499794777532111 -0.00155881940331292 0.749573499390685
0.499432216661789 0.00431274262552934 0.766513250906928
0.49988230286055 -0.000893998529860129 0.764866127546131
0.499062086789991 0.00712415812147209 0.78217033704038
0.499414223553475 -0.00444941385165914 0.779265786291511
0.49914436469898 0.00549201280185204 0.799311192326252
0.49446167115336 -0.00273509546989613 0.806899404964338
0.497296503388354 -0.00774382940565276 0.802089469755381
0.486324719003314 -0.0128756287209854 0.812584702650964
0.486061312437249 -0.0162722076450472 0.812488447270539
0.485032395899254 -0.0204520558511992 0.812739156021958
0.475681907059485 -0.0352964170656666 0.815803548465523
0.467750529082209 -0.0377114437433913 0.816932648283003
0.463724215563051 -0.0469552039150507 0.816660695454392
0.444144065009507 -0.0666010644554618 0.80929846667493
0.319554353374211 -0.229822887913919 0.651749903851266
0.314958549342231 -0.233463071390953 0.651749903851266
0.304940783360518 -0.253671083819401 0.652094975658223
0.302965824470058 -0.255186523076201 0.653179223356982
0.303583298635724 -0.254712718484505 0.675904450654545
0.294125279563787 -0.261970111771227 0.662640659229058
0.310914579997872 -0.249087228438858 0.689164019981251
0.296141569685513 -0.26042295794523 0.691560020908323
0.304095945264963 -0.254319350890594 0.701988065584214
0.294292953348341 -0.261841451151163 0.710494246542962
0.298818708634708 -0.258368716978942 0.724053869609377
0.313386741097233 -0.247190272508685 0.739170331843029
0.290911347671865 -0.263301365949406 0.736544859546015
0.316747909219742 -0.244611157497147 0.763192709800449
0.304289840532542 -0.254170569818938 0.761265597334657
0.306725487943993 -0.252301631826929 0.786180751775773
0.294202955011374 -0.261910509303991 0.77518719114177
0.292290553873127 -0.262730080035534 0.785700420805799
0.301664482317372 -0.258460766240996 0.802334814355911
0.28866035895716 -0.269209800989569 0.806259700485327
0.287263629052939 -0.271166185850942 0.807777024279338
0.284187621020304 -0.284285335869101 0.814995548309445
0.279669176919272 -0.291709615683363 0.816428443052996
0.265083744720206 -0.300324653953031 0.816660592665345
0.259384699066215 -0.306341415598443 0.816869393079796
0.252242824568339 -0.316419561655316 0.81591739301404
0.497103245696112 -0.0220030334161943 0.328936751987841
0.497202752472451 -0.0212472044105714 0.334859255758961
0.496805104831619 -0.0242676381138461 0.345783055916882
0.497728544789635 -0.0172534152548675 0.351527924280373
0.498164175412683 -0.0139444721582141 0.372197451597977
0.497425184782936 -0.0195576632733957 0.376288930572893
0.496952818222516 -0.0231456435174274 0.382777525288987
0.498776679073178 -0.00929204495993497 0.400629479965164
0.498889073114441 -0.00843832745876683 0.409675118320306
0.497898488977649 -0.015962560989821 0.410667400328969
0.49789733948303 -0.0159712922683007 0.418030544257906
0.498292325105358 -0.0129710786030302 0.430058705571999
0.499114848265 -0.00672339493034875 0.443529721810505
0.497103465839412 -0.0220013612618145 0.438180446357548
0.497573189606751 -0.0184334550241951 0.454045488669692
0.496939594498947 -0.0232460876701143 0.454727161218243
0.496699539855433 -0.025069483715872 0.467614701871535
0.497367035007392 -0.0199993546701416 0.477631623484939
0.498915684224643 -0.00823619600900356 0.491288971480125
0.498471132361734 -0.0116129026500275 0.509840404756714
0.497846731058329 -0.0163557014183696 0.512698483115101
0.498376028481998 -0.0123352883356651 0.52239280609355
0.49889925178454 -0.00836101278349376 0.53446575434549
0.498186110639458 -0.0137778575692242 0.54490274394701
0.498436204522911 -0.0118782059254137 0.549823271197147
0.49753274026521 -0.018740698276563 0.554615355723253
0.498699645798327 -0.00987717077420175 0.570711433595118
0.496646055499972 -0.0254757377288282 0.563295485348492
0.497621010457019 -0.0180702196041033 0.576858158153131
0.498222968851795 -0.013497891651275 0.595590654025627
0.497965794982502 -0.015451321126651 0.59300397481672
0.498207365150047 -0.0136164135330038 0.611683072369885
0.497649224196307 -0.0178559149778684 0.619713403829799
0.497313959146321 -0.0204025058601544 0.621086757509136
0.498144142948182 -0.0140966338328341 0.634713193059695
0.498754902478669 -0.00945745461724046 0.651263121458396
0.497586615405133 -0.0183314759609183 0.650989584225324
0.497530924591741 -0.0187544896857792 0.652038254193502
0.498098372002999 -0.014444298677953 0.673911924859987
0.497633507656414 -0.0179752939503981 0.668744951104457
0.497622010274664 -0.0180626252351106 0.685181837341028
0.49652032593193 -0.0264307486123797 0.688034546977631
0.497020849865283 -0.0226288918870855 0.703687460022865
0.499253618031462 -0.00566933390601872 0.717269218151079
0.497779136354254 -0.0168691341698443 0.718612211435422
0.497921308049527 -0.0157892329307529 0.730384929672792
0.496750489363774 -0.0246824837783471 0.736522505881378
0.497438034030681 -0.0194600635469892 0.742534640204857
0.498370342350424 -0.0123784787929556 0.753762982358792
0.496740898925765 -0.0247553303873 0.75966326496343
0.49725703589556 -0.020834880876237 0.769846059389866
0.499090520791032 -0.00690818044079526 0.789613410515361
0.498663263093433 -0.010153524854536 0.796363081355529
0.49716347904602 -0.0178356594625688 0.799948388869045
0.493561090448343 -0.018436642928927 0.805520792024967
0.489082686978654 -0.0257546395237765 0.809288998095744
0.482277014393346 -0.0336180118895698 0.813274512139889
0.480053265584676 -0.0414541270501391 0.813898943638403
0.472845317594438 -0.0423648873024235 0.816374647876825
0.474500792569988 -0.0561248613296919 0.815338564640492
0.462525805964339 -0.0662893325152414 0.816791086543664
0.45662468016483 -0.0761323078516706 0.81628094201788
0.451738355058819 -0.0761399514057651 0.814825726771584
0.432384883621002 -0.098208663866881 0.80691178078477
0.324810099948998 -0.238424820968351 0.682970221692425
0.322439884623897 -0.240243551154623 0.683806080241218
0.409085455893441 -0.141015679380094 0.79914026733531
0.339746388703936 -0.226963803506431 0.720147123708569
0.321430265035501 -0.241018259512392 0.715186450874671
0.352007329349075 -0.217555652851401 0.748372234303405
0.340836026344881 -0.226127695137416 0.754800454087594
0.322913795455415 -0.239879906583704 0.739593188788487
0.344135396111108 -0.223595999672466 0.773733000461821
0.321086181946335 -0.241282283752816 0.768835495387051
0.340598558576828 -0.226309910564618 0.78599838075364
0.329264470328327 -0.235006862361834 0.793007537015879
0.334228556121473 -0.234212277146213 0.803393526198876
0.335488086269905 -0.237400324676396 0.807559292551025
0.324566329274486 -0.249238296863835 0.810071522214232
0.320443694425535 -0.254805881444704 0.811613020297273
0.311142871460873 -0.263427086251659 0.812393379410289
0.304635236487847 -0.273290429961052 0.814434576565769
0.29778332819792 -0.28362799140021 0.816376259237624
0.280662100095181 -0.303284461832827 0.816295853436642
0.269494054325034 -0.313252775200426 0.81481294601315
0.271511789620691 -0.312694533564704 0.814735910020354
0.495663171718045 -0.0329414812577529 0.315050116680163
0.494530214563067 -0.0415471452272464 0.318548524370667
0.495844094150353 -0.0315672389484677 0.342172364228843
0.494599313976075 -0.0410222830767024 0.338131761192215
0.495884027361446 -0.031263916096066 0.352133105585396
0.496815012958226 -0.0241923784204192 0.37100578521751
0.496326611160121 -0.0279021583870458 0.376731520295961
0.495833231229276 -0.031649751025909 0.386896316810321
0.494034862448261 -0.0453097180905439 0.377691886886036
0.495641329801588 -0.0331073870845174 0.397709493702564
0.494583509236875 -0.0411423319894764 0.402800331562877
0.496213184691152 -0.0287637179552158 0.422690338840647
0.4957589060624 -0.0322143067178922 0.42148342180829
0.495082746357304 -0.0373502495787452 0.434557887661688
0.495178745514897 -0.0366210635826379 0.437441004404429
0.495921826274192 -0.0309768048491241 0.456668956617879
0.494254655467933 -0.0436402243574162 0.456875586731751
0.495504837310658 -0.0341441504838542 0.462556567256625
0.494983106332915 -0.0381070907037955 0.473884707052047
0.495227533747015 -0.0362504801678735 0.477705623895748
0.495731226293206 -0.0324245554385809 0.501851400823374
0.495208204657712 -0.0363972991774478 0.504348975119285
0.496276213370309 -0.0282849676062813 0.513671245074458
0.494754655970712 -0.0398423434820568 0.517789343720733
0.496351131472611 -0.0277159081226064 0.533072664800919
0.495535258776961 -0.0339130765060651 0.536667134199797
0.495991670231889 -0.0304462873201973 0.549636986693986
0.496290150267818 -0.0281791063597153 0.562568919651937
0.495381011656 -0.0350846997094858 0.571283457168896
0.495864706780813 -0.0314106704758709 0.573533568233969
0.495340836349595 -0.0353898614583428 0.58230964781508
0.494440876811494 -0.0422257328211779 0.589381550404592
0.495873043997082 -0.0313473430311117 0.610927115381688
0.496190711062619 -0.028934422111577 0.612502236716659
0.49551900237507 -0.0340365561375877 0.615005836206192
0.495741011355934 -0.0323502305081295 0.626948024334485
0.495601361858623 -0.0334109737516686 0.63867284789568
0.495022245088558 -0.0378098023396474 0.64480390687999
0.495504316282984 -0.0341481080819531 0.659437206405369
