ply
format ascii 1.0
element vertex 859
property float x
property float y
property float z
end_header
-0.497622217228011 0.245702329289706 0.483469815664617
-0.49872350801901 0.239769166399577 0.494696844801583
-0.497708906766737 0.245235292646582 0.501039395755936
-0.497911052102721 0.244146242219868 0.515980443140343
-0.49868835745881 0.239958538726172 0.531785880723037
-0.498185754508659 0.242666293296239 0.536054140245054
-0.498413684162786 0.241438330821228 0.544872513276911
-0.498449641318513 0.241244612991441 0.546577537447453
-0.498768415026294 0.239527231579729 0.560259267326662
-0.497845898960854 0.244497252331513 0.558745931758198
-0.498054290912579 0.24337454849645 0.568154343117604
-0.498891337554609 0.238864991062218 0.578990776180994
-0.498127583761274 0.242979686019125 0.591521247291445
-0.498921628351422 0.23870180052886 0.598431518522832
-0.499121983857863 0.23762239274178 0.611074056441652
-0.498797986573357 0.239367915977465 0.61457482494159
-0.497814712701903 0.244665267133596 0.62537117979441
-0.498548799473565 0.24071040214485 0.63649110923878
-0.498977271863623 0.238402023190886 0.638229329022893
-0.498324031304353 0.241921332238288 0.651811411024272
-0.49825410541946 0.242298055324229 0.653947928629375
-0.498591344602277 0.240481191857346 0.659991943489256
-0.498815144761389 0.239275476882064 0.67406881922902
-0.497984197345541 0.243752174963667 0.68417081037576
-0.498232723552712 0.242413249330524 0.687325613356086
-0.498962761093966 0.238480199418943 0.697773683514547
-0.49844335073454 0.241278503276997 0.709057444478236
-0.498403192489984 0.24149485431551 0.711232278993704
-0.498243075028425 0.242357481142814 0.718337558916483
-0.498516369351771 0.240885118211411 0.734481261499853
-0.497555827922829 0.246059999184908 0.73735492406045
-0.498381461885314 0.241611927134293 0.75247813995302
-0.497555103478943 0.24606390209921 0.754914122778686
-0.498346482674183 0.241800376324191 0.763928040628342
-0.498978043168074 0.238397867817036 0.77124677855983
-0.498525655917441 0.240835087186675 0.781673339863514
-0.498013808784633 0.243592644444587 0.791636472372114
-0.498743068293295 0.239663786154454 0.798520181761922
-0.49829470086587 0.242079348877109 0.807938344936827
-0.498431413808217 0.241342813020491 0.814147770738841
-0.498022070613256 0.243548134152311 0.820811055933841
-0.499189108583963 0.237260760793918 0.836580861293798
-0.4986566153081 0.240129548374286 0.838130169608016
-0.498441926163565 0.241286178099771 0.849636817885908
-0.498355012039148 0.241754424689892 0.859858439614744
-0.497688581675676 0.24534479331344 0.871866371124176
-0.498284848467137 0.242132428306287 0.8676007437948
-0.498738983386161 0.239685793438652 0.881314453009717
-0.49835797471507 0.241738463384328 0.89310519751073
-0.498933552490087 0.2386375596784 0.896941236464005
-0.498251060757993 0.242314458323851 0.91251526695558
-0.497685374539815 0.245362071637773 0.91517485837289
-0.497945364250084 0.243961386811033 0.92104300410821
-0.498291853720269 0.242094687767399 0.937045183074511
-0.497616185307557 0.245734826035237 0.939470144660721
-0.497868061353009 0.244377853273818 0.948487385847566
-0.498835902837518 0.23916364352436 0.955440993346923
-0.48469284648454 0.242487228782646 0.955555555555555
-0.478804179314574 0.247637019265455 0.955555555555555
-0.466837977118397 0.245407506003959 0.955555555555555
-0.45723218718059 0.243211199969152 0.955555555555555
-0.445096169388576 0.24696481574447 0.955555555555555
-0.168722854903659 0.277777777777778 0.743591971466345
-0.172915836817861 0.277777777777778 0.753895274744372
-0.157596901741412 0.277777777777778 0.752783977168946
-0.0811373337421599 0.277777777777778 0.704519732049402
-0.0931123457568062 0.277777777777778 0.722521462028615
-0.132208072315741 0.277777777777778 0.764393352271703
-0.0960398703680931 0.277777777777778 0.747226142972966
-0.0844334381515528 0.277777777777778 0.7511859239419
-0.0823119321809051 0.277777777777778 0.757058852170468
-0.171002441986843 0.277777777777778 0.826829239771494
-0.143511570424322 0.277777777777778 0.814187994491513
-0.0852798685380274 0.277777777777778 0.788762773767716
-0.112699750950389 0.277777777777778 0.816631894207741
-0.0783064653658583 0.277777777777778 0.797497791275335
-0.161011281536474 0.277777777777778 0.866698726303199
-0.14366333775016 0.277777777777778 0.87258854649445
-0.125384246970648 0.277777777777778 0.864948692442415
-0.14945899619984 0.277777777777778 0.890612114927805
-0.160139814572035 0.277777777777778 0.909302223614299
-0.156911302430766 0.277777777777778 0.914629993726121
-0.0794641942059918 0.277777777777778 0.871722370436155
-0.0955850934166402 0.277777777777778 0.893411373885898
-0.11982582472508 0.277777777777778 0.910828780131467
-0.108120359705133 0.277777777777778 0.919764235532274
-0.0913934490432377 0.277777777777778 0.916294123516516
-0.13622777774796 0.280113175469331 0.955555555555555
-0.120768378650721 0.281104593698426 0.955555555555555
-0.0936599022897578 0.277777777777778 0.944756053795675
-0.0940277318483561 0.281849535037995 0.955555555555555
-0.0736512781564706 0.284323054382922 0.955555555555555
-0.0560630373013075 0.288822496316027 0.955555555555555
-0.0565673194705374 0.287521067705602 0.955555555555555
-0.0350275804682744 0.287686140519951 0.955555555555555
-0.0256738951466609 0.285213365035143 0.955555555555555
-0.00400418369810645 0.291562297568098 0.955555555555555
0.00475160221395917 0.294053550592449 0.955555555555555
0.0248027171288564 0.287135842137781 0.955555555555555
0.0353568142470817 0.295882156543874 0.955555555555555
0.0523166168713134 0.296727286461239 0.955555555555555
0.06425958207232 0.298752531912309 0.955555555555555
0.0847029453933635 0.296128191080005 0.955555555555555
0.0909825923051752 0.303945490259604 0.955555555555555
0.123047014640878 0.298116989819545 0.955555555555555
-0.496808766257247 0.250084765928708 0.48173594136405
-0.495899941828251 0.253321531936224 0.492641512276322
-0.496255157136825 0.252239777153349 0.507618437593878
-0.4966210117845 0.251096286118708 0.518324569060349
-0.496450119818187 0.251646047637884 0.52398036705735
-0.497172981877035 0.24812256791798 0.527530220722009
-0.496725962092244 0.250530870266416 0.5451800969648
-0.495670063847424 0.254021590743473 0.547774053965999
-0.496320809060009 0.252039844098115 0.551444138940872
-0.497491835068719 0.246404758289716 0.570365451615864
-0.495372266507963 0.254928487739501 0.566908370473788
-0.497179637264817 0.248086712265572 0.575016796825327
-0.496980814835148 0.249157860658963 0.587080437214022
-0.496579992818372 0.251250538954206 0.596314204254052
-0.496632463242265 0.251034591818886 0.601914202589205
-0.496996232391966 0.249074799149038 0.618667440699202
-0.495997407304361 0.253024715491653 0.619565522145576
-0.496918146805851 0.24949548231971 0.622364739252769
-0.497203842707885 0.247956306347599 0.641021120457805
-0.496235139887013 0.252300736676211 0.64787631358285
-0.497235081633531 0.247788007805668 0.65772964382312
-0.496092657237181 0.252734646150865 0.666958314764587
-0.49735162103239 0.247160156159037 0.678396180003178
-0.495595470429934 0.254248753774438 0.680396108987448
-0.49582633426394 0.253545692699644 0.68591844520319
-0.497338329880748 0.247231761740721 0.693472739360686
-0.495418340622392 0.2547881759555 0.703846841885394
-0.495715297570886 0.253883838243732 0.715986328777495
-0.496976014404573 0.249183722798898 0.716509897137154
-0.495698082171824 0.253936265151652 0.724911914673736
-0.496630476346593 0.251045296144911 0.739494770636232
-0.49581664065196 0.253575213136601 0.743198802764305
-0.497272239274047 0.247587822409047 0.757346627132534
-0.495626838488073 0.254153227072457 0.768143311873654
-0.495718950442431 0.253872713972986 0.767345214785441
-0.496075487842956 0.252786932957974 0.776789330791775
-0.496041855382374 0.252889355556936 0.789585107097375
-0.496144974118757 0.252575322958693 0.797396539795021
-0.497548989700157 0.246096839853442 0.804344842628567
-0.496741374881336 0.25044783444244 0.811466937692635
-0.497414972381878 0.246818853136352 0.828082101931242
-0.496893040386382 0.249630742214294 0.834518262472356
-0.496327908873106 0.252018222685438 0.838970795114714
-0.495704456951473 0.253916851719267 0.845390254080441
-0.496960605119873 0.249266739743095 0.851816666418289
-0.496898517847572 0.249601232597276 0.858448762618523
-0.496800256790885 0.250130610360029 0.874677555836168
-0.495730699568572 0.253836933776888 0.881563998298858
-0.497148706913007 0.248253348377517 0.887129947060695
-0.496622503543945 0.25108824932057 0.892857436102181
-0.49547185382695 0.254625209541667 0.903346335807508
-0.496930730762312 0.249427686725578 0.913806876557015
-0.497399201165425 0.246903819974318 0.926989219335423
-0.496436630905358 0.251687126092603 0.931858205509054
-0.497387796019 0.246965264773525 0.94440403599193
-0.497036285691027 0.248859013500452 0.947573528992173
-0.493356471718335 0.253396414640266 0.955555555555555
-0.481961632879035 0.253035585871687 0.955555555555555
-0.478122010572884 0.249344018225589 0.955555555555555
-0.462916677114568 0.253692766077581 0.955555555555555
-0.456573574576854 0.258363824605374 0.955555555555555
-0.442819034063418 0.259264611769856 0.955555555555555
-0.437271925325524 0.253268434382536 0.955555555555555
-0.217875494638095 0.277777777777778 0.788818276505048
-0.192072457855253 0.277777777777778 0.776898295380277
-0.183640676845084 0.277777777777778 0.786260036356251
-0.229207835801033 0.277777777777778 0.825822981946177
-0.195513184914776 0.277777777777778 0.811552609146469
-0.262160685097033 0.277777777777778 0.8775462297575
-0.223427639020612 0.277777777777778 0.860225993754268
-0.255256219871042 0.277777777777778 0.886801845236217
-0.226130008522784 0.277777777777778 0.874735444143862
-0.247599969965094 0.277777777777778 0.899716840176234
-0.203304900220119 0.277777777777778 0.878281895979708
-0.260309748264697 0.277777777777778 0.920341367229431
-0.197088831625497 0.277777777777778 0.886079051539362
-0.253643237859628 0.277777777777778 0.940268726368946
-0.25402068290506 0.277777777777778 0.9497695284676
-0.24704270243383 0.277777777777778 0.94729008324106
-0.204706691095538 0.277777777777778 0.930575586369502
-0.214168134171768 0.277777777777778 0.944500304973405
-0.206956961239588 0.277777777777778 0.9494394734314
-0.203745712039805 0.281615191675533 0.955555555555555
-0.187774773911259 0.284704251189898 0.955555555555555
-0.169390491100809 0.279874080329969 0.955555555555555
-0.159322291769024 0.28807244315498 0.955555555555555
-0.151439939347102 0.289638726469056 0.955555555555555
-0.137601776527431 0.282173438544548 0.955555555555555
-0.117214702050591 0.284577707214532 0.955555555555555
-0.106667864084498 0.291999553605415 0.955555555555555
-0.0983982076720741 0.295265737824922 0.955555555555555
-0.0774467111240786 0.290129294069085 0.955555555555555
-0.0651852956069272 0.289399324297325 0.955555555555555
-0.0483178376020674 0.291427829787479 0.955555555555555
-0.040822783546416 0.295636338688644 0.955555555555555
-0.02213915771655 0.299806479461586 0.955555555555555
-0.00408718729719041 0.296990555261931 0.955555555555555
0.00327073688804965 0.301340192201806 0.955555555555555
0.0193472876032943 0.300963301409912 0.955555555555555
0.0407607446110965 0.307119933336298 0.955555555555555
0.0544110661623227 0.308200815025253 0.955555555555555
0.072845444412436 0.306122973762559 0.955555555555555
0.0918136183739639 0.310024153203617 0.955555555555555
0.0926533100514371 0.310994768733843 0.955555555555555
0.108778859682878 0.315945098064581 0.955555555555555
-0.492712268736675 0.263029110775927 0.481716348358102
-0.493783036507109 0.259768248619778 0.49776745770959
-0.492551696175204 0.263518110354993 0.495753680966654
-0.494275577498766 0.258268289128655 0.513252409762888
-0.495092160063504 0.255781509776261 0.527077274926341
-0.493294439374461 0.261256197681607 0.524366831531523
-0.49356228098112 0.260440526363221 0.540284257246628
-0.494983022957745 0.256113870413016 0.546243740630176
-0.493483741839847 0.260679705502361 0.551350623644533
-0.495489266687236 0.254572181295295 0.566696230509178
-0.493683728990581 0.260070674721315 0.569999583774193
-0.492838335029495 0.262645194846839 0.574263026348402
-0.495349567460733 0.254997614272944 0.587764251397587
-0.493507099174559 0.260608574253428 0.59395668552215
-0.495220189744676 0.255391614643322 0.606759985943905
-0.494258190408703 0.258321238895692 0.615836270434657
-0.492695545394828 0.263080039197627 0.616157985169713
-0.493498797386151 0.260633856101083 0.622274215133078
-0.493713120721003 0.259981166628074 0.634865894940819
-0.494208597794898 0.258472265740209 0.651823596776726
-0.49542847768358 0.254757305060695 0.656779977791161
-0.495081286521307 0.255814623513181 0.666911389593751
-0.493784604426052 0.259763473758518 0.663403581727777
-0.493223536600437 0.261472121413124 0.679804350865864
-0.494164152051811 0.258607618564262 0.687671457107592
-0.493065753910343 0.261952624858625 0.690559937422587
-0.493219050198102 0.261485784076491 0.70333362355409
-0.49463880575799 0.257162132110065 0.709989840722196
-0.493999815288698 0.259108081453133 0.718670742180536
-0.49498685400939 0.256102203521586 0.733297946701737
-0.494101461802655 0.258798532286806 0.742061163195382
-0.495340227778611 0.255026056869765 0.750287045782439
-0.49380662454414 0.259696414801635 0.755045697301959
-0.495056325683252 0.255890637990311 0.765182686704137
-0.492883606529271 0.262507327305021 0.767599479788668
-0.494139953343891 0.258681312088728 0.774173144247791
-0.493100949087953 0.261845443240053 0.790439758010866
-0.49358102777755 0.260383435815003 0.793903308620628
-0.492884645042375 0.262504164669596 0.807303889645017
-0.493295043508734 0.261254357881566 0.806241041013522
-0.492759464823688 0.262885382193216 0.814066294695122
-0.49320129847839 0.261539844268267 0.821061737901583
-0.495142867914083 0.255627086645924 0.839916862249134
-0.493191617665357 0.261569325727955 0.844458505329365
-0.494285202518453 0.25823897757921 0.85157151728504
-0.492482750473761 0.263728074116389 0.854045519570274
-0.493855354403297 0.259548015346601 0.867603670214719
-0.495017968305147 0.256007449614761 0.876801165149361
-0.492708520873551 0.263040524329237 0.888799316876653
-0.494806592783437 0.25665116196632 0.902558713528716
-0.494481346810783 0.257641649645306 0.90335901819416
-0.493072255268543 0.261932825950306 0.905681897767826
-0.495224174448794 0.255379479826398 0.916293006162473
-0.492570973787756 0.263459403286134 0.924580536901121
-0.493428264569822 0.260848653182098 0.932284783447323
-0.494338248447353 0.258077434183093 0.945075691078588
-0.493511976503619 0.260593721081531 0.954688089280447
-0.483677924530723 0.262630020046407 0.955555555555555
-0.479742006828055 0.256445221355229 0.955555555555555
-0.466784946978751 0.264953106288129 0.955555555555555
-0.457730589527245 0.264957646182994 0.955555555555555
-0.442821924950691 0.266891458591575 0.955555555555555
-0.440496065218882 0.265610543075034 0.955555555555555
-0.280387031276017 0.277777777777778 0.840574564388906
-0.287874796629537 0.277777777777778 0.858137091517978
-0.31515673294575 0.277777777777778 0.893021395361385
-0.314244388342454 0.277777777777778 0.898815125060507
-0.313791946907237 0.277777777777778 0.906098808287069
-0.345352702288862 0.277777777777778 0.940589138544888
-0.265747616373146 0.277777777777778 0.887816295187318
-0.340838421817303 0.278665938184466 0.955555555555555
-0.329119119947688 0.277777777777778 0.949625468834697
-0.298609410329418 0.277777777777778 0.93850345345625
-0.28660276235661 0.277777777777778 0.937953343061489
-0.295570109997316 0.28162756535045 0.955555555555555
-0.28712548888153 0.278735121065697 0.955555555555555
-0.27314191328287 0.284694186017291 0.955555555555555
-0.268045628162093 0.284147525182648 0.955555555555555
-0.242852095149017 0.281783827421655 0.955555555555555
-0.230414264216825 0.286036007264402 0.955555555555555
-0.227658004482562 0.28762337960111 0.955555555555555
-0.210643975596916 0.286309801467174 0.955555555555555
-0.188935549504667 0.286926225766518 0.955555555555555
-0.186592288181254 0.29093912205082 0.955555555555555
-0.177936523984384 0.291816054782455 0.955555555555555
-0.151907310961632 0.294993681655875 0.955555555555555
-0.145133960450148 0.29820917383969 0.955555555555555
-0.131644859467933 0.293851561977323 0.955555555555555
-0.114192759904305 0.300561122744139 0.955555555555555
-0.109185845644371 0.302011267597914 0.955555555555555
-0.0903881596409681 0.300062901617765 0.955555555555555
-0.0784427211188321 0.297941760180995 0.955555555555555
-0.072039336107675 0.299649039062767 0.955555555555555
-0.0491461200838665 0.302815596507904 0.955555555555555
-0.0347076185293996 0.305875722449657 0.955555555555555
-0.0154053661924143 0.310920276041365 0.955555555555555
-0.0185744902349164 0.311793321986689 0.955555555555555
-0.000833302586990428 0.305578302017466 0.955555555555555
0.0296477710804543 0.310022577567587 0.955555555555555
0.0446281043306512 0.315034249069016 0.955555555555555
0.0471713217962802 0.319732039475216 0.955555555555555
0.0627734566511338 0.319985195337372 0.955555555555555
0.0708023676807468 0.322244503062758 0.955555555555555
0.0907867323285304 0.314996359576506 0.955555555555555
-0.490015965057614 0.269242957872177 0.480368552777723
-0.492240741530664 0.264465075944225 0.492396392461411
-0.492646337123473 0.263229895585037 0.504123739442635
-0.489502537206595 0.27030305714011 0.513515691760599
-0.489003383512734 0.271333683866728 0.5167046873621
-0.491437084517436 0.266308703923906 0.51863689123441
-0.492259829036552 0.264406947816611 0.53957784042123
-0.491241046650088 0.266713472771663 0.54590657667951
-0.491730902867857 0.265702042992737 0.543828996260022
-0.492625536381323 0.263293241115944 0.558045999578549
-0.492156810523164 0.264720675200797 0.573756118514192
-0.489494166876139 0.270320339765452 0.574796424436949
-0.489455942547179 0.270399263382601 0.584039594405765
-0.492333462812215 0.264182707230458 0.590274586735657
-0.492334619742547 0.264179183973183 0.606760723941525
-0.492414805667803 0.263934989801166 0.606712396985992
-0.491508277140746 0.266161709077982 0.618954310957293
-0.489005237949534 0.27132985492155 0.622155349375936
-0.49158642426753 0.266000354933032 0.627777938990651
-0.49109502600458 0.26701496864708 0.638666426593459
-0.48881001326183 0.271732944758041 0.647347088149789
-0.491351888057356 0.266484613167596 0.663707967165111
-0.488659482513604 0.272043752860249 0.662318997457426
-0.492598084932842 0.263376840372434 0.679114183345501
-0.492730845833617 0.26297253702197 0.683504269235992
-0.490373436218475 0.268504869910675 0.695120567289471
-0.489306316472828 0.270708203560992 0.700728441622352
-0.491208825911453 0.266780000486066 0.708646426520638
-0.491139324933199 0.266923502510782 0.719873781204615
-0.4890802395279 0.271174995542258 0.7179886405952
-0.48930374866121 0.27071350544559 0.728110875197239
-0.490497091314639 0.268249553264608 0.741499357875963
-0.491208318894097 0.266781047349275 0.75408278497009
-0.492542804352717 0.263545189062668 0.763623562033606
-0.489864905587193 0.269554857652622 0.771189934429611
-0.490298616329638 0.268659354146827 0.773264211859549
-0.488402766868507 0.272573806044732 0.774158438286021
-0.48930298867097 0.270715074634125 0.787843947665369
-0.48862344167028 0.272118168129206 0.799304457322202
-0.488511292000459 0.272349728966119 0.806585184534706
-0.489038935719493 0.271260277509271 0.816898545443175
-0.490400391469234 0.268449214103264 0.822162529509966
-0.491372122554946 0.266442834023672 0.836593021218576
-0.492117931085207 0.264839076679984 0.842313715597571
-0.489136369296132 0.27105910170032 0.853406285049475
-0.489827779211902 0.269631514271833 0.853509885586727
-0.488627236065033 0.272110333659197 0.868087262740162
-0.488818131443837 0.271716182755775 0.870553096510051
-0.488911270591888 0.271523873860827 0.887851357955959
-0.489626274051149 0.270047571704195 0.884118453597404
-0.490482587675988 0.268279499627443 0.900874590094151
-0.490025500222269 0.269223270157436 0.911461594496345
-0.492177251752569 0.264658424511866 0.915430429276232
-0.491929362619949 0.265292273562642 0.929185789128875
-0.489018310333451 0.271302863739451 0.927964523883685
-0.490678250864741 0.267875504396669 0.947058290846057
-0.489511176345538 0.270285219492911 0.949325986007116
-0.490888856397719 0.264999139511177 0.955555555555555
-0.474781679534127 0.26568450655202 0.955555555555555
-0.458778501040774 0.268238882464788 0.955555555555555
-0.453361684975111 0.271827361816198 0.955555555555555
-0.449764547548904 0.270152390247209 0.955555555555555
-0.431845079979856 0.27343484641698 0.955555555555555
-0.421135594174684 0.271425181285008 0.955555555555555
-0.355612946373164 0.277777777777778 0.914815629098852
-0.408267790445301 0.277189110161164 0.955555555555555
-0.390597253957778 0.280851970728966 0.955555555555555
-0.36010509800675 0.277777777777778 0.945659292482857
-0.36763177789461 0.277990254062257 0.955555555555555
-0.354131715155879 0.278195467851933 0.955555555555555
-0.352651526049803 0.279014640699239 0.955555555555555
-0.338425259255567 0.283908598471365 0.955555555555555
-0.31745462392957 0.281992876255619 0.955555555555555
-0.309045610306997 0.289658892506543 0.955555555555555
-0.301577875808807 0.286330687955049 0.955555555555555
-0.287898567987232 0.291575891786518 0.955555555555555
-0.271856167002879 0.288649611148159 0.955555555555555
-0.263600025681968 0.294331339763263 0.955555555555555
-0.251616709075321 0.297199994103936 0.955555555555555
-0.232287178741015 0.294064357843446 0.955555555555555
-0.219840376710089 0.297992154879671 0.955555555555555
-0.209298598662718 0.301885277016517 0.955555555555555
-0.205051188766243 0.295340683337974 0.955555555555555
-0.179109976696833 0.302255790760083 0.955555555555555
-0.175249959401349 0.30182598077591 0.955555555555555
-0.166861605685822 0.297848179501864 0.955555555555555
-0.14857353579274 0.308519847524193 0.955555555555555
-0.136798738884401 0.302468257595388 0.955555555555555
-0.118270094552177 0.304813546001889 0.955555555555555
-0.113699831710383 0.312723188748257 0.955555555555555
-0.0955614358923767 0.312600632349606 0.955555555555555
-0.0798624221169889 0.311820845538011 0.955555555555555
-0.0713327366656532 0.309423036716945 0.955555555555555
-0.0450598367046979 0.310006786289563 0.955555555555555
-0.0334411039492457 0.320517268545647 0.955555555555555
-0.0264934061750698 0.313633285126851 0.955555555555555
-0.0157560809398866 0.316938399565834 0.955555555555555
0.0173774333171675 0.318939321574828 0.955555555555555
0.0174743604588355 0.32057315112333 0.955555555555555
0.0362102858126792 0.318368291215295 0.955555555555555
0.0549084898152848 0.32665725980074 0.955555555555555
0.0560470274726697 0.323048222308864 0.955555555555555
0.0829782005606864 0.323909049722841 0.955555555555555
-0.487516038482056 0.274404676947952 0.476207000637685
-0.487449162425569 0.274542759169988 0.49043748105179
-0.488180072147558 0.273033614584885 0.498716462026449
-0.48566195577521 0.278218578176842 0.499624094602233
-0.483964757059303 0.280782268319551 0.504121512014517
-0.485710383296648 0.278132900370958 0.512952614610332
-0.485495641008151 0.278469803637302 0.520732694840271
-0.48513542066896 0.27901393163135 0.535646530874779
-0.48863775701041 0.272088610555415 0.542491112559946
-0.487968542378098 0.273470370310749 0.55039300942813
-0.487101926705218 0.275259713523388 0.56532604845589
-0.48844901515302 0.272478314979223 0.573190539031184
-0.485021269186867 0.279186362252863 0.578662326130504
-0.486765098556651 0.275955178860935 0.588872305257018
-0.487781895705613 0.273855748705145 0.596768194584275
-0.484528863008388 0.279930162524538 0.600348585511907
-0.488286814563932 0.272813218365179 0.61068690193446
-0.48808223820602 0.27323561704657 0.62458116894308
-0.484385835913188 0.280146210975829 0.626791188728564
-0.488211195419325 0.272969352863301 0.637457232956538
-0.484260638445833 0.280335327023314 0.649230372513755
-0.485764976984631 0.27802017814806 0.652022937679286
-0.484876446519385 0.279405122991712 0.664638846994275
-0.487585414088132 0.274261433785222 0.675417374822802
-0.486017124632553 0.277499556727848 0.680097040950319
-0.486413782887213 0.276680557282159 0.687245892365168
-0.485343156959676 0.278700137214821 0.6942355990969
-0.487532799883484 0.274370068873323 0.710390642011791
-0.483798820363443 0.281032922687541 0.709744859536564
-0.48491966849775 0.279339834372977 0.721232894126531
-0.486582968873359 0.276331230809703 0.728517434153839
-0.487377123775915 0.274691500847342 0.73688328548987
-0.485972758840106 0.277591160921118 0.741337275306712
-0.485588706562588 0.278329224197605 0.75584382115136
-0.485476448859556 0.278498794186086 0.756422124189937
-0.487254148230524 0.274945414392127 0.774187760655803
-0.48521014528518 0.278901056951311 0.779077607196244
-0.485969653121825 0.277597573447571 0.780764291877299
-0.48720716549776 0.275042421908393 0.796299456576884
-0.484905349166306 0.27936146432622 0.806438946871062
-0.485536595501731 0.278407940149835 0.808962703220448
-0.487005168419227 0.275459495027141 0.826837051843949
-0.48436989076351 0.280170296795992 0.823107054011907
-0.487965371902543 0.27347691654467 0.842187731242638
-0.486272439315484 0.276972396177576 0.846340262096012
-0.485976077939163 0.277584307817077 0.860864812435757
-0.484141176304712 0.280515779618962 0.863056375864644
-0.487517564529143 0.274401526044867 0.871650172078414
-0.488441520118036 0.272493790339751 0.881347069404073
-0.486709542560511 0.276069888007937 0.890812929289951
-0.488187327032209 0.273018635074341 0.899017918324763
-0.488393087980003 0.27259379051304 0.908577652329631
-0.484827290200833 0.279479375681243 0.91752972067576
-0.486868526159752 0.275741626896206 0.915816056227012
-0.484520104275543 0.279943392959399 0.927588847182346
-0.483686806597268 0.281202124199126 0.933988564298128
-0.48689955713922 0.275677555734988 0.941070831175465
-0.488162850947028 0.272589228974923 0.955555555555555
-0.475790247942421 0.274369794562524 0.955555555555555
-0.460390419033105 0.27948051154878 0.955555555555555
-0.453864575201102 0.27808175415895 0.955555555555555
-0.445076913404982 0.282603158958793 0.955555555555555
-0.440201530161173 0.283212501056561 0.955555555555555
-0.421763572456258 0.28418225243334 0.955555555555555
-0.409062840409394 0.281211190944478 0.955555555555555
-0.405639368363454 0.28146531582836 0.955555555555555
-0.387351109972785 0.283455536424219 0.955555555555555
-0.375137072376139 0.292595271531933 0.955555555555555
-0.370641709244881 0.292829412369981 0.955555555555555
-0.349772357370619 0.287202371934406 0.955555555555555
-0.342962640584701 0.292754920857198 0.955555555555555
-0.328721038158966 0.294562975852331 0.955555555555555
-0.329034837169763 0.297854098570475 0.955555555555555
-0.314006483974355 0.293986264420787 0.955555555555555
-0.303070496081971 0.29962029954625 0.955555555555555
-0.285128375971356 0.298251398682494 0.955555555555555
-0.280510488093401 0.303500253686484 0.955555555555555
-0.261418459161155 0.301651256497772 0.955555555555555
-0.248280090131988 0.299307859309223 0.955555555555555
-0.235599706617983 0.30329909151469 0.955555555555555
-0.221708695280869 0.305723623149189 0.955555555555555
-0.216009939104789 0.3079876956478 0.955555555555555
-0.19321268367508 0.304191781173115 0.955555555555555
-0.191180704056865 0.312871622255603 0.955555555555555
-0.165424354971872 0.306849061806974 0.955555555555555
-0.153406861598765 0.317419809504568 0.955555555555555
-0.157724438275021 0.314038960647714 0.955555555555555
-0.142951273579182 0.311130910372857 0.955555555555555
-0.116762939527933 0.318762662993056 0.955555555555555
-0.10027702279084 0.317737352329735 0.955555555555555
-0.0991334640540412 0.316824820645062 0.955555555555555
-0.0865000718492315 0.321946021015385 0.955555555555555
-0.0648133105457379 0.325365385359416 0.955555555555555
-0.0534528704878969 0.327046294263229 0.955555555555555
-0.0418780784745511 0.323979841601384 0.955555555555555
-0.0211924706082566 0.331260669873651 0.955555555555555
-0.0127115842710717 0.328235623637373 0.955555555555555
-0.48394629522143 0.28081015570323 0.475302596286467
-0.481989336367102 0.283766224475556 0.481478662882453
-0.482891488825034 0.282403485191145 0.489744719195229
-0.480327664096383 0.286276250426511 0.499038554271126
-0.479048535865967 0.288208427492662 0.506269950976938
-0.479182775558609 0.288005652783042 0.515387513731924
-0.482748029545652 0.282620186474845 0.530281220877637
-0.482962168223971 0.282296720982186 0.528515570054945
-0.483537104806113 0.281428255059779 0.542487409644537
-0.481425611822511 0.284617754143017 0.551071213276099
-0.481700151823715 0.284203049908168 0.555309609149244
-0.479299426877705 0.287829446052445 0.563635536745714
-0.482407312063651 0.283134854581688 0.572172151295741
-0.480351306509103 0.286240537566331 0.588690257209072
-0.482806319739349 0.282532136682209 0.598922987188077
-0.481670042045732 0.28424853199597 0.596408525045927
-0.478662296871847 0.288791857760828 0.601953424447387
-0.478151432287758 0.289563540231604 0.616333246926023
-0.48327473595296 0.281824574262874 0.62352338795326
-0.480660180598601 0.285773970245035 0.638599253462937
-0.48002419562822 0.286734652329105 0.642154957016619
-0.481324570018348 0.284770382043866 0.649577086822585
-0.479226457906259 0.28793966875711 0.650109740036372
-0.480771950482276 0.285605137128241 0.665158957486405
-0.478411003977889 0.289171446261064 0.672670847150265
-0.482473638976307 0.283034664986576 0.686526874291453
-0.480309616299267 0.286303512384189 0.687108264040438
-0.480671364673776 0.285757076228436 0.70489431542564
-0.481345667847346 0.284738512884569 0.705867555512896
-0.478109953355844 0.289626195905263 0.7105896254388
-0.482354688741082 0.283214344326809 0.725514123003141
-0.48061944101876 0.285835509096248 0.731402614304162
-0.478499817709773 0.289037289378411 0.732581792461711
-0.482775069464863 0.282579341538014 0.747165120450949
-0.480722735831811 0.285679477930582 0.763177136423424
-0.478412046100437 0.289169872091063 0.762230842346704
-0.48387961548777 0.280910878249328 0.782349108447522
-0.478839587027732 0.288524053513288 0.778910424854255
-0.479854430201504 0.286991090156311 0.790680954550867
-0.482016919308459 0.283724559280902 0.80355805548253
-0.481768869249942 0.284099249341625 0.807970294807399
-0.479661808431076 0.287282053453354 0.821493357342632
-0.478716419555758 0.288710103167252 0.828092477959406
-0.478338151192162 0.289281493462306 0.830660878879636
-0.480224354394918 0.286432304081754 0.84579935902733
-0.48348642255058 0.281504812741389 0.860074179345728
-0.481504619155433 0.28449841023902 0.85515519854928
-0.47955482014785 0.287443663761281 0.862561470480626
-0.480238383112922 0.28641111311235 0.874455785986869
-0.478943842977317 0.288366570510404 0.881808699793958
-0.48138572059163 0.284678011527394 0.889864698417445
-0.479481626840783 0.287554225334349 0.901516537300164
-0.479176715092704 0.288014807372044 0.905203700320293
-0.47987537709787 0.286959448987112 0.919983018459549
-0.482765248123259 0.282594177088159 0.928996207168069
-0.480708192099625 0.285701446850599 0.941002209896725
-0.480501543302156 0.286013598562776 0.943613258557733
-0.483327382189569 0.28174504990513 0.953344705419532
-0.468995489277977 0.285737093554879 0.955555555555555
-0.460605919376628 0.291782090526996 0.955555555555555
-0.4543475121209 0.291848515597117 0.955555555555555
-0.440770368307772 0.294052369484473 0.955555555555555
-0.439311333770188 0.288203417117115 0.955555555555555
-0.420600122792238 0.292625299820894 0.955555555555555
-0.411577084968432 0.289976348627871 0.955555555555555
-0.396535692370449 0.290866381652935 0.955555555555555
-0.386071582936802 0.300182542017726 0.955555555555555
-0.378120604940657 0.293741585249746 0.955555555555555
-0.3718814458185 0.29622860619941 0.955555555555555
-0.364701548061548 0.303246266801008 0.955555555555555
-0.336570418104864 0.302386528444255 0.955555555555555
-0.333379832226545 0.29894308577124 0.955555555555555
-0.323318373749817 0.304047973268644 0.955555555555555
-0.308237161775562 0.309048870761874 0.955555555555555
-0.30110522565965 0.30153815695794 0.955555555555555
-0.290053076652735 0.308122340726209 0.955555555555555
-0.270292715228736 0.312016822354327 0.955555555555555
-0.261768600155165 0.313375462202297 0.955555555555555
-0.248969580574891 0.314912922027449 0.955555555555555
-0.242128603040751 0.314466751333992 0.955555555555555
-0.229210703031775 0.318559955661803 0.955555555555555
-0.216773681733233 0.314467138881441 0.955555555555555
-0.204195906525676 0.321286713334393 0.955555555555555
-0.190098378506216 0.314708722904356 0.955555555555555
-0.167148310629639 0.317814882703196 0.955555555555555
-0.156526117391112 0.32037440118952 0.955555555555555
-0.141883997057903 0.322985507838303 0.955555555555555
-0.135604841939832 0.322020368342368 0.955555555555555
-0.125033729681287 0.322030973324787 0.955555555555555
-0.100355751948719 0.329629919454242 0.955555555555555
-0.089797472227749 0.332760680009679 0.955555555555555
-0.0707476547922264 0.328047520898785 0.955555555555555
-0.47029390423362 0.298741554395908 0.464981797430519
-0.476834569280285 0.291261886007618 0.482827250608685
-0.478059607049755 0.289702246121088 0.48661945917812
-0.474908458345593 0.293464516927833 0.495311431136436
-0.477545629541334 0.290448743166823 0.50601059998432
-0.47226579153341 0.296486575277381 0.499794585298636
-0.475429271606056 0.292868933687796 0.517683583708458
-0.474998366327786 0.29336170140564 0.522831209745212
-0.476473791300702 0.291674458678719 0.532849178581715
-0.474631350794847 0.293781407117544 0.548252104252968
-0.471836206657477 0.296977833030787 0.546084841616506
-0.477586984317773 0.290401451337654 0.557338191663225
-0.47722155333278 0.290819345017739 0.572319468680086
-0.474532929951582 0.293893957640291 0.573783413051203
-0.476971983249705 0.291104744353696 0.587757326813653
-0.473727723004871 0.294814763231524 0.594379452635004
-0.474668624305779 0.293738782476251 0.605731247233369
-0.477529053371075 0.290467699076627 0.607825442793977
-0.471065222878415 0.297859502243166 0.610398047664725
-0.472746992592366 0.295936291120739 0.623307687974606
-0.470016243338514 0.299059077370249 0.630986348044884
-0.472329822458994 0.296413351822802 0.638415389868291
-0.474441396558547 0.293998631923636 0.657871168929041
-0.470678770209713 0.298301435561726 0.65623580365599
-0.470076375378221 0.298990312540785 0.670041340832235
-0.471905490561118 0.296898602460166 0.674000210972563
-0.472156002340889 0.296612126233869 0.686082499442044
-0.470150913483324 0.298905073455083 0.691847973409997
-0.47015679878866 0.298898343232398 0.700659140371497
-0.476085788444702 0.2921181647355 0.711040365330133
-0.474487887318206 0.293945466769498 0.717328523933429
-0.476309087160143 0.291862808387008 0.728536211920757
-0.474345853524204 0.294107891488007 0.733419389447269
-0.47265272696882 0.296044089884244 0.740334253413276
-0.471646769088226 0.297194466995096 0.744800492221142
-0.470546374166391 0.298452838896541 0.76312887259714
-0.470518811875121 0.298484358137665 0.767439972591475
-0.471635279525572 0.297207606044103 0.779073495565771
-0.473962938398435 0.294545779400196 0.786676680640056
-0.476055351856035 0.292152970919349 0.800679710846794
-0.472706515301876 0.295982579488659 0.795988686230267
-0.471466221422702 0.297400934786485 0.809812935126345
-0.474498709464301 0.293933090953971 0.815062679224155
-0.476402550568377 0.291755927007967 0.833308484064306
-0.470948680665923 0.297992775709467 0.837420881457598
-0.47404430897968 0.294452726941474 0.85049427349516
-0.4700985993487 0.29896489801057 0.844696678092491
-0.47762707205315 0.290355608450896 0.866263191785145
-0.473587012384689 0.294975674816227 0.869624302957546
-0.476438046179873 0.291715335508276 0.876598489402364
-0.471507060428672 0.297354232773803 0.882343320569832
-0.477588870409552 0.290399294471196 0.898739470948052
-0.472217258717976 0.296542075652773 0.906416205518799
-0.473790705895593 0.294742738271772 0.918390046959663
-0.472138587827181 0.296632040842972 0.917816311612865
-0.471283897282455 0.297609434090225 0.923816511995696
-0.476808336847383 0.29129188447073 0.938822672057714
-0.471388535773726 0.297489773289715 0.940382452658588
-0.474599576325685 0.292713067107308 0.955555555555555
-0.463250582117556 0.298466464081817 0.955555555555555
-0.450809972135594 0.296672447402367 0.955555555555555
-0.44249687657712 0.297495761683076 0.955555555555555
-0.429196261206011 0.303484467666535 0.955555555555555
-0.42163023111529 0.299338167841705 0.955555555555555
-0.414633768227882 0.300922475228844 0.955555555555555
-0.40648046727426 0.301461247647622 0.955555555555555
-0.386608591956202 0.303572188874883 0.955555555555555
-0.381863194793202 0.304842603074791 0.955555555555555
-0.361320103161398 0.310686053664616 0.955555555555555
-0.35537314454408 0.311839665672954 0.955555555555555
-0.336818538849192 0.312259515651322 0.955555555555555
-0.334325226080137 0.315721963604652 0.955555555555555
-0.324742773541482 0.308627049461524 0.955555555555555
-0.303151249758508 0.317008341416835 0.955555555555555
-0.299522296897582 0.314094418213215 0.955555555555555
-0.284153584527532 0.316590298531206 0.955555555555555
-0.276894649552287 0.31675218557654 0.955555555555555
-0.266428219101978 0.319054078098854 0.955555555555555
-0.240650589152073 0.319368544970183 0.955555555555555
-0.237381343124746 0.318042577926259 0.955555555555555
-0.215952588554118 0.326901201602781 0.955555555555555
-0.205678835636403 0.321347732433736 0.955555555555555
-0.199778999773519 0.328723209972187 0.955555555555555
-0.191663839564555 0.325619068038117 0.955555555555555
-0.177506092981647 0.326414707499786 0.955555555555555
-0.152666589100566 0.328490341426592 0.955555555555555
-0.11498648649371 0.333232688294709 0.955555555555555
-0.101895000811649 0.332874245347279 0.955555555555555
-0.470170542141564 0.298882626830238 0.468014328230017
-0.465586305549579 0.303471509943879 0.463145912179099
-0.469989516623837 0.299089641076152 0.47990486006298
-0.46605625757005 0.303060556062726 0.478344837985996
-0.467544142605978 0.301759461262429 0.497005633218833
-0.462942931053642 0.305783033165669 0.498223802746197
-0.462312797569631 0.306334059205814 0.507598035574176
-0.465686192190953 0.303384163148546 0.513005207026438
-0.460298601816639 0.308095391269594 0.514894891276344
-0.470121161174328 0.298939097121406 0.543768592689448
-0.469379024480147 0.299787777849076 0.545788558298395
-0.46690160955998 0.302321330213981 0.551198969008721
-0.465815787188392 0.303270837607096 0.560983146840678
-0.460943467461604 0.307531482555349 0.557516104267871
-0.466594209830288 0.302590138744383 0.57652995024765
-0.46028274438971 0.308109257942909 0.576169733314935
-0.465751287426849 0.3033272400188 0.591984731110902
-0.469133455859101 0.300068601257537 0.605254823599857
-0.460968681328499 0.307509434056763 0.606294738944434
-0.467441054597535 0.301849607522737 0.624165621664477
-0.460998360769803 0.307483480595424 0.621951685744856
-0.468642762869481 0.300629740043367 0.64243087357201
-0.468046205525236 0.30131194148278 0.640921997228585
-0.462744991504477 0.305956123231078 0.645185576864067
-0.461332918003789 0.307190923934774 0.656495972892238
-0.459357662389589 0.308918204434836 0.663084984616316
-0.463153010774001 0.305599327015525 0.681334816384491
-0.463821145657311 0.305015070301075 0.68824711955174
-0.462257938670392 0.306382031076507 0.686967723560976
-0.464670255033187 0.304272558771514 0.70146925755192
-0.464945737281746 0.304031660777033 0.714605065310904
-0.461321798907387 0.307200647131233 0.711233363137282
-0.467332524358726 0.301944512791612 0.72887681626397
-0.463140657856476 0.305610129138251 0.740093443334118
-0.464640219582916 0.304298823548179 0.742963740751598
-0.468731578449132 0.300528173753279 0.754143827421981
-0.469114184905318 0.30009063882448 0.769475971007378
-0.464267215658499 0.304625000272074 0.769228595592558
-0.461739590690924 0.306835305250617 0.772363584649097
-0.460811470825052 0.307646908232285 0.778480682005305
-0.463597255096817 0.305210853467824 0.797395759776037
-0.45952629569147 0.308770741487811 0.802659563806811
-0.467222073290191 0.302041097747766 0.811757577722896
-0.468963932580731 0.300262461957824 0.825044794232753
-0.463509852263999 0.30528728368156 0.826012990176826
-0.461736230722764 0.306838243405782 0.831845371738525
-0.459643681464607 0.308668092415222 0.843297238752583
-0.469193878690473 0.299999503889223 0.857755278738357
-0.467433911342143 0.301855854008334 0.863976550320408
-0.468580170362076 0.300701318574853 0.873370201326304
-0.459874385071644 0.308466351517049 0.878224110820578
-0.469172126812704 0.300024378551259 0.897941564575389
-0.46485952042079 0.304107053906729 0.898556856959834
-0.460539450770263 0.307884778679475 0.902405102507058
-0.466140856314513 0.302986577909928 0.908289202913973
-0.468828904246864 0.300416875485064 0.922397223556426
-0.46624157398608 0.302898504412575 0.930057506192211
-0.460323271163815 0.3080738189313 0.939889396886541
-0.46757365400308 0.301733654748893 0.952170448036964
-0.464836676074231 0.299962582364643 0.955555555555555
-0.456935870673927 0.30503742713328 0.955555555555555
-0.445024011604582 0.306167836521895 0.955555555555555
-0.429721331547207 0.310154693192621 0.955555555555555
-0.431124375323682 0.305898080623172 0.955555555555555
-0.416036783363222 0.310572627279979 0.955555555555555
-0.401877964693057 0.312876796776104 0.955555555555555
-0.392013924727814 0.309032218247016 0.955555555555555
-0.377828859228524 0.313074909797838 0.955555555555555
-0.364874707110957 0.313628852193299 0.955555555555555
-0.35567079354643 0.319302316452487 0.955555555555555
-0.341908254583341 0.316490762505429 0.955555555555555
-0.330421448415358 0.317534658887965 0.955555555555555
-0.3199211524364 0.319086413150974 0.955555555555555
-0.31696049108038 0.319325262437614 0.955555555555555
-0.294181866189249 0.326273035663724 0.955555555555555
-0.283397399983516 0.321963990916977 0.955555555555555
-0.275840919980638 0.328754794210117 0.955555555555555
-0.260231806302627 0.330747081335287 0.955555555555555
-0.249966922053452 0.327957009687889 0.955555555555555
-0.235637371283729 0.332494679674743 0.955555555555555
-0.228462241732966 0.328648777065871 0.955555555555555
-0.212549484721704 0.332308641563064 0.955555555555555
-0.201676061869874 0.333071641558064 0.955555555555555
-0.45753461463707 0.310512385365635 0.44942107758402
-0.44663452372489 0.317837242033436 0.443257427833791
-0.459203235263013 0.309053244660769 0.472580416512508
-0.45579288491986 0.311774278884739 0.474207214315814
-0.455527387875671 0.311950041639749 0.480297430853135
-0.454126110411263 0.312877706911618 0.491064135704754
-0.452424951093334 0.314003898162989 0.491871789799106
-0.44938165008796 0.316018605975136 0.503245262627262
-0.451463940713665 0.314640100469647 0.506471733483609
-0.450196848403524 0.315478933293428 0.518280693749763
-0.449133468807861 0.316182905452237 0.52519974338493
-0.45840327000558 0.30975278166244 0.541983775347655
-0.448646352238926 0.316505383430961 0.546799674762313
-0.447073723748647 0.317546485477513 0.54699262735702
-0.447771812672719 0.31708434085021 0.558064555437915
-0.444962021020611 0.318944462205939 0.567823149169806
-0.444163327065923 0.319351860717317 0.575630970273984
-0.454620352012547 0.312550512061869 0.588069780679807
-0.447456374125943 0.317293165578135 0.595048808434355
-0.450452163507388 0.315309911125261 0.599777168884383
-0.443923988558056 0.319467777272942 0.598313734850576
-0.455550371556421 0.311934826121771 0.625999818344503
-0.454215248190335 0.31281869645569 0.628081355738394
-0.452845862834933 0.313725248705532 0.644711464580579
-0.451997510892554 0.314286869551694 0.647916770967616
-0.45155889416732 0.314577239955839 0.654742053761986
-0.452949919443351 0.313656361776005 0.665877363949994
-0.446743993228373 0.317764771691702 0.664814159990312
-0.449316208961001 0.316061928916077 0.67490325102106
-0.458616189546971 0.309566592204588 0.69926543831119
-0.447918819209564 0.316987020467607 0.695312580067261
-0.451522581124782 0.314601279697671 0.708187789493289
-0.456700461325168 0.311173450616137 0.720383245043575
-0.446699916525094 0.317793951085483 0.715622376793418
-0.45706789236921 0.310920514959811 0.735433204922245
-0.448187793629966 0.316808955640929 0.743185595605048
-0.458908580861517 0.309310907921312 0.755988716110225
-0.447470668126706 0.317283702749794 0.760246971008961
-0.448918853088221 0.316324984059055 0.766436431205172
-0.454656991437611 0.312526256250243 0.77802847536257
-0.453586717544146 0.313234792530582 0.784782037912218
-0.44708291633019 0.317540399860016 0.784274891296759
-0.447783612036295 0.317076529506563 0.797092700351894
-0.450259538407537 0.315437431634339 0.80329190811153
-0.457650854482354 0.310410738360231 0.822947941433473
-0.456186536030508 0.311513676346087 0.832389887479498
-0.454446712855841 0.312665463611155 0.832827683377723
-0.448909290024164 0.316331314941155 0.840093631122026
-0.456558644779955 0.311267335151721 0.859566429406291
-0.457284342990975 0.310731237716141 0.858430002471083
-0.443874489850952 0.319491750513549 0.8588202938257
-0.453419499078742 0.313345493492462 0.877328995575256
-0.458436637167524 0.309723603439756 0.888801388645272
-0.458033545546444 0.310076090627655 0.904720507089181
-0.458167099141405 0.30995930345407 0.906927522804989
-0.455291229501604 0.312106381784972 0.916416750698174
-0.44855044255572 0.3165688769821 0.916617125584502
-0.450941306215977 0.31498609181376 0.926331433304743
-0.457799493246227 0.310280759821482 0.941564707003369
-0.447589815240252 0.317204825694901 0.94171343350944
-0.44673944427644 0.317767783161478 0.953550187820546
-0.444101575061608 0.318148373436631 0.955555555555555
-0.434252460489675 0.312747098679722 0.955555555555555
-0.42678205459296 0.318209686412248 0.955555555555555
-0.408352862017586 0.317908432677125 0.955555555555555
-0.398142418946844 0.321949891458861 0.955555555555555
-0.387645060998387 0.318946070158894 0.955555555555555
-0.383672675614008 0.319468321315364 0.955555555555555
-0.361895633279779 0.321830702057527 0.955555555555555
-0.355479921052779 0.321344074136988 0.955555555555555
-0.342159583622846 0.332489445748817 0.955555555555555
-0.335870990611383 0.329716668154588 0.955555555555555
-0.313806147559731 0.330490346085252 0.955555555555555
-0.308472598632628 0.332420511735004 0.955555555555555
-0.291347275400124 0.329364397646421 0.955555555555555
-0.286778205392017 0.332642668893683 0.955555555555555
-0.407316685429943 0.331893340937078 0.394935307323255
-0.43608484676833 0.323264434665957 0.428920641624251
-0.43722913656997 0.322710231610102 0.449191053420556
-0.437733112836838 0.322466145551853 0.455702675783631
-0.421030391183806 0.328891050874634 0.447449425796959
-0.424349927780312 0.327801016205856 0.458163382205214
