ply
format ascii 1.0
element vertex 837
property float x
property float y
property float z
end_header
-0.470035077475836 0.020224200319211 0.876383591224873
-0.469414150505173 0.0296977152052507 0.888169194158723
-0.46926483889819 0.0319757701106389 0.894370710656064
-0.47431960322518 0.026775113771304 0.910049382887107
-0.48212629392612 0.0394840772794635 0.914154933713068
-0.481953652938142 0.042408236010595 0.914218997588413
-0.0696194354648497 -0.30992174416727 0.156658875765565
-0.0752887766595569 -0.311846226180763 0.168067881059909
-0.07210552290677 -0.310765657137337 0.181526944423349
-0.074660010177528 -0.311632788720608 0.188028635942184
-0.0724879578271924 -0.310895476299812 0.199247416502611
-0.0779083853216607 -0.31273546349767 0.208928051637999
-0.0753025012313815 -0.31185088504512 0.218812842998361
-0.0727772860438717 -0.310993689995173 0.22255994697796
-0.0735471392817707 -0.311255019955478 0.228018222748081
-0.0693382201255721 -0.309826284422695 0.247419883982262
-0.0722121606727977 -0.310801855781171 0.260647184758454
-0.0752732273060894 -0.311840947886506 0.256296761540174
-0.0751700445207491 -0.311805922050581 0.268737401265513
-0.0739893892698404 -0.31140514359741 0.276937477267449
-0.075873091116725 -0.312044574211764 0.29512911329568
-0.0715653235056969 -0.310582284150007 0.302959199149827
-0.0744339793518149 -0.311556061594185 0.303534846050708
-0.0742898837375351 -0.311507147724235 0.325203233173331
-0.0772738465385623 -0.312520066605333 0.32048668791172
-0.0760111860655329 -0.312091451130264 0.334285869185957
-0.0769717721397933 -0.312417526164177 0.335774133453249
-0.0791656683349127 -0.313162253571114 0.358497494585086
-0.0796300708420545 -0.31331989697999 0.362739419745194
-0.0765098063150502 -0.312260709897519 0.372653665528226
-0.0768074980618928 -0.312361762628813 0.378423491471231
-0.0747233937453864 -0.311654304542659 0.403302534300642
-0.0709169432637309 -0.310362188715509 0.408157226661342
-0.0747389697971 -0.31165959189975 0.409162473481047
-0.072250432458527 -0.310814847301831 0.421649815714881
-0.0777307763774579 -0.312675173385148 0.429921866034718
-0.072495005120953 -0.310897868533693 0.442708061016215
-0.0778685315772784 -0.312721934974407 0.45739429793075
-0.0753338242984036 -0.311861517793621 0.459039566802123
-0.077865684993641 -0.312720968689469 0.466488842182825
-0.0749609123318278 -0.311734931238386 0.486048554098438
-0.0811964125630616 -0.313851598348022 0.480813238427279
-0.0751150422884368 -0.311787251308575 0.505055290180989
-0.0778564080032975 -0.312717819575587 0.505015801113518
-0.0714264925997894 -0.310535157407735 0.520300384468859
-0.0786270749463668 -0.312979425751577 0.528245047287996
-0.0801504890733992 -0.313496555165011 0.530075754507485
-0.071940776513438 -0.310709733272488 0.547253975980679
-0.0737918743484144 -0.311338096316144 0.557414524127054
-0.0710874184348347 -0.310420057238371 0.571965414176836
-0.0772931735682076 -0.312526627247857 0.566097981807024
-0.0806270562126545 -0.313658327910065 0.577322959859901
-0.0747518487086736 -0.311663963701133 0.594682167611445
-0.0790622593467474 -0.313127150949677 0.597755308763192
-0.0722886717918497 -0.310827827806384 0.60822314936699
-0.0745550750772075 -0.311597168053899 0.623300413541586
-0.0786714755336547 -0.312994497720028 0.628383028100788
-0.0772725866172083 -0.312519638919663 0.636789308890099
-0.0730388859070338 -0.311082491182842 0.65814011203759
-0.0742536633147922 -0.311494852547477 0.663157549769327
-0.0729473417344953 -0.311051416123599 0.671487248657164
-0.0739539508003712 -0.311393113858022 0.677274843480231
-0.0774952685122485 -0.312595229237307 0.68835770912982
-0.0718851564812693 -0.31069085281569 0.695342469053559
-0.0740282372524716 -0.311418330710563 0.699153942407062
-0.0740510989741882 -0.311426091219365 0.718748294875654
-0.0749206803227623 -0.311721274311567 0.72394421955017
-0.0802508712940754 -0.313530630337333 0.727533417756065
-0.0782064095845719 -0.312836629102959 0.745701133392962
-0.0797357289725093 -0.313355763082357 0.748375504449741
-0.0737621216450373 -0.311327996634269 0.757526269372519
-0.0801893322719646 -0.313509740654191 0.767351115191669
-0.075076066470436 -0.311774020801162 0.78524783297067
-0.0721592353575727 -0.310783890057516 0.790103029265164
-0.0705903541512668 -0.310251326650385 0.796390307901283
-0.076873162408268 -0.312384052670846 0.810798148879216
-0.0750406212204084 -0.311761988760084 0.815867907941542
-0.0730635424735988 -0.311090860959372 0.829975302020393
-0.0732826247923503 -0.311165229385513 0.841696643443482
-0.0768262028216033 -0.312368112039158 0.846666154973985
-0.0764743668699918 -0.312248679826962 0.857148088215332
-0.0759228344525407 -0.312061459798957 0.868714340791639
-0.0791019552406419 -0.313140625889918 0.877821443558973
-0.0754015318439725 -0.311884501408322 0.886680120898997
-0.0714610919001271 -0.310546902287588 0.896939990103542
-0.0757357942365483 -0.3114997526616 0.901858588492791
-0.0814810562616517 -0.310622863185353 0.908491126374362
-0.0868206887108638 -0.308919362617326 0.911827734922254
-0.379772282991279 -0.0654842574790275 0.651340836812857
-0.395294607940679 -0.0565767254786626 0.651340836812857
-0.392361724247871 -0.0505822698744309 0.651340836812857
-0.406467476815275 -0.0410256491835885 0.651340836812857
-0.425394154781794 -0.0292461420369785 0.651340836812857
-0.43612527372837 -0.0121426102396587 0.651340836812857
-0.453774258602338 -0.001987558140812 0.651340836812856
-0.454191839289424 -0.00159671834350137 0.651340836812857
-0.463772958085713 0.00596337620275749 0.651340836812857
-0.470676498917221 0.0104380002340176 0.660829272887814
-0.470248050792174 0.0169748554236007 0.670234027070961
-0.47054806095218 0.0123975849053914 0.684059187627138
-0.470302182686972 0.016148962306691 0.694817965170671
-0.470667863254292 0.0105697549897004 0.709180606654102
-0.470749044881173 0.00933116271224053 0.719020684952508
-0.470690006792136 0.0102319098882411 0.731057340270732
-0.471059706887945 0.00459137641732491 0.738333238149562
-0.470531228479324 0.0126543988137927 0.756834433785616
-0.470210011201204 0.0175552274292415 0.75795015152617
-0.470056598024376 0.0198958601977694 0.769590264035461
-0.470217874140994 0.0174352621504384 0.780729870576321
-0.470575653234318 0.0119766080306151 0.792850133762753
-0.470518397131559 0.0128501673498867 0.806095202149588
-0.469952285434641 0.0214873627710874 0.816933268443396
-0.470925879846261 0.00663318250958464 0.829263094377424
-0.470349921107842 0.0154206147519521 0.833127211760525
-0.470462090418875 0.0137092417756944 0.855366808803594
-0.470674068347177 0.0104750835668104 0.865582681800718
-0.47044799044242 0.0139243658452647 0.877236685868824
-0.470351410413717 0.0153978923352472 0.887936609763038
-0.470923122205048 0.00667525598410857 0.897624933159002
-0.471028488108005 0.0122225401698954 0.901844281817517
-0.473234792685824 0.0210043840053218 0.908586338735919
-0.487993153090461 0.0264206025716649 0.913330071858004
-0.0815110228699485 -0.313958394156577 0.157984264080507
-0.0916237043420312 -0.31687906205328 0.161583712229113
-0.0829458429850976 -0.314445449955367 0.171946262212871
-0.0886868308909064 -0.316294881602422 0.177416202351884
-0.0900132291917534 -0.316558718628532 0.190201435129357
-0.0860828270890246 -0.315510312569432 0.195022729666573
-0.0896669147257121 -0.316489832398234 0.20617490874457
-0.0833587492246066 -0.314585612736879 0.222033938726188
-0.0880765260192179 -0.316173484415572 0.222882971043229
-0.0914882792332734 -0.316852124324294 0.232001464834661
-0.0914271174099945 -0.316839958481232 0.24186251938747
-0.0850085972252519 -0.315145660667176 0.252999794538904
-0.0900378686535022 -0.3165636197222 0.261595203053442
-0.0881947394695928 -0.316196998532842 0.279619281083445
-0.0857779828638232 -0.315406831898897 0.280275044447053
-0.0861945858842018 -0.31554824956842 0.299187109046867
-0.0815374633503763 -0.313967369490265 0.305404646447694
-0.090538438452241 -0.316663189245905 0.310808592605553
-0.0821337192958187 -0.314169771110318 0.327960140202469
-0.0859112766680867 -0.315452079048435 0.325772935239998
-0.0894629266043962 -0.316449256638106 0.337765589725755
-0.0892813256155119 -0.316413133955488 0.353640273342712
-0.0860332286889038 -0.315493476181278 0.361360780147967
-0.0845638580963676 -0.314994692075793 0.372224543284321
-0.0934623837042975 -0.317244798118081 0.379219610903172
-0.0845557402720075 -0.314991936445741 0.390279295967288
-0.0831770953816928 -0.314523949566263 0.39658326971063
-0.0859909276685415 -0.315479116919762 0.414462076849734
-0.0898335163685971 -0.316522971525429 0.415362138308755
-0.082395118849067 -0.314258504301932 0.426086861198676
-0.0882634898038853 -0.316210673824594 0.436920579727313
-0.0866289351357139 -0.31569569127168 0.445637066082981
-0.0890644851025073 -0.316370001695703 0.452119069222977
-0.0842476414331277 -0.314887350982733 0.474472186614141
-0.0879617668031719 -0.316150657388229 0.475652777477044
-0.0846597372513058 -0.315027238663273 0.486969577656307
-0.0879797737522447 -0.316154239193098 0.498072497239792
-0.082369657433143 -0.314249861315861 0.50317135021111
-0.0873926035782819 -0.315954921776869 0.508034860673608
-0.0873143848443908 -0.315928370094527 0.51791546995612
-0.0864050414491072 -0.315619689606228 0.531441137658165
-0.0820559843987613 -0.314143383668449 0.546719494006052
-0.0857758303013416 -0.315406101202396 0.554336158139906
-0.0910911443119693 -0.316773129276929 0.55489558676005
-0.0841744770496475 -0.314862515021163 0.576681056322918
-0.0818872527093051 -0.314086106977858 0.58379801292868
-0.0877270493344433 -0.316068450813157 0.589460941937409
-0.0799660467143706 -0.313433945420723 0.601094344670686
-0.0833404399260496 -0.314579397567507 0.610416702221483
-0.0839269867401136 -0.314778503381564 0.617986583036902
-0.0840242649770112 -0.314811524893374 0.619024458783636
-0.0874926665288237 -0.315988888571585 0.636679545249902
-0.0841335955268652 -0.314848637614146 0.64819657347028
-0.0879797737522447 -0.316154239193098 0.657950014586433
-0.0832331501917129 -0.314542977610255 0.660790336782066
-0.0876815615160748 -0.316053009779485 0.672956932038348
-0.0888688847988472 -0.316331094376242 0.68096548498891
-0.0909124929362508 -0.316737593308848 0.694916251112863
-0.0845563265833778 -0.314992135471633 0.70712321743556
-0.0791313416399856 -0.313150601228329 0.718166749668045
-0.0844092508351898 -0.314942209982535 0.720703279482745
-0.0882633944434204 -0.316210654856218 0.726154451047319
-0.0851366428365014 -0.315189126295243 0.74351374778716
-0.0886450875675642 -0.316286578339154 0.749808597754801
-0.0859608231521866 -0.315468897813474 0.759463932439335
-0.086439999711501 -0.315631556337281 0.769051045259221
-0.0875848454411379 -0.316020179095948 0.778148882239629
-0.086878293048306 -0.315780336877091 0.789585756232071
-0.0854175741622415 -0.315284489630214 0.796770788849739
-0.0901104193759146 -0.31657805095815 0.803564099282513
-0.0925290922304256 -0.317059154901557 0.809765581978135
-0.087174432077823 -0.315880862531876 0.827705585618812
-0.0842248324024515 -0.314879608360129 0.837683278982447
-0.0850757022855134 -0.315168439765673 0.8382377680048
-0.0868329203820392 -0.31576493493229 0.845019040374386
-0.0792811058068907 -0.31320143931261 0.861541647377868
-0.0841744117153144 -0.314862492843145 0.874821315884686
-0.0845506963258251 -0.314990224256728 0.878261404207714
-0.091226441210397 -0.316800041503294 0.891053462153144
-0.0841847858555396 -0.313847755667683 0.903700359976368
-0.0874511713700139 -0.314529985513431 0.905211048981842
-0.0926339137953549 -0.307345419351915 0.913140598356321
-0.100776316243778 -0.306578765839685 0.913769059302096
-0.396261485689722 -0.0601114154079872 0.651340836812857
-0.401736121622173 -0.0559562163562897 0.651340836812857
-0.408172313998749 -0.0446281188083266 0.651340836812857
-0.425978525369403 -0.03575802877863 0.651340836812857
-0.438719714103072 -0.0222171066083642 0.651340836812857
-0.445158930931996 -0.0199226717823803 0.651340836812857
-0.464232352642864 -0.0077995874249018 0.651340836812857
-0.470880812977433 -0.0073207700567349 0.655179714509194
-0.4711527525107 -0.00317177454160291 0.671939729033397
-0.4708544582424 -0.00772286561136161 0.686007110518342
-0.471095829015076 0.00404025925660482 0.683319998281607
-0.471232384776322 0.00195682094893984 0.69501214682223
-0.470934929464038 -0.00649511202342408 0.717574748146677
-0.471340238474415 -0.000311291502371927 0.72465424167768
-0.471180717152968 0.00274511654906344 0.735265680222323
-0.47114790930413 0.0032456675945598 0.746108252914125
-0.471346086575315 0.000222066724656949 0.762676190162137
-0.471070779780942 -0.00442243671655121 0.766470641816834
-0.471219345067328 -0.00215576846308117 0.776984509033398
-0.471104290972641 0.00391115473264565 0.788556685653957
-0.471306944919177 -0.000819252995523581 0.806462589015177
-0.471084010644345 0.00422057274971383 0.806542052785185
-0.471279769263866 -0.00123387337327875 0.82348925987863
-0.471241364177932 0.00181982175445168 0.828108164611505
-0.47127096710203 0.00136816841136105 0.847470341228429
-0.470870933202404 -0.00747150629502976 0.859096343557515
-0.47096103342299 0.00609684257240478 0.867267976759359
-0.471217630389758 0.00218192938738262 0.87439867504373
-0.471289812094021 0.00108064939448824 0.893186961353378
-0.470766819723717 0.00905997102078855 0.897970528677585
-0.474466873633101 -0.00516799592327041 0.908780447969813
-0.484350934057735 0.00722734308341741 0.914184521218434
-0.0940592166688718 -0.317363515575994 0.157490137488023
-0.100382083492344 -0.318621211984477 0.149312356913624
-0.097997322036263 -0.318146853437613 0.166247709649576
-0.0940544572729885 -0.317362568873292 0.177345136452918
-0.0989718444020765 -0.318340697988461 0.181785259177977
-0.101231603613567 -0.318790192042927 0.195393769791862
-0.103737773591989 -0.31928870024639 0.200201888790734
-0.0935468014665263 -0.317261589855014 0.216634068067446
-0.0913554079422566 -0.316825694581241 0.224940337430184
-0.094259719670567 -0.317403398102728 0.237974521475828
-0.0970395517525922 -0.317956341083082 0.24478356474132
-0.100113574368932 -0.318567802199076 0.249157797833055
-0.0954274492340253 -0.317635673954655 0.25674289262219
-0.102973853245692 -0.319136747041819 0.264970651789224
-0.0929030400116001 -0.317133537739987 0.279367358616844
-0.0985475865896756 -0.318256307862617 0.286178968249673
-0.095067905818157 -0.317564156322629 0.300095009936612
-0.0995354843046219 -0.318452812935826 0.310469070941123
-0.093156461963968 -0.317183946500479 0.320020275830485
-0.0916342832295734 -0.316881166324845 0.332190978120673
-0.0937336953705436 -0.317298765363912 0.34055581937986
-0.0948701834290937 -0.317524826894136 0.343383193256215
-0.0903309616382759 -0.316621919541663 0.364269075852799
-0.0938566054354634 -0.3173232136959 0.370394548732634
-0.0966532283753755 -0.317879496585545 0.370929274311192
-0.0987203477992973 -0.318290672203814 0.379538770904107
-0.0997236936070864 -0.318490250093742 0.392072837623914
-0.100307506102196 -0.31860637761925 0.395039255340338
-0.0996349990798564 -0.318472607655357 0.416584146919975
-0.0996185759950912 -0.318469340900687 0.420719796992828
-0.0931607225909497 -0.317184793991878 0.431743454440898
-0.0957731085415122 -0.317704429865814 0.444562668117392
-0.0996423316584079 -0.318474066195916 0.448548640603075
-0.0911763335849701 -0.316790074476896 0.465619342159043
-0.0971427363255179 -0.31797686577076 0.467047769368646
-0.10205783914792 -0.318954540509078 0.471512366557161
-0.0944212984456266 -0.317435538119394 0.486899200241447
-0.0918558077993943 -0.316925230301461 0.498094322784122
-0.100323543296536 -0.318609567615542 0.505555524894741
-0.0935348776573299 -0.317259218061899 0.515074181097948
-0.105009308888982 -0.319541624342521 0.518505489158705
-0.0964740983537602 -0.317843865408877 0.536719541333944
-0.0934771805156296 -0.317247741386852 0.550868845835048
-0.101276545275018 -0.3187991314952 0.554593345269223
-0.0973395673310994 -0.318016017892053 0.566248621741197
-0.0985965670168761 -0.318266050675347 0.564078270106692
-0.0953345378064549 -0.31761719272264 0.583248237407352
-0.100443744285418 -0.318633477078802 0.590275335638452
-0.0925499187681118 -0.317063297557473 0.602491590537257
-0.0971109031924256 -0.317970533766895 0.608705206629756
-0.100084750648594 -0.318562068804627 0.615332605297564
-0.102734778240486 -0.319089192066552 0.631563024794086
-0.0968437263180989 -0.317917388982314 0.635947416969432
-0.10209787022567 -0.318962503185522 0.64994884168395
-0.0960166882655512 -0.317752880885368 0.667985984842752
-0.0980092846635209 -0.318149232952121 0.666309352606893
-0.0897996981781858 -0.316516244669114 0.684465231747587
-0.0910179772309783 -0.316758575439634 0.692309439344937
-0.100571556908463 -0.318658900590233 0.691490321819884
-0.0975467614016765 -0.318057231355139 0.704656030187993
-0.103912430732107 -0.319323441711611 0.711719452984287
-0.104955156144605 -0.319530852691938 0.721517999225143
-0.0960295505063669 -0.317755439344139 0.741973817652186
-0.0921615950064853 -0.316986055158738 0.747223951524502
-0.101163815332549 -0.318776708115468 0.748635136514332
-0.0970332396399936 -0.317955085525822 0.759342984398853
-0.0960525192461648 -0.317760008110548 0.777455557722491
-0.096154440458768 -0.317780281500232 0.782817176588942
-0.0972953557077196 -0.318007223653381 0.794822108017571
-0.09387036852579 -0.317325951344778 0.799739487311945
-0.103201611590495 -0.319182050993374 0.80880805824726
-0.10424333616377 -0.319389262894402 0.820334679430637
-0.0951884580289518 -0.317588135648271 0.83168407135934
-0.103375974150493 -0.319216733862966 0.838194389611256
-0.0931355449372394 -0.317179785845174 0.849130328324431
-0.0947182101318298 -0.317494597525799 0.857698174335121
-0.0969315303153828 -0.317934854283279 0.867779196002076
-0.103117246548521 -0.319165269743151 0.870958750560094
-0.0936934723609262 -0.317290764509845 0.88958886284831
-0.101090700556889 -0.318762164682352 0.889283993228118
-0.0973030844558197 -0.316682226369311 0.904960108094519
-0.0984924917607522 -0.313159652481048 0.910334166249858
-0.107584954133727 -0.312180607788924 0.912650413376832
-0.112781681042579 -0.302525609289395 0.913362165434796
-0.409817876592914 -0.0641373179861034 0.651340836812857
-0.421639013866801 -0.0480045669949606 0.651340836812857
-0.43427107134662 -0.035862043845816 0.651340836812856
-0.436858381087028 -0.0386935879638142 0.651340836812857
-0.461228014814643 -0.0267031960424123 0.651340836812857
-0.470116882519757 -0.0189760965357503 0.652371311967865
-0.470851025505196 -0.0077752390603205 0.658449691924641
-0.470363525303084 -0.0152130548419819 0.682510983286964
-0.47023887641417 -0.0171148293830308 0.684623187733328
-0.470626349715187 -0.0112031292015991 0.695920722030374
-0.470423931161782 -0.0142914395335591 0.710135270087654
-0.469882427903414 -0.0225531827358507 0.727091003634702
-0.470100434185033 -0.0192270496288086 0.738522025851841
-0.469725519616884 -0.0249471405737426 0.742227565996566
-0.469952808685876 -0.0214793794999631 0.752093362320423
-0.47022510421056 -0.0173249526053711 0.756519389054598
-0.470372578623414 -0.0150749278657499 0.765816994043071
-0.470314774104288 -0.0159568544018841 0.779904311229827
-0.469946237349797 -0.0215796387141828 0.796942018460516
-0.47018246327367 -0.0179755275835467 0.804355405137131
-0.470620360433285 -0.0112945079851492 0.812014008305209
-0.470905725366157 -0.00694068045430081 0.823071773733683
-0.470647718032414 -0.0108771116811693 0.833752572209434
-0.470291209883112 -0.01631637494235 0.857013029245652
-0.470194966149524 -0.0177847705603738 0.860744123698966
-0.470113212372016 -0.0190320921695374 0.876422146664445
-0.469864751328771 -0.0228228751488357 0.887413813851039
-0.470684337729326 -0.0103184030725671 0.891705670338152
-0.4738464376705 -0.0161410153954233 0.908879221700954
-0.479296388939909 -0.00539227246242931 0.912797931842335
-0.492542712102061 0.00227113901170874 0.912535141751819
-0.115794615681915 -0.321686955249621 0.14203931699804
-0.109755966339789 -0.320485793213202 0.144664975179503
-0.111454266736487 -0.320823606165631 0.159552491630857
-0.108638451505372 -0.320263505691907 0.161008419690258
-0.10972235565067 -0.32047910763146 0.180498834634353
-0.10541015974794 -0.319621358535844 0.19095085070603
-0.111068622085643 -0.320746896675165 0.194906684098168
-0.108367829044508 -0.32020967553755 0.209371506854546
-0.112915522506192 -0.32111426801013 0.218144251703352
-0.112666603605901 -0.321064754962388 0.224495654766092
-0.113238575120075 -0.321178527170346 0.235668078576245
-0.10632045331814 -0.319802427184902 0.248250495196435
-0.11309083193792 -0.321149139224219 0.252025348211425
-0.106434456446429 -0.319825103817039 0.259110406643863
-0.111927638321596 -0.320917765628275 0.268012632841095
-0.113282789640949 -0.321187321985366 0.280570625100258
-0.113782497252145 -0.321286720009306 0.284118171860886
-0.115536686155378 -0.32163564987688 0.294482199458467
-0.103537139457644 -0.31924879163575 0.320443744400934
-0.11379278956637 -0.321288767277895 0.309721991687468
-0.110797964555913 -0.320693059545177 0.326061148666704
-0.111647672338214 -0.320862076931736 0.335300200347674
-0.112311671063978 -0.320994154490214 0.346580261444264
-0.115713638688225 -0.321670847924102 0.353366841964695
-0.10831930121879 -0.320200022752852 0.365952248767738
-0.10855248451801 -0.320246405794934 0.388080648712357
-0.109784886355601 -0.320491545762012 0.385358694737422
-0.104085549198658 -0.31935787711563 0.40052196886924
-0.108719388761208 -0.320279605113074 0.400189091888592
-0.115457654042226 -0.321619929412153 0.406971330478589
-0.110464895460461 -0.3206268079829 0.426616920996437
-0.106975987372015 -0.319932821015457 0.434324863631037
-0.108792897374985 -0.320294226885463 0.447680335420621
-0.105207137867292 -0.319580974972934 0.457656149453054
-0.105241402936217 -0.319587790718912 0.464779668128395
-0.107283284004679 -0.319993946116148 0.476766867545063
-0.109217842240807 -0.32037875367473 0.4774518460993
-0.109762180705714 -0.32048702932744 0.484723161071843
-0.10768390453362 -0.32007363449398 0.502055019893243
-0.109046102653415 -0.320344592546829 0.504974567249892
-0.109688851977429 -0.320472443336501 0.521481552206856
-0.110941753038145 -0.32072166085258 0.535487042785244
-0.106715848347631 -0.319881076146269 0.545265023697034
-0.102616368679792 -0.319065638940514 0.556303631168684
-0.113585743312536 -0.321247583217387 0.556931553037948
-0.10507706090698 -0.319555101056817 0.567348222286993
-0.110042162155357 -0.320542721100411 0.57420793776554
-0.111315129344185 -0.320795930017537 0.582088294950477
-0.105525530153003 -0.31964430713624 0.598169012028928
-0.104792104230772 -0.319498419649752 0.604006779130552
-0.110867488517527 -0.320706888720971 0.61957027042199
-0.108475392170996 -0.320231071173682 0.628465218454489
-0.109652186882958 -0.320465150195759 0.62779390985998
-0.103054792461403 -0.31915284685283 0.647956074690103
-0.110958103220387 -0.320724913106036 0.650766445093312
-0.104944379843634 -0.3195287091524 0.66258877399166
-0.107220068422976 -0.319981371755136 0.679419733183992
-0.109852206380532 -0.320504936547543 0.678315950544336
-0.108594467326531 -0.320254756694766 0.689647799339692
-0.109617534236618 -0.320458257355839 0.700310679814035
-0.109217674401961 -0.320378720289508 0.706779785889101
-0.106400542959576 -0.319818358005083 0.718558190699964
-0.106631297109947 -0.319864257859416 0.727081384613374
-0.102702117848611 -0.319082695510685 0.741169727349667
-0.110407623794604 -0.320615415940261 0.751595014038177
-0.109332048809137 -0.320401470773607 0.758738960267116
-0.117389647085238 -0.3220042267221 0.758860276070057
-0.115338999631872 -0.32159632758249 0.771460340111182
-0.110462492330442 -0.320626329970619 0.785132984882652
-0.109755304825141 -0.320485661629757 0.789445818115977
-0.110675523234899 -0.320668704452149 0.805422496182016
-0.104519541570084 -0.319444203565655 0.81226038161588
-0.112898427794271 -0.321110867660513 0.824232639215624
-0.109439615464397 -0.320422867111656 0.836169806271595
-0.110755852644786 -0.32068468296524 0.841008760333624
-0.107990888610415 -0.320134697423444 0.850535158513788
-0.116430133189598 -0.321813367541585 0.862809480787962
-0.107818239807201 -0.320100355441271 0.875099732576858
-0.109175300682138 -0.320370291632583 0.883275929875695
-0.109420523046337 -0.32041906939358 0.894286844596892
-0.115020127494503 -0.321532899970755 0.896295935057934
-0.114885521999753 -0.314348613450207 0.912370532396715
-0.111395556419956 -0.314017868028482 0.912013299265559
-0.12500083324156 -0.310194526307427 0.914085832961517
-0.419052296765185 -0.074120741426647 0.651340836812857
-0.423451127826341 -0.0621847710225408 0.651340836812857
-0.446423508136727 -0.0490211374780471 0.651340836812857
-0.453681234799175 -0.0419250351153617 0.651340836812857
-0.462200357347559 -0.0299488286466453 0.651340836812857
-0.469114434986254 -0.0342704903691727 0.663987306374121
-0.469716532338961 -0.0250842599375591 0.66671138232607
-0.469444942148192 -0.029227925516135 0.679764575277416
-0.469519016752868 -0.0280977654438067 0.68890155525254
-0.468932134216217 -0.037051862640451 0.70604676317363
-0.468909817746852 -0.0373923461670332 0.717073540481522
-0.469197360380906 -0.0330052933366904 0.732421746763389
-0.469528887182776 -0.0279471717845177 0.744475191223825
-0.469731226009223 -0.0248600778508792 0.742002823464816
-0.469613328195991 -0.026658850881291 0.762080570821974
-0.469498273644729 -0.0284142441168741 0.775439322084161
-0.469558932812927 -0.0274887640523002 0.778727367759165
-0.469660979811204 -0.0259318277249639 0.786241393513257
-0.468944039055353 -0.0368702298944001 0.807559097239722
-0.469285985617349 -0.0316531335234027 0.82013898651091
-0.469626983200697 -0.0264505157686984 0.822137884305979
-0.468924769007832 -0.0371642340054714 0.836278308828057
-0.469646646858451 -0.0261505063259578 0.843989895634456
-0.469072273022771 -0.0349137576253147 0.863126746928919
-0.469529518640012 -0.0279375376088263 0.864584158828702
-0.469014816186144 -0.0357903795515851 0.885374931514731
-0.469677322164274 -0.025682491599462 0.894329066429643
-0.469712209129808 -0.0338590236813507 0.90222439520157
-0.472134801035368 -0.0228350628817208 0.907606336118324
-0.490026566550332 -0.018891735256276 0.912917444725002
-0.11811282486194 -0.3221480757257 0.134967285329694
-0.116422621801398 -0.321811873433576 0.145933364604107
-0.126842257931401 -0.323884467923429 0.153504655858948
-0.128017540363333 -0.324118246134304 0.157002894878562
-0.11930091223503 -0.322384400997735 0.174696339341796
-0.125966523223141 -0.323710273459413 0.178269875034497
-0.125919920552877 -0.323701003611944 0.183786422296115
-0.124416809968648 -0.323402016327202 0.198963799119238
-0.121623026806409 -0.322846298304455 0.200497557993465
-0.124033651937106 -0.323325801456067 0.224365334646549
-0.121738902853615 -0.322869347483327 0.224051413224991
-0.12201380150828 -0.322924028225516 0.23405630630047
-0.124672448721797 -0.323452866036785 0.244045729687203
-0.123919109146676 -0.323303017478456 0.253436328961969
-0.114140264488848 -0.32135788433733 0.266905670692885
-0.123720751516159 -0.323263561692582 0.273665688978403
-0.12332623334431 -0.323185087149046 0.27950508556872
-0.125511660330369 -0.323619795604578 0.291282364710083
-0.124884823368446 -0.323495109980521 0.303824766933557
-0.122441882583042 -0.323009178845528 0.310590830074134
-0.116842178033364 -0.321895328356925 0.330388885846866
-0.115853139490937 -0.321698596359021 0.335838596807339
-0.119849679541905 -0.322493557601886 0.338195858758279
-0.121124090770551 -0.322747053756392 0.350554858228887
-0.119716831660683 -0.322467132515331 0.365086750659986
-0.12228556739313 -0.322978085821045 0.363138050038295
-0.123440495726251 -0.32320781534994 0.383394227578494
-0.126425223370146 -0.323801514591571 0.388032492420012
-0.11857191083197 -0.32223939360283 0.407932459047557
-0.121427389105682 -0.322807383546255 0.414005602132851
-0.117396177083261 -0.322005525619466 0.421986439462805
-0.121819808654577 -0.322885440647732 0.426282438456474
-0.121112512070119 -0.322744750609677 0.433681512348159
-0.117425959203407 -0.32201144965149 0.450155272365111
-0.122954062747425 -0.32311105781455 0.452058887663982
-0.123771167960301 -0.323273590146841 0.463656478774637
-0.125665489175087 -0.323650394064252 0.47754261306658
-0.122665429628632 -0.323053645117587 0.490858452897959
-0.115954945935923 -0.321718846920007 0.499535253425011
-0.121102094948485 -0.322742678515352 0.504827522287336
-0.123704765638125 -0.323260381903738 0.514568141927127
-0.129674875083788 -0.32444791050709 0.522058116238353
-0.121789704521611 -0.322879452563376 0.535871450424875
-0.119544950065102 -0.322432943140245 0.541656308740257
-0.124964614367946 -0.323510981397127 0.546135217100032
-0.115896909532533 -0.321707302761615 0.565745450826158
-0.122171760621247 -0.322955448246626 0.566558318482606
-0.128514708215874 -0.324217138968838 0.576930986584098
-0.122563100286365 -0.323033290545864 0.591080496803305
-0.121645210665485 -0.322850710948382 0.599086096759831
-0.122790801355386 -0.323078583104558 0.609866672061244
-0.118795522074299 -0.322283872644414 0.615450802167853
-0.12212598170027 -0.322946342253078 0.63195664366128
-0.113970975772213 -0.321324210717933 0.637462029233573
-0.123374234587222 -0.32319463518991 0.64836030615527
-0.116897834939674 -0.32190639920392 0.65922133999526
-0.122269081343274 -0.322974806541839 0.665767526875535
-0.122165978593353 -0.322954298129769 0.671863709083946
-0.123048112474871 -0.323129765468488 0.681389520041939
-0.115060660792869 -0.321540962545091 0.695778899219026
-0.11739235318832 -0.322004764999471 0.712127366202459
-0.119199175804473 -0.322364164363484 0.714031244079133
-0.129175503630656 -0.324348579349146 0.722669241492453
-0.117699029887262 -0.322065766787677 0.734790555423443
-0.119594393843708 -0.3224427781193 0.748101028090839
-0.120661168373476 -0.322654972766476 0.75295131177899
-0.121906583756334 -0.322902701288652 0.763647716309579
-0.11801972567472 -0.322129557145969 0.772817259685194
-0.118359664258684 -0.322197175134469 0.785057290134321
-0.121071851532428 -0.322736662725866 0.792729141479016
-0.123277551229764 -0.323175403674392 0.795020337009448
-0.121286242657899 -0.322779307772179 0.804076429508411
-0.123538390285842 -0.323227287788541 0.814499813953321
-0.119351733322686 -0.322394509940594 0.831525463667243
-0.123725011963092 -0.323264409148168 0.837215770356798
-0.122763341417884 -0.323073120983382 0.843121849835566
-0.11935987161597 -0.322396128747777 0.864828132258627
-0.123139817516524 -0.323148006735424 0.86671170608414
-0.126586230357618 -0.323833540872613 0.873607998888172
-0.126918820135069 -0.323899697092612 0.882120676280197
-0.118419885296074 -0.322209153843582 0.89939564509541
-0.117269814471867 -0.320791945993626 0.904453566809321
-0.124478454759656 -0.316530623032856 0.9121013615421
-0.130457828187735 -0.31515760544083 0.91306460670478
-0.425635910660133 -0.0757989463202314 0.651340836812857
-0.444555072155297 -0.0709082655299687 0.651340836812857
-0.45072534741865 -0.051196027226041 0.651340836812857
-0.456487280721327 -0.0500639380462062 0.651340836812856
-0.465428736025855 -0.0559600773432233 0.658676835962076
-0.467004349138991 -0.0480389353152428 0.669306853261358
-0.467905183433993 -0.0435101354881206 0.674652714450866
-0.468717186491815 -0.0394279204477976 0.681006571743318
-0.466397693619287 -0.0510887985675624 0.710111735207243
-0.467607667599746 -0.0450058485911577 0.705005361542519
-0.467989489251995 -0.0430863015198606 0.725505999624728
-0.468359892827974 -0.041224156994314 0.729988670290804
-0.468692160423454 -0.0395537349896061 0.741171385986375
-0.467450753619848 -0.0457947084391656 0.753671324149885
-0.467886119587825 -0.0436059759148299 0.771404108917867
-0.468365616178286 -0.041195383769263 0.781588812295189
-0.467594486707243 -0.0450721134125803 0.785037787048788
-0.466688600838669 -0.0496263092150231 0.810585723064
-0.466993396917516 -0.0480939958507897 0.817742553278676
-0.468805466344196 -0.0389841076595666 0.815277514105457
-0.467156144490822 -0.0472758085482578 0.828537414070908
-0.46681375852888 -0.0489970990162822 0.848470171557382
-0.466456247180784 -0.0507944299354482 0.854228951407633
-0.465421736994665 -0.0559952638491294 0.876131589458971
-0.468841344089316 -0.0384370522993624 0.869488692600501
-0.467241862769317 -0.0468448736615849 0.883984046230284
-0.468858198895085 -0.0381798976565464 0.897800226640461
-0.471953815208626 -0.0486573872034032 0.910321179780174
-0.477309302469303 -0.0361760201866372 0.91280612759187
-0.134442393120799 -0.324799872873389 0.129098394273165
-0.129536808712995 -0.324420447398421 0.138712521133204
-0.142150097160318 -0.325305062486494 0.140008933167865
-0.131513844471451 -0.324607925653888 0.151149174964592
-0.14017201601046 -0.325175412198203 0.157449217154774
-0.140803640623596 -0.325216811062547 0.173359442068618
-0.132325964076691 -0.324661154785036 0.17742590016108
-0.133097989935767 -0.324711756033223 0.187440799114038
-0.131136088481051 -0.324583166218178 0.204263388390367
-0.131900959213525 -0.32463329849459 0.211248457040932
-0.137306256961472 -0.324987580426539 0.210030589658077
-0.130652296782484 -0.324551456834973 0.228128130941769
-0.135376410526775 -0.324861091608507 0.241860425105101
-0.141691129607225 -0.325274980163745 0.238734547168356
-0.134680441934933 -0.324815475416987 0.264948818740616
-0.139986889054201 -0.32516327833643 0.26188863207086
-0.132294130746365 -0.324659068318333 0.280302952996131
-0.138731166164085 -0.325080973909875 0.285031455642243
-0.133813900819504 -0.32475867931161 0.294386386780424
-0.128337568979146 -0.324181903783905 0.308763939489136
-0.133087145599198 -0.324711045257852 0.324489472670193
-0.137826267103755 -0.325021663691963 0.325959670708984
-0.130969093336854 -0.324572220778154 0.345210751016218
-0.133918743386896 -0.324765551056527 0.342197765006279
-0.129339697437384 -0.324381239527952 0.358358691666271
-0.135030703640663 -0.324838432782072 0.367669315906003
-0.12803070971238 -0.3241208656807 0.37729916555393
-0.136187133588271 -0.324914229205342 0.377168416821805
-0.140814013702739 -0.325217490950075 0.38627771964355
-0.13579256369234 -0.32488836772804 0.400078565763585
-0.129275926372135 -0.324368554674393 0.413549401649378
-0.135461872762718 -0.324866693099391 0.417616922533501
-0.138675548882498 -0.325077328560648 0.427233384003456
-0.142383436593908 -0.325320356360984 0.435147459399284
-0.131028757958751 -0.324576131404081 0.452738124358505
-0.139796876647234 -0.325150824265299 0.457654806140711
-0.137245236908934 -0.324983580960994 0.469075119686065
-0.131453238066584 -0.324603953300244 0.488292100474231
-0.137460284894475 -0.324997675950638 0.489905634769057
-0.13434388110009 -0.324793416054424 0.496573470692272
-0.139121363961824 -0.325106548824722 0.502970656860516
-0.132804838604224 -0.324692541879825 0.522912079236232
-0.13744707286118 -0.324996809988225 0.519215817850457
-0.133152945826967 -0.324715358032634 0.535373365505941
-0.131900838824107 -0.324633290603851 0.544064201683721
-0.134465021205022 -0.324801355996386 0.556850214905518
-0.133695638670578 -0.324750928000849 0.564708132080472
-0.128131080523136 -0.324140830676284 0.577839024030151
-0.135239325236747 -0.324852106563897 0.58349178176339
-0.13080533254086 -0.324561487328511 0.601553754531123
-0.138250868680282 -0.325049493549605 0.600240690242993
-0.137706085338096 -0.325013786562874 0.606583583767004
-0.136520435419775 -0.324936074961541 0.614597611531916
-0.127324003066448 -0.323980292988715 0.638362887127422
-0.128667529856936 -0.324247537083248 0.644780498175459
-0.134286160977516 -0.324789632877716 0.650556592648038
-0.139966617217203 -0.325161949650036 0.657818196540545
-0.136578160513945 -0.324939858464104 0.675183341233578
-0.126524791149209 -0.323821319854219 0.679632066219163
-0.128289385074927 -0.324172319409447 0.694216458915931
-0.138692453237139 -0.325078436530587 0.692263938462826
-0.125787321159658 -0.323674627952726 0.708007646941833
-0.13882854597424 -0.325087356519841 0.715518954764042
-0.129268980290321 -0.324367173012815 0.723800261108897
-0.135834535112763 -0.324891118680273 0.728766769848542
-0.133566961238041 -0.324742494036335 0.75081750815354
-0.141689104673917 -0.325274847442604 0.753541315547337
-0.129833420366715 -0.324479447124654 0.771191177075867
-0.132433580027449 -0.324668208307103 0.775448379636954
-0.136000503939122 -0.324901996851872 0.776187503415541
-0.134851271707724 -0.324826672191848 0.794378885987045
-0.140417478703125 -0.325191500673073 0.799895790740093
-0.132040089181899 -0.324642417554499 0.807091834450245
-0.130397072191977 -0.324534728531516 0.826447052162001
-0.135039976597598 -0.32483904056378 0.830060388123583
-0.133971684455279 -0.324769020997474 0.842703157928686
-0.133649567733094 -0.324747908352071 0.85202183015388
-0.134121492267647 -0.324778839920254 0.858764915742779
-0.133860676671026 -0.324761745162895 0.865237776320317
-0.136912850074075 -0.324961795176843 0.87532903600834
-0.138423697126307 -0.325060821324431 0.889624743518256
-0.132155708331629 -0.324649995633941 0.897577534502368
-0.128669534974198 -0.322559616051359 0.906287206705097
-0.142782446133056 -0.318851974674067 0.911830021739326
-0.149414956641012 -0.312955718837934 0.914013438376834
-0.446851778222462 -0.0776246481667921 0.651340836812857
-0.462730259518436 -0.0695262348575457 0.655157929330822
-0.460837966993976 -0.0616620926222616 0.651489134373216
-0.462953140368361 -0.0684057371586732 0.664924450248243
-0.462033583778037 -0.073028660320453 0.689433887343921
-0.464093450412864 -0.0626730114386788 0.694626464613191
-0.462972210536381 -0.0683098649498696 0.706489932235826
-0.465132321525557 -0.0574502536666072 0.70555158934799
-0.465731383697949 -0.0544385647491024 0.713622554136656
-0.465729366364378 -0.0544487065698338 0.731869308031045
-0.46424069595423 -0.0619327581135284 0.74578437057043
-0.466191743913041 -0.0521241776591713 0.753202273974035
-0.464934731418937 -0.0584436062128713 0.759238476168766
-0.464986051443573 -0.0581856030262811 0.774934477749003
-0.464917407525784 -0.0585306993050773 0.785389278183491
-0.464836315094485 -0.0589383784874623 0.797862817665504
-0.464265331142272 -0.061808908659788 0.811895111287614
-0.463236110177229 -0.0669831518634735 0.823081864135806
-0.464676652929382 -0.0597410543954802 0.833142316355212
-0.464307509147008 -0.0615968655108813 0.844693264270477
-0.465524890603857 -0.0554766756358836 0.852068089521476
-0.465412183740872 -0.0560432912992019 0.866585416842811
-0.465138933032379 -0.0574170153772625 0.876334232063053
-0.463263490206607 -0.0668455031604841 0.888607242497513
-0.463408300981765 -0.0661174902316526 0.896924810134301
-0.468231118813367 -0.0673041741372925 0.910307792957577
-0.472468853133444 -0.0561199244418802 0.912286397871382
-0.479780954970904 -0.0450938179845356 0.91378747418479
-0.150818653965694 -0.32587322971713 0.112003440184152
-0.151150652274638 -0.325894990035947 0.121387479452876
-0.142266665698041 -0.325312702792112 0.1444672363903
-0.148496741506429 -0.325721043534195 0.147758663663791
-0.152631001565762 -0.325992017254663 0.157777544455929
-0.138932325534798 -0.325094158591609 0.17160692424643
-0.146449428312621 -0.325586855538006 0.1815976594812
-0.148115273486543 -0.325696040799219 0.183782939149874
-0.152441031968573 -0.325979565989434 0.185644447020117
-0.149702705076837 -0.325800086562629 0.199136114987609
-0.143370724212511 -0.325385066610301 0.213528154193814
-0.149717151051483 -0.325801033401831 0.215555809756944
-0.148085621528242 -0.325694097307193 0.235988422862634
-0.149815920566985 -0.325807507097897 0.234982520817281
-0.148943257469345 -0.325750309736607 0.246537089874274
-0.154252971036564 -0.32609832675036 0.259605890311093
-0.147262164148904 -0.32564012505907 0.272881945455608
-0.143514450511792 -0.325394486929654 0.282105237504883
-0.154930004414284 -0.326142701862377 0.285397996221472
-0.150441782437708 -0.325848528252149 0.292641105661734
-0.148522403470444 -0.32572272550818 0.308959635207261
-0.150697025439475 -0.325865257762344 0.317635852325658
-0.151279925982091 -0.325903463082384 0.332028856416266
-0.145864161919292 -0.325548495151917 0.336519738312763
-0.145033446210036 -0.325494047167718 0.342480926944756
-0.146463966369202 -0.325587808412577 0.362666928796956
-0.146536898991066 -0.325592588669166 0.359774669710825
-0.149745297136643 -0.325802878193717 0.369096925061926
-0.151304376338303 -0.325905065643397 0.374437189284364
-0.146412599332568 -0.325584441639121 0.402462796635798
-0.154180196271244 -0.326093556840235 0.395156342647151
-0.149952102751967 -0.325816432949875 0.418361507193019
-0.148662496673666 -0.325731907701836 0.418132524233802
-0.145453763413749 -0.32552159621273 0.428292908394201
-0.155929087851754 -0.32620818525051 0.431668349190225
-0.153754633034058 -0.326065663952023 0.445662199478264
-0.149176602993208 -0.325765604010274 0.464663639744313
-0.148211861701018 -0.325702371525262 0.478276226220794
-0.15344529036612 -0.32604538856237 0.475272965050564
-0.146682318386279 -0.325602119959889 0.486724498660716
-0.14849958181699 -0.325721229697985 0.495327983422599
-0.150510914430828 -0.325853059402369 0.501462641906894
-0.147047997505065 -0.325626087835613 0.521984928053954
-0.152904235483565 -0.326009925951794 0.524817694940885
-0.141084112230278 -0.325235194142871 0.546506396938802
-0.155542686962482 -0.326182859198192 0.547661417461743
-0.144668044983378 -0.325470097506006 0.554926363853886
-0.146299237099208 -0.325577011485795 0.570204718366375
-0.155925264223648 -0.326207934636684 0.571647384839006
-0.142235846850008 -0.325310682818092 0.590428507570824
-0.147203214453249 -0.325636261291885 0.600342567715319
-0.149984950311183 -0.325818585892651 0.607437976517487
-0.152164807969952 -0.325961461312051 0.612604940170439
-0.152384673503781 -0.325975872060492 0.616852517217181
-0.152671671146578 -0.325994682879821 0.629319521479151
-0.145346637932635 -0.325514574837742 0.64168017396246
-0.154603902800031 -0.326121328033349 0.655675738322241
-0.151814332790243 -0.325938489955142 0.656737717728993
-0.147078753345842 -0.325628103679919 0.66749362637451
-0.143546422076368 -0.325396582456708 0.691530439348518
-0.152844273685844 -0.326005995847935 0.691396234358286
-0.152734704698415 -0.325998814317082 0.702551395009823
-0.151623080993146 -0.325925954650091 0.70432847687642
-0.15445974737211 -0.32611187958742 0.718657094634666
-0.155775569232062 -0.326198123108569 0.728202678902104
-0.140762414362649 -0.325214108950646 0.743335703312343
-0.150690658067775 -0.325864840422754 0.74179164714763
-0.14896861561256 -0.325751971797124 0.763783873027157
-0.149184531828621 -0.325766123693603 0.765998505947907
-0.153828445973566 -0.326070501907679 0.770423673536083
-0.155255112781697 -0.326164010590568 0.78523799430868
-0.143998328009452 -0.325426201936429 0.796217883644628
-0.154163180211416 -0.326092441548751 0.804168611064822
-0.150000037545846 -0.325819574762255 0.810460347129726
-0.156636843372143 -0.326254573998143 0.816014089695308
-0.153686964404625 -0.326061228715726 0.832368092590413
-0.140085617333173 -0.325169749329711 0.851511604233959
-0.152177254519902 -0.325962277102035 0.846571971241287
-0.15537124165738 -0.326171622079213 0.854004497180637
-0.145480514061243 -0.325523349542799 0.879330748464314
-0.147398336603611 -0.325649050273292 0.881427828339606
-0.148984760958982 -0.325753030019037 0.896146121683919
-0.149963462871615 -0.325817177531455 0.895043290363724
-0.156680166221348 -0.324784488167947 0.905591153502158
-0.15111283870594 -0.317389523291344 0.912855222798778
-0.457530987382702 -0.0775148934171678 0.654252413384669
-0.179848915380625 -0.307950751749719 0.913189942001824
-0.461945600777944 -0.0734709807314588 0.658327935319578
-0.461986887642678 -0.0732634176458771 0.678588334040238
-0.459725376735314 -0.0815972088857994 0.691428601719512
-0.461870881284775 -0.0738466209903017 0.697268084586902
-0.458026271394815 -0.0866026118116276 0.717621239969924
-0.459351134024813 -0.0826996923595796 0.718596852721815
-0.459332318460702 -0.0827551212240583 0.736757829446882
-0.46022099396807 -0.0801371675994851 0.73797441270703
-0.459209917196694 -0.0831157037202631 0.754696142477612
-0.458250356099035 -0.0859424795600243 0.768977722099287
-0.459872721769769 -0.0811631444114056 0.780845337747967
-0.459043268302593 -0.083606635531398 0.789671157970986
-0.462071284896569 -0.0728391239983618 0.798087438517912
-0.46069624864606 -0.0787371124651593 0.807568284383317
-0.461987538149508 -0.0732601473271972 0.814698415365735
-0.462101570866436 -0.0726868661459942 0.827672437696798
-0.459114445506633 -0.0833969542498054 0.840276476959751
-0.460973476184357 -0.0779204264726942 0.85297160639374
-0.458555343835216 -0.0850440146616817 0.869170327334777
-0.458067938077851 -0.0864798657215475 0.872558381401958
-0.456883440098136 -0.0899692842478669 0.891283101082685
-0.45878432025218 -0.0856013551447437 0.90157509425959
-0.463079919754974 -0.0787235211775321 0.907593122570923
-0.467925202425001 -0.0773977138973244 0.911980487957293
-0.479133547248373 -0.0714784863083175 0.913828431571266
-0.158000236132164 -0.326343935480812 0.108978792235913
-0.165379650199709 -0.326827607832347 0.119351622190295
-0.166791174782853 -0.326920124041374 0.124368919360669
-0.163874799812861 -0.326728974726974 0.138234682762882
-0.156650757975854 -0.326255486009454 0.149490199268136
-0.168725981774576 -0.327046937991491 0.155261937220533
-0.159177766834136 -0.32642111492059 0.165318399229679
-0.169750131986584 -0.327114064342829 0.170917610987801
-0.161315769750284 -0.326561247035224 0.187091659422813
-0.163312832425392 -0.32669214143841 0.196839223276698
-0.159636437357206 -0.326451177774964 0.19601779526211
-0.155584511508094 -0.326185600523743 0.222667215662526
-0.158548141362996 -0.326379847086935 0.22417309666955
-0.157537912881396 -0.326313633214017 0.236644563974114
-0.158165390182495 -0.326354760249169 0.247499781724929
-0.162539108741482 -0.326641428908904 0.255155400879513
-0.153589013920659 -0.326054808701823 0.266634883907838
-0.165767840342723 -0.32685305115855 0.269768388760103
-0.154462053096521 -0.326112030712582 0.287900734560455
-0.160321509077385 -0.326496079747781 0.293981287584205
-0.16472743064565 -0.326784859104258 0.291738267220918
-0.162839205275499 -0.326661098274923 0.303893646620117
-0.160204547056272 -0.3264884136519 0.322685136312315
-0.161011925414212 -0.326541332025281 0.329261782716415
-0.161795409734629 -0.326592684300703 0.340398637083152
-0.159697491494595 -0.326455179474547 0.355986639508613
-0.158884614851294 -0.326401900724504 0.362551546124777
-0.171459524952656 -0.327226103877138 0.363005835888923
-0.168116800425036 -0.32700701013636 0.371804390728279
-0.163702157191388 -0.326717659131733 0.386021831496015
-0.161469602979879 -0.326571329797788 0.397600413851099
-0.16483118569324 -0.326791659569361 0.396229882171361
-0.167921879807537 -0.326994234364115 0.410102422561024
