ply
format ascii 1.0
element vertex 837
property float x
property float y
property float z
end_header
-0.428344812918028 -0.0340833028344851 0.875481465763368
-0.425544351652055 -0.0349843949869728 0.8869879758737
-0.422602938097486 -0.0377373558294203 0.895177151724285
-0.424300544888162 -0.0324852102340948 0.898352240260318
-0.421526870460433 -0.0309137220780071 0.915063214128484
-0.425602128095334 -0.0329560964241477 0.926687046166613
-0.42730711482227 -0.0301950718539045 0.931509152402552
-0.423680910608127 -0.036761121193789 0.941405073115068
-0.424779378984158 -0.0311184388068716 0.946088564984951
-0.420131360225946 -0.0278734812614702 0.95480790607755
-0.419309577536095 -0.020955968549445 0.958142052303917
-0.417211808783645 -0.015424140041953 0.96056870328357
-0.408836910694945 -0.00898415075570857 0.963911414799649
-0.397970539545661 -0.00181777004582495 0.962991462213266
-0.393701982384127 0.00679248257464044 0.959560000953292
-0.0330753594376081 0.448400155614248 0.553646818373158
-0.0336422869850406 0.448555960491112 0.56632791061656
-0.0367299423038021 0.449265806369741 0.573299530509281
-0.0312409739112509 0.448065369819915 0.588420659022739
-0.0272252702326407 0.447177270147744 0.595066867509109
-0.0388997998275189 0.449438697124217 0.611772496824341
-0.0324368062707258 0.448131364817878 0.609571650143786
-0.0351449715416272 0.447087312193672 0.634506865016568
-0.0403291077647104 0.44784393861654 0.640677292402775
-0.0342191081518105 0.445457206492411 0.655956376035889
-0.0297556051485286 0.443601210968514 0.668814106743345
-0.0372439358916715 0.44432960226147 0.683226042187825
-0.0325849693540161 0.442592188779727 0.689083891609376
-0.0375082548553736 0.442666586259442 0.69670795500767
-0.0386867315550437 0.440462779807734 0.714935542242743
-0.0405829809868242 0.440040322052548 0.721202677251225
-0.0461754966785337 0.438022809831141 0.745382749854251
-0.0411217528757375 0.435434872506733 0.756100079386587
-0.0467693356348051 0.436115070205024 0.760453834017251
-0.0404394729776797 0.431790009669125 0.775413640835038
-0.0415918674750273 0.430972713651787 0.780641769256661
-0.0466206525538778 0.427000850301299 0.80542499921574
-0.0537554827358465 0.427812181331511 0.80927640571574
-0.0451896470670708 0.422494739618362 0.825748251693658
-0.0497127977407338 0.421350896449473 0.836243648977755
-0.0525111466828545 0.419344564854832 0.846777877319853
-0.0600278708246458 0.414112239452983 0.871647353846434
-0.0604487907539187 0.41299060380321 0.87601691922251
-0.0732029582998436 0.406534447794278 0.900993197291338
-0.0670570366709899 0.406641614556039 0.904164209303426
-0.0740432341558478 0.397096948631239 0.926653660973548
-0.0701832454547389 0.397896471920631 0.927784084238593
-0.0729227790327716 0.400800742081779 0.949775868787552
-0.0715095832685884 0.401631261579 0.950435378350644
-0.0683640015312349 0.409449378326379 0.958194829268665
-0.0622439766989537 0.413898088002271 0.96170206856012
-0.0549888390417563 0.421326249773828 0.96403646542025
-0.456068320821226 -0.0625179561462872 0.361165999432576
-0.45749273194363 -0.060261357177148 0.368487475335279
-0.457326130069627 -0.0617629536698791 0.377532703220528
-0.456764876849191 -0.0635166276911954 0.382103582903895
-0.457442594795614 -0.0624544029440333 0.392837273025443
-0.458959730235907 -0.0595926667125298 0.405243542876534
-0.455979242023431 -0.0666797426379647 0.416061737712668
-0.457849437224331 -0.0626784192453479 0.419978680991163
-0.457597095738953 -0.0634738962124445 0.425589437262405
-0.458221575680836 -0.0626626338067759 0.439503804725446
-0.460040501577846 -0.0587621508420489 0.443100757361802
-0.459047289518861 -0.0614852547809935 0.45538720651531
-0.459466994229249 -0.0603977036190524 0.46470853705254
-0.45886160916753 -0.0614122408978229 0.472718876827234
-0.455926358527844 -0.0673635537188583 0.486762411099607
-0.46057742032817 -0.0567859635756879 0.492070910151066
-0.460265023388438 -0.0571706000647786 0.499540787901793
-0.4598964688254 -0.05761149406157 0.508663007257919
-0.457617122697769 -0.0625127028685099 0.512848427334417
-0.457591500301361 -0.0620669544870552 0.524925862580671
-0.458015208883152 -0.061019832421318 0.527415412957508
-0.455263446889917 -0.0657366213008002 0.543843080419593
-0.454632370900052 -0.0656362362678091 0.555888311502898
-0.455337488941165 -0.0635877801681704 0.559715292753383
-0.455063984270205 -0.0627751388376972 0.57108887985252
-0.455772226993352 -0.0606593845965046 0.575398597639006
-0.455051490182571 -0.060541006517352 0.589185014974889
-0.456483917889389 -0.0564108034295528 0.596709985555076
-0.455862062725048 -0.0574815572611773 0.599221579631565
-0.456572124688463 -0.055232819316124 0.604562788703727
-0.453858714658267 -0.0589963864610887 0.618442883109227
-0.452605866256158 -0.0598095562007588 0.62791518514355
-0.454471705185762 -0.054376963701697 0.634039270921228
-0.454183845814674 -0.0530178953503943 0.643624108250412
-0.45110669882813 -0.058999763855336 0.647793701993223
-0.452425813215819 -0.0535717568873404 0.659729958477543
-0.451530491292424 -0.0551320369657845 0.661806686263077
-0.450004937534987 -0.056164798168895 0.673136702895173
-0.453641073300587 -0.0473766851786867 0.676450458480833
-0.452411823420277 -0.0478364204994825 0.687364702693537
-0.448527154883944 -0.0538747228842393 0.696632744185559
-0.450007909697294 -0.0480103754407547 0.705398643725029
-0.446563106819385 -0.0533623263134468 0.713316048670802
-0.447043216118308 -0.0484879366907641 0.726309975548929
-0.447987854693283 -0.0457951637982842 0.728322350494929
-0.445601253783658 -0.0473775904143589 0.741065403016855
-0.445543933323341 -0.0471443203820681 0.742297779569672
-0.444808322925555 -0.0450884738141928 0.754911032955964
-0.443891011659164 -0.0454997884810699 0.760481304471204
-0.443865698268906 -0.0433073022030506 0.767435115132005
-0.440771545572883 -0.0445782624193301 0.782308923404376
-0.440652056599712 -0.0430842223862443 0.78696816376273
-0.443245263684076 -0.0361268315612511 0.790099875109398
-0.442086694993962 -0.0345553438135624 0.801088893392269
-0.440670436483253 -0.036275505127371 0.804883407579846
-0.440515016483386 -0.0341616496489485 0.811395174323443
-0.437292723843291 -0.0352869033411444 0.827409996760552
-0.438359132144499 -0.0322317667520991 0.829211501243532
-0.434639078468095 -0.0353327398158175 0.842556400972528
-0.436744633345557 -0.0289985435945516 0.846106071281485
-0.436507264200649 -0.0261251397878409 0.853212435982964
-0.430024426660311 -0.0338465307143189 0.867925297528076
-0.433979185218277 -0.0258009297734413 0.866284931078714
-0.429297958211068 -0.0304782049004248 0.878679538127266
-0.428447310733384 -0.0288157500546551 0.886350788634106
-0.427815762389493 -0.0253787998880447 0.896797162239059
-0.426239417054765 -0.0261844376747319 0.902630364071153
-0.429059113588922 -0.0182561845505657 0.903458179154569
-0.424932559298656 -0.0259932353480294 0.919218577347943
-0.42827744353482 -0.0271782782239246 0.927522231000937
-0.428919148897264 -0.0266509653029758 0.939128443767579
-0.428286787240653 -0.0223117456848396 0.947181170111807
-0.424171180822159 -0.0223959449236728 0.952857327443865
-0.421356121274139 -0.0203083747295372 0.957104184742821
-0.416025619404289 -0.0139623098800588 0.96157303271596
-0.413445358740566 -0.00560673329967063 0.963277468771934
-0.403440244603064 0.00229647021967131 0.963737534423674
-0.392295812658554 0.0121331330890815 0.957651292114829
-0.0437707649684267 0.45081608014729 0.558579756194087
-0.0493450635223536 0.452084261603501 0.565195025605079
-0.0504166705693322 0.45236360509861 0.582379087567757
-0.0491248618135584 0.452090152156377 0.589995815478685
-0.0409674132687581 0.450274920631233 0.598502402221311
-0.0438934314435032 0.450229298465143 0.616784245272019
-0.0497582561710904 0.451332912812044 0.620029226514642
-0.0396954982379619 0.448058064948503 0.63529808665044
-0.046708921268897 0.448886613263068 0.646588329031773
-0.0415945409491608 0.446993471559776 0.657798698073849
-0.0457550257235352 0.446930687486753 0.672857713279204
-0.0503933527857444 0.447280293596516 0.683316664436454
-0.0493347281525805 0.445919623423019 0.692323754452268
-0.0470297214237005 0.44307057687107 0.709532201110275
-0.0559096161428952 0.443477891770571 0.721266802693779
-0.0476304508033967 0.440110238315386 0.732386274829123
-0.0509008507021064 0.438651745708735 0.748583949831836
-0.0535314444969887 0.438367018516196 0.755053308495811
-0.0499316348114044 0.436200939850731 0.764356349281018
-0.0634526349914556 0.435388991496057 0.78306638544595
-0.0588723453582888 0.432255976031533 0.793281182834109
-0.0578408235792507 0.430078423438339 0.802730966457892
-0.0693738704793006 0.42849714840675 0.820207407902746
-0.0662803026656929 0.42660517325996 0.82881729848967
-0.074087897014018 0.42163282354667 0.846113210765732
-0.0735401321318874 0.417864235112064 0.860085170103893
-0.0868417836559435 0.409509233285898 0.878902727069797
-0.0865547027170922 0.405384536162499 0.893933252810777
-0.0942243025179238 0.399798526493958 0.907539260482728
-0.0847218414347913 0.400601889154546 0.912617735175977
-0.0999981587458534 0.389400519219802 0.937061423070046
-0.0936051458408599 0.391875481927974 0.938451902831647
-0.0898403919323969 0.398851027889574 0.952414413754222
-0.0884315710708791 0.407287144150241 0.959752592070814
-0.0683587335748399 0.413085287539856 0.960436915553342
-0.0599508566180746 0.426696838316888 0.964476581829852
-0.460671611954534 -0.0510543248438096 0.351458415401387
-0.462204020280437 -0.0495501319156482 0.366723195626621
-0.461299458069968 -0.0529977215978847 0.378190618401416
-0.462537618618972 -0.0504432612293539 0.379811226724409
-0.461849049015483 -0.0521825169517979 0.381788720699513
-0.463285241557805 -0.0497232735165778 0.399533636712132
-0.460234206645444 -0.0570693121809684 0.412798903097786
-0.464255801821793 -0.0480626276999248 0.411556141182875
-0.462541763104087 -0.0524056136753799 0.424198245894387
-0.462503077978249 -0.0533298754838599 0.444330126141101
-0.461985071075799 -0.0544419700505867 0.443336668032969
-0.46495598137016 -0.0480760744061985 0.449329119337434
-0.464296001502809 -0.0498521292854028 0.459730370526266
-0.464739462128438 -0.0486844429273153 0.464059442827591
-0.462405611372735 -0.0533498330136803 0.476824537015151
-0.46392176180422 -0.04966921946 0.484140592444464
-0.460486053857612 -0.0565982791495284 0.501465988373928
-0.461855397879858 -0.0533078868976916 0.507260954888944
-0.46180585022653 -0.0532097494752112 0.512268359284571
-0.46206424628863 -0.0524355372196701 0.517044495133862
-0.460194852086667 -0.0560317408516251 0.5306496753145
-0.46266846957857 -0.0502126502689804 0.536123628817769
-0.460909143520289 -0.0526142578871863 0.548251252032685
-0.459668336884377 -0.0546076042647286 0.554408036872444
-0.458325950252031 -0.055939357981246 0.567667280949134
-0.460021978915745 -0.0518602845724286 0.570087356433723
-0.462460067097031 -0.0460070406550224 0.573481982866394
-0.459459444716417 -0.0498774893512643 0.595971275047433
-0.458606342906215 -0.0518896439074117 0.595070930141398
-0.459623595264572 -0.048427687167705 0.604645805236978
-0.460686436233526 -0.0454221383947072 0.609757187958966
-0.4597876285291 -0.0458737078675126 0.618062743454675
-0.460027436763253 -0.0431273782650736 0.628664966464994
-0.4582474436997 -0.0461914385517148 0.632975530966345
-0.458663421483161 -0.0426381413860099 0.645565064530579
-0.457061265397638 -0.04517119049291 0.650522680274723
-0.455968624705879 -0.044271291971731 0.666494930268628
-0.45608771605569 -0.0437792866048377 0.66758193371399
-0.453637322606727 -0.0473260678215836 0.676733056074012
-0.45434641866459 -0.0438742730488524 0.685708268590516
-0.453540704730134 -0.0432008008373427 0.694960153850891
-0.453098531649774 -0.0403786683790352 0.707958871052162
-0.451920142240338 -0.0404446918513371 0.716693306014401
-0.453548711019971 -0.0353424796373875 0.721732860919319
-0.45226688631835 -0.0374376657999484 0.724324842735891
-0.451155336194685 -0.0366748141526062 0.735381401194345
-0.450950871199426 -0.034621678182669 0.743946834921298
-0.449521862935002 -0.0361703779108079 0.749523998375086
-0.44901498888163 -0.0354361066990649 0.755885309781856
-0.447763514220603 -0.0356649093960741 0.764619610899159
-0.446491747549656 -0.0332734459280639 0.778517055298983
-0.445050371099098 -0.0352723925675583 0.781721643033067
-0.444544937347664 -0.0333932480347326 0.789675223712964
-0.443786837288614 -0.0303568790564827 0.802181451001815
-0.443442261833028 -0.0296608489808097 0.806055004965785
-0.443332388111315 -0.0280970081032859 0.810137705405032
-0.443076981011907 -0.0226455148674664 0.822773104803007
-0.442658021980648 -0.0237988082042793 0.823001462247763
-0.440150072985588 -0.0241300310641683 0.837713312655913
-0.438816480610247 -0.0257532261764274 0.84228574380409
-0.440215883077323 -0.0186615022904597 0.847023611584171
-0.437111236411789 -0.0208993106664048 0.858839145827735
-0.43824874667025 -0.0157074305900701 0.861742949123171
-0.434455607337077 -0.0169697900643341 0.878613484403919
-0.435179836110369 -0.0148960534294897 0.878424372254922
-0.430743409115041 -0.0183689028621709 0.894853216274435
-0.433831894752621 -0.0107275641783383 0.892057940880665
-0.428914025956088 -0.0166430314377853 0.906852124707654
-0.43026423562821 -0.0111107912930594 0.909255893218442
-0.428915671871839 -0.0119395745963506 0.917128349328392
-0.43252313827447 -0.0180350582363013 0.937604296937216
-0.432957883953667 -0.0151827419615359 0.939333595208396
-0.428097149794657 -0.0101507160686459 0.953099140789103
-0.425623740379395 -0.00938817356422094 0.956601401118174
-0.428220570792905 -0.00597190384222067 0.954717718875197
-0.419177615398738 0.00134103519213249 0.962654048162166
-0.411483530188311 0.00248765041149982 0.964120360832905
-0.405841868955729 0.0219325067429926 0.96299330515508
-0.0596861271691984 0.454391030710756 0.556931514153082
-0.0570029694984386 0.453812540211481 0.568045538928551
-0.0554578707845603 0.453497315672483 0.582458141301378
-0.052845842371326 0.452932928501606 0.592725966862638
-0.0592625088398153 0.454393172341931 0.600528638158744
-0.0616086116295272 0.453658821604858 0.625138336479152
-0.0651347656494588 0.454292190396725 0.627544389258039
-0.0569530363343684 0.451432004449211 0.64293837647496
-0.0615489818652738 0.451350395861794 0.659758394069133
-0.0630083586783927 0.451151287600036 0.667711969584472
-0.0591601395160785 0.450336056163452 0.66695688122744
-0.0657006543782528 0.450807952407862 0.682023121165759
-0.0608065713310514 0.448965285550623 0.688881909170324
-0.0702111218326135 0.446494577805594 0.715902856712989
-0.0606407916526078 0.444827730707508 0.719155094292191
-0.0653000870206405 0.443405099391835 0.737393762401302
-0.0652743912777451 0.442063224329045 0.747258438392295
-0.0660084931234631 0.441604176619502 0.751866393938716
-0.0784268347407509 0.435079492213542 0.778046520450617
-0.0783446893330101 0.432244939314633 0.791880731652637
-0.077842624512532 0.430829251948601 0.799312150133446
-0.0853344875161409 0.424048550182746 0.823699663256811
-0.0717909668377233 0.428460165708717 0.81764962901151
-0.0877071201111498 0.420750002334378 0.837003472602841
-0.0865424863250431 0.416242180619791 0.855010848887393
-0.0866700181635519 0.413907807102294 0.863274475032921
-0.0886049868950657 0.406936925418556 0.886649508667955
-0.0993179518040751 0.400342461072491 0.900222182113755
-0.092316937245683 0.39865816826596 0.913225863776551
-0.11441484161459 0.384468383716485 0.936702272895594
-0.113112885838215 0.387287438221531 0.945576945752156
-0.102508205992001 0.396731800473085 0.954487898350647
-0.108639936408749 0.396010899424603 0.956267936983035
-0.092640040255022 0.406036147135668 0.959587305444322
-0.0872536819795068 0.4172606868444 0.963563526302709
-0.0761620930606755 0.424032693513747 0.964342445447751
-0.0654912385364751 0.437374415654817 0.962716154887913
-0.463207755810258 -0.0451572138519818 0.349459628088227
-0.466050483575054 -0.0401748068279705 0.360240232913536
-0.464930623547057 -0.0441620423442181 0.372189580874649
-0.466002869044452 -0.0429187166340676 0.381442183964366
-0.465186154455414 -0.0447676044048354 0.382169928604586
-0.465953551678172 -0.0439015716862651 0.402412810008205
-0.467038049465926 -0.0416963155052671 0.407447727419065
-0.466765823017458 -0.0425142677241034 0.412534772642599
-0.464426869341054 -0.0482453106389474 0.425093993372168
-0.464989253390458 -0.0472829525368033 0.432057726901906
-0.465292927941802 -0.0471775494150798 0.445768332988687
-0.464850354741576 -0.0483558497110704 0.450399819834041
-0.46615783762978 -0.0456032867976898 0.454214929700985
-0.466692686860733 -0.0442460936234574 0.466199033668955
-0.466698160330657 -0.0438452447977938 0.475534768635171
-0.466313105036085 -0.0441560575096195 0.488664135833638
-0.464926288923159 -0.0469646359431117 0.49537697613527
-0.468612819965361 -0.0383266092917999 0.501524382930271
-0.46801822713873 -0.0397616810276699 0.503017569922334
-0.466421360420273 -0.0423460435803925 0.52635095366119
-0.466872357830247 -0.0414120527907549 0.524663484770703
-0.465148307165542 -0.0441777944471587 0.540227458257152
-0.464505085934888 -0.0448837114799637 0.546038448906219
-0.467237970725066 -0.037770349740292 0.552836404075528
-0.465004930274848 -0.0420437723603518 0.559854264312556
-0.466104019150357 -0.0378920719510909 0.57311185353123
-0.463948577978384 -0.0425004162530262 0.575019105102237
-0.464635553815449 -0.0397860041404553 0.584497073981567
-0.464410186399691 -0.0389397949749697 0.595281683554811
-0.46534740140248 -0.0363286483180371 0.596732452560985
-0.464123369137302 -0.0382520571348363 0.60589316801574
-0.46187689993063 -0.040796295290856 0.620100432488752
-0.463508953223141 -0.0368589698108107 0.621300579165377
-0.462260416702135 -0.037527446051236 0.631673200324182
-0.46174925055199 -0.0371388632891496 0.638990105061147
-0.462559934497736 -0.0329383888304486 0.646250838815443
-0.459127019873037 -0.0385155491632853 0.660374667618834
-0.457888445205599 -0.0395024804442565 0.668861935772868
-0.45816272514883 -0.0374746770989726 0.67565291408019
-0.458176178178316 -0.034372698901038 0.689350984873227
-0.455622638839448 -0.0381050100927723 0.696530618443947
-0.456636891841511 -0.0337434943988294 0.703179106705362
-0.457047777487784 -0.0305847731724601 0.708200848592335
-0.454178554571773 -0.0355115696467293 0.716366458940553
-0.456013177207526 -0.0287493264817399 0.721194732679062
-0.456718508679023 -0.0249690716175999 0.72551442624816
-0.452426893514496 -0.0318363104366008 0.741487381815349
-0.4528447963421 -0.0274846836207345 0.749577943782395
-0.453536241863085 -0.0247866580590948 0.751173041850515
-0.451574509953813 -0.0269747749925451 0.760965056174996
-0.45165700920489 -0.0229483567510294 0.769526258752543
-0.44946816351443 -0.0226649994010362 0.783528491706686
-0.449115634282434 -0.0226608387665542 0.785699438591424
-0.446337962070676 -0.0253011256108104 0.797377530025669
-0.446941946544859 -0.0233378505309155 0.797658762803428
-0.448839277731524 -0.0132103882234109 0.806582799740408
-0.445096946239841 -0.017577226396329 0.820672766590853
-0.443787937522423 -0.0178117819595665 0.828226301298079
-0.443924665686253 -0.0143778898175612 0.834359726550949
-0.443720405031864 -0.0107871581021179 0.842534373231497
-0.439822031119687 -0.016546358812946 0.852491418524965
-0.441253047917811 -0.0106228079150106 0.855138670979427
-0.437460432926766 -0.0151624541098978 0.866584713964773
-0.43806874703782 -0.0100141858127586 0.872061407094312
-0.43966359811718 -0.00250414240368387 0.876514437855024
-0.437264823203228 -0.00573346019007705 0.883161536374491
-0.434624656539027 -0.00725256911026283 0.893844496791971
-0.434184973011188 -0.00273569103437586 0.90351475735151
-0.433998553289431 -0.00096151957137395 0.907381675129721
-0.433039263471572 0.00107126026867559 0.916768196864295
-0.435334729519767 -0.00766425239909671 0.929863009736726
-0.436282179396893 -0.00155836256771741 0.943357743111572
-0.434593264507075 -0.00287639867845539 0.947610622640058
-0.4313999358764 -0.00114283830266316 0.952686395764887
-0.431542431047505 0.00640229163849816 0.9557120864328
-0.423361449416552 0.00792742951511525 0.961518623996467
-0.418121119614766 0.02193852847073 0.964084131764813
-0.408791279223193 0.0242087741889248 0.963392134917127
-0.0657091518300536 0.455754787608048 0.561164273814315
-0.0663889382984809 0.455949226154866 0.579779642560476
-0.0698295244162682 0.456007573031028 0.587586640849742
-0.0634855255570583 0.455326193190161 0.593124138062753
-0.0600163507781998 0.454563610667903 0.600946713293384
-0.0683969093641632 0.455511394614288 0.619048149952024
-0.0684529251652356 0.455124473206552 0.624676715188868
-0.0643552890355307 0.453162013583019 0.641949063631177
-0.0680476801454623 0.453279280022974 0.652704314915629
-0.0669720779467219 0.452138988696866 0.666257138720131
-0.0725769596165199 0.45077997484822 0.675584365023372
-0.0847557162317818 0.445974448744721 0.694699423538281
-0.0835065743792422 0.444789669049635 0.705580480461514
-0.0823125435517266 0.442299567393969 0.725985813850915
-0.078349470416753 0.442402105103777 0.732052036158791
-0.0850665545098149 0.438096935184256 0.752215113161584
-0.0866368882368634 0.437220371376799 0.755971566830373
-0.0754052734845506 0.438831725152894 0.763278192301736
-0.0984988030848123 0.42839867256462 0.787704422654193
-0.0960518220579793 0.42635852622088 0.80036543567456
-0.0891511517357298 0.427711094013037 0.801622683535758
-0.0926933813387511 0.423405210072925 0.818485378686097
-0.0976565242440419 0.417858960796131 0.839752041659792
-0.0968785723102249 0.415400511350254 0.84937149970165
-0.11651766790778 0.401382757025743 0.875975337811324
-0.114036588532099 0.399141121509183 0.886754853802047
-0.120721724230056 0.393494875639689 0.898395985455817
-0.13556905475692 0.377342806065311 0.934774998836059
-0.128595435959475 0.379809101166634 0.934284594498007
-0.127322295694537 0.382818503770509 0.947014763747436
-0.119164603527059 0.390761034968386 0.954188739386314
-0.124471836590189 0.393372775995411 0.958241265715913
-0.106485872220098 0.399526888150006 0.958216822073419
-0.103533286227382 0.405300403815965 0.961065683140184
-0.0957402282377092 0.426191207419369 0.963710685616317
-0.469192448768139 -0.0294701500550848 0.348886170624932
-0.467725124566528 -0.0344016018084855 0.35194424450919
-0.468835481535342 -0.031856133254758 0.35690944385183
-0.469109141961767 -0.032775355558943 0.367623466923385
-0.469006820869733 -0.0356096252317246 0.386770145047108
-0.469462422711833 -0.0344573885927791 0.390901373159995
-0.469530308326021 -0.0347733102453909 0.40050056660013
-0.46801485804639 -0.0396033335734958 0.409419607893149
-0.469328888966827 -0.0365231436981921 0.421527835702356
-0.470242255560168 -0.0340850508371113 0.427448889885872
-0.469740470396332 -0.0359030682136237 0.433013266576207
-0.469704580243782 -0.0369337513161475 0.450004742425858
-0.470617449103813 -0.0345128552826148 0.460205999638923
-0.468828583024182 -0.0396667149991123 0.461955773007399
-0.471242155557334 -0.0323994181157791 0.4643710591255
-0.471638455792367 -0.0306813582956228 0.473965380122407
-0.471061124067696 -0.0314843779493545 0.491306337549467
-0.469735182334319 -0.0351286487805617 0.497969836599867
-0.470573216611074 -0.0322918367397973 0.503587931848723
-0.47034550736965 -0.0320989803131723 0.519815962937513
-0.471068510331082 -0.0301877312974135 0.514784498695949
-0.469000040788333 -0.0353829184516515 0.534204999982683
-0.469714081573327 -0.0325912588297682 0.538712129914341
-0.468949989119762 -0.0326170774256752 0.552719239590826
-0.470770175265238 -0.0265977008631098 0.555911422276525
-0.469845454517354 -0.0280036290015844 0.56442766344011
-0.46858821859306 -0.030131761280385 0.574676757123701
-0.469265675450728 -0.0275249406622612 0.578113584612832
-0.468561313876628 -0.0283286594480841 0.586239914108506
-0.46922583506 -0.0252122458885267 0.593043570500916
-0.467455282979307 -0.0284398457893777 0.606062392250487
-0.46610040254847 -0.0315608565353921 0.611996480249524
-0.465784817576462 -0.0299044033063922 0.621589876283564
-0.466799163011991 -0.0244390822800876 0.630414557221652
-0.464585868627506 -0.0287234582266587 0.639245408487473
-0.463365993550704 -0.0294309040586068 0.650192041463022
-0.465284269900712 -0.0216140652240137 0.657621963735122
-0.463454841298861 -0.0248030365395097 0.666216337086874
-0.462615287905141 -0.0256291174669559 0.672503320264896
-0.46317528569495 -0.0213660893525663 0.68195430248605
-0.463325349318616 -0.0202699674338875 0.684316896992001
-0.460438644554122 -0.023491536594163 0.699947305308782
-0.461069835574766 -0.0185673257229172 0.707849804393836
-0.459190413989085 -0.0216173355005812 0.714733119386134
-0.457685449290435 -0.0234392248761517 0.72186998413475
-0.458739219723028 -0.0168388361644289 0.730818755714643
-0.459621367710744 -0.0143821780942612 0.730272683432682
-0.457015818549866 -0.0169694112543472 0.744113810586721
-0.45760936428796 -0.0125515363703642 0.750988044211195
-0.456918241464657 -0.0124468459373718 0.756731002764758
-0.454785866216727 -0.0136596978792455 0.769192719673123
-0.456044593079583 -0.00776318633922138 0.773443618700566
-0.453569053954586 -0.00979494810654199 0.784503897785508
-0.452998314208547 -0.00793450951839065 0.791782373251904
-0.452127808684052 -0.00787920749096681 0.797234548491919
-0.449873647846218 -0.00972474884463407 0.807314940401193
-0.449466780801713 -0.00785836629260204 0.813600249851207
-0.447778599040095 -0.0101313740893431 0.819340865230397
-0.44625985152531 -0.00810691139766634 0.83276768184183
-0.447005593732599 -0.00428243254717559 0.835958312669408
-0.444014252475642 -0.00414117340644249 0.852060630075834
-0.444298261816666 -0.00325756724686433 0.852102906851088
-0.443256307644797 -0.00115337313790394 0.860791958609223
-0.44014005698507 -0.00330641594321212 0.872805726507504
-0.442416993066023 0.00118036841808597 0.868847930827762
-0.438631081427605 -0.000471162972461363 0.885038502968457
-0.439228999437961 0.00672443448067976 0.893954214730524
-0.440234395967951 0.00875690043157834 0.892291486193878
-0.434567723092709 0.00335123372762353 0.911671762477329
-0.436874867894467 0.00762698350963082 0.920048040372038
-0.438426310805009 0.00639603008690495 0.923905160427919
-0.439747308429828 0.00368815506030532 0.936931400936693
-0.439383771002034 0.0078570013459126 0.943408094406996
-0.435577763964099 0.00658178827343147 0.950603612031288
-0.430500438273861 0.00863843906508876 0.957366917344322
-0.426688655870142 0.0178685407327874 0.961496514058114
-0.422660515018341 0.0234195498206221 0.963348726323637
-0.418688370065598 0.0316026053368913 0.964542991631975
-0.0803920720138431 0.453513769575409 0.575738900354812
-0.0791947456851955 0.453806026608486 0.581357602594669
-0.077333408481478 0.454274641735113 0.596471872350434
-0.0762699866496591 0.454538037500648 0.603170561999784
-0.0915687506803307 0.449380492397795 0.629862048116363
-0.0826995383861311 0.45154881491462 0.628407922728222
-0.0880291643942991 0.449093896127954 0.646625657217487
-0.0807036043965966 0.450391257724725 0.65285595153695
-0.0833945772850394 0.449272767700592 0.660232149971402
-0.0969866422836322 0.443436463605218 0.692348554205629
-0.0949771908189031 0.444417579657013 0.688577512880108
-0.0926881506687835 0.441884173035391 0.711186863513323
-0.10296571409829 0.437621009149887 0.724911555794935
-0.0998512324695424 0.437127952753779 0.73390608951566
-0.100740453453421 0.435754857284982 0.742494004514503
-0.100209319774191 0.434802535709187 0.750426093439346
-0.100129206668003 0.433273608574362 0.761830923075961
-0.092920083134603 0.432912530457774 0.772139595202407
-0.102718932407777 0.425114148705689 0.798848186538284
-0.121257348269693 0.414884888146801 0.817281311926982
-0.118183370751597 0.41385907824058 0.827093178634903
-0.121488345371923 0.40972004771892 0.840988185685262
-0.13731535047849 0.396285374469828 0.868782540173838
-0.142166348168171 0.38885579862576 0.888082050345264
-0.142680042464623 0.38626955797643 0.895927333261835
-0.130079808058653 0.388930614198303 0.903064887982957
-0.152114321650503 0.370444315141787 0.926849168409089
-0.148885140397908 0.371341714264516 0.93871752961189
-0.144501023938897 0.374930602338611 0.943770682837377
-0.1407215344142 0.381125592844883 0.951849593593329
-0.141907338912084 0.3869530350443 0.958152496613062
-0.131513372066313 0.396880644018932 0.961794855050414
-0.120723298859586 0.39910891523606 0.960903542767379
-0.117250400877633 0.416615575161 0.964252602785488
-0.0937327755533566 0.439147122795512 0.958519697575519
-0.075850639669341 0.456342420336816 0.947794256213797
-0.470218903272171 -0.0243704415302915 0.336622322337243
-0.471020191641652 -0.0242464856802491 0.350716809178812
-0.47095091781933 -0.0268524038224492 0.365423228190588
-0.474175302321478 -0.0173282223283798 0.366757008498621
-0.472700313889138 -0.0243377050986351 0.38468631873932
-0.472475248226785 -0.0254882802103187 0.393356695193961
-0.473433821589152 -0.0223910321212281 0.389649855004739
-0.473316890846576 -0.0239636081395978 0.412114195665289
-0.473308196003722 -0.0237898553193209 0.408429013100607
-0.474087659251275 -0.022165165405501 0.421882735703979
-0.473611884174943 -0.0244030961614589 0.43663134403576
-0.474118020854938 -0.0234128833112325 0.446560578162679
-0.475430407562351 -0.0193124692255503 0.444065629341466
-0.473182447160132 -0.0265724506539539 0.463725122761741
-0.47432755060659 -0.0232554769506058 0.461097439699961
-0.473764043366963 -0.024407393120547 0.471240854556771
-0.473854526663183 -0.02393653194164 0.474879432683877
-0.474052333624465 -0.0223684454639577 0.492759287237325
-0.471973902909216 -0.0283189434229029 0.498818475181974
-0.474016383477811 -0.0213981545615352 0.512636912232633
-0.473176555472899 -0.0238568642906282 0.514084782637653
-0.474015515204961 -0.0205354128964531 0.528580315713967
-0.474417064779845 -0.0190595881839648 0.533419528023823
-0.473550010367851 -0.0203881377963108 0.542479675915147
-0.471485436192392 -0.0235893405119087 0.56111136590986
-0.473399575855958 -0.0179923421091458 0.559969902528991
-0.472622257573616 -0.018440014100373 0.571633588407031
-0.4701218349019 -0.0253074159672792 0.575848602017424
-0.471967582252741 -0.0181061729736816 0.585819188606013
-0.468761190318079 -0.0264361598308143 0.594147337634219
-0.471282702595419 -0.0171471341312058 0.604401147415181
-0.470058225413831 -0.0189318630237159 0.614465060957828
-0.467703517782618 -0.0228989133478504 0.626032760158187
-0.468374408772514 -0.0192744317844334 0.631905093712827
-0.470165060114245 -0.0127772880259101 0.63590143125439
-0.468653159085319 -0.0157165433594295 0.6418874738993
-0.469567550401535 -0.010914269631092 0.649384963246186
-0.46571321511245 -0.0182687276099664 0.665155101422862
-0.46720454189396 -0.0125823753936874 0.669495235952689
-0.466839061897082 -0.0121309154256746 0.675213452312242
-0.464082997606462 -0.0172031871496634 0.687175786137737
-0.4650124402022 -0.0131107572697401 0.690943827786088
-0.4625784633489 -0.0159797085658208 0.70268947638929
-0.463895584007621 -0.00957806923549316 0.709033846881014
-0.463925655055668 -0.00752679451730001 0.714168404448298
-0.462213535553623 -0.00940999504279667 0.72278387727952
-0.459360594874207 -0.0132733543020045 0.73524027126645
-0.460694178968923 -0.0079974282525079 0.738506006442208
-0.461947434201943 -0.00200961693211946 0.74427187617998
-0.457415561917016 -0.0108261425958506 0.75704056573239
-0.457446794697882 -0.00686122102687299 0.766673520031251
-0.458643591156382 -0.000837171774104237 0.771563266676424
-0.457752406093409 0.000742289880935419 0.780236937401982
-0.454395206810175 -0.0047827148655829 0.789612877902537
-0.455102150647313 0.000549767101150419 0.796103345431481
-0.454546737204633 0.00121901421404889 0.800869219471765
-0.452129823792838 0.000406972575756799 0.814046384876356
-0.450319938658757 -0.00246774775357592 0.819311845446077
-0.449287158979378 0.000121211465721873 0.830903767875834
-0.448832225856666 0.000841982213739712 0.835157884647892
-0.448799376155338 0.00443821134742739 0.84233706278373
-0.449022701122056 0.00623874209596447 0.844199593575625
-0.446357457244055 0.004265788599959 0.854257064946695
-0.447055668039133 0.0124602225468891 0.864323944296378
-0.446538428266291 0.0166326096107018 0.873811929841321
-0.444104345312606 0.0151811937112054 0.883576827828088
-0.443936023216358 0.0144283608372916 0.883172668902756
-0.442063581268936 0.0152230191848215 0.893846216190707
-0.441166445241631 0.0176648846639116 0.90237007074215
-0.439651703431547 0.0198157655945379 0.913499458073577
-0.44117358596426 0.00976841533743513 0.930605025340666
-0.442160114917881 0.0135269866980325 0.927825910363484
-0.440720115018562 0.0107435632918852 0.942114863726949
-0.442977719715455 0.017446338359976 0.94198234913674
-0.437560976220675 0.0210843968916303 0.954223112520475
-0.434865894556597 0.0286421324990433 0.958568895976631
-0.425059584740505 0.0325788138222033 0.963392976832054
-0.425043869230857 0.0396080325604246 0.963683485375577
-0.415767319257177 0.0438352116771902 0.963717813501108
-0.414601571260302 0.0582435862639145 0.962911738586913
-0.110564096987865 0.445326624758266 0.622080257010029
-0.103988267874993 0.446464258968816 0.630090625347768
-0.0984073895901187 0.447929279708629 0.627660646349395
-0.105888954819691 0.445315915435129 0.640695702299295
-0.107616811117033 0.444378081903415 0.648739133473958
-0.105029684340117 0.443702650913688 0.668007365476086
-0.103019816794189 0.443366959126231 0.680130219511191
-0.116541940147634 0.438033312332627 0.691515298393219
-0.116564947543072 0.43499957545876 0.713165067867144
-0.11298369730049 0.436357394220098 0.712275518542493
-0.101681819468627 0.438818806949997 0.718294811363185
-0.123367850457436 0.427350757225669 0.751127404650307
-0.107536264263698 0.433990442164163 0.742635850544574
-0.117951959540278 0.42558911524172 0.77225655373187
-0.118764553586432 0.42365413422174 0.780046890774499
-0.119502400965897 0.419968746535057 0.796197347362061
-0.125470841268066 0.414332374790542 0.813051037021688
-0.139130460118459 0.403970448413174 0.839678425498831
-0.133664580272847 0.405478414760641 0.841154463584633
-0.155155119559483 0.387930769935524 0.871063460008393
-0.163281124024697 0.37836589671795 0.89043891155658
-0.16290082898354 0.377291438050349 0.894617426200852
-0.158264399059483 0.377222481832879 0.902025884582471
-0.168552387487366 0.3620595479765 0.934764450973465
-0.169498369746492 0.363694596581015 0.944898622784616
-0.163287565700022 0.368713559338647 0.949448828987719
-0.166707406204326 0.370129176786999 0.953133169161005
-0.159215025198178 0.381583164928756 0.959675829978697
-0.150060605073179 0.39665459955889 0.963613322876289
-0.139672325469814 0.402951651450551 0.963979977745673
-0.140054140927862 0.409009778108968 0.964207650837143
-0.119829138499415 0.422788643248863 0.962975362921798
-0.475407180398794 -0.00802215265836099 0.332490032324665
-0.475520736025354 -0.00853591392804248 0.337747836611188
-0.474128128271187 -0.0158537788779058 0.356834823158295
-0.474182172602686 -0.0169969481439999 0.364851579943463
-0.476600257441115 -0.0116366654792463 0.376788261089769
-0.476100909573595 -0.0131732213035735 0.376959594955483
-0.476577016726866 -0.0128868126622744 0.389503036704012
-0.478449734008909 -0.00782745071815937 0.400529912136678
-0.476333031507872 -0.0143132558845294 0.402202872392634
-0.477185947648796 -0.0123830809485387 0.414116937478542
-0.477407482076199 -0.0123289762348875 0.425451273698178
-0.4761824383768 -0.016462918953375 0.433425679750285
-0.476738576390296 -0.0151538654705072 0.440263821744523
-0.477670141576543 -0.0131430683864217 0.455070312992118
-0.477070103578922 -0.0150941533894259 0.457617318641833
-0.478262918808567 -0.0111810391115015 0.464503405115431
-0.476986124206255 -0.0143968185534996 0.476325738803418
-0.4778594448042 -0.0113762642537988 0.483364960282635
-0.476178975298828 -0.0159786404728015 0.492110310000493
-0.477129950621365 -0.0125291920124666 0.50272898327537
-0.476186950237629 -0.0143463482776081 0.521739606695626
-0.475980757242532 -0.0145619989167966 0.52924369338059
-0.476986822468497 -0.0114986432762768 0.529682587115004
-0.475907107086746 -0.013927358892636 0.538426628322757
-0.475379794919653 -0.0129687980784221 0.554084503865398
-0.47615262100999 -0.0105332129146602 0.554702525670877
-0.476561490703051 -0.00742092252463387 0.56622041417381
-0.4739870369436 -0.0131973241313635 0.578502595291034
-0.474251155352939 -0.0123455585821441 0.578832780502842
-0.474123549892616 -0.0107085821906333 0.591243437429918
-0.473911410977979 -0.00949179323794518 0.602642868257782
-0.473558656222005 -0.0104357673181647 0.603390096803125
-0.472446698214275 -0.00902184864643361 0.62436735581116
-0.472876941715749 -0.00848987547512266 0.621544796748476
-0.474196740458697 -0.00168558256135913 0.631899088456765
-0.471952630926588 -0.00599940460343265 0.640963913165601
-0.473010976926184 -0.00121664869789086 0.646791004033853
-0.472358530412525 -0.00134124630191579 0.65357860592849
-0.46807795049596 -0.0106197020672181 0.667010133130434
-0.468860873431704 -0.00693557024893236 0.671857582385908
-0.468119776603575 -0.00567916775305146 0.684705907748634
-0.467814178451816 -0.00471293449825547 0.690768832114692
-0.468721071057978 0.00122718773807218 0.699150520608961
-0.466392309526433 -0.00210723537629345 0.708844494328331
-0.466188267199164 -0.00120019429394082 0.712834690875507
-0.466040853265921 0.00123692613956414 0.720384234356961
-0.466127389852471 0.00465968373892131 0.728664046557438
-0.463108387052781 0.000350318099554855 0.741266330117315
-0.465425965554276 0.00829120027685918 0.743725650485822
-0.463394986053296 0.0028262542837788 0.745483249391095
-0.462008401808643 0.00505303368499738 0.76228727771869
-0.463055748122473 0.00821407262311142 0.762278861105873
-0.461994194925643 0.0109022507036204 0.774845491563681
-0.459356162729338 0.00867007250818276 0.786495618255651
-0.458054360985192 0.00908326068133117 0.795320117653795
-0.457078356727772 0.00771749208488218 0.798534116432649
-0.458378128614885 0.0143902206448334 0.80410926058783
-0.453904578862412 0.00945772754154576 0.821536194749517
-0.45638803864508 0.0174950187622914 0.822620910176828
-0.45185988903467 0.0102311508964663 0.835649167265347
-0.453908563626146 0.0184680822781569 0.839806307587363
-0.452704683216653 0.0188576497824357 0.846672672064766
-0.452385848356127 0.0236529467790925 0.855016746815873
-0.450361106428661 0.0226117818651066 0.86424643773374
-0.449762299622317 0.01969309195691 0.862761497875368
-0.449768472149905 0.0278549786744085 0.873216619269237
-0.447468101842524 0.0281573410793954 0.885380963688278
-0.446957035777833 0.0247527427239569 0.88416067971996
-0.44461834557435 0.0273587211720656 0.899124851786606
-0.442116551021217 0.0266088688265738 0.911135501521602
-0.441972495329965 0.028391628631728 0.913890234200968
-0.445359826374472 0.0348438297197816 0.92140140571514
-0.445732676324551 0.0220407786143574 0.935968523376652
-0.444216001642283 0.0244699008832049 0.945366511973455
-0.442377130062697 0.0270752169592601 0.950185954715831
-0.438865132619033 0.0405864834501686 0.957716244266201
-0.434049893960221 0.0418090140788456 0.960859903639348
-0.430705388328634 0.0476657229244364 0.962955732012304
-0.420992621405658 0.050931746625464 0.964404026160341
-0.416249358527964 0.0572013623166965 0.963262070241738
-0.39259825971146 0.0923777516965771 0.948024479483424
-0.126311174562666 0.438961479734528 0.635841745010601
-0.120793192917047 0.439894448706326 0.649986711308991
-0.124946027392531 0.437675887353516 0.661509104082897
-0.126779265345291 0.436159767389679 0.674442194119998
-0.122566925547959 0.437124165366396 0.681553635777936
-0.132500544214438 0.431956370447032 0.695667386239067
-0.126729644976143 0.43237026229794 0.706927859434436
-0.123648168467067 0.432591276641062 0.712940527389305
-0.127788244187521 0.428828407593608 0.729661099503159
-0.136471441772423 0.423380518812342 0.747241903558329
-0.135885309995528 0.421613931793862 0.761326352268884
-0.144318974874354 0.416340717791182 0.773041563236799
-0.139776065895969 0.416767718081882 0.778396658957203
-0.143894078475465 0.412466460909162 0.791966034931862
-0.158161527840414 0.399177028371355 0.824787119102632
-0.140598775020785 0.406488226944779 0.825447141651053
-0.157550416641195 0.391149204306194 0.856602357229993
-0.167231044514933 0.384093003987355 0.865189528274083
-0.176836503000864 0.37234171532513 0.889579274446638
-0.171694052689952 0.373847885826891 0.892508681159242
-0.175250661944628 0.367106123170885 0.909526469870734
-0.193751101048218 0.34857489748031 0.940016859869574
-0.182357176473413 0.355356909861043 0.940051823108937
-0.184771988640349 0.360899128211865 0.953103463209321
-0.183137244448126 0.361846872560187 0.953075919137635
-0.182548993758211 0.36843678291081 0.958459635493723
-0.165319489691779 0.380214164690561 0.960514840090574
-0.163508994098803 0.393398172588632 0.964129798290818
-0.148286043467403 0.406860499972808 0.964065108507191
-0.137546304998345 0.427976879532998 0.957025291618226
-0.476833438682706 -0.00461031014346732 0.337995410233926
-0.479082975656275 0.00211837177197916 0.338410470848582
-0.476739269853213 -0.00698087969774283 0.350796130754847
-0.479800414618178 0.0012183182438582 0.357234096454326
-0.478892952976254 -0.00162597209351671 0.357864040996994
-0.478958081516836 -0.00441795583251295 0.376203904606893
-0.479066357259578 -0.00526556153417669 0.38765268269505
-0.477801369796677 -0.0095051216748733 0.395349605347861
-0.480452750846461 -0.0022475842567458 0.409219857023465
-0.479640333836973 -0.00453350208994461 0.406114248678258
-0.480698693975147 -0.00213861157060046 0.420901959695631
-0.480752742290437 -0.00259578651857448 0.432333372458659
-0.478144191541238 -0.0111455505816007 0.44465502680903
-0.481367787206924 -0.0016074224340321 0.448358771035037
-0.479611937713319 -0.00719827156660226 0.462791805771848
-0.479180744947142 -0.00825419950564932 0.467338746737233
-0.478627931362875 -0.00923688371131327 0.48000484035305
-0.480512450531495 -0.00354149944351288 0.480039059518304
-0.480635707520171 -0.00247008980324778 0.492917822252435
-0.479039673200313 -0.00688374621867071 0.500440256157157
-0.478800397690058 -0.0068955378712257 0.513541677069713
-0.480039631548674 -0.00273677819820967 0.521183448905468
-0.480316475213791 -0.00155634600461215 0.527521817251954
-0.479875460458507 -0.00211967979234362 0.537312600469457
-0.478903401000004 -0.00449297314028868 0.540770415086048
-0.477739123774637 -0.00579661791364004 0.554355444439156
-0.477372336816975 -0.0046129601099444 0.56841859887369
-0.479093444160509 0.000432945875430835 0.567474102261896
-0.476699601036671 -0.00501374549350945 0.578431135780138
-0.478281605996421 -0.000390196912478393 0.577473753060006
-0.477337000057159 -0.000609261498369659 0.59364159450068
-0.478013830748121 0.00340698935434806 0.605738713834264
-0.477863741233961 0.00394946251728492 0.611850006030826
-0.474035765038273 -0.00353042959786305 0.626905531520001
-0.475185404531061 -9.79287065008179e-005 0.626755557554737
-0.473714750645184 -0.00112070835886885 0.63932806222646
-0.473468011601499 0.000795997933838976 0.649113535960849
-0.474683431172647 0.00583232290614024 0.654128343998815
-0.473861812427146 0.00491560211053353 0.659882986833731
-0.473358507303129 0.00581076654296612 0.668762743573643
-0.472830629028153 0.00752699183271436 0.680933422126163
-0.469521217548854 -0.000369296075074726 0.68863770734607
-0.471575980700662 0.00691281100457328 0.691451248947006
-0.472640352492793 0.0117326589995619 0.695652708622874
-0.468460386856856 0.00462419006650009 0.710110389058676
-0.467963561318897 0.00574102861849526 0.716966822109869
-0.468596202034771 0.0107235598554816 0.725010597164714
-0.469663408259646 0.0175925481798239 0.733750007409178
-0.46825775833284 0.0143211090339441 0.737111019673561
-0.46506070178764 0.0124649834017561 0.757547514355844
-0.465998068470194 0.0158159798600947 0.758906870843852
-0.465854566227939 0.0165879725032437 0.762064315561137
-0.463157553519001 0.0151171952540174 0.776267161571453
-0.462576243412986 0.0153763235778415 0.780359189880135
-0.463711261011686 0.0212587464204973 0.783425394657428
-0.463484753638868 0.0257984080922485 0.791158129556056
-0.459571410866768 0.0191788429963794 0.806512162754603
-0.460573713083726 0.0274483448033164 0.811810267521355
-0.457518539019665 0.0222709125276073 0.823890566865288
-0.458316841859645 0.0293518196019735 0.828688416071748
-0.456438499002759 0.0253909484162834 0.835035436843647
-0.454507225158688 0.0264611284187928 0.847286976525125
-0.454454484816746 0.0256516084249233 0.846643347975057
-0.45416607365892 0.0313825567744622 0.854601097932434
-0.45228226597517 0.0326110605609523 0.865670986364054
-0.452727851980058 0.0355091585559471 0.86665550279501
-0.450546683940672 0.0391457847472717 0.881974634487737
-0.449616252184254 0.0375585140074031 0.884963091344275
-0.446615740830353 0.0345569979375328 0.896992703017355
-0.44853506693376 0.0443083793854749 0.898146572512989
-0.444499146824759 0.0416867088782738 0.915926836277561
-0.445216654726435 0.0403749947741311 0.918650957762893
-0.449583542700985 0.0384700265564289 0.937314785663254
-0.447036910624804 0.0359127291357253 0.944297531727098
-0.446255917568078 0.037699262345899 0.948144120258906
-0.446519834954473 0.0411512230654334 0.948797103314489
-0.440061769078942 0.0467616195627515 0.957814027681503
-0.433283619888082 0.0548625921181789 0.96276862749205
-0.432125541376656 0.0580282662171572 0.963114433305866
-0.4198758341047 0.0730761760220641 0.963937856748693
-0.412648049109128 0.078273577740229 0.962799381047077
-0.411572371739108 0.0882615482487586 0.963005143730223
-0.391681038895419 0.113017765307827 0.955566163525615
-0.386785216404819 0.119925722921458 0.952206597492784
-0.134871273085713 0.433185677812247 0.67717517291135
-0.137504156380211 0.430653728152876 0.692656858879441
-0.149045739330419 0.424511894505809 0.708158614403595
-0.150298961773933 0.423136915921343 0.71490816528468
-0.150270058867614 0.419994413760722 0.737464081756149
-0.153155770058061 0.417550608185145 0.746702877364523
-0.172820983495192 0.402920089946926 0.77719684577218
-0.169922585997509 0.403676303872123 0.779847722555605
-0.167626099379644 0.400507456624952 0.798967659946025
-0.170633805527466 0.397818376258777 0.804818457267868
-0.165202459077589 0.396830897592132 0.820646997809138
-0.18478663582747 0.380347722874167 0.850523038827113
-0.174891690230627 0.384789083653947 0.851003800362928
-0.184216492332001 0.377114053684111 0.862209355301651
-0.237939785452643 0.318571881165784 0.930057601809466
-0.203500193107815 0.351466061150225 0.907365668628206
-0.213877207626781 0.336772817092416 0.926907514515206
-0.211025417697844 0.337662433277058 0.938026175160793
-0.219133603716975 0.341981457918195 0.955109608364883
-0.209796265260094 0.348497283876788 0.955975405466014
-0.203561538446283 0.352707527896197 0.956563392963041
-0.19650514160197 0.365694157757417 0.96148232410237
