ply
format ascii 1.0
element vertex 849
property float x
property float y
property float z
end_header
0.245491629134193 0.033110738027243 0.257419267389498
0.24179427892512 0.0331107380272427 0.2644133583669
0.242961863929 0.0331107380272427 0.281157157461661
0.251539549702959 0.0331107380272427 0.293615179458133
0.24430586199029 0.0331107380272424 0.298706671598441
0.251203064174394 0.0331107380272427 0.313562976750803
0.23869767085586 0.0331107380272427 0.315662772144079
0.243411872600093 0.0331107380272427 0.324817450745726
0.249158445327838 0.0331107380272427 0.338572938051599
0.236515255206411 0.0293946854046871 0.339447043949117
0.241709450580336 0.0223124696081889 0.349571075583313
0.235612783471311 0.0218474172924647 0.347948435576363
0.224368004664623 0.00455534515239012 0.344524329508966
0.223990278304179 0.0122345146458885 0.352127336443946
0.223990278304179 0.00796458179719335 0.366106134119732
0.223990278304179 0.0133115251812899 0.382535065287956
0.223990278304179 0.00834592933380392 0.386755988509677
0.223990278304179 0.0178770362808449 0.399762036818191
0.223990278304179 0.00947265227147121 0.406424811896783
0.223990278304179 0.00509602572969135 0.407992297762622
0.223990278304179 0.013729729494803 0.415863502109149
0.223990278304179 0.0145565335703187 0.431884325259316
0.223990278304179 0.0093733539085117 0.445774469454338
0.223990278304179 0.00697645496047804 0.446725322817813
0.223990278304179 0.00809069969702679 0.452541168235855
0.223990278304179 0.0166329321145789 0.471340908989006
0.223990278304179 0.0154831910037915 0.486110917346541
0.223990278304179 0.00998409705120911 0.491144194796041
0.223990278304179 0.0037686657480954 0.49054756587433
0.223990278304179 0.00544690640493286 0.508349169900041
0.223990278304179 0.00731801151836719 0.51669833063827
0.223990278304179 0.0077186107285576 0.522162407245305
0.223990278304179 0.0069748507939894 0.529715993280238
0.223990278304179 0.007795542891141 0.539706000026127
0.223990278304179 0.00307739883090606 0.551019952751872
0.223990278304179 0.0118511802077342 0.560374043305674
0.223990278304179 0.015631895536126 0.573402075852423
0.223990278304179 0.00657836374398294 0.57734803561875
0.223990278304179 0.00129001639413996 0.584618089774805
0.223990278304179 0.0117872935254584 0.598445980924802
0.223990278304179 0.012900987620974 0.608790122908231
0.223990278304179 0.00786356529833615 0.618387069602258
0.223990278304179 0.00767216946132158 0.624151034573215
0.223990278304179 0.00619483142397617 0.63008551832857
0.223990278304179 0.00813479081578332 0.64155707137179
0.223990278304179 0.0135754024448902 0.666655747386308
0.223990278304179 0.0118319931542186 0.667140230033648
0.223990278304179 0.00815128524961592 0.675881346862361
0.223990278304179 0.0137699544412769 0.684263232921983
0.223990278304179 0.00873882920986514 0.69195707711024
0.223990278304179 0.00830302751453217 0.704305690028926
0.223990278304179 0.00660579020340328 0.709615344588318
0.223990278304179 0.0109302211710015 0.724919705967866
0.24587418026181 0.0276316927841695 0.754021998853083
0.246705813816118 0.0331107380272424 0.770651073264062
0.247815321794057 0.0326622496467257 0.783319808320595
0.24754780739793 0.0306846257734285 0.784924020766057
0.235756043272499 0.0243062473892012 0.784887847922266
0.210654877955803 0.00135483536809233 0.771599379956733
0.207104760726968 -0.00593565549958835 0.77305909900413
0.205704818260445 -0.0165692742472588 0.772676768934455
0.206935964607049 -0.00721778932167577 0.787000701790269
0.206531399247723 -0.0102907683136443 0.793915679205235
0.202508095344878 -0.0183759009325303 0.797942419292939
0.194609704512858 -0.0261002861207442 0.802744593344041
0.188257047776695 -0.034391819013967 0.804657075898674
0.177010271006961 -0.0354005283061988 0.805407740167823
0.175374624835937 -0.0534300821285939 0.805464039355604
0.164816742200804 -0.0570045004005658 0.802432551768178
0.0789651777944536 -0.152559088055927 0.717399323923565
0.0732540500380383 -0.161045609806419 0.717399323923564
0.0615555651380187 -0.171678658023472 0.717399323923565
0.0488499123989702 -0.19136833066933 0.717399323923565
0.0450804022903909 -0.190233211338206 0.717399323923565
0.0317572021657647 -0.198968415963038 0.717399323923565
0.0152476110478223 -0.221426502057669 0.717399323923565
0.00544160923218105 -0.232033698671654 0.717399323923565
-0.00183851223035594 -0.238428727303715 0.717399323923565
-0.00569904595371918 -0.24901527269328 0.717399323923565
-0.027967702944527 -0.268307468502709 0.717399323923564
-0.0288485590030602 -0.276263365359224 0.717399323923565
-0.04436813248926 -0.286218793516841 0.717399323923565
-0.0506558522423065 -0.292117447128138 0.723179368934695
-0.0331807684584127 -0.284879030421243 0.73801832982674
-0.0452597280641773 -0.289882299309308 0.743677384778245
-0.0543218105731014 -0.293635936787847 0.750617694332105
-0.0412709884254948 -0.288230109254191 0.774733495944959
-0.0495985459424025 -0.291679496519136 0.770053383364229
-0.0427570346705213 -0.289631976021961 0.795471141148124
-0.0428709526825344 -0.29169966957275 0.797561288949823
-0.0503827646602199 -0.297646826787102 0.799800860401723
-0.0589745701456585 -0.310448780891544 0.804371080970822
-0.0618798955618813 -0.316993300064998 0.805434263405645
-0.0728491903630628 -0.324206347254136 0.805514892896338
0.205252332358465 -0.0200062458981724 0.11695737731051
0.204765113973992 -0.0237070369458323 0.131985748759128
0.203957006870295 -0.029845219802259 0.125017264034524
0.204517428607198 -0.0255883940893203 0.143747697674416
0.203942463394379 -0.029955688469264 0.150366016583316
0.227358698379336 0.00586107385808201 0.203455070670134
0.230591688036761 0.00159580824338478 0.209590720074277
0.25049479080323 0.0222718844479599 0.245275237796356
0.257528363315423 0.0250049822453653 0.26027834152764
0.256596527625134 0.0331107380272427 0.282955666217292
0.254517064229485 0.0331107380272427 0.288347451577727
0.262555213764949 0.0331107380272427 0.307605786846363
0.253615942084325 0.0331107380272427 0.303150714910482
0.258017362893799 0.0331107380272427 0.311735842661322
0.257977043021199 0.033110738027243 0.326941599237272
0.253979983168185 0.0331107380272427 0.334231331634173
0.260451045707878 0.0331107380272427 0.339793529027632
0.248790044632967 0.026847812767013 0.34678552921521
0.244751273569899 0.0234301499695981 0.349345419372733
0.234156368573469 0.0100394466539378 0.348002291054924
0.230876312230233 0.00514976762784848 0.346836834811513
0.223990278304179 0.000386405464736762 0.348067125748962
0.223990278304179 -0.0088131823810512 0.347379553718915
0.223990278304179 0.00104311341191006 0.365930797634008
0.223990278304179 -0.00535648908631326 0.380005874295266
0.223990278304179 0.00467114454193343 0.385887278698557
0.223990278304179 -0.000754534009574221 0.39427539754646
0.223990278304179 -0.00252998100120513 0.402823185984405
0.223990278304179 0.00251866817559431 0.412377499401588
0.223990278304179 -0.00666538521175297 0.418177111506962
0.223990278304179 -0.0111072056098577 0.42928425270767
0.223990278304179 0.0033142369977824 0.442477237232205
0.223990278304179 0.00155976143667223 0.454735712831228
0.223990278304179 -0.0049622815960323 0.457197601592878
0.223990278304179 -0.00669387240124338 0.473626228762492
0.223990278304179 -0.00441352772142123 0.473863754463982
0.223990278304179 -0.00855162326378467 0.4806670186223
0.223990278304179 -0.0131492119354559 0.487596995607941
0.223990278304179 -0.00893821423817148 0.497751884401167
0.223990278304179 -0.0137860504391224 0.512919416575387
0.223990278304179 -0.00892288689134797 0.52573574454926
0.223990278304179 -0.00162584686058676 0.538572190633502
0.223990278304179 -0.0129850782486823 0.53515809353814
0.223990278304179 0.00165286520781691 0.554655249770429
0.223990278304179 -0.00356606875415693 0.56821048985415
0.223990278304179 -0.00590451458067126 0.569737413986913
0.223990278304179 -0.00848247794666183 0.582737408715852
0.223990278304179 -0.000974964633773876 0.587556529739841
0.223990278304179 -0.0118325568548197 0.59588977844429
0.223990278304179 -0.00328266233782427 0.606965173370449
0.223990278304179 0.00243075541172403 0.622389956727771
0.223990278304179 0.00473346334743599 0.637040853262179
0.223990278304179 -0.00418366311584805 0.641277712961885
0.223990278304179 -0.00742025184835367 0.648983038764255
0.223990278304179 -0.00539466895285545 0.656414061513029
0.223990278304179 -0.0110249346278455 0.659699504832914
0.223990278304179 -0.0112577736156013 0.673421395956025
0.223990278304179 -0.00141593390780744 0.688211813348465
0.223990278304179 -0.00446923915617506 0.698218474285656
0.223990278304179 0.00280847875703877 0.715598240803962
0.223990278304179 0.000786589123480405 0.714062266885416
0.261858449009759 0.0331107380272427 0.768267396119071
0.253611435706333 0.0331107380272427 0.769298725628051
0.257747156901159 0.0331107380272427 0.779513968717938
0.255449025053546 0.0319066381876809 0.787515857122278
0.25286815875264 0.022565489733062 0.794252580461174
0.23644475395146 0.00810011029766423 0.787797315671214
0.231395645439797 -0.000856853857352068 0.785390237771864
0.204962719701145 -0.0222060724311067 0.771563403045265
0.20472094719522 -0.0240425169373351 0.782462204811521
0.204143391963784 -0.0284294844618433 0.789639480940612
0.204443602340584 -0.0261491602575758 0.788533985777046
0.201957237958877 -0.0313458943305726 0.796658371950556
0.193840964407788 -0.0381727416114037 0.802240728041182
0.184060936831175 -0.0510856716493171 0.805121639354473
0.178850744271145 -0.0589947955075104 0.80560413909177
0.170061971761 -0.0595714755544789 0.804616778436034
0.156521423035949 -0.0829475160801606 0.799541852543189
0.0728900733758639 -0.168893117794384 0.717399323923565
0.0671187800437666 -0.183814454420534 0.717399323923565
0.0505478901371778 -0.199521303036272 0.717399323923565
0.0494354739370747 -0.199396802489293 0.717399323923564
0.0317549410683378 -0.219592354271268 0.717399323923565
0.0247843526225569 -0.225234738706044 0.717399323923565
0.0159613487854263 -0.238182718393966 0.717399323923565
-0.000211345620337567 -0.251995561596108 0.717399323923565
2.77067063997997e-005 -0.255578588467716 0.717399323923565
-0.0179989351550798 -0.269763621979612 0.717399323923565
-0.0159629825599251 -0.27543365868774 0.717399323923565
-0.0355953920734058 -0.285879200270599 0.724763525604557
-0.0166772168280496 -0.278043035508623 0.74213894221894
-0.0147600733554011 -0.277248928681237 0.758604798516949
-0.0294368183147886 -0.283328235494906 0.759379193365935
-0.0277016167243237 -0.282609491462683 0.772174039930636
-0.0349338298101755 -0.285605172208816 0.769782390865082
-0.0178286473957737 -0.278492487272373 0.794657712653794
-0.0281707667411975 -0.286988399196585 0.79869037888286
-0.0312340319373088 -0.288255765571728 0.798689251874616
-0.0442036599017244 -0.310068866582443 0.805447739961811
-0.053600051197582 -0.313494448386223 0.805414575032395
-0.0610269378177948 -0.3251716085525 0.805232618021407
0.202861875142115 -0.0381635711305645 0.109048491860832
0.202457395490194 -0.0412358991101579 0.115491154733767
0.201839438369984 -0.045929749447478 0.11871658233778
0.202587734175075 -0.0402458785084214 0.131830544510571
0.201684532577865 -0.0471063757550482 0.1321686513815
0.221001648657982 -0.0174561974575756 0.190622725966254
0.202086607724673 -0.0440523118050591 0.156046221261764
0.259242990218941 0.0246364291760942 0.262216579410952
0.261575882276201 0.0274862176153015 0.269899673388598
0.273427369449697 0.0312819577963925 0.291186076414033
0.273475839241306 0.0331107380272427 0.306673923037834
0.269263387675103 0.0331107380272427 0.297302072785634
0.273793491563835 0.0331107380272427 0.320075440846531
0.271508594879147 0.0331107380272427 0.325313852578894
0.269630474896578 0.0331107380272427 0.3368763377516
0.265557534739791 0.0331107380272427 0.342975782775442
0.267301915608435 0.0293464234634082 0.353371645842063
0.263922250887494 0.024816655825085 0.3573921000178
0.2559378290488 0.01553652327948 0.357518119283556
0.243150424619315 0.00319786016132335 0.351198022370286
0.243581197741323 -0.00035788758259844 0.351351082919252
0.235924537930057 -0.00446139265744655 0.348630549779898
0.223990278304179 -0.0144906166224074 0.348364632495885
0.223990278304179 -0.0250115799948603 0.351825469468413
0.223990278304179 -0.0154462166350948 0.365055984717435
0.223990278304179 -0.0184145316383684 0.377636252128301
0.223990278304179 -0.024500448269471 0.38264322734772
0.223990278304179 -0.0256629670070629 0.38392825035456
0.223990278304179 -0.0206178785422949 0.398814559520259
0.223990278304179 -0.0167369556951921 0.405806098185424
0.223990278304179 -0.0157016850529343 0.431150444606413
0.223990278304179 -0.0235369723079203 0.42490069244003
0.223990278304179 -0.0160717166136126 0.444211796668945
0.223990278304179 -0.0153184101206382 0.457528306804399
0.223990278304179 -0.0214620469708308 0.456118816651776
0.223990278304179 -0.0156050970630562 0.472310329953573
0.223990278304179 -0.0114931819325281 0.485757874822815
0.223990278304179 -0.0119727601647474 0.494212815079502
0.223990278304179 -0.0140599689111289 0.498566552337472
0.223990278304179 -0.0217034095657822 0.503562239732114
0.223990278304179 -0.0216839575771585 0.516068464046576
0.223990278304179 -0.0167766791796341 0.527032893169365
0.223990278304179 -0.01514868694701 0.539282905196246
0.223990278304179 -0.0157754176281036 0.546496732470365
0.223990278304179 -0.0185535394640611 0.557540245953346
0.223990278304179 -0.0180250144302297 0.560330909575778
0.223990278304179 -0.0234750876636526 0.573166036966276
0.223990278304179 -0.013423579929763 0.586555460321833
0.223990278304179 -0.0125847865569378 0.599807003998407
0.223990278304179 -0.0125343349143776 0.607695460303488
0.223990278304179 -0.0134806284171112 0.612007318874014
0.223990278304179 -0.00872173989970786 0.626014193815345
0.223990278304179 -0.0181644412811484 0.623864992034477
0.223990278304179 -0.0225219985923103 0.635495847593491
0.223990278304179 -0.0273491361142822 0.641141498435178
0.223990278304179 -0.0137385977730488 0.666659828566391
0.223990278304179 -0.0202620413757119 0.666052897485223
0.223990278304179 -0.0149183721237618 0.683805812789098
0.223990278304179 -0.0193268552050229 0.685133467572605
0.223990278304179 -0.0125992956994245 0.697121334789894
0.223990278304179 -0.0132778913115578 0.709841740483053
0.270962297695244 0.0331107380272427 0.771845552905853
0.269939079468471 0.0331107380272427 0.78278024887413
0.263766228137837 0.0331107380272427 0.781622262663366
0.27253688219084 0.0293643900006685 0.795093308505801
0.262459070929942 0.0220798051603414 0.797742833939605
0.243033522799523 0.00383458149001396 0.790938400843272
0.228212481284853 -0.0134791468322771 0.783532318099127
0.212802720011422 -0.0255408107607008 0.773325474947948
0.200903258063147 -0.0530407448633887 0.758452906312219
0.203003182945219 -0.0370902318039726 0.775916142523304
0.201951766258986 -0.0450765344226137 0.780172506999598
0.19972175308605 -0.0469719035989266 0.796856286012099
0.199768711035675 -0.0500627580040128 0.796352428584083
0.19536383395152 -0.0581167471708108 0.799484680924013
0.187270519830358 -0.0638983361737847 0.80369031161096
0.176005848997982 -0.0715944025668944 0.805694625329542
0.172863939665237 -0.0832209781247566 0.805571708160821
0.159911015733249 -0.0951096931699931 0.803926768658684
0.0686962389583894 -0.184707175571504 0.717399323923565
0.0589842516495272 -0.201967620181974 0.717399323923565
0.0503012062309999 -0.205989387696347 0.717399323923564
0.0484446182915369 -0.226089147940504 0.717399323923564
0.0332551484402212 -0.236977863803493 0.717399323923565
0.0249599499808566 -0.244767291541579 0.717399323923565
0.0158736794446209 -0.259155978337518 0.717399323923565
0.0125665885273897 -0.264479720714046 0.726183764283094
-0.00242790809107831 -0.272140778575327 0.72182732235548
-0.00165453571319734 -0.271820437247644 0.73014189830295
-0.00324495641431257 -0.272479211071925 0.738079619134578
-0.00811461812117505 -0.274496290995077 0.744498188382529
-0.00475625841273809 -0.273105212856515 0.761388491885612
0.005977306031288 -0.268659224891194 0.778564513306041
0.0048665463409096 -0.269119316619486 0.787276755445954
0.00133759568319844 -0.273063661632094 0.797225886190716
-0.0112719499456058 -0.27819283345776 0.7971287776898
-0.0166932571130698 -0.287415833993476 0.802068566174193
-0.0233135265335364 -0.297405876530023 0.804745507093809
-0.0328287152630966 -0.306583388426972 0.805534906990263
-0.0524285974415851 -0.333389799122452 0.801128359175228
0.199659192784789 -0.062490358817968 0.0944107610725174
0.19939561730068 -0.0644924133854086 0.108707199769146
0.201501340060167 -0.0484978610747763 0.131046249072224
0.198763548728614 -0.0692934508412011 0.117166617924333
0.200023794133349 -0.0597209366251423 0.141079489386277
0.199752249719796 -0.0617835212211737 0.148701905137854
0.200829518480722 -0.0536008525998619 0.161310593061883
0.238478558895297 -0.0196489960110417 0.223899696351733
0.277067309566409 0.0287615189887131 0.292253785131503
0.284263503205456 0.0331107380272427 0.309316489841648
0.287367368257549 0.0331107380272427 0.322094967909047
0.280211213514282 0.0331107380272427 0.320426849688021
0.288031302090427 0.0331107380272427 0.337875075422398
0.277355561439101 0.0331107380272427 0.341082896001619
0.280599105738685 0.0331107380272427 0.3514540646055
0.280231257892249 0.0293381571123146 0.360423575477561
0.276512337128782 0.0286522718416952 0.359285732402813
0.275481227713629 0.0240918162894675 0.36462490082171
0.251314750730962 0.000527122967117799 0.355000421538488
0.245997069028895 -0.0101093445120581 0.352209480452937
0.232970921964647 -0.0213986192457734 0.347581083000273
0.22853530876636 -0.0260582548491922 0.346005039007624
0.224511421157237 -0.0308701669322761 0.344575287672251
0.223990278304179 -0.033233704889177 0.353428073147887
0.223990278304179 -0.0301155611855464 0.369421605008835
0.223990278304179 -0.0297636239904033 0.380328376141684
0.223990278304179 -0.0338184969257712 0.378132331160627
0.199173337433138 -0.0661807966034611 0.354658952039843
0.223990278304179 -0.0311512734000552 0.400780410918917
0.223990278304179 -0.0261900678983152 0.410827760758181
0.223990278304179 -0.0312940061120541 0.419751787793998
0.223990278304179 -0.0263571677710419 0.436545284794003
0.223990278304179 -0.02739062779144 0.442186192751171
0.223990278304179 -0.0329779369401966 0.445159212342701
0.223990278304179 -0.0330258011223752 0.462307584937417
0.223990278304179 -0.0338177891117066 0.468103861797232
0.223990278304179 -0.0340632235911577 0.475291080468226
0.199437195324984 -0.0641765969363034 0.454611868440983
0.223990278304179 -0.0318293008661825 0.497850188585985
0.199624370973216 -0.0627548567364439 0.477032170886467
0.199512562616383 -0.063604125522693 0.484112785484432
0.223990278304179 -0.0320076183246579 0.53430888214327
0.223990278304179 -0.0310404214762685 0.545090590485175
0.223990278304179 -0.0249355193215566 0.54649294678341
0.223990278304179 -0.0268010130061308 0.559224254242854
0.223990278304179 -0.0329365466208193 0.557743992773392
0.198587989967537 -0.0706269520226772 0.540370714305067
0.223990278304179 -0.03203350706809 0.592420093016757
0.199544422730865 -0.0633621239270822 0.561115962102333
0.223990278304179 -0.0294302941555107 0.607916449986323
0.223990278304179 -0.0228218122824157 0.614386025630495
0.223990278304179 -0.0278006705825402 0.630649090550543
0.224136572230387 -0.0340149715902389 0.630497780619367
0.199435625776553 -0.0641885188402539 0.608664847203032
0.223990278304179 -0.0259447344845653 0.653291837152335
0.223990278304179 -0.0281721288207085 0.66472587007026
0.199515110763901 -0.063584770420701 0.645212696511125
0.199619828621289 -0.0627893593247735 0.644612161932008
0.223990278304179 -0.0313677274233488 0.692121078740709
0.281496294475112 0.0331107380272427 0.768950529314608
0.283238392754645 0.0331107380272427 0.780753400689608
0.281412582561666 0.033110738027243 0.785339951480365
0.277258894882935 0.0296587878164362 0.796014246310119
0.272195379888269 0.0233756509887443 0.799836289279694
0.269154321164168 0.0159491503799295 0.800488990736139
0.260878744264884 0.00874456815399234 0.797817021221162
0.248502352935474 -0.00836037897022354 0.793545573995749
0.236883817652632 -0.0233825388742962 0.788006631935472
0.200476642033899 -0.0562812153220992 0.760284948061722
0.198960588111953 -0.0677967881348372 0.760310442875237
0.200516387690439 -0.0559793170879737 0.778873624385922
0.20109350678595 -0.0515956623447184 0.786866137605575
0.199527672363418 -0.0634893555995115 0.794657712653795
0.192276234244034 -0.0670064104567065 0.80092443220035
0.189360392420247 -0.0789733771576849 0.801715144238005
0.177455104716393 -0.0881174560909345 0.805390320584455
0.175742567334301 -0.0810588882550709 0.805619654696327
0.170123759661329 -0.095482477166858 0.805694625329542
0.150453096931135 -0.110560347683098 0.802786273660458
0.14769503382275 -0.118772618604242 0.803026292567331
0.140514931958641 -0.133063943926408 0.802447166299263
0.0541488317780898 -0.22142279233715 0.717399323923565
0.0381719699676288 -0.242583503162298 0.717399323923565
0.0245856554396389 -0.249512265750131 0.717399323923565
0.037066038791781 -0.245680631335531 0.736721096034042
0.0305804101689803 -0.250657229211814 0.73860960938285
0.0384283767938749 -0.244635272619775 0.754095486544585
0.0475756890391032 -0.237616293066541 0.776964429703472
0.0238139684162348 -0.255849302581284 0.769682520167163
0.0436274664267584 -0.241472635826959 0.795392141949481
0.031364223814943 -0.250055787847722 0.791720745090483
0.0315750425186857 -0.251898271913255 0.796438122587897
0.0152932680053774 -0.262331647195226 0.794657712653795
0.00910058279836496 -0.273556782876848 0.800218849801983
0.00622527378463314 -0.278802276604101 0.802552106897704
-0.00453159881463633 -0.29746607802316 0.805669248064686
-0.0143572391986712 -0.298606864965364 0.805511775713806
-0.0225949833494015 -0.320019097332329 0.801685345712165
-0.033077251631149 -0.326925161265139 0.800153047507431
0.197661820939741 -0.0735907613112218 0.0856487753433777
0.195331806867443 -0.0870865449222248 0.0838127846043167
0.198740571190725 -0.0694679825691265 0.104552226877879
0.197217125974798 -0.0810396978335157 0.107083210295786
0.197885066310967 -0.075966187277998 0.122238891379932
0.197799297279529 -0.0766176677512857 0.137439684908336
0.197837228545045 -0.0763295511852436 0.144683227925281
0.198061417079657 -0.0746266702014362 0.156991276247649
0.196917471971401 -0.0833157959622036 0.1571519057675
0.296373726598857 0.0331107380272427 0.318921197552688
0.295999128405221 0.0331107380272427 0.323428651055752
0.296637859558636 0.0331107380272427 0.336001557437742
0.293190605623029 0.0331107380272427 0.34518815031748
0.294994543208471 0.0331107380272427 0.351888245675237
0.287646048164881 0.0317435507328771 0.361349318957946
0.28625155218033 0.0300415237806059 0.362792112374579
0.288519250802543 0.0238438764137559 0.372046127213218
0.280363420010675 0.0176814400580244 0.370820133884821
0.272906272424949 0.0108467941660751 0.366759020840558
0.263965602025423 0.00108990751164371 0.361889991125566
0.245857565795731 -0.0155473424790412 0.35215991273304
0.196661046735899 -0.0852635389993786 0.288691498308002
0.197437527297121 -0.079365583583024 0.299827508560385
0.197565177771652 -0.0783959819661191 0.301446300970557
0.196934337449061 -0.0831876899409073 0.307402020229302
0.199012747615723 -0.0674005973695508 0.336944809135718
0.196935267439012 -0.0831806259659138 0.335917930504732
0.196152674484523 -0.0891250096185619 0.342357293481227
0.198331602451581 -0.0725744085514504 0.361392497529431
0.197912277558456 -0.0757594973329719 0.375228608151865
0.197556737041805 -0.0784600956745682 0.376233079234736
0.198259275701015 -0.0731237847645242 0.38232968190688
0.197161152354754 -0.0814648596881664 0.391089738671042
0.197460626576154 -0.0791901271393076 0.402160875125061
0.197974302353195 -0.0752883722432483 0.421932048914956
0.197900027520132 -0.0758525456119541 0.419714895243561
0.197936146347905 -0.0755781958773461 0.436910529208227
0.197008931316837 -0.0826210932629685 0.439681516968715
0.197281888728308 -0.0805477758821892 0.446501944321064
0.198009639360853 -0.0750199610219938 0.466379509421469
0.198486671480827 -0.0713965423347998 0.476495207435502
0.197827619462564 -0.0764025394130213 0.477207879964929
0.198394518348465 -0.0720965148689402 0.500104136272674
0.197744065039082 -0.0770371982688222 0.500943719656427
0.196279494223544 -0.0881617180643221 0.502070258922381
0.197462670007634 -0.07917460573624 0.523339063308497
0.19740436752948 -0.0796174570244594 0.533841046158844
0.198803813083094 -0.068987612705065 0.541180369527606
0.197758529423195 -0.0769273303637025 0.559503724120665
0.198546450895523 -0.0709424725997682 0.564817314283487
0.197511099147116 -0.0788067499008447 0.567128728915651
0.197203581937159 -0.0811425750131103 0.582097935610857
0.199046674776605 -0.0671428949977517 0.595956411866142
0.198228971391409 -0.0733539688488465 0.604072755950671
0.197576176407142 -0.0783124390353614 0.607155797323552
0.197166808613336 -0.081421896138778 0.610542682815515
0.198640474770782 -0.070228290362578 0.632648528871171
0.197576234229957 -0.0783119998274713 0.636094907472837
0.197841390037831 -0.0762979415093021 0.64228106388849
0.299356061595524 0.0331107380272427 0.77921779513814
0.29460454198017 0.0331107380272427 0.784814408709092
0.297593920613639 0.0305566398141864 0.798993774932462
0.29007666093189 0.0302821655659694 0.797934922757185
0.288856076563096 0.0219629834775551 0.804122714494363
0.276425350831302 0.0217021131285744 0.801994955036492
0.270092658043883 0.0059523650185774 0.800791955419796
0.251262701284788 -0.00862569501966875 0.794712249915159
0.250517346885549 -0.0116010951631972 0.794471594277872
0.198231089815827 -0.0733378778178603 0.755515833487639
0.199061828772325 -0.0670277889724373 0.762149119706409
0.197974834946711 -0.0752843267938561 0.761635661693637
0.197158257730352 -0.0814868465433698 0.766129451871839
0.198184772599592 -0.0736896920035651 0.789650006592415
0.198378578605585 -0.0722175892364764 0.792134057998732
0.19151671864338 -0.0777021591096459 0.800541803196083
0.191981388037513 -0.0862716489311582 0.799219667487444
0.180515068666366 -0.102340262573472 0.802858367451658
0.168663903601073 -0.102595547891492 0.805588954270045
0.164855047787638 -0.114397870635054 0.805512191158482
0.153284852998597 -0.122877327403956 0.8051769029207
0.147000077512768 -0.132812038230547 0.804706876352101
0.136246020516279 -0.148750868735932 0.803387450270943
0.123547144298436 -0.165167624874907 0.801709187851802
0.116461146157671 -0.172037549821997 0.800852630733844
0.0993156705303215 -0.185154495928605 0.795768825864584
0.0937340166398741 -0.196329435239826 0.798278924201423
0.0833871520958397 -0.207823623808859 0.797071200718949
0.067477605030342 -0.222565871990079 0.794853902921602
0.0553943282322396 -0.231616840204378 0.788451392537101
0.0606364630452568 -0.232988879875567 0.799031431934498
0.0514201944553003 -0.24381616477345 0.801239041891437
0.0442099372417365 -0.253758687836391 0.80314889017096
0.0281005914352418 -0.275138129156461 0.805359890469138
0.0186459111846174 -0.280489749067853 0.804992450100696
0.0117365952155279 -0.285679324340731 0.805361130856025
0.00176179348013008 -0.300146192797607 0.805143905941076
-0.0024488657443824 -0.308100864587293 0.803372078891443
0.190026015599445 -0.10560934116881 0.0926633578082462
0.190167403077888 -0.105268001600801 0.100722050207713
0.186103073581565 -0.115080160992779 0.0956750234252345
0.193796711612475 -0.0965060757145666 0.130790781430962
0.196353118943526 -0.0876024827947176 0.140925083245403
0.192828866583966 -0.098842660308668 0.141131407320971
0.308543812893774 0.0331107380272427 0.325654571276343
0.304865562608289 0.0331107380272427 0.333388523263493
0.298905322524407 0.0331107380272424 0.333929736864473
0.303673463083988 0.0331107380272427 0.352207283993969
0.307703850235112 0.0331107380272427 0.356847010287509
0.30610961036029 0.0305445692885746 0.373676864535802
0.306672879963393 0.0294370966594453 0.375668301452431
0.294338368272976 0.0241570785378934 0.37480993249375
0.302614301979373 0.0213586334101047 0.38436354564656
0.278294412696357 0.00401670236930477 0.369693366243942
0.27783634962628 -0.00584023339977592 0.369443908138467
0.263852871518048 -0.0129234493750932 0.361828598840014
0.193322218940206 -0.097651602359205 0.275912687816136
0.196082711567331 -0.0896564307345672 0.295445071312334
0.190971877435783 -0.103325828695393 0.287501426316778
0.19647164228807 -0.0867022086129444 0.31817508009365
0.191231804730657 -0.102698308694875 0.299261183036462
0.188512318004031 -0.109263730432989 0.304827567465856
0.195963639562428 -0.0905608724055124 0.337917763765582
0.193154812915464 -0.0980557562545599 0.340889157920697
0.193083224357119 -0.0982285863230265 0.360250965721986
0.196212615369406 -0.0886697133956973 0.370429389502925
0.192302004287363 -0.100114618410631 0.363004075198038
0.193114182552705 -0.0981538466273766 0.385498103447034
0.189471191584433 -0.10694880483058 0.377333344064271
0.190962214249283 -0.103349157691296 0.401544773323836
0.195097562819251 -0.0933655430885386 0.411251285320415
0.195825885846781 -0.0916072157576839 0.426111009068575
0.194827351519612 -0.0940178908728324 0.437643162568198
0.194647912651918 -0.0944510946208363 0.444591401593599
0.188557720762962 -0.10915411847661 0.4350197986392
0.18967074857378 -0.106467031640432 0.455122630496348
0.189249696311274 -0.107483541723045 0.456245203650983
0.194640624911413 -0.094468688782802 0.478632599459034
0.193065697946121 -0.0982708988221581 0.480656795810417
0.191889574610423 -0.101110311730223 0.495484975545594
0.187788022549278 -0.11101233434302 0.50040039000728
0.194732793379464 -0.0942461744172099 0.522912812979138
0.191799354772267 -0.101328121687095 0.524899086106349
0.195825885846781 -0.0916072157576839 0.544970019119098
0.191369044491107 -0.1023669826039 0.547123884561507
0.189378624324036 -0.107172281966063 0.55259011128894
0.193928976426763 -0.0961867602060872 0.568484110436756
0.189994403141874 -0.105685660392616 0.570402093046777
0.195825885846781 -0.0916072157576839 0.589576095614569
0.196461851579144 -0.086776576430538 0.600889499559641
0.192842065905876 -0.0988107943266978 0.608453523547865
0.190230670870894 -0.105115259636867 0.602376753946419
0.19376177828077 -0.0965904122377486 0.623863796182265
0.196548748445902 -0.0861165291974765 0.639214192459344
0.298402666126472 0.0331107380272427 0.774762078096235
0.303907783954591 0.0331107380272427 0.792261074036982
0.307499751771146 0.0292214018568417 0.800607804070194
0.297396507667756 0.0261694492002915 0.80228476322061
0.29515584884162 0.0191621349399077 0.805769138920891
0.287096551306477 0.0119667921925268 0.804259184897724
0.279590527187029 -0.000319878028332188 0.80285288971285
0.26833216277204 -0.00735333455593377 0.800223537078106
0.196070118204331 -0.0897520868233651 0.734816545187662
0.196057135015911 -0.089850703930198 0.736981799949981
0.196118858150513 -0.0893818701766968 0.752160283428722
0.191006435919877 -0.103242397134396 0.748093873678502
0.191963913031216 -0.10093084290654 0.759896170981605
0.193846459685762 -0.0963859732413341 0.762617512869847
0.192252225370049 -0.100234795347929 0.779937381743544
0.19483023816673 -0.0920214880022293 0.795510165625114
0.193118632376889 -0.0962622224143182 0.795463651939776
0.183020562746839 -0.115040550585755 0.797863440780938
0.176911189959336 -0.11084543735023 0.802888546444819
0.172446082090061 -0.126040651811603 0.801931604580593
0.158146568598237 -0.131751344228544 0.80547809966169
0.151430299798251 -0.144074776307656 0.805592675379971
0.140726365853797 -0.155774234387064 0.805380149483545
0.139181565840075 -0.159037814815646 0.805366430794278
0.117072976122697 -0.179310767281552 0.803457715103482
0.116975645171832 -0.192533786846938 0.805481677824797
0.105423806151497 -0.195935025835802 0.803812264170895
0.104313655109049 -0.208941023728973 0.805477265835099
0.0894603775063205 -0.225453764680652 0.805298162993412
0.0828383476020704 -0.228797076021495 0.804543520391158
0.0714031875070738 -0.233958049239729 0.803490117758794
0.0680788135808789 -0.243786755042819 0.805220930299172
0.0545629955289821 -0.262515540837484 0.8055603681725
0.0420836643293807 -0.269131132201365 0.805648181024375
0.0272814117418642 -0.286343092944564 0.805383724960198
0.0251625298000013 -0.291399649505443 0.804780931463859
-0.00923223112019435 -0.319440741016518 0.798330694652659
0.185705417060383 -0.116040188759381 0.0882953014059772
0.188316927227319 -0.109735445496089 0.11297747816766
0.182489544110777 -0.12380399284919 0.10313750853867
0.18860101252325 -0.109049602921782 0.138524659368262
0.323246330924462 0.0331107380272427 0.331808368223959
0.317230141523861 0.0331107380272427 0.339070358282749
0.314541018450151 0.0331107380272427 0.352272630471215
0.323397148058877 0.0331107380272427 0.358585433883582
0.314213110422393 0.0331107380272427 0.366359175489877
0.313476366524769 0.0328220282482407 0.375668297792569
0.307989894479022 0.0263226118198016 0.381078051946603
0.307777592014055 0.0235041477147515 0.384971101653923
0.30618561411393 0.0147089231937857 0.386913380222376
0.290126477012498 0.00826189147117417 0.37613702988107
0.29216542982062 -0.000503688676284031 0.377247430037499
0.27827323991096 -0.0184314581210164 0.369681835685646
0.265608071034359 -0.0297425602237934 0.362784468838433
0.185942106472912 -0.115468769969585 0.271445030412686
0.183500402172016 -0.121363565608114 0.276438641513232
0.183143475540597 -0.122225262722455 0.278986361969355
0.181505300129955 -0.126180168016375 0.286028865609607
0.181353489031837 -0.126546672428371 0.298210783571799
0.184767936947242 -0.118303465962982 0.306786970106446
0.183701255006967 -0.120878663969934 0.328196388732728
0.183350280451309 -0.121725991502252 0.326458016534982
0.184334484997105 -0.11934991153964 0.348212242831415
0.18201066666761 -0.124960105267199 0.3424368809437
0.184354750116112 -0.119300987214491 0.355805047400493
0.183112112158909 -0.122300980623889 0.369531813673828
0.184856140349207 -0.118090524113712 0.386630259132693
0.182041745797587 -0.124885073610103 0.387615241463873
0.182509236219039 -0.123756451894352 0.393127363574199
0.180620001318606 -0.128317468413486 0.4084442766291
0.186974611400071 -0.112976082571221 0.422039837434281
0.182380254870751 -0.124067840414682 0.424205675365776
0.175155911503875 -0.141508948150235 0.419823860993993
0.176210085438653 -0.138963947139794 0.426965174612982
0.187409306765965 -0.111926635123378 0.464382781016076
0.186829243928431 -0.113327030692781 0.475915994116671
0.177041895937522 -0.1369557789521 0.467135836165632
0.180572735146684 -0.128431579046783 0.481978910510483
0.180839256393548 -0.127788139837942 0.489068481756404
0.183062741633686 -0.122420171615464 0.500606548596456
0.179205600000317 -0.131732135258739 0.514923754236647
0.183792374973059 -0.120658680911992 0.52305338522903
0.179178422069062 -0.131797748588971 0.527555525902955
0.183716438435465 -0.12084200793093 0.544826778509018
0.180254812959 -0.129199111104068 0.555033519679068
0.175039715993962 -0.141789468926153 0.553637706653169
0.182925671526659 -0.122751088126844 0.57000664941354
0.183955436431851 -0.120265015726674 0.584794792899752
0.184554709533067 -0.118818242478153 0.5974728464197
0.180950383926468 -0.127519854240813 0.591860115351785
0.317350151246175 0.0331107380272427 0.77756444234341
0.315905576144996 0.0331107380272427 0.791779166018189
0.319763780232887 0.0331107380272427 0.795298998166377
0.318133119041969 0.0280060736224235 0.802176261196976
0.306019498057054 0.0251540064553998 0.803579185888517
0.297822459282006 0.014791881654098 0.805933005902465
0.300621389655642 0.0056610856206067 0.806105004131009
0.283151063255976 -0.00223730471300146 0.80351997586254
0.268750082284852 -0.0193906419879312 0.800358472468295
0.181310270890844 -0.126651010250496 0.698800990256747
0.188677906373815 -0.108863964744886 0.723096980660981
0.177704214028997 -0.135356801633055 0.708757174713855
0.181550583378241 -0.126070844584215 0.724580049187202
0.188241728537634 -0.1099169911926 0.754597298220666
0.182709389928062 -0.123273238095471 0.753051068598826
0.186736943944162 -0.11354986256661 0.764013316167932
0.183445539593267 -0.121496015589795 0.773394111860627
0.181794605189493 -0.125481723817974 0.78233988732537
0.184428950743794 -0.114926715614926 0.796455287175228
0.179960423517428 -0.119019956562488 0.798938807219766
0.172197469904777 -0.135075886282535 0.799786088808887
0.166182612089757 -0.13665863806928 0.802902121792697
0.156827256457386 -0.154591482667909 0.803620916280688
0.153932808178692 -0.159380155006482 0.803960640913535
0.149059598280706 -0.172166863482122 0.803640238771012
0.12799809571193 -0.181672968263817 0.805645806494691
0.129926217946033 -0.185761634743228 0.805434222865118
0.116797150439458 -0.198662615044381 0.805631385771448
0.105594610896383 -0.218998601504786 0.805362677259241
0.0949802587032634 -0.228362018255737 0.805572034063576
0.089928588581022 -0.237138073955532 0.805452959093869
0.0785397415986736 -0.242280280184137 0.805672523449426
0.0728015198635134 -0.250694404568237 0.805427670077361
0.0616213118638901 -0.267829768273172 0.80365238087701
0.047873003386982 -0.271253335129114 0.805286918112621
0.0301165385498879 -0.289702769514862 0.804389443013177
0.174995958950068 -0.141895107774971 0.0953718899428275
0.334995090240112 0.033110738027244 0.33755917752372
0.3321833238108 0.0331107380272427 0.348676528806585
0.33498197351031 0.0331107380272427 0.363169345428997
0.333449654682365 0.0331107380272427 0.361621744931047
0.331422188617088 0.0331107380272427 0.375538342900992
0.337740449808298 0.0331107380272427 0.388207839792884
0.327701723841247 0.03217047157354 0.386759889668131
0.325847691331896 0.025839816452241 0.394520941527924
0.318574338544064 0.0160767386989986 0.395758644011159
0.310334794687148 0.00588640040163554 0.389875799548464
0.283186619224766 -0.0140598978845933 0.372357629424918
0.276395728931501 -0.03106174777637 0.368659355676799
0.271259507252622 -0.0324411242481648 0.365862203465644
0.171118995062959 -0.151254926572061 0.23902255269459
0.172765025597672 -0.147281057331077 0.242000609660449
0.166355495796078 -0.162755031106518 0.243459623061494
0.172407212353016 -0.148144894919122 0.26226122487687
0.17427455465931 -0.143636731797673 0.28493788696196
0.168948954042832 -0.156493869033758 0.273479236642781
0.162260453426845 -0.172641337932813 0.273946306070202
0.164863811288262 -0.166356276076071 0.288341363534201
0.168970406569845 -0.156442078052095 0.31504464176142
0.166013261902493 -0.163581256813917 0.31068426829004
0.165622176468992 -0.16452542057152 0.322909942315703
0.174570953910329 -0.142921160705988 0.350216981258943
0.166386070038349 -0.16268121835617 0.342935312171467
0.175230668024147 -0.141328469945119 0.374862951941632
0.171222708728052 -0.15100453963519 0.373962136370083
0.17131395168933 -0.150784259640601 0.378512561668894
0.171431280559837 -0.150501002690167 0.393703431986947
0.172975634976975 -0.146772601311201 0.408863702406089
0.17535618365072 -0.141025448417155 0.417975391007367
0.171500034709723 -0.150335015489041 0.431583366871202
0.165980962776135 -0.163659233802822 0.420030114405043
0.174726477479853 -0.142545693595173 0.44983902320847
0.172754272336873 -0.147307017999137 0.457727850506488
0.173944191767572 -0.144434298371412 0.469818179475431
0.169776206103764 -0.154496705888753 0.478029164300136
0.168791547291741 -0.156873882547051 0.480832136418272
0.172008223193463 -0.149108139959355 0.496586864759322
0.176023658723838 -0.139414021043088 0.513028709939919
0.172568219269091 -0.147756189838698 0.507717279883136
0.171540137436226 -0.150238198942829 0.521378683869693
0.163001879811282 -0.170851376300006 0.516645120154536
0.174110211241427 -0.144033491906014 0.545665286479055
0.168670641811785 -0.157165774196525 0.549472216453735
0.173962157679087 -0.144390924824172 0.568466586247499
0.327029502290398 0.0331107380272427 0.773390051488321
0.331508846472425 0.0331107380272427 0.77540278129365
0.333763030454041 0.0331107380272427 0.795834110521352
0.329944444808172 0.0313882047070947 0.798974128872394
0.327690451195693 0.0279360733703037 0.801711752624028
0.317357517725158 0.0240660728930209 0.805095029343008
0.31386214391448 0.016509298167411 0.806918667199787
0.304576620385576 0.00106245719952718 0.806348058651208
0.305161799863356 -0.00305431478318621 0.806384018757435
0.291791944035764 -0.0112446573076122 0.805138892727224
0.173581140179436 -0.145310782439332 0.683099478790381
0.168949611690609 -0.156492281331575 0.673349483405928
0.166935862685868 -0.161353901490037 0.675113881501485
0.16728536517538 -0.160510127839773 0.691656391572583
0.16338260059206 -0.169932235027574 0.70038702912288
0.171376121883265 -0.150634167515228 0.725121592778902
0.173405307335738 -0.145735280475298 0.738841302713875
0.165441303966982 -0.164962085418934 0.732897290864291
0.167581574052316 -0.159795016351777 0.736485459522847
0.172764341380886 -0.147282709176521 0.758202655323474
0.164734736487347 -0.166667890211002 0.756247776450122
0.174973162261681 -0.141950143849252 0.792506848887925
0.168582897964904 -0.15737760658168 0.78848995689982
0.167846157108239 -0.159294517691566 0.794657712653795
0.161622126170078 -0.162191927136077 0.799286047963268
0.15867842071098 -0.171761602715175 0.798508983440778
0.147745141860056 -0.176779533055736 0.802927673877215
0.13591777501434 -0.19064388080964 0.803308422112645
0.133327915930178 -0.196562410082759 0.802634653475656
0.114202632581189 -0.218185119108691 0.803494814677589
0.113095074201161 -0.218147599929334 0.803858739494063
0.105517740251213 -0.237417999201072 0.800963844159739
0.0911826530272319 -0.251069933369022 0.801266731668878
0.0824773985213236 -0.252224771380622 0.803524776761338
0.0638497347158633 -0.268819550295637 0.802788488176347
0.339039351125506 0.027411945232443 0.334692578972526
0.339957639700558 0.0331107380272427 0.341211265291589
0.344703282454794 0.0331107380272427 0.358697914958696
0.345888449594045 0.033110738027243 0.368912817914426
0.343337299544042 0.0331107380272427 0.376402403619967
0.338714086610329 0.0331107380272427 0.382794836225121
0.341308264077416 0.033110738027243 0.395929062358833
0.341554016138138 0.0313784341904842 0.398797979694641
0.328460733455588 0.0240990096276483 0.398884733202922
0.324865944902995 0.0160849858071725 0.400250705983621
0.32383811556227 0.0130615151174029 0.399516859517035
0.314873952337694 -0.00786000262172017 0.393116653522121
0.294197139819394 -0.0183162253332558 0.378353885808064
0.161474002618515 -0.174539998140423 0.204855916496261
0.133356049197195 -0.212302996038158 0.180608588155149
0.142525995612676 -0.200352489201908 0.211905459686954
0.126934292265899 -0.220671992609242 0.201493392465573
0.1243275291776 -0.2240691924069 0.210887305235928
0.14671918448071 -0.194887819075971 0.247814048410778
0.156003603457859 -0.182788128692863 0.272938353293572
0.160466820384495 -0.176971551149576 0.309373820613131
0.161468769395773 -0.174552632257744 0.314999702071536
0.163178912126584 -0.170423982483424 0.334106829209709
0.147614722583207 -0.193720731098452 0.330221130613779
0.104218670089086 -0.250275567789939 0.277151986204447
0.130248340673792 -0.216353040637252 0.316214798932201
0.164252450866456 -0.167832230697893 0.384632211557802
0.11742433631105 -0.233065608504204 0.32355044383222
0.163505431936669 -0.169635693929534 0.409774506733401
0.1455271029619 -0.19644136995778 0.394472893189159
0.104218670089086 -0.250275567789939 0.342086879110092
0.141298641521442 -0.201952008195066 0.405211716282706
0.146649920645228 -0.194978085463793 0.418580340084878
0.125075755888678 -0.223094084372385 0.39360875671577
0.165666175679442 -0.164419197080918 0.474580075851743
0.132082107905289 -0.213963228653279 0.4718815783708
0.128681215310494 -0.218395358173125 0.479442661021057
0.146051412829503 -0.195758076035089 0.514747586135339
0.340796825897599 0.0331107380272427 0.772399848262348
0.337073299324137 0.0331107380272427 0.775891517011294
0.342815952396607 0.0331107380272427 0.783158789231067
0.337516436331131 0.0331107380272427 0.793566163538073
0.341740480251663 0.0305635857465237 0.7987651529724
0.336552301900034 0.0234176383516732 0.804569112987666
0.334128326457347 0.0212116586965663 0.806378953688381
0.319789102608454 0.00711039162168146 0.807149461878024
0.31996151337612 0.00456210514396822 0.8071388669926
0.307752840944684 -0.0038568182629796 0.806543241895056
0.299902088654984 -0.0162738867656926 0.806060802067583
0.295676482338865 -0.0219672422560213 0.805801132585361
0.150789789949482 -0.189582902746242 0.652434711957907
0.132552614981722 -0.213350051893172 0.640856143865248
0.12731409591647 -0.22017702285512 0.637740880514362
0.163420780153126 -0.169840061413443 0.699158292279365
0.161681789789673 -0.174038355533727 0.701321857693865
0.162099791416417 -0.173029210337347 0.713211455395353
0.112607441598271 -0.239343107912202 0.666085348798951
0.161485463296667 -0.174512329615796 0.742970013088836
0.162140620434849 -0.172930640367311 0.749180988730843
0.161483102704264 -0.174518028589989 0.757150643778292
0.127005447074589 -0.220579261857158 0.744326980804004
0.131592225712753 -0.214601655556297 0.75773142248194
0.133880761642144 -0.211619177466455 0.765096276059079
0.131983299810823 -0.214091997869031 0.77536784555651
0.118671547777638 -0.231440210875649 0.765651273088058
0.117700817695649 -0.230166348703972 0.796388330613911
0.105192344384016 -0.249006650743903 0.785095765911185
0.0979984196600256 -0.254780177399956 0.794896098186355
0.100027231626475 -0.246084129327325 0.800348203969746
0.346420306996885 0.0250372418401176 0.337564658149795
0.357648637074426 0.033110738027243 0.354575675808004
0.359304427760941 0.0331107380272427 0.366799181477293
0.35461251056337 0.0331107380272427 0.371293364700942
0.356606201105978 0.0331107380272424 0.390949196153611
0.352092765422733 0.0331107380272427 0.392474453448341
0.352776192173778 0.0324925399012042 0.407393432205153
0.357926367113375 0.0331107380272427 0.409853640358701
0.348407902922622 0.0272587603843738 0.411931664125593
0.349411136208583 0.0241380059562484 0.417989422394236
0.329464441355164 0.00184255551450722 0.404024095991203
0.320636397998879 0.000214580431853129 0.39723090694903
0.307783174421365 -0.0288205116470681 0.388054001471759
0.35851396589047 0.0331107380272427 0.757616185924475
0.354676945697274 0.0331107380272424 0.764113947339318
0.349200344710571 0.0331107380272424 0.774931482414508
0.358736577791383 0.0331107380272427 0.789650964785365
0.357461386039434 0.0303741064731102 0.795965897069829
0.348732819197451 0.0302207569582016 0.79771951885396
0.351371660969695 0.0271610990338538 0.799584990874304
0.340427145762942 0.0231096548279537 0.804562879414433
0.337801727125339 0.00842821306793484 0.806042560635494
0.325879680811913 0.00583858397315313 0.806775187236657
0.318461123640048 -0.00992835103346008 0.80720128100589
