ply
format ascii 1.0
element vertex 851
property float x
property float y
property float z
end_header
-0.20995277126935 -0.309293046489344 0.290130459382252
-0.209455184938453 -0.310109336953076 0.301990265972608
-0.212726418013315 -0.308645666830844 0.299877891692173
-0.21250826238954 -0.309829591099831 0.321132851624649
-0.208208070938684 -0.311701523999812 0.322896424304521
-0.215128555671221 -0.309457051052428 0.334987568116856
-0.204462130482695 -0.314485726095324 0.346853470190054
-0.212918434128071 -0.311662548830084 0.360061291230889
-0.204712296947256 -0.315712501485699 0.372711693021539
-0.207889379711487 -0.315049102702276 0.385395771311252
-0.209503986278048 -0.314447214926828 0.386696151411765
-0.21225859021201 -0.314464641977349 0.409211762264459
-0.207794598153047 -0.316563635303852 0.41406985254147
-0.210716571739321 -0.315666576771529 0.420158567801586
-0.214384944710008 -0.314949117613656 0.435747205310836
-0.213285781312778 -0.315867599534698 0.444750048097802
-0.205346150320033 -0.319341023207519 0.448340367297194
-0.207583001828255 -0.319335396120399 0.466239542531962
-0.212497559314933 -0.317703504553807 0.474087689751921
-0.209490989387627 -0.319733520805143 0.489338590244695
-0.214442882492923 -0.318273594549405 0.50082971771376
-0.211241769789523 -0.320191148988118 0.51232852480785
-0.214242414002984 -0.319145662070003 0.516165682692018
-0.208693701083632 -0.322048661334952 0.52791788248786
-0.207252832752531 -0.323255630135783 0.5397768754577
-0.215786839507708 -0.320059332728799 0.546358137376064
-0.210760653785895 -0.3232074008196 0.567080393432246
-0.208424358955525 -0.324479303381619 0.572992528480288
-0.208404427670522 -0.325133549247698 0.585548288642625
-0.211674133654432 -0.324277878038334 0.595240966773282
-0.207795603912374 -0.326746942886521 0.612005404178601
-0.210901229209465 -0.325734279859948 0.617325728814744
-0.208679070932122 -0.326894826572585 0.621992396061427
-0.20729629654979 -0.328154253813596 0.635338700831521
-0.206886045896233 -0.329162779423142 0.651638004262729
-0.207796450151903 -0.329099542699977 0.657738430199544
-0.206544108835074 -0.330091760485114 0.666941225423847
-0.213066507471565 -0.328205447418217 0.682788799911487
-0.209320714282345 -0.330439540274328 0.696054854979709
-0.210670427389899 -0.330209096596069 0.702442177249247
-0.215257519770297 -0.328642873810303 0.708930322150254
-0.209249192358352 -0.332222307316386 0.730129724009642
-0.209980986925433 -0.33247799198664 0.740990893968757
-0.210689040331507 -0.332228857595638 0.741849031822738
-0.215439411596953 -0.33103161069754 0.756823295023912
-0.215058472705393 -0.331498759568771 0.762836135394274
-0.206463211207331 -0.341078692856182 0.775645644410666
-0.216655028308568 -0.356900363198364 0.775645644410667
-0.210532003162575 -0.363485286998001 0.775645644410666
-0.154338204461473 0.354827390613552 0.347574578711172
-0.159191417576134 0.354454871983504 0.352620283103308
-0.158244293191303 0.35490894164591 0.358858373892369
-0.157820738330721 0.355696739691786 0.372722389759319
-0.157502687610427 0.355909096550001 0.37595119603305
-0.160254750700939 0.356675291656003 0.397324046267713
-0.158474237003855 0.357016603058052 0.399348667426398
-0.157309645135571 0.357474857123591 0.405123780914805
-0.159999490492534 0.358053983526912 0.422798609037505
-0.158947620391214 0.358464148659191 0.427944023538508
-0.161525340271533 0.35907304248806 0.445903046727326
-0.162708913014572 0.358990208539152 0.447285334004593
-0.158869103959884 0.359921357502487 0.455346304374828
-0.158751332561084 0.360527602359797 0.466534317345595
-0.158561694210407 0.360922661109686 0.473543490114019
-0.15459198336621 0.362228327855723 0.488373553262876
-0.159420862598536 0.362024997922928 0.496562845981713
-0.153691374444009 0.363532203827039 0.510822089751685
-0.154795939869768 0.36388041781231 0.520170991737755
-0.153775446025057 0.363903361401069 0.518061057138493
-0.156657434226709 0.364115247605279 0.529259812118719
-0.155246049012865 0.364746730695146 0.537700361155857
-0.159909433778887 0.364671572811237 0.547904463925596
-0.157165462619325 0.365497411092562 0.556703280220478
-0.158099614183396 0.366142374133473 0.571247403175566
-0.156865943093782 0.36627088700923 0.570605314812636
-0.158664289298709 0.366878001337911 0.586587373677911
-0.158490107806629 0.367225834846773 0.592740688071692
-0.154790930350878 0.368465287599822 0.60699126391143
-0.159644466301726 0.368331674794399 0.616562406173851
-0.160537393828266 0.36841079008419 0.620287162667732
-0.157796938844151 0.369561743958365 0.63525210417062
-0.159346929006713 0.369372946366509 0.635541160073554
-0.160041483812722 0.370074800321034 0.650565336998732
-0.160342218728953 0.370538013602364 0.660087966294277
-0.155651781608642 0.371816572498219 0.67260760129958
-0.155927360104945 0.372117121766367 0.678986815790631
-0.158748271173519 0.371880693385567 0.681542661736214
-0.158280134724376 0.372356359715132 0.689384062758885
-0.16065272175309 0.37262135357894 0.700318500069571
-0.158969092526323 0.373622744946055 0.71508593154741
-0.16112196410809 0.373756633554187 0.722989538260496
-0.157972353422716 0.374711856320268 0.733227357817703
-0.160060425923042 0.375340111896098 0.750332203531547
-0.161718811117253 0.375516066482201 0.757799562365861
-0.155777415716521 0.376572737808265 0.762997778293855
-0.156097643723723 0.376613480606778 0.764567850430788
-0.161023478487358 0.374082580008311 0.775645644410666
-0.153980054354874 0.368285620266645 0.775645644410666
-0.157596278874941 0.344487628196585 0.775645644410666
-0.201213486082386 -0.310233823418552 0.238057198110846
-0.201218576824902 -0.310017342227381 0.233890554795887
-0.197396440163688 -0.311429155789823 0.250740748771896
-0.203214824265201 -0.310779295010013 0.264771699585215
-0.196641234742827 -0.312683004264755 0.274819594690318
-0.201062026869931 -0.312578689717541 0.284783279531895
-0.197837302085052 -0.313397251135296 0.293001671319917
-0.200426861710404 -0.313847519565623 0.309504235075449
-0.194665155510153 -0.314757678905547 0.312666631955413
-0.193512428135642 -0.315599335693915 0.327056435831932
-0.201119690120104 -0.315435198877629 0.344522379717951
-0.201047311641843 -0.31550597126881 0.345799791724531
-0.202907337230066 -0.315577605548469 0.355558341671414
-0.200966370114762 -0.316744459540705 0.371409780449311
-0.197436777423954 -0.3173685223153 0.374734175420177
-0.199421916087273 -0.317900191436333 0.391274849910649
-0.200960240176647 -0.318424210562351 0.406429011734541
-0.197903127375053 -0.319176528110166 0.413725957502356
-0.195584121522361 -0.319753031345793 0.419382624337538
-0.198158601418836 -0.320098248138751 0.433652623633218
-0.204622496069665 -0.319515254000693 0.44590076864427
-0.198825004850037 -0.320746342846783 0.449000452012881
-0.195134677606339 -0.321887315693153 0.462665124989055
-0.203381486398538 -0.321097562857054 0.468838229358321
-0.197334946291835 -0.322845742302244 0.488697806371275
-0.201621675955725 -0.322694782810684 0.497320441389858
-0.204077066447928 -0.32255084223171 0.501060630714707
-0.19756768601529 -0.324101987231221 0.515539528183534
-0.201552882581969 -0.323882484477454 0.521904487380151
-0.194885226235544 -0.325580861694633 0.539019713800549
-0.19827021310287 -0.325935553118613 0.555712980769524
-0.205061350495241 -0.325512418563466 0.565997569269741
-0.194476703371973 -0.326919420291517 0.565817422265181
-0.199440522935419 -0.327163662465857 0.584542415077374
-0.203421253687584 -0.327294408969049 0.598200572071599
-0.200633610663455 -0.328173683213446 0.608885529053603
-0.194779888074124 -0.329011435007342 0.6102849808127
-0.196629500349145 -0.329447009104221 0.62444916116694
-0.201165973108613 -0.329330737449739 0.634481104227253
-0.199496414284907 -0.329789668176012 0.639468833755402
-0.203845516546331 -0.330452147156153 0.665229354661571
-0.1951340859697 -0.331964529424955 0.67285292799213
-0.19971379961332 -0.331732790039394 0.680595196865864
-0.196588882749535 -0.332412737127672 0.686196457950343
-0.196294864723955 -0.332990199470147 0.69743373308409
-0.199314633110257 -0.33328376176337 0.711849087730046
-0.199384853341816 -0.333792319717741 0.722649358509451
-0.197566281340349 -0.334693184968294 0.736445721050044
-0.20217354681372 -0.33461609402578 0.747489287467943
-0.202203265047472 -0.334848759693226 0.752423808721754
-0.198093545436004 -0.335899210147907 0.763048726797047
-0.199320828081499 -0.346870507203853 0.775645644410666
-0.201787205209645 -0.349796871134871 0.775645644410666
-0.151258991504327 0.355007054176966 0.343299624280186
-0.148669753564993 0.35608415370338 0.357242878841447
-0.148903467664987 0.356513027499242 0.365948045964834
-0.152361598925515 0.35657103906615 0.375669106545411
-0.147188635853392 0.357283003652165 0.376254909643516
-0.15323833797704 0.357089219448962 0.387668944819686
-0.15136681529833 0.35832676498945 0.406440408946068
-0.152194800751007 0.358193475232839 0.405980506017921
-0.151217503779185 0.359254012083676 0.423629236242016
-0.146366013863859 0.359991550442884 0.425500930203035
-0.151412315134578 0.359810644132934 0.43465701581534
-0.150031678751432 0.360735500512026 0.448730424095807
-0.148069358770036 0.361671591067615 0.461566247187414
-0.151150955875583 0.361686110294239 0.469524770379308
-0.150155138323398 0.36215263126721 0.475877266505966
-0.148034443660943 0.363086980606858 0.488285226985278
-0.153605011923102 0.362727705959492 0.495370386543641
-0.15161342854466 0.363188040524654 0.499122911568942
-0.149514193613507 0.363935558022281 0.508045974229183
-0.146865503918624 0.365061868554803 0.522773000232588
-0.146099806421231 0.365339070935402 0.526113768197844
-0.146064405089661 0.36656722209111 0.549285431439546
-0.149560584538888 0.366518597315698 0.557081776327968
-0.146843366545525 0.367139277727155 0.562061816967768
-0.147396750696737 0.367296386805481 0.56641709106809
-0.150149043031641 0.367440868934145 0.576015902500386
-0.146642355529543 0.368531424909717 0.587926472625083
-0.152841064895978 0.36820554906056 0.597210355922636
-0.152567723983818 0.368595976202701 0.603923109790618
-0.145460105617045 0.369793025716662 0.608872127014384
-0.151526694222867 0.369752072739364 0.623222734055097
-0.147739584123503 0.371035583386656 0.638088473422197
-0.144332834267897 0.371692965354933 0.642044350112382
-0.147228709835223 0.371967077985009 0.654456236462603
-0.147952895866494 0.372582732271675 0.667921760933978
-0.14849335937676 0.372650343081309 0.670549813142451
-0.151111021561908 0.372429654410346 0.672896979671795
-0.149801148704523 0.373698445952106 0.693660608773639
-0.153270014458554 0.373518997937531 0.698911191805355
-0.145566957685758 0.374791395341819 0.703802576516457
-0.14608032588891 0.375482939600202 0.718179734115207
-0.149703827936349 0.375232883584971 0.722478638144138
-0.151621288963844 0.375247570502339 0.727537722033395
-0.149787122685579 0.376343218260121 0.743714929830878
-0.151617636928929 0.376632732172188 0.753762167010176
-0.148953535380808 0.377680680625288 0.766966667701528
-0.152191500340545 0.377692660897794 0.775266987695212
-0.149138092273155 0.374774018401895 0.775645644410666
-0.150279019184378 0.358985404628841 0.775645644410667
-0.151253959742142 0.343520096703628 0.775645644410666
-0.148724828633925 0.350518088507354 0.775645644410666
-0.189617817654372 -0.311878682125284 0.238756873544466
-0.186218593007333 -0.313139149731693 0.255713321054555
-0.183757614209397 -0.314071354330955 0.268399311451985
-0.186417823223945 -0.313728877706649 0.268560887868787
-0.18999184154418 -0.314235942663346 0.288951424540707
-0.190835247944526 -0.314275228725948 0.292086837429021
-0.182426931405184 -0.316184687321715 0.308824934753569
-0.189752401385992 -0.315547249684244 0.315645022603423
-0.192242666399669 -0.31573226773141 0.3263423603704
-0.188575180244188 -0.316380449156103 0.329791164967249
-0.193162568591908 -0.316228261803151 0.339213796169362
-0.184248957410622 -0.318073405034261 0.353222874827512
-0.19092998849906 -0.317798758886532 0.365840403108337
-0.190520057498248 -0.318143758031735 0.371910689891781
-0.186001274813556 -0.319223219259642 0.382017426990353
-0.192031729210677 -0.319025614403756 0.394455394807634
-0.189448426415245 -0.320156705201686 0.410953830999874
-0.192312553003613 -0.319888524218445 0.413225014141172
-0.188922453396461 -0.320961097258862 0.426287434536359
-0.186847268201734 -0.322277575257273 0.448047944400498
-0.191880353201379 -0.321666859697195 0.449130524241774
-0.184574079920488 -0.32316894695764 0.460397918168066
-0.189977794680226 -0.322887546128459 0.469367055738897
-0.18808684118826 -0.323846231167245 0.484170658031418
-0.185262614083243 -0.324940075908414 0.499230643442904
-0.191732063090599 -0.324268653291937 0.502991248293943
-0.189662372753103 -0.325308190699434 0.51899045028559
-0.185648887508154 -0.32628654814573 0.528375919177712
-0.191074776089454 -0.325889297588006 0.534989564884103
-0.192347859142585 -0.326643707097355 0.554220834103646
-0.192831078343172 -0.326838234007207 0.559605171995023
-0.190939137323914 -0.327877820956475 0.576093505790913
-0.192735110232303 -0.328140212449452 0.586498168884362
-0.18630787377006 -0.32915004670072 0.589912032466444
-0.1847640011367 -0.329680280477885 0.596732126730556
-0.183138236169842 -0.330863574526483 0.616948805271212
-0.194052460392195 -0.329459015779372 0.617623060194389
-0.193552355669599 -0.330239310563818 0.632525079610425
-0.194094291269329 -0.330665290379452 0.64289827187763
-0.192628761890551 -0.331686662329481 0.660177602781905
-0.188764635292649 -0.332257231872215 0.661467613817863
-0.185334442265375 -0.333389013520928 0.675654904653197
-0.188342681903381 -0.333603538243137 0.688390044374569
-0.193343676934496 -0.333824067423976 0.706722517739729
-0.191335838211257 -0.334658359157921 0.71861057193172
-0.193948585472274 -0.334595367225299 0.724471279974917
-0.190092657207722 -0.335356736536198 0.729763484386413
-0.186327075541052 -0.336381635732928 0.740800457652853
-0.185998456434079 -0.337210869494594 0.757194139312175
-0.185269553175139 -0.337611653756729 0.763552090257003
-0.188119230722903 -0.337565599569409 0.770416692969397
-0.195010648048946 -0.343005398627073 0.775645644410666
-0.193376938041526 -0.364939005039703 0.775645644410667
-0.143339286922026 0.356009142030373 0.34253143960057
-0.143148381464671 0.356778201687893 0.356620649170509
-0.143285979992156 0.357542089202679 0.371430983694304
-0.142071685003246 0.357800165919465 0.373291014156719
-0.138405375792793 0.358943803811669 0.385808906653251
-0.140352597882863 0.359334479007521 0.398063030648938
-0.136975605960555 0.360306161025048 0.408045627429167
-0.138569532508167 0.359974293822677 0.405734640076249
-0.142570108565373 0.360472412292681 0.425143389446511
-0.140767669176125 0.361286744677457 0.436071877370781
-0.144460950881955 0.361256315161712 0.444704269645916
-0.141049297043759 0.361724891448852 0.445072131675318
-0.144924079247321 0.362014390565594 0.460216193146969
-0.139720308065269 0.363094148859382 0.467690818525854
-0.141198719722897 0.363082387509299 0.471154289204086
-0.137184750907196 0.364520216218758 0.488377014053399
-0.140422184020994 0.364236452627981 0.491074920493546
-0.140543215248819 0.364825427831578 0.502531285731895
-0.137008991055428 0.365783019670968 0.511854991580984
-0.136687364681602 0.366692119596884 0.528270486311534
-0.141326374955641 0.366028047682276 0.527260382837937
-0.138066294172894 0.366970745725275 0.536985554716653
-0.139776557787211 0.367438901798809 0.550116263823496
-0.139416599463755 0.368138590730385 0.562470152158273
-0.144412162336234 0.367910192049432 0.570600271344217
-0.144219830323178 0.368109560326862 0.573896549651649
-0.140281012518678 0.369242160876532 0.58552594295899
-0.137177504694992 0.370223687639875 0.596376884649745
-0.142187795858999 0.370021376979601 0.605037807363461
-0.135673879718744 0.37180790225559 0.622631210828089
-0.142191841384728 0.370929716337768 0.622250916363604
-0.136459673696476 0.37278801527704 0.643152823473955
-0.143832988033644 0.371496089501985 0.637069423339221
-0.138260021408695 0.372874501584181 0.649279708511582
-0.136386263334747 0.373602718038676 0.658399424997273
-0.137589969115819 0.373832993562611 0.665761885691324
-0.13831128962285 0.374844700746524 0.686721103743998
-0.138271743938786 0.375136912316331 0.692156691380172
-0.139204232476262 0.375327838666124 0.698097675445307
-0.137437566772673 0.376063292991448 0.707621490110504
-0.14024332758236 0.37630464527096 0.719188239888592
-0.141277138891093 0.376327407539908 0.72219700215562
-0.135734392377207 0.377947749966211 0.739064551310039
-0.143119000929709 0.377203388486871 0.743379621671782
-0.141711656984681 0.377998731720202 0.754933591240967
-0.13963135747425 0.37887332254875 0.766310506226768
-0.139010032249103 0.379111878461467 0.769279322115011
-0.144469158206061 0.371335460224047 0.775645644410666
-0.139248427420861 0.361812412370315 0.775645644410666
-0.142508373276687 0.356922631992825 0.775645644410666
-0.178388768814861 -0.31292647676847 0.229776765413713
-0.177784857397474 -0.313561092691735 0.241355178486742
-0.177888549862891 -0.31393107851847 0.249357041439971
-0.179478632175763 -0.314582175554379 0.267303908226314
-0.174726484541653 -0.314967034409466 0.262281885976725
-0.181754815957072 -0.31464598712346 0.274885268794105
-0.178829155760051 -0.316138987882654 0.297992272393637
-0.180118878537251 -0.316228215788024 0.303394948661696
-0.181024609192932 -0.316535886811653 0.312299447865539
-0.180366366592341 -0.317057560741229 0.321372936047714
-0.179898580288134 -0.317562632748773 0.330623134892859
-0.171720639442195 -0.319188578757147 0.342080367665236
-0.175402312755249 -0.319617854180139 0.361143998613879
-0.177500177434517 -0.319518680001188 0.364836157091858
-0.177405813539139 -0.320317985902307 0.381248869973589
-0.17191381629635 -0.321520402233746 0.391247750421784
-0.172503541401773 -0.321999700913027 0.402864291416564
-0.173619042467108 -0.321971417016218 0.405337507616567
-0.174621032015594 -0.322392876371218 0.416879717747311
-0.175332720213653 -0.322953081079124 0.430518697740793
-0.181284993982771 -0.32256573111948 0.438784299333765
-0.172872715798345 -0.324177545713146 0.449303291794143
-0.175355739210472 -0.324742043129411 0.467895883564474
-0.178854328963354 -0.324594418483116 0.474423849372864
-0.175607668926478 -0.325338633626644 0.481031300603021
-0.182560482490935 -0.324998423236627 0.493027609956146
-0.18170520390734 -0.325690254922811 0.505109170589883
-0.173199773122323 -0.327409104326014 0.517604887029327
-0.176611431944335 -0.327312577891861 0.524959942018544
-0.173085631762122 -0.328452294889571 0.539050210876678
-0.177553216033261 -0.328153182511006 0.545079314667636
-0.172700557586403 -0.329521385732833 0.560291780197674
-0.17787639704467 -0.329313455299824 0.570167611208311
-0.172304327086652 -0.33042244427478 0.577997914866508
-0.172595532254863 -0.330939927900374 0.589591179518434
-0.175049808182085 -0.331374690357846 0.60539883322737
-0.172566254042083 -0.331957696166641 0.610739281503552
-0.17411148987395 -0.332161739305238 0.619238398594474
-0.180433210735733 -0.331763350483924 0.628288252116126
-0.18235921007413 -0.332460476271023 0.648117607545854
-0.18140715157434 -0.332799969277372 0.652584369311474
-0.182597275006132 -0.333297123415657 0.666222027411763
-0.180284964480047 -0.334160108369353 0.677872484076803
-0.180431121840788 -0.334731099168782 0.690183495206773
-0.173996568279264 -0.335671486400261 0.69212874769897
-0.180352842038593 -0.335312554825265 0.702096478202506
-0.177690129090413 -0.336487859930982 0.719299071855156
-0.17541105876106 -0.337564898817422 0.73550551952388
-0.178795642779597 -0.337076853356842 0.734619966022936
-0.183766421647112 -0.337217355039481 0.751200261149539
-0.173281114703427 -0.338921720595098 0.757957148066543
-0.177989909298616 -0.342475912248032 0.775645644410666
-0.180192126246945 -0.348930704491661 0.775645644410666
-0.183801260542413 -0.371001701347225 0.775645644410666
-0.12802573945223 0.358327844292846 0.348263047479156
-0.135313398853338 0.357980665067452 0.359858615541858
-0.13451432457196 0.358211570851356 0.362239352654954
-0.136587326820747 0.358622184908268 0.375184714107445
-0.135573844191813 0.359392740632801 0.387251273209773
-0.132449106957198 0.36016840567472 0.394150470975139
-0.132127213202282 0.360324820730271 0.396310214414837
-0.129819638157094 0.361419390775532 0.411286630974499
-0.136058450764006 0.361412156177408 0.426705246919396
-0.128201367109108 0.362581378052537 0.429258547112864
-0.13472682265979 0.362260435816749 0.439450565252132
-0.129061301782054 0.363522899639039 0.449234137051129
-0.130085841026084 0.363949622249873 0.459870378006318
-0.132640777288629 0.364154630394145 0.470123409949589
-0.133951219908991 0.36470631760432 0.483839214339574
-0.132327534942445 0.364719239495586 0.480035503864628
-0.135042256065668 0.365190683043973 0.495732952766213
-0.128300223978911 0.367023121454891 0.51362712810101
-0.134720606193361 0.366540798711383 0.520500777745328
-0.131706076240632 0.367019480403643 0.522050200322314
-0.132241473765454 0.367660747158735 0.53553008035276
-0.131445819385569 0.367935969239836 0.538758650045367
-0.135859477623723 0.367912342549647 0.549316041945701
-0.132642805573832 0.36938169454494 0.569123736907435
-0.134267558906694 0.36939983731234 0.573518444195266
-0.134299158044183 0.369647948315031 0.578296201969212
-0.129362028187755 0.370748487556637 0.58682923125772
-0.128920901613192 0.371735634295831 0.604424895598278
-0.132890164978868 0.371284650577265 0.605780542515162
-0.134258982440148 0.371872306611978 0.620323109534215
-0.135692723643301 0.3718524913609 0.623522667821906
-0.13053652758291 0.373280367575483 0.637708914063606
-0.12763786666581 0.374236893564852 0.648597124504693
-0.129448694031135 0.374444382784276 0.657041811015324
-0.127009336505169 0.375079588008812 0.662989744152721
-0.126943690091236 0.375392079190799 0.668744328357919
-0.132374478537344 0.375454279060145 0.683463263880224
-0.131922125208979 0.376063446162873 0.693872386604485
-0.128422746608381 0.376559278671412 0.694537723918618
-0.134095338444037 0.376175631095626 0.701415666967127
-0.132149709801467 0.377237229330096 0.716670095216346
-0.131137169551791 0.378095628050039 0.730402660852316
-0.131985843602362 0.378357183112062 0.73747230073167
-0.133411442234285 0.378616587519339 0.745939692485327
-0.132515426592977 0.379298466212207 0.756619686930686
-0.130982597103276 0.379633625800118 0.759145365926987
-0.130696532557364 0.380438535157079 0.773676266018256
-0.130250531021967 0.372436278584458 0.775645644410666
-0.127876532049827 0.353043004821898 0.775645644410666
-0.130557169920563 0.351620277444298 0.775645644410667
-0.161594267174951 -0.314812704305518 0.223001902309424
-0.16495259082091 -0.315284434405335 0.242063132213571
-0.171238757012655 -0.314806076175568 0.249347359622466
-0.16287206394617 -0.315930341536857 0.249822279674713
-0.16711553433994 -0.316065107376614 0.264285752894172
-0.165132118653573 -0.317324023469159 0.2850976412592
-0.162831402365853 -0.318027464723878 0.293452190511925
-0.168159845064892 -0.317445127604457 0.295937735095076
-0.165950666218696 -0.318701017057343 0.316066549976501
-0.169531740961387 -0.318321628023023 0.317986902638501
-0.166290280529085 -0.319370053838913 0.330953825055393
-0.16157908533085 -0.320130568713419 0.333879650309627
-0.164245561591768 -0.320499825702039 0.348903698807012
-0.16268669569216 -0.321346432860957 0.362281503235605
-0.166106477372819 -0.321572221739087 0.376381681257829
-0.168399761834589 -0.32183348911295 0.388128511875818
-0.160895665449403 -0.323108242679561 0.394110983396834
-0.164442597793663 -0.323403378465206 0.410006746563305
-0.163351945279822 -0.324095676434348 0.421451697600506
-0.16853774090445 -0.323599180415768 0.425335998590631
-0.163864677684955 -0.324657945614872 0.434587406830826
-0.162442092846916 -0.325397895705179 0.446114796631747
-0.165644435252469 -0.325546050895192 0.457998612803875
-0.16323581390598 -0.326405943185373 0.469320094145761
-0.163594465965392 -0.327076858552288 0.484298830087904
-0.168740580971487 -0.327064733438571 0.49817712399346
-0.163246217826228 -0.328253535705337 0.50788554700917
-0.162471064605171 -0.328697326625566 0.515013524055453
-0.165854001899355 -0.328436344114961 0.518859502966695
-0.162252090679994 -0.329537943002312 0.53194570801505
-0.163880175783343 -0.330389462706255 0.554177324420122
-0.162332367156851 -0.330730080246444 0.557031615631863
-0.162064154747403 -0.331476938647485 0.571872997378601
-0.162312522196612 -0.332029951973235 0.584089704554111
-0.169643861911363 -0.331294046898292 0.588872087557347
-0.168784726680469 -0.332094896575615 0.603216943260965
-0.171181079663914 -0.332124688731381 0.610418714451585
-0.17107322456788 -0.332824454208907 0.624718177258952
-0.168627777491636 -0.333838185320507 0.639147288787105
-0.170935741808937 -0.333434947100476 0.637074244812225
-0.165095107871982 -0.334982053060203 0.653305269939621
-0.163798162683511 -0.335723389025048 0.665206571818279
-0.164453104584058 -0.336072200623762 0.674280512376965
-0.167754550754015 -0.336211293370593 0.6862474433852
-0.169740459177233 -0.336590158788664 0.699603068619748
-0.172237964683036 -0.33680228980841 0.710885808163064
-0.16730815468593 -0.337448761595222 0.710832620291509
-0.163689118641039 -0.338876351237647 0.730671280382827
-0.168883761081634 -0.33833751342524 0.733696714142903
-0.172088886948175 -0.338510689864427 0.746110064173726
-0.161822570143858 -0.34043899897608 0.75813928691077
-0.171906118176323 -0.339917828811529 0.774958133383696
-0.167678209592129 -0.361207718462423 0.775645644410667
-0.127010546262811 0.358888258818458 0.356345481314682
-0.126134303294437 0.359041272982033 0.35705862085465
-0.125898387055185 0.359860444216716 0.371984664371398
-0.125875283266108 0.360212024933974 0.378585638807219
-0.120494120365691 0.361660919637435 0.392609029554713
-0.127016127188279 0.360928352050306 0.394996683966754
-0.127577496926955 0.361391430823696 0.405166623348596
-0.11978244034095 0.363183753008738 0.41967546467132
-0.124169760458124 0.362543903761309 0.418496558615233
-0.127103444069232 0.36286268891956 0.43184876635886
-0.123780677791276 0.364291100583506 0.450616561607064
-0.121965406285888 0.364546645488768 0.450930188821048
-0.124406452437536 0.364736130518233 0.4606052592621
-0.125668352788123 0.364961124427089 0.468012791802393
-0.12369733954926 0.365601358174736 0.475223712912557
-0.122468282026534 0.366103568108933 0.481670569417825
-0.118272421526618 0.367554745986085 0.498692591693596
-0.121477779832799 0.367547335981851 0.506544379338639
-0.12052451573514 0.367982042113123 0.512400436035486
-0.119864759991784 0.368867521654366 0.527525505087404
-0.123141876696539 0.368758939016826 0.533640105952326
-0.127264680573797 0.368828396089002 0.545235203634225
-0.120625269711828 0.370266541297068 0.555917739497047
-0.124744193432463 0.370098413578187 0.563003548643204
-0.12311002592818 0.37119026495629 0.579607526655858
-0.118757577387912 0.371692145599059 0.57826039544222
-0.122188915621604 0.371727366338889 0.587483016203842
-0.118045871794789 0.373056404125173 0.602323520795066
-0.119114114634377 0.373242281455996 0.608507366498652
-0.119938503786357 0.374059799394531 0.626045825750195
-0.121303757057014 0.374303835989714 0.634071703837415
-0.122791977724059 0.374167220032409 0.635195012888916
-0.123758264479073 0.374681451150054 0.647343331140459
-0.123412654844579 0.374780962961264 0.648366252780593
-0.118945568054238 0.375905617713399 0.658527993812489
-0.121604144997141 0.376270083839479 0.672059411435783
-0.119118786932452 0.377153327014403 0.682590234558063
-0.118350376594781 0.377454394503325 0.686376219262496
-0.119814683281734 0.377975568236958 0.699897768645634
-0.124632570423416 0.37807565302898 0.713806019849732
-0.125561062429109 0.378379102109702 0.721868104991786
-0.11901167626711 0.379483478227904 0.726453858697143
-0.119605797370827 0.379870174800758 0.735258858099064
-0.119431932567869 0.380434095225214 0.74550542814702
-0.124719888086411 0.380021705598991 0.750879987628177
-0.125266122530083 0.380688996378252 0.764879756548464
-0.121881686520687 0.381625170183662 0.774171303146747
-0.12504175153887 0.37258936266364 0.775645644410666
-0.125918871248751 0.369124403525233 0.775645644410666
-0.124561092976263 0.354414425087136 0.775645644410667
-0.157327855608738 -0.315639063739859 0.228522479178478
-0.152690628327401 -0.3164794249919 0.23331684690506
-0.153893589024865 -0.317097475094174 0.249511390916682
-0.149173854957858 -0.318101931245337 0.2575018691011
-0.159523955858955 -0.317297812566568 0.269150958685791
-0.152609034562128 -0.318728972728421 0.280013612899572
-0.156768656243074 -0.31848074811121 0.286258464818341
-0.159849745849324 -0.318946439029526 0.304432447268786
-0.158958834080589 -0.319684112766953 0.317372327926056
-0.15084421187224 -0.320998151047174 0.322497695805088
-0.151056886594588 -0.321332774685626 0.330061242648458
-0.159833624875624 -0.320797461525996 0.342996605023373
-0.157407831254388 -0.321848784371425 0.35826376910498
-0.15096060400847 -0.322821460288435 0.360847693632413
-0.15328572275729 -0.323185820834889 0.374832247172303
-0.155539067714252 -0.323355414130714 0.38455727622511
-0.160303150217664 -0.323403726158907 0.398647102703018
-0.154932221412996 -0.324264030840015 0.401842708710463
-0.154038479442737 -0.325248570403683 0.419923918197973
-0.155469348493656 -0.325434382284354 0.427728719260777
-0.151862982880289 -0.3263862329039 0.437679259494769
-0.149655456882796 -0.326991565057701 0.444243359723214
-0.159694294788991 -0.326786642631618 0.467535693403039
-0.153800998144883 -0.327775271506118 0.471973452798161
-0.156283674115225 -0.327882925507516 0.481036300252168
-0.153203855848025 -0.328727878551222 0.490203078054349
-0.154150129859198 -0.329176636923442 0.502161693614479
-0.156438033184237 -0.32970738779783 0.519514605200704
-0.157036662745791 -0.330179743221368 0.531010776100992
-0.158152260920199 -0.330057491925085 0.53152429716715
-0.159994322563806 -0.33026927335447 0.540999900426481
-0.157463040322971 -0.331413607569131 0.557917414467329
-0.152676465916793 -0.332319930107743 0.563677489303006
-0.154650002765148 -0.332779879765328 0.578690388519684
-0.152017564473656 -0.333680196014639 0.590240428533371
-0.160851033588031 -0.333245385306249 0.605427842599705
-0.153545378507349 -0.334563945354343 0.612868943471981
-0.152252273491289 -0.335250461156254 0.623637357444896
-0.156723668551033 -0.335035115976069 0.631424132746552
-0.154039582199712 -0.336053234247544 0.645289449286765
-0.150807096797424 -0.337132104710297 0.658916028209404
-0.156797321361419 -0.336872699399282 0.669954497998308
-0.155591152695074 -0.337324829910869 0.676072855735067
-0.158976308782376 -0.337547613666737 0.690015271590864
-0.150262057066031 -0.339169893284249 0.699923325032919
-0.160254542320691 -0.338255903690458 0.708298728795554
-0.15512295360301 -0.339436817857708 0.718838798899395
-0.161562672929092 -0.338721017188817 0.721592133650766
-0.158625625034779 -0.339848531919671 0.737044598893065
-0.150818471941221 -0.341313786029178 0.746168318269102
-0.157592734306437 -0.341267239158538 0.763799528931897
-0.159170453918124 -0.346591378857534 0.775645644410666
-0.156793422029687 -0.364378038969652 0.775645644410666
-0.162352405887912 -0.367383847181935 0.775645644410666
-0.117925811271386 0.359798317846772 0.35092951935886
-0.118033580436486 0.36011568247306 0.357208789826604
-0.111301842008527 0.36025326560151 0.375202446328278
-0.115393570769835 0.360762272518478 0.374640348844906
-0.110298407079229 0.360487202630769 0.382134904035285
-0.112717599777476 0.361504620856353 0.395371840274507
-0.116613134997814 0.362252913940155 0.399830760954055
-0.118537000776524 0.363515564877548 0.422854309023095
-0.11361737641335 0.36281385142403 0.417923862556053
-0.117500377103109 0.363967253352021 0.430086385170823
-0.110885388703821 0.3636501600783 0.440574536727746
-0.114455772766131 0.364980226532473 0.456862372583368
-0.110829802967483 0.364688814951701 0.460384197336305
-0.117418962328985 0.36635225952421 0.475458968918699
-0.117131288365497 0.366302098663743 0.475226249280445
-0.117934001661928 0.367406955216087 0.495049781110965
-0.117889345351727 0.367650382491041 0.499548701251724
-0.112393602924724 0.367499160601244 0.509710157976042
-0.112665755074239 0.367766084084623 0.514086842390291
-0.113222370922591 0.368763979896238 0.531598126393268
-0.112348014557749 0.369071279729275 0.539598160993438
-0.116076056690648 0.370019141464823 0.548254329881458
-0.116244781667151 0.370193181557542 0.551129779114
-0.118123899350623 0.371115794640574 0.565764905354453
-0.111688734991044 0.370666833794264 0.571460153494701
-0.116167762226985 0.371844418728668 0.582594566374426
-0.109611799015638 0.371540488257 0.593184836702849
-0.117895525491748 0.37282553914899 0.597576305264273
-0.114194105183721 0.372715786492059 0.604018429836975
-0.111147538828984 0.373444074606605 0.625407664162062
-0.111825194211979 0.37324969431161 0.620036657752216
-0.11182508423025 0.37393928998936 0.633097171556022
-0.114038256132057 0.374858054571496 0.644979393169896
-0.117161065019322 0.375804729010941 0.65512214277291
-0.117593367295486 0.376242036966576 0.66232642291592
-0.115424883337626 0.376649693241665 0.675453837667063
-0.1163400355192 0.377232102625149 0.684202270367619
-0.111863200166632 0.377005533410445 0.691073661164563
-0.115236060977955 0.377907260491789 0.699741683087438
-0.112126846481018 0.377856907289442 0.706540448780726
-0.116163195206344 0.37902577160341 0.718613460734332
-0.114683078125295 0.379433030899568 0.730017007797484
-0.114471837499658 0.379816944925111 0.737814648119952
-0.112746567132088 0.37971869117049 0.740255549438577
-0.11598013451517 0.38077619188341 0.752221074486055
-0.116467886543823 0.381874440011629 0.771804631708111
-0.110665602258528 0.380986804675641 0.769460930547104
-0.112077340714505 0.373840731050074 0.775645644410666
-0.116338690080938 0.365655243468486 0.775645644410666
-0.113240997181966 0.354722213138597 0.775645644410666
-0.148048275206937 -0.316685736136136 0.224872190945897
-0.146406369205234 -0.317839029450883 0.244418794267599
-0.145089164264373 -0.317933129045731 0.24276447721136
-0.143005546137419 -0.318660219834347 0.252208456001133
-0.14390431923092 -0.319060941041076 0.263034680380019
-0.147213263674497 -0.319085765977269 0.27263881603652
-0.144747753395829 -0.319824504100099 0.281277060300846
-0.147877606707312 -0.320296880897912 0.299724400914625
-0.147350660877731 -0.320783620236594 0.308429767276739
-0.142206956187078 -0.321787136212942 0.315236414832701
-0.144962691989944 -0.322452663279424 0.336685138499866
-0.148292311770466 -0.322284804816505 0.342327079121578
-0.149212235420312 -0.322589945904799 0.351217783078778
-0.148245412752254 -0.323294927789672 0.363267329798369
-0.146735603820061 -0.323899826248347 0.371738310567035
-0.146187110799774 -0.324391402103723 0.38048538802314
-0.148134455161129 -0.324837204426434 0.395131279269954
-0.148692863730151 -0.325585563496666 0.412273857621346
-0.138946634769156 -0.327243645315906 0.420094866715681
-0.142675530760016 -0.326878992954072 0.422728511471457
-0.148133366458747 -0.326810761710808 0.436292532817948
-0.149112665990633 -0.327179547106025 0.446673768588943
-0.148404737808657 -0.32805513213212 0.4629926596353
-0.139650609681933 -0.329414923826061 0.467316268163227
-0.138981061143929 -0.330001438194356 0.477711145131377
-0.147430187476171 -0.329503491356588 0.490526269909846
-0.146959577328024 -0.330513704855851 0.51030490077365
-0.149300139879064 -0.330253514087274 0.511305039514839
-0.141761002626666 -0.331891585850167 0.52476934045291
-0.148804874231744 -0.331413722953944 0.534144553593018
-0.138715205093774 -0.333282629000982 0.545419827009779
-0.145839000120548 -0.333129209030711 0.561781704594671
-0.150091381955407 -0.332555944913801 0.561501636769501
-0.14296796367195 -0.334262119895122 0.577527988802549
-0.148654965597224 -0.334003591924166 0.587752110668714
-0.147060452792029 -0.334716102207337 0.598235050882471
-0.140240344525733 -0.335991997723394 0.60611956796958
-0.140142733299139 -0.336431758961988 0.615024020247954
-0.140682307395569 -0.336766109742636 0.623479539399851
-0.144092937574009 -0.336961709995439 0.636924916394166
-0.143900170337562 -0.337843775800949 0.65479361142542
-0.142940302110163 -0.338191588435248 0.659412457624627
-0.14890481002252 -0.338080385214613 0.673471492733017
-0.146675288513344 -0.338758809735961 0.68149974607993
-0.141867821131187 -0.339868397751861 0.691442138150267
-0.149851390578321 -0.339257632228899 0.70062568690053
-0.139300252685159 -0.341375607357494 0.7158288259332
-0.14929525782739 -0.340687927233847 0.728931487596825
-0.150031725465479 -0.341430798487386 0.746448550705814
-0.144749629222299 -0.342377403282454 0.75168812873479
-0.141923533152888 -0.343201363406098 0.761113757992935
-0.148507858557232 -0.342657791571334 0.767856510375082
-0.145123654040754 -0.349798603419762 0.775645644410666
-0.145668363765116 -0.373592087435154 0.775645644410666
-0.106290779082227 0.358248897452676 0.349736160422035
-0.102023184195412 0.358345325714671 0.362203081677389
-0.10716502213701 0.35894918463168 0.360819079827595
-0.103725219995208 0.359058516249083 0.371466388711868
-0.108793445751765 0.360290102011746 0.382154435778373
-0.101686660173268 0.360206850080834 0.398297533600617
-0.104890378231459 0.361170530615931 0.408560625301124
-0.1036727357394 0.361182406585556 0.411821570237063
-0.105000812570109 0.362266184257689 0.429035836004582
-0.107231812001499 0.362809358895062 0.433760316190554
-0.107479305827849 0.36314016492115 0.439408353060088
-0.103810029576877 0.363504044738068 0.455448708033919
-0.103716004981037 0.364167563058852 0.468249506598817
-0.101408254430235 0.363983833514051 0.470523918756664
-0.104230894518788 0.364855131353664 0.479987542482076
-0.109243771647429 0.366194213422451 0.492849464355878
-0.104955960470323 0.366071910940834 0.501224254743213
-0.103985854970766 0.366576012210892 0.513190245522559
-0.1083203846724 0.366941783051705 0.509310011518329
-0.105950433141686 0.367436264029208 0.524584129705554
-0.103207313736233 0.367448708611538 0.531659413075919
-0.108219896846727 0.368718965202756 0.543218583617985
-0.106898944360728 0.369155743585767 0.554784336812644
-0.105036276905608 0.369228710934514 0.56081057236582
-0.101103503254553 0.369659450392883 0.578774175810583
-0.108468344577124 0.370899025182191 0.583887227921282
-0.106871289653344 0.370863283851652 0.5871923630701
-0.106756163999984 0.371628561559514 0.601972993375119
-0.103134649364988 0.371693702791894 0.612236456809143
-0.10537809013004 0.372276721442024 0.617684521228129
-0.108243310877762 0.373407144862143 0.631949550362019
-0.103289652791952 0.373202258291028 0.640420481060333
-0.109014485062873 0.374342872191017 0.647748454568079
-0.107222986267442 0.374616818214601 0.657403572079815
-0.104064773011322 0.374423083551678 0.661609010737127
-0.103669451716167 0.374969767283217 0.67294832360915
-0.10330171938814 0.375379278848259 0.68162094605585
-0.103210756061352 0.375959181039222 0.692830507451125
-0.100552436754525 0.37602992517234 0.700798487389922
-0.100702237370786 0.376689939504472 0.712924978930248
-0.104519435489802 0.377270131870904 0.714395566205345
-0.108864992047475 0.378453262476455 0.725967799454568
-0.105903086471595 0.378931372727768 0.742407829776998
-0.104794761273802 0.378778803321459 0.742281779003543
-0.102442405595279 0.379079293986807 0.753838045447592
-0.103451936559069 0.379752734916162 0.764075202209718
-0.107200939972521 0.379471006074812 0.775645644410666
-0.105757418731024 0.368997399257931 0.775645644410666
-0.101189827430161 0.357922088943498 0.775645644410666
-0.101742828950217 0.34947403601258 0.775645644410666
-0.132863373059342 -0.318957809955098 0.23056521730726
-0.136975932716991 -0.318931767086734 0.241315079961763
-0.128875776108291 -0.320031830886609 0.242017113852034
-0.13687328873066 -0.319468837795302 0.25223538265236
-0.131899544901794 -0.320998884798463 0.270491068496668
-0.133077902528532 -0.320954665991068 0.27280451977259
-0.132693056664399 -0.321816546653868 0.289724748635767
-0.131672662483434 -0.322489830612907 0.300966036442316
-0.128035852038393 -0.323064499354777 0.302965756799495
-0.135527500156077 -0.322749603569511 0.316969711589519
-0.129669928477278 -0.324139637410645 0.329878032627979
-0.135239061980346 -0.323997476056629 0.342205650811956
-0.131611104408017 -0.324936159312788 0.351822256234648
-0.131184636050201 -0.325587850553966 0.364244081913991
-0.130149533016892 -0.326359400855 0.377494607978161
-0.129365181851229 -0.326788109162227 0.384282736027571
-0.133608834874763 -0.327095205656388 0.402341164787424
-0.130644666167627 -0.327394102644427 0.400435937727406
-0.130112728258832 -0.328511345880589 0.422278577568442
-0.135210758536199 -0.328276875549528 0.431387178770281
-0.136741748776731 -0.328301224199872 0.436099129474882
-0.129417553210042 -0.329873876256931 0.448789141771843
-0.128110204483598 -0.330500995974551 0.458279565545069
-0.128301201897595 -0.331272672996114 0.474899598555472
-0.128949013530829 -0.331644025764012 0.484424120701071
-0.132171198041492 -0.331439736586069 0.489011176882818
-0.132337457584361 -0.332288847107681 0.507178379379964
-0.132191482226039 -0.332321290977128 0.507454242698154
-0.128822559303154 -0.333544318263223 0.523712972417281
-0.138719362153033 -0.332977818478128 0.539073537544556
-0.130494909839553 -0.334061876303166 0.539100405359289
-0.139088804728094 -0.333320924687353 0.547244496426247
-0.132794157532758 -0.334844063564754 0.561728901314769
-0.131124817743749 -0.335798455241023 0.577051502900443
-0.129432512416431 -0.336529615208296 0.58765489856887
-0.128702806189249 -0.337451885658556 0.604887746743213
-0.138482329161938 -0.336704818283963 0.616160002957142
-0.134287515174181 -0.337731148141123 0.626048147631917
-0.135114320989953 -0.338046222769119 0.634890343315005
-0.136723518420244 -0.338091477860231 0.640253114719031
-0.132221391246878 -0.339276556152278 0.652608536975826
-0.134669080469325 -0.339546316281616 0.664956503028209
-0.138044844401948 -0.339360511348838 0.670350829674581
-0.128264406364214 -0.3413740367134 0.685491703664193
-0.131977550181493 -0.341282398609978 0.693776594752607
-0.137827530747505 -0.340891181198198 0.70168063298184
-0.136840366757941 -0.341717375481085 0.716202557575457
-0.129431065473027 -0.343618866894774 0.735517765649221
-0.131924974794894 -0.343292632464037 0.735561462102031
-0.134219943209019 -0.343755774911045 0.751523605154161
-0.138837391986629 -0.343613372529666 0.76123287597295
-0.133786008716178 -0.344740709211172 0.770875676342721
-0.128622191672259 -0.345636264597225 0.77537526526149
-0.136473374291164 -0.374294968726494 0.775645644410666
-0.130035169668432 -0.379432349909442 0.775645644410666
-0.0999776251877498 0.357546664219523 0.3521775701846
-0.0973337625349899 0.357482780904431 0.357559797708839
-0.09568533581639 0.3577842104868 0.367378695032669
-0.100628461265394 0.359351655853947 0.384739501461122
-0.0957833412467374 0.359052605276813 0.391156436890837
-0.0926981684564905 0.358795807809029 0.39398541379111
-0.0961258451629978 0.359990925663718 0.408073282066394
-0.0939724530160404 0.359709202067631 0.408106915014213
-0.0926321180904787 0.360337374490361 0.423345803810124
-0.0951744740627306 0.361163111130017 0.432645395200974
-0.093136480503373 0.361076784131071 0.436091909924935
-0.0936761965401908 0.362007471685998 0.452372475402422
-0.0982980749699294 0.362918328564488 0.458099150595301
-0.0940174576021496 0.363056273692936 0.471384828791598
-0.0930365168913118 0.362856701885665 0.470050984513264
-0.100722857225519 0.365141571263268 0.494159237065711
-0.0992469266203923 0.364821919473721 0.491785390330619
-0.0976622260594333 0.365386490821219 0.506429032079614
-0.0927577360177642 0.36533340935075 0.517652402885804
-0.0983888525032281 0.366297253283703 0.521866200892717
-0.095830266780703 0.366371550710506 0.529652804447481
-0.0939143813921617 0.366663511400097 0.539959242455494
-0.0993425546484483 0.367960106021402 0.550981010872393
-0.0965039528811905 0.367788274726989 0.554804369177267
-0.0980736160725089 0.368879539206364 0.571558064669159
-0.100500434603149 0.369445912795751 0.576233661043989
-0.097402327415247 0.36991043006856 0.59275585442233
-0.0939022071582367 0.369383707408226 0.591507338323483
-0.0927389377753736 0.370046868149009 0.606967381336174
-0.0991996508681236 0.371267697430682 0.613979733570025
-0.100056360349724 0.372077322089331 0.627177111030737
-0.0978594618832724 0.372563012728741 0.641853264858852
-0.0990818916581027 0.372947102945879 0.646079579652101
-0.097407405224987 0.372948581220137 0.650282681148141
-0.0940148118155544 0.372811189186906 0.65613958688831
-0.0926072523511083 0.373652119436982 0.675575507434445
-0.100771572502642 0.374987534351935 0.680510282010723
-0.0919569102679927 0.37451472175134 0.693533856105633
-0.0994068057666709 0.375998090993311 0.703052055737136
-0.0920874224114406 0.375630991297437 0.714349449754628
-0.0961585290125679 0.376402293158801 0.718806369848515
-0.0960605355655082 0.376626824706457 0.723303101959807
-0.0973493660715517 0.377316063778924 0.733143063984002
-0.0994028663876534 0.37792037600221 0.739467997696013
-0.0923401385675214 0.377436075909474 0.747905799883107
-0.0965757483462151 0.37911879955767 0.769213953736766
-0.0972114462407964 0.378990929013046 0.765207189537673
-0.0923161216527545 0.371108889874735 0.775645644410666
-0.0934526001846736 0.360106854551009 0.775645644410666
-0.0974731349833121 0.344757839713877 0.775645644410666
-0.116278553703182 -0.320262993253521 0.220347148658771
-0.121023783803374 -0.32068631213452 0.234106692910034
-0.122897847971083 -0.321184422841217 0.249642399805626
-0.127051322238727 -0.321017127075704 0.257558376151401
-0.120257918964909 -0.32199373911411 0.259273802758214
-0.125123724500886 -0.322110460559614 0.275069836202868
-0.122698551212631 -0.322788973654804 0.282562678505366
-0.124626671519126 -0.323258425988682 0.297649069982879
-0.120304390605732 -0.324355686349215 0.308666652034309
-0.126341058326709 -0.324156783421977 0.321094606567268
-0.124476035912228 -0.324679365881468 0.326873235277603
-0.118110549369777 -0.326022478519961 0.337408148076875
-0.126047179254423 -0.325446438372839 0.347187099206207
-0.118656873946942 -0.327156096272189 0.362553227539068
-0.120438674010874 -0.327322304567391 0.370912793419575
-0.126991909308618 -0.326658601665343 0.375064491840636
-0.126021101336977 -0.327429378295703 0.38847543458561
-0.117823224249494 -0.329340397363029 0.405823945417004
-0.119702825779555 -0.329456912224578 0.413415573252386
-0.121955715821333 -0.329792698023756 0.426605778264524
-0.119994982328909 -0.330476981938028 0.435494336330676
-0.124945572082312 -0.330218486522943 0.443696954227634
-0.124601965119947 -0.330630599774381 0.451349225113601
-0.12302090515415 -0.331353173721973 0.46207901355411
-0.126734075552384 -0.331766290529844 0.480892100656868
