ply
format ascii 1.0
element vertex 868
property float x
property float y
property float z
end_header
0.330499233863299 0.285685845119153 0.585649381342746
0.338996163851291 0.281282209266849 0.594190209749285
0.338020533305404 0.282030836915005 0.603438608574478
0.337240410262731 0.282629446379593 0.610205094650561
0.339693536117393 0.280747096706402 0.613162451513174
0.332356580481714 0.284916506959778 0.625648224917991
0.331218148244097 0.285388061032441 0.633979837447981
0.333502767872513 0.284441740597487 0.651214368985649
0.332615400502907 0.284809300196786 0.656576545575064
0.330865326080282 0.285534204757799 0.666611626851068
0.331420316284443 0.285304320288251 0.677596249035214
0.331383771376256 0.285319457684858 0.685527771872168
0.334198636412034 0.284153502410789 0.688366172679576
0.336577717475463 0.283137948440002 0.696248341980478
0.337925753686549 0.279470308293384 0.703082431365766
0.34406530735206 0.170494376454454 0.628007419924402
0.352462858853642 0.170049517683492 0.628007419924402
0.352505670998648 0.15152193422151 0.628007419924402
0.349418073323479 0.138882143669146 0.628007419924402
0.354947745157138 0.13637286380866 0.628007419924402
0.359030473324528 0.117883311866439 0.628007419924402
0.354064636428901 0.103566336493041 0.628007419924402
0.362626009885941 0.0991736059365542 0.628007419924402
0.355369591714683 0.0781321505110902 0.629572005631789
0.357856087529084 0.0776938192402859 0.631688825708794
0.363930528335987 0.0596985273162117 0.628007419924402
0.364636662493956 0.0439848221542028 0.628007419924402
0.360716061544601 0.032173284984945 0.628007419924402
0.363355355576915 0.0203118127652151 0.628007419924402
0.367360444204392 0.0037352246719247 0.628007419924402
0.365871137764892 -0.00297812900497212 0.628007419924402
0.37421943301784 -0.00737291462636483 0.628007419924402
0.373376155970892 -0.0271358910625621 0.628007419924402
0.377916124192204 -0.0294155254203871 0.630264405602826
0.376131891316777 -0.0490912530916497 0.637103944821765
0.372547522972305 -0.0609718396811757 0.631208209659532
0.379907008297033 -0.0576359408444726 0.645269153924256
0.379189567715322 -0.077837724872164 0.647344746767889
0.381573489439599 -0.0749208610205547 0.648775117663664
0.38199552565843 -0.082378571728648 0.649680108927378
0.386744481871329 -0.129481832854143 0.628007419924402
0.393040860430581 -0.153882260227411 0.628007419924402
0.394182793255308 -0.163089599650096 0.628007419924402
0.387035681544549 -0.170097478211371 0.628007419924402
0.395821840635644 -0.177701563263399 0.639199265478132
0.3900332433687 -0.1871643265754 0.642322694374207
0.389995417067923 -0.192170486810681 0.65039100403457
0.398729032798665 -0.188010260902504 0.662145705641258
0.391298394397532 -0.198512144165989 0.663477309106059
0.398859176411248 -0.197357596792214 0.677636475058458
0.391705805413159 -0.205358813849436 0.67548589085224
0.398170325658758 -0.209431948826743 0.695828716104246
0.395811818893932 -0.213547368442889 0.697524383333092
0.395237253493696 -0.217130974254153 0.702138628563156
0.395876900694945 -0.231404735716568 0.703082431365767
0.349237204580392 0.273423982330418 0.268429892252031
0.342930363943205 0.278263391360214 0.27637432977726
0.349352655745761 0.273335393535436 0.27841524642027
0.350315449445627 0.272596615945673 0.284244969774449
0.342018556481286 0.278963045833585 0.303795397915937
0.348873846314866 0.273702796933862 0.313608690633177
0.34977503908116 0.273011287402913 0.318141391589703
0.342960934183167 0.278239933990063 0.330390919715988
0.349239816860943 0.273421977857051 0.344051032588036
0.341018751400115 0.279730223255086 0.350624155895242
0.348847216694203 0.273723230560476 0.361333330213559
0.339612814830719 0.28080903632817 0.370477157664776
0.343273130277229 0.278000377501547 0.370968427473493
0.341571581384166 0.279306021888559 0.386003254898648
0.341378567733554 0.279454126471722 0.396860080186509
0.345650929142248 0.276175828260432 0.403256427698652
0.348918756154895 0.273668336401581 0.409735524149117
0.345551879695541 0.276251831574034 0.419942022678144
0.344704520026383 0.276902033516705 0.431478545270885
0.341130905941264 0.279644164048838 0.441588775034484
0.341216528054851 0.279578463890315 0.454887152542737
0.349557228789096 0.273178419118273 0.458893091468323
0.343051570248588 0.278170386490981 0.464190756420375
0.345352591433054 0.276404750836228 0.474240101081126
0.348502899414183 0.273987434501863 0.488435033161608
0.345906483173086 0.275979734755684 0.488150317720288
0.342296429905049 0.27874982605629 0.508465606286023
0.341659813141767 0.279238319279756 0.514506906493096
0.346673048233052 0.27539152869713 0.518986095420103
0.343927159756069 0.277498523031499 0.533599247022259
0.343670458088431 0.277695497148937 0.541971440900795
0.347318116740487 0.27489655022228 0.546767062006625
0.349496428529722 0.273225072798167 0.558648094050847
0.344748179868412 0.276868532141625 0.57053794787365
0.348514726063746 0.273978359594475 0.578494969348259
0.34763370796494 0.274654388558587 0.584736170644739
0.342119297828642 0.278885744278954 0.597738380218992
0.341657406286238 0.279240166124959 0.603677425849976
0.350257208668767 0.272641305665559 0.60785265552928
0.350171887349418 0.272706775016546 0.615527858444287
0.34803688399617 0.274345020708919 0.632533869731297
0.341443387051025 0.279404388860085 0.643306677840193
0.348836515958035 0.273731441524129 0.650858863168326
0.349636210322342 0.273117814456261 0.661373348037993
0.345424867760246 0.276349291259782 0.6594837946959
0.346145946980827 0.27579598771336 0.675989086682749
0.348490987661707 0.273996574711011 0.685246086979528
0.343609091193457 0.277742585623619 0.697170716092441
0.345942438211928 0.273965126922904 0.703082431365766
0.344765579759312 0.266214706208634 0.703082431365766
0.364053427841043 0.161137045279259 0.628007419924402
0.363010251132169 0.151710220084968 0.628007419924402
0.366416912140961 0.140848318448637 0.628007419924402
0.360614658169712 0.135613343058693 0.628007419924402
0.359887242722397 0.122399510670682 0.628007419924402
0.36198448251376 0.108770639437962 0.628007419924402
0.36533746108314 0.0898897201814688 0.628007419924402
0.373732079155586 0.0841238995890335 0.628007419924402
0.374133039207542 0.0752293546264467 0.628007419924402
0.370953162181886 0.0570997582873997 0.628007419924402
0.377702488707769 0.0456577290024144 0.628007419924402
0.372509207027042 0.0275582309024972 0.628007419924402
0.37999999754961 0.0253893142259415 0.628007419924402
0.37663679449125 0.00896462345966454 0.628007419924402
0.376856741650957 -0.0118830898106862 0.628007419924402
0.378644311724255 -0.0179048600699482 0.628007419924402
0.37952714944 -0.0296880099450729 0.634517777845541
0.379910851924749 -0.0297529083625994 0.636286266860526
0.386565671294899 -0.0313046731301362 0.646970713364635
0.380891014927925 -0.0436476961849048 0.64349341110083
0.388492714562293 -0.0485036504986328 0.649993637259944
0.389851945253863 -0.0621832220524909 0.651493720407287
0.39118791042258 -0.0760282210139509 0.652110359910828
0.38988689746325 -0.0854909311364027 0.652149235667099
0.394799605685596 -0.134754113377052 0.628007419924402
0.398757381203138 -0.138314747245148 0.628007419924402
0.400705136471714 -0.156009756319911 0.628007419924402
0.404722186814737 -0.163831431036259 0.635502788940681
0.402764736583814 -0.167731071580914 0.637697979099543
0.399593560873768 -0.176326687009652 0.644962194201647
0.405057498145382 -0.17937117401907 0.661508182195559
0.405491779994274 -0.181949620106187 0.666626357575092
0.408818606225935 -0.18416238311067 0.677285164273285
0.407668346332925 -0.188408276087099 0.681756216265702
0.407835970530154 -0.192162129083933 0.688221954962939
0.402488024304371 -0.201882212537814 0.69269896295602
0.410776954427058 -0.206082053652813 0.703082431365767
0.405750522237966 -0.221258054286996 0.703082431365767
0.355528020267054 0.26859686967764 0.253953088399634
0.35814016393921 0.266592501341518 0.259899189331586
0.357746736384792 0.266894388921837 0.282138700190841
0.354079524817266 0.269708339328228 0.290275273950564
0.351685044233494 0.271545688902348 0.299388726647124
0.359926617208919 0.265221707534907 0.305553709507876
0.358133593425092 0.266597543074325 0.311118326641341
0.35218472512168 0.271162270271465 0.320828911538996
0.358973825449608 0.265952810365749 0.326679364988707
0.355619661962554 0.26852655053146 0.346277770078452
0.350999047975742 0.272072072344574 0.357180620658026
0.353503635249643 0.270150234935561 0.360301211713573
0.353482703131873 0.270166296714441 0.372266698176365
0.357388406409113 0.267169345182776 0.372452194068949
0.355409341747965 0.268687934908232 0.383173037266412
0.354705882945701 0.26922771783214 0.389426547896922
0.3526576081422 0.270799414367664 0.406664049427864
0.355840468289796 0.268357119877451 0.414408593063166
0.359110681498429 0.265847797026021 0.416197395145478
0.36020701173336 0.265006553249021 0.430451062934684
0.35099515693667 0.272075058043865 0.445400351183239
0.358101133332803 0.26662245057917 0.453042584210052
0.358660386751612 0.266193320337799 0.459557048823252
0.350856810351066 0.272181215112693 0.468998990780973
0.359146267179808 0.265820491172313 0.476088037643927
0.350370377028229 0.272554468529159 0.491830070073957
0.358391335967644 0.266399770265474 0.499493670542477
0.352144532315938 0.271193111296034 0.512281728096906
0.350058365845436 0.272793883130267 0.516135968884417
0.357433006012597 0.26713512270337 0.522291181384493
0.353967621131613 0.269794206046285 0.53105927703834
0.35784165008839 0.266821559075537 0.533137622373097
0.352934971222771 0.270586586190473 0.558234451624603
0.356493164377367 0.267856288554509 0.557864328591896
0.354403879355334 0.269459453337494 0.572296010410903
0.355325091181985 0.268752582641261 0.572613605745058
0.357976293269548 0.266718243728887 0.582923497534558
0.360321084023434 0.264919022502267 0.595063480683223
0.358439847695929 0.266362545907128 0.600583828619328
0.353918643258212 0.269831788090359 0.616985393856502
0.354450126045753 0.269423967003831 0.625233532005703
0.356464255087558 0.267878471432783 0.630333335609282
0.357372256584409 0.267181737379124 0.645826195763838
0.35696011486715 0.267497984841649 0.649383227983733
0.356082155710105 0.268171666597192 0.667536784223449
0.359759096374442 0.265350250792249 0.664906464362557
0.355547423934612 0.268581980719858 0.675656400797278
0.356821909524073 0.267604033531275 0.686837565713193
0.352019902339305 0.271288743240615 0.695467542510109
0.360363075756591 0.264886801112143 0.694626327726685
0.356992903234088 0.25227189283508 0.703082431365767
0.36551886324366 0.15777524182436 0.628007419924402
0.367162252254735 0.143501013056257 0.628007419924402
0.372927728124963 0.135375929729431 0.628007419924402
0.375397868188584 0.124992538153374 0.628007419924402
0.379193189050193 0.110043520272969 0.628007419924402
0.380293219045962 0.0945837211021808 0.628007419924402
0.376731481909909 0.0811165971553848 0.628007419924402
0.385043851856577 0.0688706381714257 0.628007419924402
0.384171947554362 0.0587315116080305 0.628007419924402
0.382392301884146 0.0457718772865759 0.628007419924402
0.386855586368014 0.0306571010316201 0.628007419924402
0.387451108308745 0.0245549125643188 0.628007419924402
0.391610841103469 0.00725082403013986 0.628007419924402
0.392918731214486 -0.00444192196631529 0.628007419924402
0.388972744163594 -0.010645398675777 0.628007419924402
0.393426176818219 -0.0320388544609643 0.630770221092116
0.39686859841941 -0.032621096492894 0.637084121474049
0.390691600951111 -0.0315763355734519 0.648469539125861
0.396044161209309 -0.0360965481320435 0.651864023473091
0.400627139759888 -0.0474331540898384 0.652359266793866
0.400768123344406 -0.0686257116642269 0.65187567221359
0.400170565079605 -0.0665194167771146 0.651999485363094
0.409880384841139 -0.123479532908884 0.628007419924402
0.402215648380153 -0.132137530792757 0.628007419924402
0.407549341418663 -0.145351462339207 0.628007419924402
0.414096510700063 -0.149939529453175 0.6327763109953
0.414709818176678 -0.15659323149662 0.644907559563622
0.408761051629227 -0.165966540053875 0.647545620949955
0.411756125809726 -0.166846287579744 0.655330938160439
0.407917230890075 -0.175052857829656 0.660545492810316
0.409151196367282 -0.176682046372176 0.66581489894295
0.410534522881825 -0.184710481461922 0.681817221613467
0.415764346243796 -0.18286640056072 0.68990944804562
0.411620248074102 -0.189168894202866 0.691377311528444
0.41969882116907 -0.198242227081066 0.703082431365766
0.412194916718346 -0.20144329815424 0.703082431365766
0.412904107864111 -0.212107052284781 0.703082431365766
0.36602243634388 0.260544220998812 0.252371370876966
0.362453297696382 0.263282917406876 0.264410837604818
0.363180987967777 0.262724541022745 0.267024996050172
0.361883786860116 0.263719918441489 0.284651179766153
0.363987363178093 0.262105787561432 0.296825702487966
0.365135213291595 0.261225011191187 0.29553640590423
0.37003202010851 0.257467559165649 0.299041905783216
0.366010312358639 0.26055352405989 0.322348121168102
0.360619437327686 0.264690087959962 0.333602136959945
0.367673750709519 0.259277122920421 0.330493598633634
0.362694179025079 0.263098082662467 0.33941935034421
0.36164793606257 0.263900893123583 0.357244912425961
0.364446987111579 0.261753105712947 0.358690220093223
0.364752715244891 0.261518512265273 0.369696580886111
0.36037531568428 0.264877409085296 0.390248836268505
0.361574200247391 0.26395747260455 0.391315011610452
0.360904423910248 0.264471410063949 0.405606686739934
0.364356743275077 0.261822352244194 0.412420473969633
0.364496197281778 0.261715345421271 0.417615256800519
0.364320572413373 0.261850107122558 0.426967521335663
0.366156376181725 0.260441445346468 0.435432061355633
0.36945618181187 0.257909415431373 0.43826661602817
0.368602608033536 0.25856438562772 0.449637809955177
0.36819703596581 0.258875592020856 0.45801410219282
0.360003172433484 0.265162964645027 0.474933596985425
0.369984188726399 0.257504261476016 0.47192207474421
0.363887638517763 0.26218230898467 0.495109336282901
0.3690643692601 0.258210063776575 0.503036676590726
0.36452695440949 0.261691744647104 0.50617518606687
0.361062890230802 0.264349814579503 0.518617130526341
0.365750519177884 0.260752870378776 0.530371240161503
0.369715258611748 0.257710618810867 0.530498190505863
0.367003955594498 0.259791074788592 0.541342152116032
0.361944131450747 0.263673614408519 0.559314536980801
0.364295574667664 0.261869288567479 0.567703674401528
0.361204227034218 0.264241363035847 0.573421266716003
0.369835982218944 0.25761798432898 0.574248229193255
0.365455877686331 0.260978956747023 0.59065495620344
0.360707329958643 0.264622645572183 0.606972021520125
0.369574871835956 0.257818341372688 0.599896789185938
0.361684518981866 0.263872822062308 0.617406013601449
0.366927077129358 0.259850065709688 0.628655157930109
0.368644421123687 0.258532301315196 0.639087734072219
0.364471763055823 0.261734094462277 0.651480402942855
0.36830555975589 0.25879231878789 0.658599487886615
0.368681748451956 0.258503659048826 0.658645444425539
0.361533673524153 0.263988569853026 0.673854052769835
0.366375585025403 0.26027324048471 0.676411643341078
0.363912080459872 0.262163554022852 0.695026406902611
0.366575086245245 0.260120157814591 0.695868003979754
0.370648353622614 0.249593754849034 0.703082431365766
0.370772648301861 0.242749476740389 0.703082431365766
0.380389587679172 0.143817589090922 0.628007419924402
0.378764720875982 0.126589605941864 0.628007419924402
0.386259544521079 0.121095877746284 0.628007419924402
0.389083338317341 0.111381448022322 0.628007419924402
0.386816058805688 0.0963533918340384 0.628007419924402
0.385066873934794 0.0803954844703496 0.628007419924402
0.387519324979885 0.0685901460508482 0.628007419924402
0.387872627530077 0.0601033762396273 0.628007419924402
0.389581742540659 0.0494094418613061 0.628007419924402
0.394257357419662 0.0364929568847858 0.628007419924402
0.396653681327604 0.0273985398753409 0.628007419924402
0.394215873125921 0.00432471889577802 0.628007419924402
0.397487165049404 0.00603160150927963 0.628007419924402
0.403152878321309 -0.0179288571504038 0.628007419924402
0.405192439417296 -0.0185944214096957 0.628007419924402
0.407638730730022 -0.0344427280206878 0.633288781104651
0.400204240631891 -0.0331852781430771 0.65043264472937
0.400179210637358 -0.0386736209482777 0.652457370425351
0.409750185970106 -0.0459293054677368 0.650156768473122
0.41047229139105 -0.0672770077211366 0.647653649637852
0.41231075194369 -0.113919767141768 0.628007419924402
0.416294512521732 -0.12531478610686 0.628007419924402
0.415505172430252 -0.142286305689481 0.628007419924402
0.418996229425535 -0.143811235001319 0.633194864307044
0.416034365575562 -0.151455235147959 0.639354137056747
0.424156446881606 -0.150924772861319 0.65571979404169
0.424662220019909 -0.152671669358751 0.659636104475966
0.416892119489934 -0.163714275088282 0.661127754921535
0.424538269504433 -0.157588272378682 0.667375949112308
0.424917490676292 -0.164207054261686 0.678953798721635
0.425186488680024 -0.169532983143519 0.688193453116486
0.426954614241274 -0.169862659510477 0.692480732982934
0.423947735087051 -0.180874301541956 0.703082431365766
0.427815596104223 -0.188788408546051 0.703082431365766
0.372766737248147 0.255369136899917 0.241700079268671
0.37242059721752 0.255634739487037 0.254643919116305
0.374172171413667 0.254290709334886 0.269960487397737
0.373796842281002 0.254578709507755 0.279852360765513
0.373645343518465 0.254694958596894 0.277431230806321
0.376596666691315 0.252430328676119 0.286120343636408
0.372061428647939 0.25591033922371 0.302001390285912
0.374662131314361 0.253914749880056 0.305537302926207
0.379830988974529 0.249948545900388 0.309871707016311
0.380173850168265 0.249685459253303 0.316600353280848
0.37872397191742 0.25079798996446 0.337030388752154
0.370807118246391 0.256872805446122 0.345881159890625
0.372783898051261 0.255355968952552 0.360404852795588
0.371758311715394 0.256142929026565 0.368466302212076
0.378791411879278 0.250746241461658 0.370999084139339
0.3738819622673 0.254513394645051 0.385162247133226
0.370593195832514 0.257036953887622 0.400295788385477
0.371644967244584 0.256229901297956 0.401802901277189
0.37382492745831 0.254557158993244 0.410582139650524
0.377940173378484 0.251399419736525 0.411747502593393
0.371147778499914 0.256611407639861 0.429004076418396
0.376412191419602 0.252571881530719 0.430651350962924
0.370530889045335 0.257084763566959 0.45345255229431
0.380135216135701 0.249715104189144 0.443711543796255
0.379621419116019 0.250109354508689 0.456598794326848
0.376195636257242 0.252738050151184 0.47329358432644
0.375428986189602 0.253326321438421 0.484342536807458
0.374825887157493 0.253789095602181 0.491717225085651
0.379872890744628 0.249916393541346 0.499663177947777
0.371459521533091 0.25637219879719 0.511524500608589
0.377324848881664 0.251871574829299 0.51878943393724
0.370638313243847 0.257002334080279 0.534654786153005
0.373183897804603 0.255049038346628 0.534008326398186
0.370982466473585 0.256738256019101 0.544833493793695
0.378640184075816 0.250862282636587 0.552790985954258
0.37458307978013 0.253975408255712 0.568222261405738
0.377175466716553 0.251986199796111 0.568372731063265
0.371460471526394 0.25637146984169 0.584629457631915
0.371284539467983 0.256506467258159 0.589801473188241
0.372343999717782 0.255693514815798 0.601640820682317
0.377233017340398 0.25194203964926 0.610205087905576
0.37199517551374 0.255961177041619 0.625901825067295
0.371255797906746 0.256528521433774 0.63420331038641
0.379014221305057 0.250575273776082 0.633152720256023
0.380031979862965 0.249794320167353 0.644125325845775
0.370352435335041 0.257221695914973 0.658008868118084
0.378341186692365 0.251091711398244 0.665350857751168
0.37960974413505 0.25011831303667 0.675762353558694
0.379763118253872 0.250000624936041 0.679427445126427
0.370884484109086 0.256813440531727 0.69576968763286
0.373776679701432 0.253150891077194 0.703082431365766
0.377408330296103 0.244402147387785 0.703082431365766
0.37382650794612 0.236311896866675 0.703082431365766
0.387827671864694 0.131552959353849 0.628007419924402
0.391309626413395 0.124626793456345 0.628007419924402
0.3944757346941 0.109750473101558 0.628007419924402
0.396687346612508 0.0936435822039625 0.628007419924402
0.402007093720405 0.0842656266763414 0.628007419924402
0.401630015855903 0.0720657950454929 0.628007419924402
0.40509961799756 0.0578805846439513 0.628007419924402
0.402476207166895 0.0466565719930795 0.628007419924402
0.404969758130163 0.0370381377710708 0.628007419924402
0.410955762753336 0.0203181458064538 0.628007419924402
0.408946214314699 0.0113643109888362 0.628007419924402
0.410487863682182 -0.00331879108066726 0.628007419924402
0.410014044437827 -0.0182872164091351 0.628007419924402
0.410614818916393 -0.0274485825838828 0.628007419924402
0.415369258071666 -0.0357502488501329 0.632112463695101
0.415328636407574 -0.0357433782099321 0.647066770618762
0.416661265931944 -0.035968775622559 0.646475419914599
0.422997207186265 -0.0799040335828407 0.628007419924402
0.424349566437307 -0.0998471608560395 0.628007419924402
0.42136390778768 -0.114580174834827 0.628007419924402
0.423138596064724 -0.123448938498211 0.628007419924402
0.42963962155267 -0.124521217582016 0.638675095090952
0.429378410914509 -0.126503302023951 0.640057939330084
0.431785876146345 -0.132675730666129 0.652320758313526
0.432539621565342 -0.132813247089708 0.654323419452818
0.433144231894862 -0.146057388810713 0.669368609426079
0.426698861329215 -0.153715504656579 0.665655417269687
0.433414445898185 -0.151883945134963 0.67691971915296
0.432321516806066 -0.160186746216791 0.688115832388682
0.431180156250901 -0.162333550717467 0.689189066587019
0.436741001629973 -0.160682616964373 0.698297865155775
0.431461622715479 -0.1706183365677 0.703082431365766
0.440650882888373 -0.180828002258199 0.703082431365766
0.382015300926917 0.248272464389156 0.241185616391806
0.384751962166608 0.246172550362984 0.246026823306615
0.389444619337993 0.242571747870048 0.253321738300664
0.383197038525429 0.247365685237107 0.263610624508085
0.390924981780373 0.241435825816019 0.270287136453078
0.390311300427741 0.241906720079912 0.280360015110638
0.389969327442675 0.242169125180513 0.283201822752717
0.381064403605995 0.249002113566295 0.302930728991434
0.386285150566998 0.244996093525708 0.305466688028382
0.388641245495476 0.243188198300847 0.31193846947699
0.384716414796913 0.246199826819102 0.325632014164067
0.382435252796381 0.247950223986063 0.337563906470255
0.389274003727413 0.242702665832616 0.343547678719182
0.3837137156952 0.246969224900669 0.360037949237679
0.391376286698731 0.241089527372355 0.35396826642013
0.388814454722563 0.243055290186336 0.376663691335805
0.387550544140184 0.244025122886588 0.382537049015942
0.3830644302181 0.247467439170151 0.394263031525358
0.385332294243887 0.245727245898098 0.403223750458298
0.382450668234833 0.247938395304107 0.409259908024678
0.387413033564071 0.244130638462772 0.419638175322932
0.388657776911568 0.24317551329913 0.434932826521234
0.381353330698155 0.248780412010923 0.443426966262531
0.390845851485766 0.241496544626638 0.439244311037597
0.384783727586275 0.246148175899189 0.461003035606128
0.384110264355181 0.246664942411819 0.469101392307629
0.386232557530771 0.245036449581786 0.477186974488683
0.380877657249412 0.249145409085608 0.488115014260135
0.388614099599916 0.243209028079124 0.486948080819127
0.385220120216499 0.245813320056663 0.507841057340003
0.382938111297577 0.24756436708696 0.521380922730002
0.385275576425884 0.245770767010551 0.523032336026689
0.385286284869447 0.245762550132806 0.53662502128309
0.385193275279557 0.24583391890127 0.537082212544328
0.382535453527636 0.247873337260756 0.547105793091123
0.385257600563911 0.245784560374575 0.561301811578572
0.38637816815225 0.244924718622188 0.559821071911656
0.386445260831885 0.244873236598408 0.578780062078757
0.384367827385017 0.24646730734792 0.580974685299465
0.389741952284841 0.242343596275516 0.588410758907081
0.384117788040905 0.246659169284714 0.609516123964321
0.385564341481245 0.245549189790387 0.614209562804058
0.382812560150063 0.24766070587082 0.62624610750498
0.387754763210955 0.243868420082125 0.632028679370279
0.385967132444074 0.245240117414095 0.637928521770868
0.389632691866731 0.242427434743049 0.650949339671926
0.38153437976563 0.248641488175301 0.657800220550455
0.388586178842487 0.243230452429823 0.670407384279096
0.383306233091597 0.247281897299546 0.68100364890599
0.387696038870001 0.24391348085379 0.687635993417613
0.388670234032307 0.243165954614195 0.687800407997724
0.388830663020078 0.243042853122224 0.695767992616561
0.388167473906393 0.235239780331612 0.703082431365766
0.385303644197589 0.228410601669921 0.703082431365766
0.40177228217191 0.126397155688422 0.628007419924402
0.410056255955886 0.0996660097930656 0.628007419924402
0.408824505379027 0.0988715924206486 0.628007419924402
0.411190728942302 0.0771339446461978 0.628007419924402
0.409700985674274 0.064813146385597 0.628007419924402
0.408772592663888 0.0626709563299088 0.628007419924402
0.41358225366512 0.0469932131422517 0.628007419924402
0.412622511404198 0.0357003140467899 0.628007419924402
0.411966893726856 0.0261738153893126 0.628007419924402
0.418068718833065 0.0134857011344545 0.628007419924402
0.420569540784319 0.00732711011632203 0.628007419924402
0.422508479655253 -0.00938906836428244 0.628007419924402
0.421958959183301 -0.0339785765173668 0.628007419924402
0.428112835907025 -0.0483569666043054 0.628007419924402
0.428932258487078 -0.0563535425311267 0.628007419924402
0.432747482182085 -0.0615638263877846 0.628007419924402
0.430129242445441 -0.0832546506501786 0.628007419924402
0.431914175999782 -0.10357459729754 0.628007419924402
0.43683283010112 -0.0999525444259441 0.631305132037127
0.435856996452856 -0.107885733339357 0.637011943141323
0.431249254135433 -0.12124101124724 0.639294950686058
0.436986314441524 -0.118302300067754 0.65046007570412
0.434852302343851 -0.1246594027407 0.651693198160174
0.433861218050681 -0.130020256484388 0.654730276994341
0.436279921874218 -0.137446888734188 0.668304181739701
0.434877976031924 -0.144191198093384 0.671741899547917
0.441752219347264 -0.140525514459423 0.684972318250462
0.444651665464139 -0.147054473896211 0.698815269674657
0.442070538889524 -0.152597067356597 0.698110479998481
0.443086999844224 -0.157283948272021 0.703082431365766
0.443527988711188 -0.168462539086307 0.703082431365766
0.393317294290233 0.239600139863524 0.2286942081121
0.400832507838939 0.233833513687176 0.236163072905688
0.394559264211209 0.2386471428249 0.250077701241024
0.394748207008292 0.238502161917515 0.26260804843103
0.396388777439457 0.237243307950001 0.262319616296297
0.395257802518658 0.238111135529458 0.269294303851126
0.394472778624764 0.238713505549451 0.284774424577888
0.391682248051391 0.24085475496918 0.298410777517683
0.399693619539328 0.234707413415762 0.302289237378956
0.392995326895461 0.239847194134781 0.318778577742077
0.396319439977563 0.237296512455791 0.320506015552852
0.397910113734469 0.236075945553047 0.329450039746596
0.398448584750715 0.235662762210036 0.338562124710991
0.401412399897701 0.233388546860374 0.33849382767485
0.398610687939964 0.235538376058088 0.351654131229146
0.397899005367314 0.236084469302958 0.358955483234691
0.398295185736844 0.23578046941331 0.368413100718415
0.398178655816926 0.23586988596577 0.384065203153599
0.394401833704989 0.238767943501055 0.399304063292451
0.399125117237901 0.235143640574374 0.407849107410069
0.396735632217926 0.236977156917572 0.414107850557585
0.394026948733374 0.239055602857162 0.418856335644181
0.394892867437314 0.238391160066234 0.436344179565204
0.393724979005981 0.239287312378544 0.436463634936051
0.39394719959526 0.239116796523105 0.452340746594885
0.395402956212211 0.23799975518299 0.453380923977377
0.400156136572924 0.234352511613483 0.460757548897816
0.399545542634736 0.234821036820952 0.475553661280092
0.3909859715434 0.241389026724857 0.495904136494686
0.401089394656785 0.233636397498986 0.489138896705122
0.396491162125466 0.237164745417272 0.504869467190881
0.394777412396391 0.238479751835032 0.511473016931583
0.40102799746727 0.233683509219488 0.52150067730994
0.392530989603159 0.24020349267069 0.540456909389279
0.395072551422755 0.238253283694897 0.539687635799289
0.394951229714894 0.238346377115566 0.553953134949489
0.395978839239252 0.237557864594422 0.559390779147418
0.392888739416708 0.239928981583809 0.570764825067984
0.400447842547999 0.234128677746253 0.576331147404342
0.397720667372086 0.236221312859678 0.593004720909194
0.399950741265615 0.234510116975985 0.593786684651053
0.391282348903166 0.241161608378084 0.608618792242264
0.39748427667427 0.236402701821819 0.614902622246855
0.400989376882399 0.233713143836551 0.62489298407318
0.395990075711214 0.237549242546236 0.631371901543761
0.397520167301979 0.236375161974563 0.639706784312535
0.3941009523293 0.238998817900801 0.65089214991696
0.393124640032138 0.239747968675109 0.670997721467124
0.392982054128304 0.239857378687226 0.673372326644281
0.398489354000453 0.235631478864433 0.685672943222845
0.399405603254459 0.234928416084119 0.687554380076812
0.399442755721873 0.234899907993202 0.689765568578997
0.400768772067419 0.229532623917239 0.703082431365766
0.396024540966903 0.218908975103217 0.703082431365766
0.40005568138776 0.21658817326911 0.703082431365766
0.419176520682102 0.107999639351251 0.628007419924402
0.416600597162662 0.096774311247689 0.628007419924402
0.412678783775809 0.0931112420026102 0.628007419924402
0.419966078290116 0.0754063464465315 0.628007419924402
0.417855510088653 0.0626998452089603 0.628007419924402
0.420813409139492 0.0452165951896978 0.628007419924402
0.426157035837745 0.0388303127724929 0.628007419924402
0.430412125228132 0.0195380061350838 0.628007419924402
0.425841279170559 0.00344928490339641 0.628007419924402
0.430333611847738 -0.00773983259433205 0.628007419924402
0.435896796729266 -0.016447166013638 0.628007419924402
0.434831516957527 -0.0273355779627368 0.628007419924402
0.439463394528425 -0.043682468019144 0.628007419924402
0.441185871462733 -0.0499131345680599 0.628007419924402
0.439249447366952 -0.0685798476845749 0.628007419924402
0.443114052236522 -0.0833260210458711 0.629808868673388
0.442841664697066 -0.0855098284180899 0.631370509481804
0.444265963653721 -0.0907959787804307 0.640297790268006
0.444900962776052 -0.0990290792654783 0.650290662095152
0.443883433741251 -0.105335378753131 0.654229812283862
0.449240395357071 -0.100330947095565 0.66234231037715
0.446570514219978 -0.112785618593037 0.668490834535547
0.444222671536736 -0.124015268898293 0.674181415944283
0.451088474672754 -0.11831434270696 0.68530848875791
0.451438830962159 -0.120697586385236 0.688612539421169
0.450760805605206 -0.130656115315752 0.697127380246725
0.452038910655146 -0.129414382880605 0.699014077324057
0.454772742120914 -0.151266738868031 0.703082431365766
0.457123763285344 -0.155871780798347 0.703082431365766
0.402453159564823 0.232589943879791 0.220103210491054
0.411365008028234 0.221922375477261 0.21857019946436
0.405688901694983 0.2293196212697 0.239871008249624
0.40440750397474 0.230989571291421 0.257426541448188
0.402814744813888 0.232312489759728 0.262284408732404
0.407278435885057 0.227248099982196 0.270336088828731
0.407203911159534 0.227345222495402 0.279500157071051
0.409013956556598 0.224986325407954 0.282567173223219
0.402250114034731 0.232745746194819 0.301711737349661
0.40850135371791 0.225654362433522 0.304153493934121
0.408045855524996 0.226247979235811 0.309933014747107
0.404480669641868 0.230894219937599 0.325687733740706
0.407387021295199 0.227106588720578 0.332130287305737
0.406616436515184 0.22811083435782 0.339368419675962
0.406705941635302 0.227994189014282 0.349774094983239
0.41157164086716 0.221653086318712 0.348303635963233
0.405099557603905 0.230087669442526 0.374787900064282
0.401375727301424 0.233416686733217 0.379798955331236
0.403423906490095 0.231845063565532 0.388610817047941
0.409155099562353 0.224802384261654 0.392336410635605
0.404091266510252 0.231332980211367 0.404393269824645
0.40879358839287 0.22527351479029 0.410344028700979
0.403350266126046 0.231901569804272 0.425411033683207
0.408005221796218 0.226300934142148 0.432221754659316
0.404357364405303 0.231054914450495 0.44396839169133
0.403934445392838 0.231453313287044 0.451604069953281
0.411660535332692 0.221537236795724 0.447999633035421
0.405076915640998 0.230117177023078 0.469945780122037
0.400996820468031 0.233707432172409 0.484116540509439
0.408855379700698 0.225192986790109 0.481127568441731
0.410579452088696 0.222946131909453 0.493524612358031
0.411355602668231 0.221934632781059 0.499367942004011
0.406433753867666 0.228348911019244 0.514341932647489
0.40673168781148 0.227960635944234 0.527674679394655
0.404065027250886 0.231353114303223 0.538306175431049
0.411051905947937 0.222330418052595 0.538236024450739
0.410168401508998 0.223481823454438 0.554530362891026
0.40380497233628 0.231552661457557 0.559642270494806
0.402720146057911 0.232385077938218 0.570472176036907
0.406429023588462 0.228355075639122 0.582853226667226
0.401970027060425 0.232960664489185 0.598717708826288
0.405274992151585 0.229859038688717 0.596310967516669
0.406518561416342 0.228238387670001 0.610401829084104
0.403620807997504 0.231693975724923 0.618491350858309
0.408591469746825 0.225536920938141 0.623747438613956
0.404830011722067 0.230438948474883 0.630138892704819
0.40125925580667 0.233506058454471 0.651413408892972
0.404174967553001 0.231268754142344 0.660763038016879
0.409191813691033 0.224754537477618 0.661975910265918
0.412194435169317 0.22084144498208 0.669872368397242
0.402455299302115 0.23258830200162 0.686266290497265
0.404750355852329 0.23054275802542 0.697084281592033
0.407993784683197 0.226315839278029 0.702385218643639
0.409993300858313 0.223277052482495 0.703082431365766
0.407449019123808 0.217569377214081 0.703082431365766
0.412391816488087 0.202009435680912 0.703082431365766
0.421193068301908 0.101999566971769 0.628007419924402
0.429960196328618 0.0760726741356854 0.628007419924402
0.431161476457013 0.0726429304390008 0.628007419924402
0.432590630758542 0.0594847399229948 0.628007419924402
0.435647448703947 0.0387340646510354 0.628007419924402
0.430432947190656 0.0322843507796242 0.628007419924402
0.439128504964985 0.0185299517187504 0.628007419924402
0.439129861851689 0.000427092357287884 0.628007419924402
0.44384425051402 -0.00202782144672861 0.628007419924402
0.445622725284566 -0.0141941718608476 0.628007419924402
0.44740550830001 -0.027882069008482 0.628007419924402
0.444828913007293 -0.0424937945390335 0.628007419924402
0.451657298362663 -0.0477726391030871 0.632668800272949
0.448448970567808 -0.0590218255244986 0.628089744827095
0.450212653834478 -0.0694523438868253 0.63640538851246
0.452699805752315 -0.0738821502736989 0.644544639652217
0.449479204074144 -0.0880526517952428 0.650368861272953
0.450267452011451 -0.0920234615402196 0.656379046753384
0.450698863343503 -0.0917364642787586 0.657151086912631
0.45760311731367 -0.0891791537957621 0.671589747053455
0.455242681699696 -0.0984055890359281 0.675199495271501
0.456472409340476 -0.105025390327915 0.685010748459591
0.459955279802801 -0.107637652849383 0.696287279392714
0.452933291376865 -0.117554061910603 0.689087744405146
0.458029693163477 -0.116591341024026 0.700692140716621
0.454783336013743 -0.126781453287703 0.703099478320934
0.458362527589505 -0.149166654192732 0.703082431365766
0.417544798608082 0.213868715594759 0.205353603147682
0.422947483643175 0.206827799375556 0.202685348972838
0.417103580481976 0.214443722251658 0.216219615132329
0.413662301217716 0.218928484703873 0.231373135445086
0.415794254637536 0.216150068913449 0.240250584655474
0.422865696247951 0.206934386784191 0.243339835175805
0.413566970530528 0.219052722074227 0.26195624841728
0.42261950540374 0.207255228938928 0.264620947900194
0.417181206667317 0.214342557837325 0.27254758941693
0.413727640163485 0.218843333331913 0.293805633507227
0.420414503642333 0.210128843181553 0.297671765517526
0.416577728802968 0.215129025502092 0.313326908484018
0.417926434606144 0.213371357878894 0.313335739457172
0.419017898553649 0.211948934368966 0.317560951594102
0.422756856985905 0.20707622887205 0.328800411898947
0.412087460429408 0.220980857177382 0.348021420349755
0.417854541806562 0.213465050399434 0.359358689415774
0.423781249939794 0.205741213982782 0.356540126270769
0.419732863459532 0.211017173962927 0.372328411970996
0.414587491004611 0.217722753898899 0.385665489747066
0.421844437264465 0.208265317403712 0.386129212342914
0.415206603205604 0.216915911169928 0.404737116395812
0.413210962993327 0.219516680129631 0.408246804828411
0.416321249767302 0.215463275488973 0.427687167062416
0.422885917404678 0.206908034059676 0.414503820663729
0.420286859354649 0.210295192455962 0.43701383177794
0.423828835822882 0.205679198852554 0.436180265814071
0.417104609930674 0.214442380647995 0.459919910287645
0.418182225418789 0.213038004801717 0.460207526821309
0.420650988492503 0.209820650124519 0.470264411134416
0.418033432419064 0.21323191561426 0.482966578835637
0.41717019485091 0.214356908715867 0.494235988332352
0.414160320282183 0.218279453622902 0.511904249569766
0.42299043907967 0.206771818760814 0.506861452526312
0.420758354518102 0.209680727995777 0.515256696122782
0.4148104145553 0.217432234271437 0.537716262120314
0.417737430926195 0.213617672270165 0.543262118332769
0.420412098246824 0.210131977954012 0.545457789851409
0.422760218283751 0.207071848343412 0.551675341292976
0.419880944244847 0.210824191326274 0.569944876197742
0.422540415943595 0.207358300330113 0.567694916542066
0.414393804514131 0.217975171047669 0.590635967819821
0.416147065421065 0.215690276948542 0.592481504704902
0.416098925710595 0.215753013840667 0.599812901459805
0.417379908315502 0.214083604807784 0.615675094770003
0.41695436061609 0.214638189367012 0.619135125973058
0.414870534209541 0.217353884812624 0.6350025105912
0.415883815498796 0.216033350926641 0.637509828151573
0.418555424741899 0.212551641974712 0.65352495940802
0.418278855136746 0.212912074501504 0.664119721659602
0.42346851199768 0.206148782003995 0.658474230085242
0.419155680634735 0.211769373264971 0.680821037189139
0.424083062613176 0.205347884048987 0.680973523611924
0.422099575717756 0.207932814497795 0.693738447434225
0.418059291029828 0.208869954817093 0.703082431365766
0.417832768424206 0.203523422563643 0.703082431365766
0.43660989501528 0.0853055203244805 0.628007419924402
0.425578300013741 0.181797943901527 0.703082431365766
0.442195994268531 0.0615932457216094 0.628007419924402
0.445375468738252 0.0655473302733822 0.628007419924402
0.438276006790305 0.0453029919237218 0.628007419924402
0.448004768886371 0.0334489332850204 0.628007419924402
0.449755260339444 0.0175732786438423 0.628007419924402
0.443586056693411 0.016366073565292 0.628007419924402
0.449154914709554 -0.00103373926500973 0.628007419924402
0.449096800971327 -0.0152758185666453 0.628007419924402
0.454198638599583 -0.0294699318144052 0.633018041013112
0.452153488262498 -0.0337146423473501 0.629077912736029
0.454899352428323 -0.0461346679647294 0.640691580709891
0.453884026815474 -0.054054648412729 0.640764108866147
0.459190832099964 -0.0440565079108223 0.651342680662593
0.454975464677944 -0.0685202833222853 0.648705940087143
0.458995505641836 -0.0671919583023714 0.658899169959085
0.464172012150681 -0.0604527330957191 0.670269693012249
0.464807097803814 -0.0687077686905792 0.674834267530834
0.463079528262296 -0.0867682172819831 0.682651027183263
0.460744182271165 -0.08976184579025 0.679945234699528
0.463905167927835 -0.08963498263981 0.687623902327237
0.465365343428152 -0.0987687021403115 0.700576708932789
0.466256290534439 -0.0993703364904877 0.703082431365766
0.465437161014361 -0.121857359089428 0.703082431365766
0.429960496728462 0.197688262782743 0.191822451138254
0.425875931468665 0.203011371866335 0.203022738335392
0.424378757979406 0.204962526345084 0.220021137020626
0.430079949229066 0.197532589253106 0.219159891546809
0.430199369893008 0.197376957213815 0.223728920515863
0.426326623499473 0.20242401857645 0.238325080550521
0.429305178494216 0.198542290132898 0.242999393906284
0.435580846992686 0.190363679714151 0.240615764248213
0.423555855264839 0.206034954042086 0.271771562494723
0.429775562133867 0.197929274238735 0.272058718797153
0.430374304558593 0.197148977919036 0.276984579017457
0.432149307888004 0.194835748543269 0.286468395787814
0.423823473145586 0.205686187629672 0.308068972783991
0.426809267839147 0.201795024226929 0.308389876175669
0.431841417579178 0.195236999005784 0.316634194704866
0.424571219858869 0.204711705140462 0.330814069233718
0.425020572329507 0.204126097599379 0.340368823302614
0.434385255612065 0.191921804736928 0.3405651521885
0.429641712784156 0.198103710107416 0.365277741095088
0.431483380049796 0.195703602598503 0.361670512816604
0.429765697760397 0.197942129740529 0.38194742294847
0.430238704227369 0.197325695711252 0.38446319136451
0.42777381214282 0.200538005617152 0.397225733107262
0.428611863255762 0.199445836143029 0.405722022945884
0.429166354689676 0.198723208837329 0.419192739707877
0.433538562857671 0.193025236217454 0.423403995072915
0.432177123931688 0.194799497969369 0.430825028927786
0.432555646308016 0.19430619800435 0.443731630959691
0.426985401094148 0.20156548290001 0.455039174927225
0.429335404076816 0.198502899386744 0.461328009692584
0.427675465239528 0.200666173796863 0.476782072768855
0.428371588649722 0.19975896810607 0.483111659368839
0.426909573708719 0.201664303072657 0.49065396914364
0.433397388430332 0.193209218313158 0.492444680856271
0.431983072164112 0.195052391156519 0.509934517975921
0.435160879483194 0.190910992028291 0.506038788418721
0.424341244197182 0.20501141525791 0.530224075402515
0.429957851777425 0.197691709750044 0.539479706946334
0.427278553558868 0.201183439169876 0.550587864057214
0.424381999488033 0.204958301928795 0.557585850931429
0.433998807423363 0.192425433821733 0.552323127447085
0.435107329047621 0.190980780314656 0.56369503392934
0.43304581816658 0.193667393601217 0.579964270669508
0.431874337878709 0.195194096436154 0.584634445379682
0.425967751136983 0.202891710144858 0.60200131389371
0.430123293829443 0.19747610147012 0.609318258711546
0.424263606816136 0.205112594262769 0.619878200974329
0.426405621995581 0.202321065731906 0.627824142352707
0.425157380920579 0.20394780517227 0.640157975410298
0.430877351638666 0.196493394200551 0.642331046254012
0.42767176617369 0.200670994513319 0.655921967761109
0.430168823410607 0.197416766164731 0.666953907513143
0.426423389337839 0.202297910880667 0.681281500879975
0.433639186983609 0.192894100303412 0.677735864430753
0.423546140989274 0.206047613932483 0.696788641160761
0.433013623601955 0.193709350374704 0.699955778028709
0.434270640427347 0.190834988826643 0.703082431365766
0.432581012544344 0.179984424622704 0.703082431365766
0.445553321685941 0.11634666542877 0.669621824609916
0.449194754894553 0.0924589975121643 0.654174847399354
0.452895099678117 0.0681600051903684 0.643065316972534
0.452977557876615 0.0333317680155915 0.63112883386047
0.455819721890464 0.0384011149697861 0.640432394462234
0.459536975386062 0.026840733916638 0.646251965276057
0.460736809639173 0.00958619525803129 0.643410789375036
0.45695696329559 -0.00801398705020615 0.632842009118606
0.459085086089705 -0.00868679443456213 0.638718307308528
0.465475931061366 -0.00145700881569755 0.653136741358737
0.460047361225995 -0.0294233074813243 0.648506278006341
0.466289486348082 -0.025747990840694 0.663770978871919
0.464682688475754 -0.0432941712503912 0.665635108989159
0.468020081723358 -0.0338465258645151 0.671185045698727
0.463851909015992 -0.0507747620056954 0.666043507410171
0.469327820286136 -0.0473175618015565 0.679353157684723
0.46538322416291 -0.0662643983406458 0.675508796153863
0.46959591399683 -0.0641960476716372 0.685954453853706
0.472419835356464 -0.0763093975663923 0.697668015387882
0.472398657653081 -0.0775061644915973 0.698029547239299
0.476040513362571 -0.0828198323850947 0.703082431365766
0.479918274416268 -0.103814134630347 0.703082431365766
0.444402111009051 0.178867584627494 0.173356589420065
0.441299355010073 0.182911174971097 0.18041511537335
0.440704825499761 0.183685980913838 0.197964760368642
0.436611210747472 0.189020883525659 0.203722166919392
0.439963348276539 0.184652292844525 0.218242622128668
0.437106152204948 0.188375863260204 0.234153108307082
0.436572053672164 0.189071914019726 0.239368668415234
0.440945843077961 0.183371880690627 0.242757486809638
0.434992316345926 0.191130667785703 0.259069631746607
0.443030225461032 0.180655460682307 0.261214633325258
0.446726474158747 0.175838415595113 0.257696713414429
0.446081009877382 0.176679601023851 0.268786917258985
0.442486491109882 0.18136406908481 0.284231310134981
0.445556046629467 0.177363746448343 0.294402167240863
0.442267901028439 0.181648941225198 0.310711745557804
0.435622833000139 0.190308962483934 0.319765817436912
0.436085071872541 0.189706561057107 0.333479441172331
0.444371788932187 0.178907101127419 0.331068544383869
0.443304341363595 0.180298225882986 0.34555233803502
0.436324692064071 0.18939428194366 0.357198491945266
0.438968111607389 0.185949310523743 0.370110184885602
0.444694240125648 0.178486874550599 0.36281760280552
0.435149318936013 0.190926058026701 0.392813592168239
0.442864470643617 0.180871476566032 0.387236633157873
0.442570659589187 0.181254378586986 0.404569380728424
0.445486146922021 0.17745484152064 0.408496720650554
0.444262243607419 0.179049863374134 0.411538303491166
0.436352763415473 0.189357698646262 0.438072930024221
0.444443394652939 0.178813782735295 0.43280925426642
0.441633328256646 0.182475932562313 0.449269524218747
0.43940717013371 0.185377118312079 0.459890156660549
0.442414936246925 0.181457321197766 0.462862979047622
0.439974069674278 0.18463832044696 0.473347235902542
0.447047358320159 0.175420231214218 0.47573677382718
0.442381595693687 0.18150077145269 0.492640783262554
0.443851693845419 0.179584902240786 0.492439273133175
0.445963934806628 0.176832176226584 0.509915755660367
0.447612248475705 0.174684052030642 0.507959881759802
0.445789520115279 0.177059477877746 0.527922164080772
0.441780350124712 0.182284329933487 0.537183877899887
0.43987997122033 0.184760951939689 0.547134109649182
0.443237934390778 0.180384769134895 0.554686723419869
0.447087247536488 0.175368246575394 0.553546031588277
0.443276051901355 0.180335093427962 0.573659816329328
0.443805333178458 0.179645320638272 0.581502426690296
0.444232370502972 0.179088794761814 0.596397626928645
0.435676468007829 0.19023906398104 0.610696769548729
0.445349170895844 0.177633352153425 0.612197001824673
0.445578029110787 0.177335098320928 0.620771561629558
0.443868825177758 0.179562576253812 0.62997406782072
0.442691773138754 0.181096540336196 0.646073300143271
0.436426371991404 0.189261770082451 0.66144754594182
