ply
format ascii 1.0
element vertex 857
property float x
property float y
property float z
end_header
0.221377139225546 -0.214940291683902 0.492807737623794
0.222116121495283 -0.213889411528673 0.502182202702025
0.222381490535463 -0.213181158375441 0.518596299641932
0.222147884805453 -0.213523179721288 0.515245665003086
0.221442025555214 -0.213991115131922 0.527421353608782
0.228214488901202 -0.206418387628852 0.532174928636793
0.225172135242982 -0.208794417067492 0.546904777149873
0.220316469277945 -0.213424544736114 0.556267475048532
0.22731113476877 -0.205099754175381 0.56451684289661
0.220838190250983 -0.211581419036074 0.57293469146579
0.21941192139014 -0.211987928254481 0.588207955952362
0.222401849759296 -0.208392291391754 0.592221942262369
0.218775355766737 -0.211703194852682 0.601147113091034
0.224857105185542 -0.204322192704339 0.61019438277991
0.219502792736112 -0.208927100239284 0.621021061754669
0.227628630308469 -0.199698765146495 0.623278597462651
0.226519950175986 -0.200726299736941 0.624792418133043
0.214762423259634 -0.282196835178568 0.708398468677988
0.21554475648152 -0.289913276077505 0.726275954805569
0.215038884551298 -0.289641439120789 0.735484641727825
0.213676567098677 -0.287989979367728 0.736889890758964
0.215884802695971 -0.287012805987953 0.748002176300472
0.219230588116988 -0.286655021389858 0.754646469717432
0.219448971413533 -0.278754497550457 0.763287318369436
0.216183850939204 -0.275331795983343 0.763045069914686
0.216195782731009 -0.269576090582306 0.767969730212337
0.21880534129399 -0.265145166902545 0.771757139072804
0.222147429779484 -0.250208137747804 0.778603313243704
0.222727101818512 -0.244146451559353 0.780291559972612
0.224837026873158 -0.237945117454252 0.781095525389635
0.225817648167093 -0.232027054651563 0.781507692644744
0.22372640690374 -0.202884014251123 0.777896748471689
0.220738082964899 -0.20264557019828 0.778462342124733
0.229864435137727 -0.174446550875202 0.768719616365818
0.225374102376721 -0.176232382144553 0.782431075823315
0.224808529530482 -0.176449185462506 0.784193404357792
0.226003088342034 -0.171996363296498 0.797831851769854
0.226937598345665 -0.169320946566829 0.804989732067056
0.227294702874901 -0.167980608643645 0.809106824094215
0.227092442869912 -0.165743639376818 0.819795219354853
0.222252760098633 -0.16901514316997 0.82872092398179
0.225256270188431 -0.16397296992585 0.836270360037761
0.226130961873095 -0.162153827914766 0.83999316344291
0.227556997555897 -0.158553555616103 0.84735516454019
0.224768512914452 -0.159116660435207 0.856226022382333
0.226106569700784 -0.155555885017188 0.863620954601515
0.225552700696874 -0.152389613125159 0.876265487351988
0.232352339831613 -0.141262175424665 0.88229119594259
0.231377607561086 -0.140056336865385 0.890191460622223
0.232537881106304 -0.137803071238994 0.892328905516877
0.225005836736281 -0.143717652155519 0.905715117399588
0.228502543663126 -0.136740774830574 0.912739417742667
0.232649297814687 -0.13143903057769 0.918253205698115
0.230531261978484 -0.142407882531912 0.936765554305669
0.231548728743188 -0.140673365303378 0.938301357213319
0.224047893321806 -0.1433404332525 0.950342354337552
0.230459075916598 -0.131037986170157 0.953259254860096
0.227296492691407 -0.126527037767668 0.958456563316809
0.235017888525702 -0.113240377974827 0.959524851551694
0.236461297698105 -0.105512085905981 0.961698960724372
0.229270630219626 -0.101245824346884 0.9639359821008
0.230639198879155 -0.0741765970156748 0.962866429802481
0.236601331698961 -0.0623718650952775 0.962695894399771
0.251349460535529 0.205112060613431 0.791601621559173
0.252551289585742 0.196839821393516 0.807529532016893
0.256616854793831 0.17623779423696 0.83628170834247
0.253520631705053 0.184610123106931 0.832674383463654
0.251896950064477 0.177847320847312 0.850595260409766
0.255751860351177 0.151465811980726 0.878705257648984
0.251817532366379 0.152886522917371 0.88963345791439
0.248854714129952 0.15753091797027 0.892310658615442
0.247231613712442 0.137445821710782 0.923466247762549
0.252108059390762 0.119726874702194 0.940706741861251
0.247354221472006 0.135670721242268 0.943493354607721
0.246726311364596 0.138653534834207 0.945957356153062
0.253222171498212 0.135697300292919 0.953742002995037
0.256325885353912 0.148323036807999 0.960418058968462
0.256399505275956 0.175153657154233 0.964135837733121
0.250036507465847 0.180404778698897 0.963455940816065
0.259922584085805 0.196863295965097 0.96272730437907
0.232109914892103 -0.240154986548067 0.238687111435688
0.232644331861459 -0.236493249995532 0.239224814652389
0.230707151169524 -0.230927722657925 0.239950361827046
0.231806443282969 -0.216473855611457 0.239150989901729
0.228234598066208 -0.211016244585999 0.239461012835464
0.238584972122981 -0.178118078366126 0.220976730549609
0.233057265179665 -0.185864735930804 0.23130057445367
0.236997971165539 -0.18153335369336 0.231338587837111
0.235418308901006 -0.185417624214124 0.248222452074741
0.232669987144645 -0.189703172558677 0.258146271579217
0.233201003320077 -0.191128781774806 0.273959033702836
0.231055028033461 -0.195522080492195 0.289945054009967
0.236809207583893 -0.189269135088302 0.290564616460998
0.230885303868022 -0.198103894722296 0.311675967280022
0.229631294533637 -0.200082836587884 0.319544025554997
0.233427800483811 -0.19654541684443 0.327951188766713
0.231270825322681 -0.199727232104271 0.338567888177164
0.232665540603363 -0.198992503927898 0.349074416745372
0.232974628825762 -0.199621951618079 0.361808290197192
0.236079990731075 -0.196264260776883 0.362587643575535
0.236028756273974 -0.197143572761546 0.373395827074274
0.230875209732626 -0.20361008574877 0.388956750809209
0.229227862506723 -0.205521558853956 0.392852369510803
0.232505486216348 -0.202315569323771 0.408649009466647
0.236048517313528 -0.198547558236628 0.413799600136856
0.234645214210399 -0.200223193855331 0.418984688033601
0.232779469200855 -0.202715418489021 0.436304729842035
0.234955239846173 -0.200384770571769 0.438808481142629
0.237059691209851 -0.19835587869865 0.450116836806434
0.228978760530643 -0.207212815612027 0.46768561013893
0.23472644314217 -0.20097974659218 0.464078320943906
0.229746617334819 -0.205850270147408 0.488097151093845
0.229223620822018 -0.206173717942737 0.498035867729452
0.231418687471744 -0.203819700466416 0.495616381909742
0.233621313256695 -0.201069297627696 0.50849965211781
0.229232809836297 -0.205550322494331 0.522219642029087
0.23253091568942 -0.201747586127481 0.529065916197541
0.237730323853 -0.196033881995506 0.528768533666381
0.237976642534307 -0.195131592276034 0.541299264497061
0.237179824195876 -0.195458158636526 0.548525745493822
0.234213150137992 -0.197614860332828 0.56307422862958
0.232606175677275 -0.198789215614944 0.570874367559667
0.235227397036596 -0.194728582042355 0.586323980264131
0.238540002637432 -0.191628012480126 0.579172617930339
0.2282572173196 -0.200597030042657 0.609981604630333
0.228837358312816 -0.199938749918826 0.610243141375087
0.238325513227873 -0.189421470994471 0.611252433790175
0.232309857544673 -0.194881397280274 0.620653342122999
0.222401854978375 -0.296585734322448 0.725794101535043
0.224863562766337 -0.30012141135978 0.733334498892992
0.222561757852217 -0.296908245613367 0.738069699224264
0.226935059705198 -0.299233614904455 0.747390761651167
0.228686436643425 -0.2959768334169 0.756034595789269
0.227513670076279 -0.293817284305907 0.757551121895395
0.227205851515181 -0.2877427411986 0.763109137116357
0.228190378566428 -0.284700390161751 0.766765388671505
0.225744778293312 -0.272983652760138 0.772099853932469
0.230299889063522 -0.265873159412866 0.777677048283413
0.224386429024651 -0.252361865899141 0.778874145470495
0.228857286124756 -0.250910536166111 0.780821041592596
0.232581551302812 -0.238574383159696 0.782261802002632
0.231565146917207 -0.234790834628571 0.782271945094973
0.233031091393752 -0.215733432279295 0.77991042635095
0.239518625352835 -0.166269621628333 0.756104546767474
0.238824970077486 -0.166167126012288 0.760957832644909
0.239500695277017 -0.164249378934465 0.766275621732067
0.232770570510662 -0.167870343032494 0.783401151627143
0.235487537049096 -0.1647160339386 0.784116693504402
0.238750686214037 -0.158666875782657 0.791610529221494
0.238820881048407 -0.154778004278542 0.806179417341518
0.240436358825333 -0.153512461378832 0.802644183352375
0.238283115980703 -0.151918469471242 0.819954892794936
0.242643237474771 -0.144665866845661 0.825147669951104
0.233356293321893 -0.153971331716781 0.83767459061965
0.232952778975343 -0.151520071114451 0.847652416111826
0.233276610316295 -0.148230304051436 0.85657472413739
0.234236634656267 -0.145860137872516 0.859925850352742
0.235406230878581 -0.14237066594311 0.865891839289712
0.237165250742512 -0.13764049553599 0.873244132626025
0.240270855453382 -0.132026010757576 0.877661611321868
0.243950153641849 -0.126608116829422 0.879034804053808
0.243091759656059 -0.124623212091989 0.888880116168901
0.237653646440527 -0.128244081733857 0.900576980675396
0.244405256376766 -0.116113187591643 0.909945814803973
0.240963690996972 -0.118888774558043 0.915833627707484
0.244724715452698 -0.118145069897097 0.922009253099994
0.23948569001443 -0.127028182051463 0.944474394678234
0.24143641207155 -0.123002703020454 0.947419423023428
0.239652680972693 -0.113604664764957 0.957026471421432
0.235830108213284 -0.115125724601366 0.958401283120407
0.241841817158538 -0.10278266673171 0.95991697170441
0.246955099688024 -0.0875390851450552 0.962055099610702
0.248378485996692 -0.0745507440036968 0.96348505821925
0.246651882620587 -0.0631602548383313 0.964426752230288
0.245581854342404 -0.0374938579896828 0.960462286080021
0.25052307646168 -0.0332633091922702 0.96217568283323
0.260818438054819 0.169935436897735 0.830552794497462
0.261309064869247 0.147726013063705 0.86596132635987
0.260801478901475 0.151087554766206 0.862434265580347
0.259442891547396 0.14513100464826 0.876222674373388
0.257297459397849 0.130823155437196 0.902701461705578
0.259235532852631 0.0998174873912437 0.941452941138268
0.260414143714096 0.0987927153212128 0.944234010789991
0.255800525066509 0.110594972773263 0.942479162003303
0.25798392124209 0.114081308117766 0.950242459449057
0.264266292650607 0.129975117825963 0.960794723900618
0.260916419179111 0.137846583696756 0.960424122662101
0.261738723979371 0.147336572447956 0.962817012158361
0.259443220911791 0.157986462861111 0.963278331082598
0.263428367525713 0.170379775811128 0.964337462866714
0.261905083141182 0.208248744398265 0.958197320603817
0.240883409186813 -0.24422140801504 0.238402445409659
0.240417843678102 -0.232363608089683 0.238524026866092
0.237169446377118 -0.229557474723724 0.238901108017338
0.239854305953251 -0.219970059573082 0.237907099461598
0.246105459152294 -0.200065959417186 0.228555880828056
0.248338724816472 -0.162641393008701 0.201035860217933
0.247995633272207 -0.165177570718613 0.211299043367937
0.245105068354966 -0.17254264703425 0.230788324884612
0.241562937946754 -0.17785495057223 0.241918022231419
0.24619546485629 -0.17293627601488 0.243324664890504
0.249194246820313 -0.170611749687133 0.253680816772305
0.241367760152334 -0.182592474575636 0.277500164392528
0.23908208427721 -0.186621122701963 0.28940796598661
0.242821423479949 -0.182295536591474 0.287748355062688
0.241758270667474 -0.185683791079515 0.305688655780477
0.241338188216933 -0.187444673745794 0.322744582527518
0.247154327788352 -0.180699990735889 0.318215979696054
0.241579614748807 -0.188313109780537 0.337639419256593
0.242448676906254 -0.18799941691136 0.346079034092773
0.242537853957966 -0.188899517368395 0.35918945406763
0.241935152532194 -0.190081867194491 0.366007922965931
0.246369577342704 -0.185504751998629 0.369979153809109
0.246204251966739 -0.186327175388107 0.378391354175922
0.245226840330673 -0.187996545861369 0.395995139015023
0.238525809336549 -0.195773720943211 0.411910258256709
0.245964974286435 -0.18757330248524 0.411333608365416
0.238181355402581 -0.196782866585235 0.436757949625008
0.242153495056621 -0.192314113089038 0.4328954267315
0.238619652593553 -0.196621895492011 0.449428464282149
0.242675944379235 -0.192358643513297 0.459099955021827
0.245384914327484 -0.189371552456115 0.457075064448677
0.242806724038134 -0.191768669537616 0.476689881214498
0.244496820434593 -0.189655508328018 0.48668378629302
0.242706395498553 -0.191403773511606 0.495432258027384
0.24424327033383 -0.189646855682669 0.498026763607982
0.24007723517856 -0.193972371694051 0.508225863783295
0.247982381913314 -0.185223917186698 0.510193958909597
0.243012915573582 -0.190251115994694 0.527585071285261
0.247704236333479 -0.185013478885343 0.5305612165962
0.239746468008371 -0.192534073292382 0.549837025859209
0.238901295142493 -0.192765278726481 0.559014760996542
0.247061947075889 -0.184103478698493 0.554839639927633
0.247627286475181 -0.182528684242746 0.567352308041889
0.240982933055936 -0.188534095765216 0.584502300168192
0.247342911004445 -0.181514710267526 0.584779287782708
0.241818819857214 -0.185939803594347 0.606494829349442
0.241328875010793 -0.186583660137201 0.605119225754428
0.234206623068145 -0.308343845370071 0.723512584228437
0.23137260231469 -0.306162675877511 0.727848426516047
0.235379268420004 -0.30941563228013 0.738771900414322
0.232511675392751 -0.304717122654092 0.747013509719601
0.232925791623608 -0.303374100516428 0.750290433359828
0.233616426263886 -0.29917835386168 0.759429657821992
0.234477817825982 -0.29320526351081 0.765548621612964
0.234269270101563 -0.289683551067695 0.768438045034275
0.237544469347179 -0.282265592838471 0.774688973880321
0.234781557917756 -0.278008081245903 0.775116109542542
0.233770151526073 -0.270671219943777 0.777739918163222
0.240677759003513 -0.26055126514825 0.782540900494298
0.236081076409693 -0.255463163356928 0.782056576535899
0.240639842033681 -0.24309934355858 0.78330465951446
0.237661257324143 -0.222931776294108 0.780777960823803
0.240783150195113 -0.221676219008756 0.780314522878902
0.240444143588441 -0.19914413695911 0.771470482556994
0.246499943116184 -0.156683610293384 0.757223286602853
0.244884830616735 -0.158268794488766 0.760197758420512
0.251212061101823 -0.148596827340973 0.765523329862476
0.2417763460814 -0.155556950131641 0.787829712340209
0.244806559838475 -0.151742476481484 0.786730767065431
0.25036252876732 -0.143020154629415 0.79135303398265
0.245440788532389 -0.145876873349631 0.805959429074277
0.244603301214301 -0.14605682923024 0.809620495984556
0.251617294319056 -0.135609757545067 0.813289159488268
0.252729499474375 -0.133784377252988 0.814519082583647
0.243522911161224 -0.141306856206532 0.833475271900774
0.254054889172607 -0.128005639180791 0.829822462378778
0.245207890860955 -0.133966723095795 0.850684566923384
0.244788015028749 -0.134011685998791 0.852321741913217
0.250234973358742 -0.123653139777665 0.861669228594164
0.244948126937199 -0.126510736496675 0.87511382813157
0.251450119415424 -0.116825657173984 0.877886791905985
0.247536578805684 -0.120883843614459 0.88175988807283
0.24995016996456 -0.112931485530246 0.896422600112908
0.246955212656788 -0.113315804105149 0.907901502236069
0.247047287292182 -0.110552116892419 0.916159053562608
0.247054042001109 -0.110707508976932 0.915644239480892
0.250901879513477 -0.114600064906773 0.935136183899295
0.254560022296726 -0.108618703580739 0.931892789176034
0.247655541033295 -0.114994096415565 0.946553428960538
0.251421429423914 -0.106655335398659 0.949624704749302
0.248872094987135 -0.0988883288234943 0.957344199551478
0.25718631140355 -0.0817906740044904 0.958337078542289
0.251380142621606 -0.0814882949654191 0.961598560691067
0.254412663850862 -0.0629873713424333 0.963620190547596
0.260271847954369 -0.0522689868026008 0.963597876754693
0.252983462403714 -0.0350737496303647 0.963061243401439
0.261241305069937 -0.0133417840117911 0.962746807048302
0.25871636504763 0.0213951513017861 0.950669952402145
0.265467589784442 0.00865519859623282 0.96061270409955
0.263344188911498 0.0370547988709031 0.949669303888509
0.26855533903841 0.0679267952070174 0.945014146959015
0.26429433700491 0.0841866224548967 0.943574481296766
0.272038209428129 0.07587995010821 0.953929107446427
0.263768472167244 0.105859703503445 0.953992053229969
0.272284324923667 0.0985202920772805 0.959062891892673
0.268178604692791 0.120922546921821 0.961256718574563
0.268633892516067 0.127512905126821 0.962706532757178
0.276475827222492 0.148788266063728 0.963816849424729
0.271873901895503 0.167842741989188 0.963077308810006
0.248180978603307 -0.253365111541081 0.237347696918935
0.246458997527265 -0.236342581724596 0.237768087912657
0.249833964844095 -0.219298609089722 0.234189121015278
0.252215761308143 -0.2057868117019 0.227668497027328
0.261132539813259 -0.139393083690962 0.171636463944643
0.252653412768274 -0.154193059003951 0.18810976892137
0.257355945538514 -0.148179306055048 0.189843357979702
0.25105369578079 -0.162974043179901 0.220883199713151
0.260407300092375 -0.149530244448986 0.216989745908458
0.251887393566194 -0.164120322834706 0.233889007009191
0.260310002705965 -0.153790328114285 0.241313327409329
0.257558479859874 -0.159508712166047 0.255181733651246
0.254957545259062 -0.165448096228658 0.272003248552196
0.252982418093429 -0.170421911450262 0.287999612347367
0.251265846656791 -0.174276105459043 0.298644799980801
0.254010599477034 -0.171377020535474 0.304312529159331
0.250346826263965 -0.176818714844925 0.313378011283802
0.256455285467496 -0.169168065181238 0.316963361428711
0.257285398499422 -0.169237461904299 0.330806001273113
0.250047045685684 -0.179825961106541 0.348541884335458
0.254479241750297 -0.17529107852278 0.356990341618574
0.254870643824165 -0.175312891235615 0.363390613132416
0.250468266145179 -0.181803225145707 0.380598087347211
0.256824674586209 -0.174268279560498 0.383280031154213
0.256607953802227 -0.17491104956907 0.395458184227952
0.257375910899473 -0.174084920638078 0.402884152070384
0.250077611152362 -0.183033498829785 0.410765653608043
0.255139121364222 -0.177495618758514 0.416256157243191
0.257110360220294 -0.175171542860493 0.428225928262841
0.25833572504237 -0.173828629134658 0.439213233716528
0.258445197497756 -0.173799304714271 0.443353543506437
0.257846706399913 -0.17497512690037 0.460317071457402
0.25866873536856 -0.173726804758303 0.465052828388687
0.256370073429377 -0.176524227085235 0.475968188556148
0.248821384842587 -0.184715187089428 0.493849707904585
0.254736317020231 -0.177997245690527 0.5016794849401
0.250500166088689 -0.18251287525991 0.507850084550624
0.257071871735663 -0.174489598849579 0.513772468564841
0.258260612222406 -0.172628592561337 0.522565274994728
0.252861591479287 -0.178931489468089 0.538951346147399
0.249203060334159 -0.181864341015601 0.553304732314284
0.257978188612993 -0.171237292342209 0.55152506656237
0.254225821348987 -0.175383551526687 0.562337439008577
0.250481069879955 -0.178326053146895 0.581305919749091
0.252310159742036 -0.175987687955765 0.585412253291043
0.243175189955034 -0.310926386028704 0.706008475035592
0.241736977520317 -0.315920725079547 0.721029908611854
0.243479822523333 -0.318211934041458 0.732424889492673
0.241123437521217 -0.315888944119517 0.732874319216433
0.245029121366647 -0.314246841687266 0.748970578086436
0.238703446395585 -0.311317488837079 0.744327399313214
0.239510677341397 -0.302986654281376 0.759915271934111
0.246339570407669 -0.304775234269367 0.763404954772731
0.24228197991587 -0.299118558290048 0.766456770237123
0.24045492111642 -0.296470197293197 0.767943923208673
0.241719769454981 -0.286124480892327 0.775320278913125
0.241408567880607 -0.283126375166396 0.776617172452812
0.245494508929477 -0.275863649834996 0.780645732143698
0.247779901799989 -0.261572043147815 0.783590871598588
0.243252777189144 -0.245660842220192 0.783594555160289
0.245609432127509 -0.242244212358253 0.783254715438845
0.246048430085924 -0.221685939132498 0.779086134266321
0.25949780425975 -0.146101577361845 0.722511942338339
0.258207066430173 -0.145226200178989 0.735500495340969
0.251710517203536 -0.150961810838274 0.750637888170648
0.259348268747894 -0.140805132628158 0.749750502593431
0.256931565632491 -0.142312146917441 0.758485576781607
0.253797730589776 -0.142657782709964 0.77489308917126
0.255665773396418 -0.139775455231014 0.776253985352863
0.253698066251269 -0.13921566809231 0.788629081196963
0.25333028089743 -0.139323167168392 0.790127519981684
0.257956304697202 -0.1317146420078 0.795305278907043
0.258849071773299 -0.127986038544304 0.804984113605943
0.254091533363739 -0.129473732449747 0.823994407308414
0.26392258831773 -0.115997379262646 0.823177255388674
0.262915151493963 -0.115094131805654 0.831753112170595
0.254617088821572 -0.123366066613743 0.844012469825334
0.264073969380785 -0.109290044259057 0.843784531815282
0.265117083832956 -0.107803451543972 0.843051816670569
0.255018073940462 -0.11479061726155 0.869146685867737
0.257770519275375 -0.110622570688794 0.868754124302778
0.264210122002004 -0.0993462656828694 0.869866177629521
0.266008138121416 -0.0926688411721738 0.879651606171818
0.263281984516626 -0.0946673519927299 0.886632077679673
0.256596560565444 -0.0988207388343166 0.905757781627884
0.257858708176856 -0.0951003115296788 0.910030769491953
0.259684986619412 -0.0909754509829831 0.912834770038814
0.26393903143051 -0.0828264554016131 0.915448288171178
0.261133626622182 -0.0968249843905418 0.940361101092413
0.259618506353887 -0.0943303788412276 0.948588302535878
0.262936920931795 -0.0838614147229207 0.951950614607721
0.257922075363694 -0.08234989633306 0.957755504097529
0.26202361722199 -0.0666990639554715 0.960576493304734
0.262913769760641 -0.0597182429795855 0.962346569815634
0.261340833138764 -0.0488932390551148 0.963683823118415
0.264472449458531 -0.0410792954921396 0.963768687574451
0.268946991813279 -0.0144068023285188 0.964170023284575
0.265492539034733 0.00608187549254291 0.961159938082459
0.273776576115115 0.0194423710186192 0.962845105302727
0.27198673525238 0.0316844785280011 0.959752339565959
0.279335769761163 0.0455754422427917 0.961856165598174
0.278231923643727 0.0662355658179154 0.958174221743875
0.274251611430336 0.0802871482897262 0.95746791898388
0.274487170531831 0.0867301706415735 0.958552906839169
0.274499875574191 0.105573093586145 0.961853103190703
0.283902654349082 0.110279376682777 0.964385696655026
0.279848214108487 0.119909291941944 0.964256683823424
0.261743991797428 -0.244255859708829 0.235760460045218
0.259458155079631 -0.243003157274732 0.236057640739724
0.260215767664466 -0.219184568829425 0.229435876709108
0.272485514976752 -0.111067627260223 0.124593586976236
0.267736774059909 -0.127199075576089 0.155503767165929
0.2635255066225 -0.135892258452629 0.170335997050443
0.266959212665166 -0.131093359215874 0.169581959401027
0.265700800151329 -0.136371010236213 0.187289382082747
0.265094484038371 -0.140524105453962 0.203797534468599
0.260701042251415 -0.151692993263011 0.230411453622286
0.26215870186082 -0.150409960820692 0.235205231091901
0.260634050236236 -0.154351928470698 0.248266176127741
0.261486406396685 -0.155356062521131 0.26326577783749
0.262144227621613 -0.154876985008031 0.266123905671522
0.26254477794724 -0.156865410944603 0.283715802808252
0.265658788868051 -0.153852623563593 0.292066995701101
0.266841103228797 -0.153037215145179 0.2975212978477
0.265890684729533 -0.155414725934902 0.305533601425983
0.266450196709133 -0.155606288137242 0.316544156111516
0.26930841520633 -0.151795487178271 0.317206785000009
0.265877923526819 -0.158786773270227 0.34446796159063
0.2651422574672 -0.160602996546027 0.353992481763416
0.265604090680622 -0.160492446443585 0.359962745894232
0.262820547829943 -0.165754995653093 0.377321399798542
0.262601290653772 -0.166401546004246 0.381555074160173
0.265541516054203 -0.16263711530125 0.389027371160896
0.262214179808132 -0.167501951723402 0.401645020873544
0.269755391432111 -0.157396822020232 0.40513119375532
0.262292355261345 -0.167997530889863 0.422599972028626
0.269203933485325 -0.158542351658602 0.419043777934189
0.263304650441879 -0.167239197765189 0.443909969580753
0.268641946631043 -0.160168751619518 0.449215960868932
0.264416369315299 -0.166021296036944 0.453894431081416
0.265177631434882 -0.164864859055562 0.466925916984311
0.26716873211955 -0.1619956774352 0.473013958345071
0.266815704044643 -0.162137852229228 0.484706725327989
0.268859274506131 -0.159202085217334 0.490640765747841
0.262055530184887 -0.168096174357563 0.501551077431138
0.264893101804648 -0.163791605647938 0.517740664604213
0.268708269181264 -0.158516112200903 0.521664316273622
0.268035997711267 -0.159218521430779 0.528889321281986
0.268201221332607 -0.158908908138892 0.531886846273534
0.260455977990312 -0.167809162246294 0.552396082452291
0.269789669318315 -0.154837697284294 0.556349050560375
0.250287355146634 -0.315656455051938 0.699940969500825
0.246675636673994 -0.318307047874406 0.710862604201843
0.252178492515505 -0.327002428297354 0.729491452473864
0.247321570414723 -0.321797040181447 0.732890043388921
0.250125907156895 -0.323657773284746 0.737709985072627
0.250768442336854 -0.318483973248514 0.750124173977419
0.254186449670208 -0.316769698029141 0.756325921445693
0.249564845502315 -0.314165468008626 0.75551918659533
0.248551443489764 -0.303668230966132 0.766416638746493
0.251014657456181 -0.297641696769 0.77221099780565
0.256338670668368 -0.299522580709928 0.77302236726944
0.252848535442362 -0.291961628977759 0.777068941393463
0.251562905259684 -0.279542725978534 0.781907362057308
0.258785411304365 -0.275807657631999 0.784659895955948
0.256737666887638 -0.260857609533075 0.785003457057786
0.26084068274149 -0.255460604415578 0.784623034132886
0.255244307956286 -0.243074890002782 0.783051251844103
0.272191592071644 -0.132125920451079 0.706649384230048
0.270340376013066 -0.131885786705868 0.720248343013375
0.263534009978468 -0.138527589354734 0.732973702122557
0.265935807218343 -0.13561017103858 0.731325044162344
0.267168884245589 -0.130677612624746 0.747492869946758
0.270491023253589 -0.126943015536817 0.74372272050008
0.265345568670083 -0.131153319063662 0.757358855863081
0.265572444751318 -0.127682153368144 0.771212148307836
0.263663890071744 -0.127549371680432 0.781640105691862
0.264903449080563 -0.125739636439316 0.782148138692615
0.272778570124107 -0.111434308231318 0.788990212047541
0.265946510374203 -0.120922121611234 0.79522748041336
0.265727815163256 -0.117617154136717 0.807806068202053
0.267208003614091 -0.113010534113932 0.814758478443055
0.274540070476819 -0.101250206598588 0.812757744349746
0.268192771108622 -0.105894548555855 0.832733290038397
0.268748751569474 -0.102597000710489 0.840509006021298
0.270059529951503 -0.100191721572299 0.841105159343309
0.273384005485346 -0.0930953057197458 0.845102455180477
0.274521612283994 -0.0878406101877076 0.854058857423214
0.269016212991237 -0.0936332896934794 0.863439046616156
0.271763897905482 -0.0846424361894996 0.875134950536223
0.272259089474325 -0.0823379464995705 0.879079679492919
0.278347337169551 -0.071367455608579 0.880961877021103
0.271401379935686 -0.0781525936237831 0.894201450834226
0.275867798660098 -0.0689584764965126 0.898659230095049
0.279650558619559 -0.0593733459674787 0.902946410782037
0.272928200298945 -0.0676164364437152 0.915575473869749
0.273625387610026 -0.0758410361737169 0.928305682527246
0.2761019023459 -0.0717820321348982 0.939987108693323
0.277610565284178 -0.0645845138193542 0.947553502375523
0.278304867192386 -0.0566649353377063 0.95147806047767
0.279201287691256 -0.0512528840109731 0.953456611266083
0.276997433876495 -0.0374535945013005 0.960181117837449
0.279451422371916 -0.0365793267743279 0.959003477915976
0.276242722097632 -0.0192060297878307 0.963484797618189
0.281215713871057 -0.00535413655722619 0.963567915994022
0.276629532067719 0.0176520881828593 0.963472819299022
0.284044147991691 0.0277739991952224 0.9641812271549
0.280637432049808 0.0303862863291035 0.963402031099037
0.289845035981572 0.0506641706100662 0.964112167912216
0.288889314872499 0.0764123174784301 0.963602639618852
0.285742918389953 0.0842643067694993 0.963370318929072
0.286709704189536 0.100820812300631 0.964299997627918
0.286374040437899 0.115845096558157 0.964125859464447
0.264795071742163 -0.239556453376924 0.233813518152854
0.269957845472808 -0.222930815939152 0.225356008562348
0.278807261436346 -0.0946362703404478 0.105586986655753
0.285948783042417 -0.0804730408859757 0.0986106867335076
0.280525973625269 -0.0961620598583812 0.12016761328135
0.278636519020162 -0.104482341684058 0.13708236605587
0.284319522092331 -0.0969733076189197 0.143926013185441
0.283589982141469 -0.10380355729356 0.16553563723417
0.285169108449626 -0.101815339174494 0.168406500914583
0.273865637425542 -0.128344669766136 0.202262753704516
0.277931967914046 -0.122379123819787 0.203926188542647
0.283151983117299 -0.115636197758157 0.21269105316868
0.281502366023872 -0.120873093690478 0.223123602106864
0.277607050966858 -0.129730215618577 0.236774990865526
0.280291789725183 -0.129647201025261 0.261455496777863
0.282467915366546 -0.124914941682217 0.255048281189662
0.273411874784655 -0.142714315750503 0.287573131036732
0.270901886181042 -0.147565404633943 0.297684401456767
0.28073755431744 -0.134675778627672 0.300607961354859
0.277632534488367 -0.140488351931024 0.316713715074229
0.277070194800111 -0.142518289428577 0.331440684045083
0.271398126652562 -0.151284013059815 0.344090525078661
0.271460616538265 -0.152417276575639 0.358224205441944
0.278154989031378 -0.142304047498992 0.345991381489169
0.270744381978274 -0.154565009635833 0.37190128925983
0.271886682972942 -0.153946447375764 0.385401932195181
0.274815684799289 -0.150103456126043 0.389607517969469
0.272450509791981 -0.153723911033159 0.404234603130176
0.27452165331863 -0.151013161876629 0.407441580760384
0.276530505504521 -0.148520912355079 0.415324927563694
0.270577893597869 -0.156956807312094 0.428583489533555
0.2738667202667 -0.152784583639915 0.438284256292787
0.279135108177761 -0.145684942799024 0.43932360709772
0.274297931629094 -0.15274006035415 0.457066423278662
0.276016806705291 -0.150207042263506 0.466565500214437
0.280257620521826 -0.144541203534159 0.464019678141037
0.279038382472406 -0.145719459536794 0.480455630839203
0.279515486305759 -0.144826944971444 0.489057959131415
0.274530876044585 -0.151139658791801 0.504136622558803
0.271617973801492 -0.154887131606689 0.51091141044884
0.280954110853536 -0.142135295382321 0.515011624730901
0.278334088684702 -0.145442229189103 0.523326499533833
0.261859526201504 -0.328112128369045 0.697453959172598
0.255799255657156 -0.323792438650355 0.702175307520071
0.259837494747809 -0.335353578021784 0.723287060063431
0.258786215392635 -0.334329125765963 0.723416901852521
0.261062041897057 -0.333524097668703 0.737780199996973
0.261466225524118 -0.334341601916606 0.736855905049515
0.259678641724279 -0.326882759123917 0.748388330209111
0.260788974055621 -0.324509379865266 0.752994318418978
0.261487082149277 -0.319793575023985 0.758816335042282
0.257964638843355 -0.315118235022082 0.761203148533331
0.260532330568094 -0.309433998778288 0.767562202865257
0.264808396952864 -0.305655711314176 0.772040585349307
0.264183912831959 -0.301417950088584 0.774469672606566
0.26371479400773 -0.29299312693918 0.778330522042335
0.258361915886215 -0.283634931475242 0.78189902661841
0.258494183193778 -0.277225917185731 0.784510775217517
0.267985032240946 -0.270673382616354 0.785681288270812
0.261321801098356 -0.254210601995451 0.784429515548774
0.265852809297697 -0.238996752489196 0.780356025113529
0.2730985780276 -0.131205090048724 0.705130864873189
0.275523892256832 -0.127401535735453 0.707714075303997
0.273597844961347 -0.12810532050434 0.717138917596622
0.28166963640944 -0.113347637041298 0.724085703909312
0.282566296668775 -0.111594926331418 0.725106919094147
0.278693962466181 -0.114203139363761 0.741784211706203
0.273900942123946 -0.120914324625904 0.7476225380586
0.282953322562998 -0.103577832372442 0.756409455743309
0.283498573377097 -0.100805710985857 0.764283298825583
0.27570150867739 -0.110746161796387 0.775011560779921
0.279008588760969 -0.104570352627633 0.776980518763479
0.278311694805823 -0.102670245059352 0.787115138942997
0.281206003390791 -0.0957208661521797 0.793927390540648
0.279649889906911 -0.0960251014055141 0.801574037799171
0.283701789975413 -0.0882253102095105 0.80475443885194
0.282284375163372 -0.0867515796155485 0.817488859267852
0.277044059378843 -0.0921853680534738 0.828710242431441
0.278139428081599 -0.0879356312548719 0.836625560422965
0.285687644878521 -0.0758970383070642 0.834340356652264
0.282576326279367 -0.0776244848551588 0.845009830696133
0.278306388602921 -0.0808580088726152 0.855665941352977
0.282552329218612 -0.0714801701127205 0.861615508877283
0.283143042993774 -0.0653634973084698 0.873004105796521
0.280937258769477 -0.0673379704516267 0.879170923743456
0.289267062142718 -0.0505654776078721 0.876503335611512
0.284209982857801 -0.0560241841726642 0.888578901407028
0.289850651721313 -0.0414595181253282 0.893870608667535
0.287977182524681 -0.0424618290759284 0.900601726463708
0.286060481905783 -0.041000413728677 0.912992566179856
0.283700086293162 -0.0571634031041613 0.93228362919262
0.283150049505921 -0.0584691422664243 0.938772991892663
0.280451059568766 -0.0518465960672906 0.951584087911814
0.289979804846896 -0.0382645592431379 0.946988494245213
0.2872112947022 -0.038141758925808 0.951080338001633
0.286146447159683 -0.032936926239163 0.955349411758439
0.283507520335237 -0.022197239870869 0.960502301930179
0.290461979785818 0.00379422189162793 0.962105915764547
0.295554072608938 0.00890710843066551 0.960114681155865
0.293483311060952 0.02196137235121 0.963056065178817
0.292774201470242 0.0374222178056896 0.964059763382231
0.29548467289529 0.0642881295452705 0.964552547636849
0.292527282258219 0.0636678849573894 0.964031783759309
0.297947486463432 0.0801405728234855 0.96385553831695
0.304302246959526 0.128605510657196 0.951274829567666
0.275180965282817 -0.245598331112458 0.231591995405466
0.298357281585685 -0.0313893830017387 0.0408975869312304
0.288930790646355 -0.074928383981816 0.0969146675881065
0.295299843688126 -0.0603530787632988 0.0937846207828932
0.293944419452998 -0.066901942433234 0.103627838628517
0.2871957419372 -0.0896338587118196 0.135727877534384
0.298946110518386 -0.0598149827867692 0.113700166672464
0.295664864899031 -0.0789420723551361 0.147569584517002
0.293197058422846 -0.0867365875952375 0.161871393349246
0.287456109043172 -0.101773683185734 0.184626709773397
0.290278367743638 -0.101170961996735 0.202299735698428
0.287624929502637 -0.108165385545543 0.213005655463489
0.284347728600143 -0.118678773021419 0.236761963661939
0.287120859986924 -0.114527789168835 0.239903664812989
0.289901369401689 -0.110523521875433 0.243994840304941
0.282162552076115 -0.128018880350343 0.270492067383456
0.283937914113807 -0.126077672120694 0.276776198575534
0.284021857508679 -0.127153785006782 0.284040392216022
0.294203277018142 -0.109370409307094 0.280403385375167
0.282188596269773 -0.133901217690587 0.311820494612518
0.282495871537086 -0.134540629201302 0.324067153668998
0.292538037037805 -0.117550691471004 0.317783548828143
0.290796967484778 -0.121819280886281 0.331046637912966
0.282823671652716 -0.136254742205437 0.349108765982838
0.285576212924624 -0.133327707304311 0.358368367127257
0.284093320996264 -0.137072162916706 0.378535793446545
0.284490661197065 -0.136707891617084 0.380548572067795
0.288344576624038 -0.13130075534778 0.390241224019599
0.284920837650725 -0.136778324196768 0.401793251399841
0.285934328757423 -0.135617129374026 0.409121793539846
0.28852547285413 -0.132036163928344 0.421353852855199
0.282651406495948 -0.140902487530622 0.438486985163024
0.287832744277809 -0.133836764106816 0.440254776648161
0.283098139835577 -0.140742982857449 0.462426403696672
0.287437558836339 -0.134936654344602 0.456294616620156
0.281009136294955 -0.143279518944963 0.472546074870661
0.286385222625133 -0.135722291194818 0.482373015990949
0.290866764787413 -0.128505955896848 0.482538464923217
0.288225196365097 -0.132473722251839 0.497128371524599
0.284439103838593 -0.137506801796921 0.511959591201206
0.290611050048323 -0.127943588389691 0.512250567547506
0.2672229655719 -0.335291140955097 0.698483186500679
0.267012791656355 -0.342021035036699 0.71608795410125
0.262398576495901 -0.337076249149159 0.716076507099104
0.266503009695476 -0.34145929724497 0.724772552710546
0.26903945153481 -0.339570397717918 0.739079787458109
0.26272306476096 -0.333230022098586 0.741059033139715
0.262967837231038 -0.329420466817252 0.748837514291177
0.270124708599808 -0.327012818696771 0.757700016248009
0.27085232047436 -0.324281492506238 0.761030235196148
0.267045647500666 -0.316363526714375 0.765205969654358
0.266905222995885 -0.311072102739544 0.768977183631312
0.269924610048529 -0.305870393477087 0.773247837198612
0.270986291991171 -0.298688956372346 0.776756696627984
0.27263821843781 -0.289504637195978 0.780485011889393
0.276023674275961 -0.282054323312256 0.782240906328278
0.267947720393923 -0.274501067109946 0.78468150153426
0.273600835873869 -0.269321222888876 0.784624392640548
0.274329578659631 -0.248130471549658 0.781487515023832
0.273740812886734 -0.239415990759938 0.778653743925999
0.287590323804555 -0.111488455435088 0.689538357363689
0.294120410217696 -0.100152410433813 0.6909040724491
0.285291431239645 -0.112522283551906 0.701626506512207
0.293905100746174 -0.0964462362549816 0.708201239609775
0.295114134456671 -0.092669647860526 0.715585494004536
0.291749635185119 -0.0971813966556899 0.720530565580818
0.293971865483059 -0.0923901797826087 0.724963207275353
0.291706967205121 -0.0934340836617203 0.736764797164507
0.295283377668694 -0.0846887774969554 0.748295510863049
0.296926446252905 -0.0806557936948005 0.753657667578796
0.291883015775267 -0.0854423034966651 0.768452208201482
0.286582250632077 -0.0913861380324601 0.778328895209601
0.296010161012669 -0.0742445043991601 0.780736264182358
0.288756175081011 -0.0817220696293465 0.798090508575763
0.28935787487114 -0.079394953423847 0.8024143794868
0.289321719984873 -0.0785803424054071 0.805299609587527
0.295417999914581 -0.0658626396153138 0.806977037060035
0.295732953190414 -0.0613487933261593 0.817392250689946
0.288798766977732 -0.06999773752507 0.834551295715085
0.298249302166063 -0.0524195464057323 0.826895453636748
0.290961222412158 -0.0611660867029846 0.844946917090167
0.289569813165725 -0.0584711478364715 0.857558698046359
0.296918869616949 -0.0439866712026963 0.854511885460464
0.293601223565985 -0.0472800774867855 0.8630707849095
0.293502523825915 -0.0442392791150358 0.870272770447821
0.294597833304917 -0.0398291027068966 0.874801908009885
0.29108717700026 -0.0389010691431971 0.893626545753245
0.300321895621145 -0.021781828836707 0.887098880095274
0.302237619174579 -0.0154561410124882 0.888440790997214
0.297885335797742 -0.0198089586297108 0.902615688209219
0.299330189001572 -0.010439047228443 0.911534420218439
0.293052931867554 -0.0367140037413865 0.939347869812175
0.295176971542568 -0.0315623039237578 0.940201117571385
0.297321166771975 -0.0205536037681701 0.948592116112106
0.297694281740853 -0.0118129997998822 0.9519776526334
0.300135413387048 -0.00434354908632205 0.95215597157464
0.305145564905347 0.014468195249747 0.954060580866427
0.304561460368903 0.0150860059067605 0.955080813402325
0.304750312754026 0.0325876848325449 0.959283025891896
0.306356162230737 0.0449372494459364 0.960113528595707
0.30645437112873 0.050892843263042 0.960931276997069
0.310070946019661 0.0802678382343906 0.959201074764397
0.307370653053097 0.104184723954411 0.95732016567067
0.304754648138491 -0.0395117013539003 0.0926011537227213
0.30676336891972 -0.0366109721346836 0.096498108820559
0.299364742751429 -0.0648072775959966 0.129715921678795
0.301575471615539 -0.0672628580048884 0.149347446061391
0.306389756028406 -0.0569544360497336 0.149570052776525
0.299715823088344 -0.0764837127980415 0.16697393888519
0.300807979269723 -0.0804810109048887 0.189850030124922
0.300772385549034 -0.0816730737669648 0.194661808372504
0.298731249410377 -0.0915439101532856 0.221984261877707
0.307968527572769 -0.0684443786245956 0.201215954817472
0.296893214798304 -0.0986631213055686 0.243596497693787
0.295853746455065 -0.103605143607143 0.262618484006915
0.295608272707126 -0.103822905012499 0.261447485115304
0.293840241392741 -0.111577203795449 0.289914960397823
0.301079251913621 -0.0970106464953584 0.275860177716617
0.301795703483514 -0.0979765507764499 0.288831459319824
0.301695310676749 -0.101445579994294 0.31122166425812
0.302105200431857 -0.100645954750881 0.310143772828964
0.301057807904031 -0.103303150482016 0.319011873632747
0.303718066590303 -0.0995272268815734 0.326095678620022
0.298137593493824 -0.111272719508777 0.349324624395631
0.295735348564513 -0.116836130314444 0.364376013833837
0.295643032472772 -0.118578950808088 0.380181529901359
0.299809823056156 -0.111718350976326 0.382969850174558
0.296933285688048 -0.116956669555809 0.394519379971862
0.301285947532146 -0.109725313318555 0.397825701998717
0.29417946766072 -0.122409323034463 0.418667009108974
0.29253587887088 -0.125896669204322 0.440045630693703
0.293434064915392 -0.124352954264804 0.439187999297478
0.293542760606462 -0.124652330280231 0.453621584699213
0.298039518236923 -0.117168929537216 0.456659153685171
0.29602466735125 -0.12014516862571 0.472390196420831
0.297749166878253 -0.117025285613399 0.478700733430493
0.293559293244051 -0.123753827694214 0.488831190255446
0.295473327396358 -0.120446800647437 0.491178205311824
0.296033021517255 -0.119228657869354 0.4993729838612
0.27510936419319 -0.349292622294794 0.708978696055483
0.275308771883928 -0.350871360188016 0.715905599613989
0.274641556711179 -0.349217638086963 0.724789462255986
0.277931877059827 -0.347022851778389 0.739148032876032
0.277458346374058 -0.342321686950997 0.74651095511092
0.271168331842177 -0.336875300300268 0.747535015628029
0.273072459292448 -0.334425770869395 0.751797325176309
0.274084557211734 -0.32763002605134 0.759926250594307
0.275630975989438 -0.32552221036182 0.762082273547441
0.275767528237047 -0.317143475413044 0.768200261353109
0.278331023940246 -0.318976019855096 0.767920289059168
0.273858081817175 -0.303752105344729 0.774822371052544
0.282474442961143 -0.303381306546134 0.776279472225172
0.280934533772904 -0.295542409232642 0.778428460928706
0.28452509582859 -0.286566041299697 0.780572041844447
0.28391842854134 -0.27760666271228 0.781461556350782
0.282675114240092 -0.264411886796657 0.782634996237388
0.286869830338174 -0.248812905703577 0.778133990609513
0.305850265516837 -0.0853756671065194 0.661961187295921
0.304350355741532 -0.0866626882193779 0.669376150878781
0.295300246689982 -0.099734178437094 0.682464105266024
0.295750001126084 -0.0959190294109478 0.697214668554086
0.303489369304243 -0.0841655982028603 0.691684249686568
0.295209942373331 -0.0916863448740962 0.719078196430061
0.298457487707147 -0.0852959640670875 0.722956962720655
0.305711335159351 -0.0728067773798435 0.716989115889954
0.300123392054576 -0.079996222645473 0.733539866526513
0.30606084051065 -0.0669868747686629 0.734739482975097
0.299830865675435 -0.0765241022805774 0.748435423530426
0.304570015944276 -0.0654212427874189 0.751500284141368
0.308741465765336 -0.0576625831802038 0.747140052558469
0.302626306191661 -0.0655552727314639 0.765551263864321
0.303766798875606 -0.0606523016526024 0.772183565027471
0.302690354164781 -0.0594696920514314 0.781707045577829
0.304740193042853 -0.0539849233909481 0.784588482733731
0.307956630849199 -0.0440785814400665 0.79264146448799
0.305424063770227 -0.0463763683610907 0.801247489056699
0.306143859650315 -0.0406232262408592 0.812655705537019
0.304247412620421 -0.042215702615997 0.819448250239779
0.306359346453992 -0.0353955005374684 0.825593299461401
0.305424161051453 -0.0324874693386553 0.838975658909763
0.304425914259793 -0.0320894680459405 0.844983694817371
0.309418788265541 -0.0192114665542782 0.846248992708703
0.310121691601141 -0.0161091910235177 0.84808456833631
0.303916544612819 -0.0256890194324676 0.861583704287572
0.306863183773367 -0.012181022003586 0.871053185202943
0.310051313025307 -0.00160856393463472 0.873364273372446
0.315326404502152 0.00897096077484983 0.865302163205535
0.307044947305623 -0.000415510712668566 0.890375944324398
0.306697494356897 0.00227935108956553 0.896737980771448
0.307010020325615 0.00849755681528001 0.905873098412996
0.307093159156409 0.0108154665331889 0.909444325489385
0.317996583734469 0.0391453988874942 0.896829190112848
0.314367382055354 0.0204575540327187 0.929413966393542
0.30701150640417 0.00222374492143889 0.943425374159821
0.311057612527676 0.0155450104782406 0.945305084696944
0.317460550171812 0.0388794824704341 0.946254558332167
0.311948707417395 0.037658992783867 0.954212501802178
0.316375835295217 0.0588438217709272 0.955033588867588
0.312857677427756 0.0725266208282409 0.958629876012731
0.321913321876837 0.00049756945228095 0.103681978468825
0.321019391872308 -0.00549696296836182 0.110870598358942
0.326774469525417 0.0157032745525196 0.101287389594206
0.317439678256895 -0.0356756989072976 0.158018400071707
0.309501772346185 -0.0629653065276879 0.19361215920959
0.309616134674272 -0.0685347857615514 0.213993106990769
0.311774619108699 -0.0638977724092053 0.214068475699434
0.305913083468195 -0.0850100768998161 0.252910915483899
0.315937719276512 -0.0607624075294977 0.237279913519267
0.316115457149475 -0.0642761195469029 0.256446200398758
0.313565634602845 -0.0728218884615138 0.271409391365999
0.305780721532998 -0.0920236691438621 0.293418443938211
0.313977824395286 -0.0754697390446216 0.288805958370058
0.309119721015703 -0.0889378396198755 0.311376248548667
0.306304850079106 -0.0949981838510912 0.324445145396573
0.316057051455524 -0.0761173356536295 0.32047610893797
0.305723987946234 -0.098249992128074 0.347071617842922
0.312055268262275 -0.0870789011171134 0.342175062920087
0.313025063622136 -0.0876909889376647 0.36456133175215
0.311083164220889 -0.0917922487365588 0.372784485333448
0.315501025963103 -0.0838921543337228 0.374453559319261
0.308064670875968 -0.0983677841261492 0.400116352418873
0.316016382775068 -0.083932189074426 0.389157683664475
0.312376802473723 -0.0914244279321212 0.409989868001443
0.304857113629763 -0.104830619091572 0.431584473010033
0.307173203810329 -0.101434535586756 0.446852413652039
0.308186099564434 -0.0994860241227509 0.43967657361063
0.309724853277916 -0.0972184891622297 0.449483538312817
0.312684652415418 -0.0924328189178294 0.455667747516999
0.284656528043127 -0.358468083997199 0.702314898259337
0.282605523178824 -0.358222073985111 0.716437708625077
0.285619250476109 -0.360471736118015 0.72013647916285
0.281221569892563 -0.355936458441027 0.722159654037661
0.282078423260146 -0.355621596664295 0.728865968108954
0.285016163595046 -0.351380036020876 0.74226277770901
0.284713356008301 -0.350445801188649 0.743274546016017
0.282511790144415 -0.339571030620299 0.753638836246684
0.284993162350218 -0.339005727978638 0.756146391897874
0.282112762158943 -0.333136841871253 0.759217481920829
0.281790047497426 -0.327317870501527 0.763296016629392
