ply
format ascii 1.0
element vertex 849
property float x
property float y
property float z
end_header
0.0192300343741816 -0.335451839502449 0.357998485706829
0.0272741284065556 -0.332288099539638 0.381216679669057
-0.0222342531054471 -0.346130382297879 0.34033747859188
0.0204699290000648 -0.336659695250504 0.38793775903943
0.0321240482821598 -0.331537748117821 0.413205385452771
0.00953516429972857 -0.341463644971373 0.406360419675508
-0.0141666347813824 -0.346605321084046 0.385302111335521
0.032051599773691 -0.332972240998041 0.434855713419175
0.0307611870277927 -0.334448906109292 0.446198684892698
0.0227805912915412 -0.339187693362989 0.448039726852834
0.0244106000567888 -0.338820937980841 0.457009556838715
0.0147216095992658 -0.343084037725877 0.457605783246521
0.0223498935246902 -0.341456400384223 0.479435167246689
0.0324305269857164 -0.336312211546502 0.49019389070388
0.0419538024072313 -0.332707184851349 0.51986554333763
0.0243661190214147 -0.341912934280037 0.504681271659709
0.0363222918142799 -0.336721537986442 0.531587967640013
0.0359346207594713 -0.337665418776884 0.542773268216915
0.046147539735732 -0.332922434108367 0.560960335475854
0.0332004804407112 -0.340089602496478 0.555852426729542
0.0505732565984442 -0.331569366275305 0.579760153796718
0.050096434794303 -0.332971897516434 0.59727376063004
0.0416900260134773 -0.337641227061551 0.594202138688927
0.0540194103350113 -0.33133246792966 0.607096210653927
0.0439797689488058 -0.335192161532915 0.615910770734393
0.037310967594541 -0.335215406156981 0.615910770734393
0.0221903101430462 -0.3393318755042 0.615910770734393
0.00704709645747996 -0.338122720653191 0.615910770734393
-0.141775264040981 -0.351702102264478 0.507184866225358
-0.0150824499696191 -0.344171708961554 0.615910770734393
-0.144333744358374 -0.353092901677001 0.529043122496299
-0.16426799657551 -0.352780897665647 0.525932229118269
-0.149076243963003 -0.353724917045566 0.539534895229488
-0.115415459130398 -0.35679916398572 0.581713547353534
-0.151610323508806 -0.354829818278554 0.556978171190929
-0.131814964200099 -0.35713619526869 0.589473610758694
-0.165929674598801 -0.3560181202979 0.577268748910799
-0.166854439046748 -0.356918099298933 0.591531986026114
-0.139770945155827 -0.358361420815941 0.609619745757028
-0.147634172918187 -0.362559903429147 0.615910770734393
-0.179019228832508 -0.355806103066202 0.61199341119356
-0.177104022055888 -0.358078552716211 0.615910770734393
-0.19243075017518 -0.362350156604096 0.615910770734393
-0.202665821176643 -0.36744610285943 0.615910770734393
-0.219831239908905 -0.358928528093282 0.615910770734393
-0.0237344378964181 -0.327302804203665 0.0136551751409958
-0.0384142774845731 -0.331070063183816 0.0105114052511748
-0.0124753962634325 -0.327128176941415 0.0621815682642884
-0.0540378513194152 -0.336181464205895 0.0258842469471557
-0.0542153301721244 -0.336691216110556 0.033731634599226
-0.0423741454996665 -0.335091892847396 0.0607193356031934
-0.0109170088432547 -0.32870402880321 0.0960775499033421
-0.0505363774872618 -0.337976625916598 0.072392237597375
-0.0288216283838666 -0.334257357156478 0.108525077447554
-0.00895402972376922 -0.330504515121628 0.135639747041612
0.0172389435461438 -0.324321114208536 0.167024113524915
0.0127194430250565 -0.32661793378425 0.168741697314468
0.0164711997299193 -0.325896114929906 0.184600530985899
-7.56107075008003e-005 -0.330585001408694 0.177612037192457
0.0084164251732393 -0.329502362117069 0.198059378767731
0.0021816585143155 -0.330937457145535 0.193922677675335
-0.0152158683470594 -0.335919245679525 0.198980710626784
0.0305995825611318 -0.321885125090193 0.249411604226233
0.0119718838787159 -0.330689735457008 0.234489856290229
0.0325690401681531 -0.321935119772983 0.267916172292613
0.0291008397049033 -0.324047328047518 0.269537615454227
0.0379464176446463 -0.320754563718138 0.297964070910144
0.0362867688613632 -0.322254693849312 0.306348328357079
0.0375429189149152 -0.322222493572152 0.317154435880814
0.028658926250009 -0.327195605442553 0.314507018063422
0.0292591941681551 -0.328057119472512 0.333304279337505
0.0432816663137942 -0.320962244610352 0.349216054834725
0.0236410850340368 -0.331840254629737 0.341552523808764
0.025888978398119 -0.331450350043141 0.355724088770974
0.0295443989261046 -0.330477236942251 0.373497649579438
0.0520256546145678 -0.319194202226777 0.400433351396154
0.0308287821047479 -0.330722312814017 0.388868772739865
0.0442060443558743 -0.323933758439716 0.403735395157635
0.0369256684088034 -0.328618873448219 0.411044729605471
0.0454231041699454 -0.324920655547909 0.430033826988243
0.0512928495326488 -0.322016774579568 0.437720585641333
0.0616114863796587 -0.317953918688838 0.467433374105129
0.0599928480718966 -0.319082235631744 0.470406091951119
0.0625585587316537 -0.31873600878491 0.488117432074446
0.0632643709643999 -0.318862769445497 0.496441301338887
0.0595248296064862 -0.320897157039829 0.49441047870821
0.0671804130234764 -0.317864394154028 0.516167984910787
0.0683609896260472 -0.318201056360061 0.532028651792466
0.0658243749789934 -0.319617533069227 0.531218668572599
0.0566261835134387 -0.325341536092744 0.537417421043997
0.0583018536554587 -0.325136679255388 0.549315333666611
0.0717856190182825 -0.318513516946406 0.567711996036233
0.0552779286536373 -0.327699158141227 0.561936222824216
0.0671894022475273 -0.322365599906899 0.586230347087574
0.0700273809413689 -0.321334296620221 0.595741332789105
0.0756117773870722 -0.319099148049301 0.611256598314951
0.0648712680677762 -0.318258139974329 0.615910770734393
0.059696105123231 -0.325848700669603 0.615910770734393
0.0500646779743084 -0.325654078378232 0.615910770734393
0.038153587554815 -0.328130671297133 0.615910770734393
-0.169130457704683 -0.348565337590564 0.463393202991459
-0.158412943858274 -0.349910055361493 0.48048923532672
-0.18342812564863 -0.345162004874849 0.472060944173081
-0.179886893465468 -0.347475777378659 0.491775244690243
-0.176763778884156 -0.348998134087151 0.501459446517321
-0.167924649020944 -0.352013157322122 0.513680150653074
-0.178207500808416 -0.349722728183975 0.518212101691994
-0.190167612383517 -0.346166323027726 0.514917554189708
-0.192578732696343 -0.346588814213345 0.531189081676765
-0.189671799054111 -0.348710835066967 0.550681995325474
-0.178016126450002 -0.352428537433378 0.557635547012163
-0.176067460532366 -0.354261634394749 0.576805374368412
-0.183671043528251 -0.352735549371924 0.585633460915342
-0.185572312238017 -0.352890379128281 0.595813830131875
-0.197528399567324 -0.349272750710632 0.59159264231746
-0.195845486254137 -0.350772962962721 0.606916110591963
-0.199350054874928 -0.350021552819453 0.610271311973072
-0.204784193095644 -0.349840807791638 0.615910770734393
-0.212183495395152 -0.355532124164207 0.615910770734393
-0.236134275401155 -0.356880668980654 0.615910770734393
-0.250299737283861 -0.355331338050252 0.615910770734393
0.0189160140239069 -0.314382414936011 0.0275999799781415
0.0193076597268423 -0.315412277732921 0.047136774854786
0.0046326421793563 -0.320906494955071 0.0347376862523067
-0.00229817403272603 -0.322682953721879 0.0332163264455895
0.0186257991878107 -0.317580282122967 0.0747058229706482
0.0202276016408807 -0.317052196525755 0.0809135210981077
0.0233202263841064 -0.315624908055043 0.0865601141531266
0.00119307959950598 -0.324189371045311 0.0747727174487625
0.0280212224379079 -0.314997442166687 0.119118875778176
0.0209307642711282 -0.319126609348138 0.119494209896562
0.0243163699002514 -0.318236551327595 0.136130419015722
0.0326731918889497 -0.314384449026389 0.151461355670321
0.024216145241936 -0.319439948985154 0.153937831833246
0.0216167488126546 -0.321641839458492 0.164773781209722
0.0368818186395701 -0.31392465562382 0.182195100300104
0.0216056396008632 -0.322244852033367 0.174048983789504
0.025990594876075 -0.321507290684258 0.202051346798265
0.0424202927466398 -0.312923578653124 0.21648345530954
0.0416110428906952 -0.314118796515332 0.227781687055379
0.044344247285111 -0.313500864559386 0.242776383273234
0.043724850940842 -0.314765581950231 0.256864033456791
0.0393796951490539 -0.316945623110609 0.251646528909125
0.0414967051435986 -0.316728629018882 0.267328285099899
0.0382200419291598 -0.319468185817163 0.280427329658521
0.05821268796709 -0.309531321350913 0.305892072760974
0.056003560784705 -0.311204301012519 0.312017757354047
0.0595073283467358 -0.310034234132479 0.325364181397072
0.0474213120344824 -0.316752898916522 0.321033602293785
0.0494232972416603 -0.31637735180984 0.333214942611487
0.0438439496678904 -0.319505422488675 0.331627621232354
0.0574446429212857 -0.313834339704547 0.365878998302574
0.0579389669743342 -0.313998057401531 0.37287382196978
0.0588760476140141 -0.314038554345288 0.381938196516856
0.0576709332276165 -0.315696959738949 0.396874511922199
0.0658406808127655 -0.311220946175731 0.4008214577291
0.0561282808679983 -0.317245456927807 0.407063841603699
0.0769468063408114 -0.306960318145222 0.43454769522688
0.0558939764884685 -0.318908769330849 0.430814806781038
0.0690826701532857 -0.312107309273114 0.443783456146452
0.0651472293868819 -0.315391748586324 0.459424211382578
0.0768829091421269 -0.31021190243205 0.484525800306065
0.0706099161381931 -0.313418167202647 0.477910610615149
0.0629421468977775 -0.318103663823342 0.481738911825261
0.0673300983620581 -0.316345589919637 0.493902062309585
0.0863505388702863 -0.307160076489148 0.52229734041506
0.0879815858013965 -0.306625230193441 0.528663160663909
0.0687054059423476 -0.317582227526465 0.525507680611308
0.0891846067258279 -0.307598353668136 0.554621084664732
0.0954379829715362 -0.304912364902031 0.569148572068618
0.0785062221399609 -0.314584143791073 0.567113810341905
0.0788009323421669 -0.314972832026585 0.575809566632426
0.0872555911844498 -0.310954212222485 0.589432250577218
0.100128846941197 -0.305117640838552 0.614562993567491
0.0905799168453089 -0.306542446134331 0.615910770734393
0.078679828531888 -0.310532863225679 0.615910770734393
0.0721326075970714 -0.316508458378198 0.615910770734393
0.0577490982292559 -0.318588454292504 0.615910770734393
-0.188651572342877 -0.34058018243317 0.425607883749819
-0.198325844935722 -0.338623765325617 0.436621165054868
-0.200978927680845 -0.338045584798382 0.439022404325188
-0.195731312724711 -0.340523354189195 0.454102701280219
-0.200721587201539 -0.3395379181539 0.460136546186616
-0.186247381496938 -0.344792279776586 0.478249108171483
-0.203778871692253 -0.339884759365545 0.477961482571673
-0.211991336435566 -0.338017750047988 0.48424569370792
-0.19586339173829 -0.344044439542834 0.506984058074349
-0.200264655350911 -0.343259299677513 0.513553965930425
-0.214972543870731 -0.3395039803031 0.518690131106959
-0.219916060812377 -0.338656812304524 0.526585288277364
-0.206101215495272 -0.343447519052882 0.54053901709314
-0.208503296962247 -0.343180529114577 0.546525306659135
-0.221634314454297 -0.339819065112238 0.550980577383124
-0.218435646540788 -0.341759192095038 0.566561008125784
-0.227251868407241 -0.339479172756375 0.569208694254375
-0.222180989191902 -0.34227281622372 0.589716255759903
-0.221708463876314 -0.343059774677851 0.599454631494202
-0.221182983195022 -0.343603149098933 0.605353155461835
-0.228631968388073 -0.341996783882081 0.612347359534185
-0.240308389293992 -0.350416422280232 0.615910770734393
-0.260346593796007 -0.344475914420425 0.615910770734393
-0.260330713378326 -0.347827850787543 0.615910770734393
0.0240252748651383 -0.310364037127178 0.0111141600939252
0.0240236982963261 -0.311357481908484 0.0265453208560116
0.0282800305228013 -0.309235724050827 0.0318694615869346
0.0451047072692635 -0.301612374625697 0.0647878291529739
0.0379934993213247 -0.306141419070166 0.071193391107252
0.0328140712464756 -0.308782589018175 0.0656358097999248
0.0293766054097883 -0.311387473714379 0.0751936704950183
0.0362153763106557 -0.308765033246918 0.0959783568615762
0.0339683438795573 -0.310458216074126 0.102076956489393
0.0389834093508464 -0.308569614268258 0.117855471466034
0.0428541571566853 -0.307159976297939 0.130780446056312
0.0364039796437597 -0.311372372626988 0.138212996990368
0.0602115553241268 -0.29953540900257 0.168474958526778
0.0393266636563271 -0.31079408181292 0.155529529870723
0.0549662550423313 -0.30332543752896 0.180186066285329
0.064203633593493 -0.299700051130349 0.206967794483474
0.0448544950160278 -0.30961245646644 0.186915054564464
0.0629461142332698 -0.301118456674861 0.217701065592453
0.0517046662655636 -0.308116558327751 0.225317011396296
0.0627215450005892 -0.30208465836186 0.230701491133941
0.0713043504674867 -0.298700259533408 0.255338038894903
0.0665630390023756 -0.302128502576624 0.265960825398953
0.0560784834090674 -0.308038690721179 0.263475553941391
0.0585593638319225 -0.307213076336523 0.272970162294356
0.0608958259302626 -0.306772061067633 0.287144311960611
0.0716141041852148 -0.302001693083531 0.309454433536053
0.0588201625275951 -0.308658427462062 0.297788898135988
0.065638406160829 -0.306218631491023 0.321228439304638
0.0653098236267427 -0.306728422012308 0.326196684169534
0.07784591222158 -0.300959789898508 0.349348821387402
0.0817630161608862 -0.299573507536622 0.363054168118026
0.0770766126474689 -0.302604405044023 0.367993549378039
0.0841256885469449 -0.299377417203533 0.381272152697177
0.0858232569446526 -0.299498541409199 0.39843528816546
0.0913556615177626 -0.296754965334183 0.405577911243982
0.0817235814063431 -0.302750060533088 0.412085930602942
0.0745139149409503 -0.30702659431907 0.413679406753231
0.09195742912643 -0.298418835694986 0.436863119774112
0.0982677346743615 -0.29593631618704 0.455066424547684
0.0803903430703441 -0.305413544156922 0.441495209320294
0.101844111745555 -0.295289811053786 0.477206368590033
0.101507125470256 -0.29617560093311 0.487944733074066
0.0945251321946979 -0.300592165695679 0.493764617693411
0.0944057424718513 -0.301612786679849 0.508557846016772
0.0934038965495567 -0.302626864440192 0.515306267472844
0.105122779419001 -0.296769140310502 0.530425104991472
0.103157023933291 -0.298295697784859 0.535757348797278
0.105424782802529 -0.297472689903016 0.543374152459556
0.0942563601115253 -0.304085494230851 0.545657085650336
0.0928291115902579 -0.305610800085973 0.556524615101782
0.110575136591591 -0.29523736757598 0.581044709712784
0.11088715199809 -0.29604549295597 0.595468611921297
0.110793246419848 -0.296553166773353 0.600790185180724
0.113170291187955 -0.294901087004348 0.610192689560858
0.106461585797244 -0.295574494614498 0.615910770734393
0.0979438390699452 -0.30105782445356 0.615910770734393
0.0819028530076082 -0.305471850336664 0.615910770734393
0.0781257429999157 -0.303695047589153 0.615910770734393
-0.218809052116415 -0.330043787611657 0.393982028636105
-0.228920155827214 -0.327773152189785 0.401366229088866
-0.217153344047349 -0.332128404103218 0.418104257944877
-0.211209919967159 -0.334452145238123 0.428011695477899
-0.227853242651585 -0.32997509406934 0.430441454483096
-0.219617842130561 -0.333427661510961 0.447628394513159
-0.213724204182425 -0.335812058117215 0.458643677083735
-0.233818897719734 -0.330238097879217 0.459073016892493
-0.230808262281728 -0.331199817379882 0.460890579920196
-0.232248854491564 -0.332219096829086 0.482010182779588
-0.241470398320962 -0.329805439187125 0.483837937570896
-0.240279195952935 -0.330907509258609 0.495794899878812
-0.242028130460734 -0.331091939567558 0.505783928302853
-0.229997245749907 -0.336100041599068 0.530361798157616
-0.239120425873693 -0.333278454534298 0.526232225079504
-0.238090610830596 -0.334405451593489 0.538715116906236
-0.242806048479992 -0.333534049716577 0.545304891946549
-0.23962910750959 -0.335443588616759 0.560520730616478
-0.248265108385057 -0.333375988737727 0.565578752277841
-0.250347902761702 -0.333297190518787 0.573038969889254
-0.233217942778452 -0.339490014210112 0.594094097278176
-0.255538567829793 -0.332640155739554 0.584784300296085
-0.260546962656868 -0.332410652033066 0.601777041140523
-0.261659683691576 -0.33213761373838 0.606845352214973
-0.267162807335707 -0.340194414171483 0.615910770734393
-0.272844129562897 -0.335172696518668 0.615910770734393
0.0472045892661797 -0.298606353146026 0.0369536600411312
0.04973970426532 -0.298112422060325 0.0520932082336734
0.0499864614266145 -0.298719479674191 0.0637523814542573
0.0547479381629822 -0.296822645143342 0.0771203221707444
0.0694671092209555 -0.28906706340328 0.0890309686580281
0.0675550517224922 -0.2910129514502 0.10207358719012
0.0696083024052874 -0.291225405408379 0.123858183006034
0.0777415286234277 -0.28748344474028 0.138888912903267
0.0738798430293867 -0.290090173321423 0.144656995974027
0.0649821636779078 -0.295058491711867 0.141811857390307
0.0601677374246433 -0.298534316026404 0.152516289028223
0.0825890678268717 -0.287606966371116 0.184442527999922
0.0858044326652994 -0.286328879331471 0.193513591620247
0.0744597120851804 -0.292389322307488 0.185621940044114
0.0739591200238933 -0.29334950123415 0.196044218687442
0.0850676529835285 -0.288228125032825 0.216409843783574
0.0866705179118295 -0.288057669892634 0.228187281687844
0.087314492767156 -0.288410722088935 0.239472761461869
0.0914910555476133 -0.287353399463709 0.260627948471913
0.093537942252519 -0.286583741072222 0.267086098205237
0.0867882048829803 -0.291217119759482 0.2783674058086
0.0899066365457377 -0.290049923951491 0.288290019724236
0.0893155187301648 -0.290744676791654 0.293770816555894
0.0947901828454383 -0.288288765320762 0.304866110435025
0.0921613884559415 -0.290491491003609 0.315450431020027
0.0933650151178103 -0.290598561383143 0.327949048310563
0.0952899558982564 -0.289973983043511 0.33556514878253
0.102690968742503 -0.286009501608663 0.36059899419593
0.100129704722218 -0.288307866611336 0.357136779400629
0.094495721865733 -0.292134617147106 0.362008123889562
0.0898021734586239 -0.295188661053849 0.367243056496791
0.106348938196739 -0.284703265949664 0.390974766568192
0.100847569996074 -0.291010146414665 0.401699305048595
0.104421032257491 -0.288146010134431 0.410408505835672
0.108042249860069 -0.285838594439236 0.427426768938188
0.105511629605577 -0.289141127148703 0.437281720322651
0.111286235271787 -0.284345919009448 0.45006333859399
0.109139232518007 -0.287448457311798 0.462293055727309
0.107788987756273 -0.289271615236741 0.468336890400137
0.109106814156758 -0.288263605673038 0.472364423849895
0.111346720908974 -0.287519644013651 0.491683858900723
0.108667877903699 -0.290128506449799 0.490700534006149
0.113246546987034 -0.287019115826537 0.509749101877584
0.108574569222047 -0.291634985012868 0.508882681999123
0.108908783596355 -0.292352521583625 0.522427212333357
0.118011944034722 -0.284856736555919 0.543392688977903
0.10903998767145 -0.293892596180797 0.543937709534063
0.111348817542592 -0.292392468692409 0.55441565964368
0.121292121908571 -0.283598111333176 0.569507929138804
0.116495360009839 -0.289249967383312 0.580363242557831
0.119036089354687 -0.287369587790929 0.588939320517841
0.116339018338338 -0.290195566194801 0.590514773398892
0.120172031060574 -0.287697648330127 0.607813585748039
0.117753271557983 -0.286488341889834 0.615910770734393
0.109027726448042 -0.2892767469603 0.615910770734393
0.0920561590813311 -0.295407038458254 0.615910770734393
-0.232628659333797 -0.324199911161959 0.361742951175418
-0.235099870260452 -0.323770266970048 0.365259220969251
-0.251860153933078 -0.319336780519654 0.365809306467523
-0.242021474257469 -0.323638431711924 0.391537202808551
-0.246381610814648 -0.322529238240714 0.392357444734394
-0.245752117047958 -0.323479540012016 0.404353952950014
-0.232032218128553 -0.328212919935149 0.420832653980879
-0.247396036454995 -0.324151570026514 0.42137889893808
-0.253980412867271 -0.32319583367315 0.433645887641237
-0.239172433940438 -0.328500971398783 0.454442230746726
-0.25155418139872 -0.325368791607937 0.457042365609178
-0.258474512277575 -0.322636369147486 0.455627927919501
-0.256550159961567 -0.325082189944845 0.473074425679354
-0.260676318013835 -0.322752798726651 0.474458248485797
-0.263397589101 -0.322275371586943 0.489477458525353
-0.260891617787251 -0.324233042657437 0.495811866808756
-0.258545920818608 -0.32716001225362 0.516280556242109
-0.255951290487079 -0.328360185222637 0.520884821358532
-0.2670259681922 -0.322717129262364 0.52382771186664
-0.267313472290148 -0.323290953186737 0.533707231667827
-0.270486046001568 -0.322614028731268 0.549618940832926
-0.260918415482561 -0.329563445165189 0.566831304376412
-0.261355642282742 -0.329879559865239 0.574462702972397
-0.264096422124634 -0.32861481810343 0.579176362618997
-0.275680469750642 -0.322707540202321 0.591636181776438
-0.265574268120596 -0.329759452407976 0.605982439819451
-0.272542506531984 -0.325895804572159 0.609356803477148
-0.278487152728064 -0.332447616322799 0.615910770734393
-0.292311501973753 -0.327176387851641 0.615910770734393
0.0896548898177974 -0.277006482236168 0.0832341463513451
0.0705507633911357 -0.286966737994238 0.0661307289175311
0.0743110458219708 -0.286253015872085 0.0888809832287922
0.0861860141060287 -0.280464842579692 0.105778497650025
0.0781383061427058 -0.285558530296389 0.112533188040633
0.083558472249277 -0.282709112658078 0.11701999423366
0.0962281978981423 -0.275856475240952 0.14658291057509
0.0822334796698839 -0.284707229969238 0.136158865888967
0.0946811505597653 -0.278487759128696 0.160487328419376
0.095884538192362 -0.278298853197713 0.173579132773409
0.0973029834921517 -0.277648117371721 0.183502055848734
0.0931413794997254 -0.281318741299194 0.181660237611178
0.0929321920267828 -0.282321047370832 0.195360440450431
0.100991359643372 -0.276552399370389 0.216979044321218
0.0987872300130542 -0.279012112197523 0.220199829667494
0.0990300416990239 -0.27955190131201 0.23027804195873
0.0991184117132596 -0.280347793698595 0.24165968831503
0.0935243129736901 -0.285429765254708 0.249022249129918
0.101098048991752 -0.280206253517307 0.265373978641412
0.10124909527008 -0.280584334022084 0.272187586099101
0.10505620169236 -0.277651797139305 0.283559440007039
0.107647596897038 -0.276655624928771 0.304167272234658
0.0998282697052049 -0.28436796959435 0.302548915881618
0.108797156230376 -0.276824759424194 0.321172092439549
0.105596931830335 -0.280526650509494 0.327528756090723
0.101701151490254 -0.284732329397499 0.331396200169052
0.106360846662166 -0.281327031676473 0.347682128516148
0.110133807576159 -0.278490785160233 0.359852623014898
0.112863997770995 -0.276448861950891 0.368793802887767
0.111730739590337 -0.278969519441793 0.386612186072258
0.106094109361281 -0.284321642867081 0.382776864102311
0.110346399074386 -0.281627341168026 0.402956881581481
0.110740603027192 -0.281411857545044 0.405268884513915
0.11919406930421 -0.27512207754667 0.433373031297398
0.115332338399775 -0.279102914280677 0.434786358204392
0.113070794997799 -0.282076338429519 0.443877122754434
0.111691273568034 -0.283533251695951 0.44483038282629
0.114930597904692 -0.281003177591442 0.454057316681577
0.115383890896702 -0.281348618273633 0.464349636427373
0.120375542736084 -0.277757676438738 0.482528612219161
0.11723453891072 -0.281108962732846 0.485137499521872
0.118211518158163 -0.281940893016763 0.50844520687257
0.122843021814916 -0.277711389819355 0.513761401092874
0.118796504485451 -0.282694151381465 0.525684162911512
0.126777036387384 -0.27600217476672 0.542512282634064
0.126279273713583 -0.277391520815627 0.553970021120089
0.121629105782829 -0.281953202581997 0.55268763226931
0.125983229264051 -0.278820001787357 0.568533354242997
0.131319988265139 -0.275094050451146 0.589426587021536
0.125316383982129 -0.28076727726643 0.584989647257909
0.130554470038804 -0.276182293549578 0.593555832881611
0.1258594065009 -0.281740556237209 0.604518586762257
0.128197076799656 -0.280141857104441 0.615910770734393
0.126272848755099 -0.282186953812133 0.615596004462563
-0.259135935201207 -0.312292769903361 0.32341554480657
-0.252598737834798 -0.317113982454811 0.336145046785795
-0.262265132840279 -0.311206038999614 0.333542891754424
-0.252026074954576 -0.319140678895068 0.363481011765252
-0.263650101934789 -0.312188918586861 0.357471156477246
-0.254084316332323 -0.319212038309076 0.375677076879832
-0.259613614313344 -0.315844177600924 0.374342125988003
-0.261623671075888 -0.316157026138737 0.394276491112977
-0.270481996261787 -0.310773524926041 0.392297865666363
-0.269078463170189 -0.312575736911333 0.405221042059847
-0.266694241603957 -0.315689292239215 0.427865927624919
-0.274939854605918 -0.31094373838753 0.429552146679448
-0.269393359551599 -0.315215810723928 0.442763654289237
-0.267937332368286 -0.317094490926775 0.456290568125943
-0.265383689519746 -0.319640265903854 0.47006313974055
-0.274723038447967 -0.313533917253268 0.462258132890343
-0.27256206353274 -0.315756443069858 0.474819014912176
-0.278701150837464 -0.312937352073066 0.485560628643004
-0.26846272962102 -0.320385802421761 0.504136607077738
-0.272982757493817 -0.318630471566911 0.516299968543379
-0.274458584304583 -0.318175960691713 0.521847146566679
-0.281002447678956 -0.315304830848968 0.535074875372342
-0.284773642981425 -0.313512991903524 0.540875099441819
-0.288316854714307 -0.312148386595542 0.55056107764669
-0.285086325708378 -0.315043802514256 0.563664879518193
-0.285242443992273 -0.315382686111083 0.569392102864666
-0.285362349721855 -0.316539379478124 0.585698853243634
-0.279459040878227 -0.320540613833399 0.592511641998594
-0.27820657495671 -0.322524744573915 0.609037270259812
-0.28173675670462 -0.320383192058038 0.608299997192094
-0.294772106895503 -0.323108577165326 0.615910770734393
-0.31803428556808 -0.316714892679124 0.615910770734393
0.101021978367534 -0.266831932489056 0.0922885429693656
0.0984711690500251 -0.270317739154571 0.104241488525748
0.0954363999524155 -0.2730215564863 0.0998889185607372
0.104660676220624 -0.265780123416269 0.125689754272049
0.101472071723188 -0.269028902543468 0.126365544229697
0.100893204167808 -0.270339946188339 0.135769482170032
0.102287216004396 -0.26999630238363 0.149328972777724
0.108202281319822 -0.265546853157039 0.168371717318143
0.0996397098311284 -0.27387052174908 0.165032803844745
0.102485879746284 -0.27197671908721 0.177376078273183
0.11144550095986 -0.264570950194136 0.197648369611611
0.108841770587031 -0.267329667021526 0.199562299555536
0.102919492713353 -0.273892485639516 0.207621897617987
0.112785255001922 -0.26543821208229 0.226090224612444
0.10656321006221 -0.27214853493178 0.232181200399391
0.111535871399734 -0.268350377692443 0.247448713702717
0.107293433846889 -0.272962507771649 0.252074887614826
0.107666691386538 -0.272828181020684 0.255161046745587
0.113055025085959 -0.269687414314936 0.284249855702362
0.117631263256515 -0.266227083459357 0.298751078044428
0.110597822184494 -0.272467077523787 0.288323410909738
0.113041445552021 -0.271473314785926 0.307056115708241
0.11309487124941 -0.271761843933017 0.311458129491517
0.113367030806952 -0.27252404534894 0.32477696324282
0.121180643136519 -0.266314713858423 0.345662761117378
0.120317437949171 -0.26771998446452 0.352611518021919
0.120209958018661 -0.269011481517488 0.367844431623972
0.115217768349485 -0.2734355811477 0.36037980616378
0.117850590120016 -0.272074430256011 0.376825367310198
0.120022480597839 -0.270532311742166 0.384996562477506
0.12472947777101 -0.267431510613174 0.405810987218984
0.130557480590851 -0.262979788923127 0.423701455721497
0.126057503255139 -0.267279361939049 0.42098351743742
0.130777363150408 -0.263893353254881 0.43829373667569
0.131523522327929 -0.263722909607637 0.445725253664053
0.131155380408485 -0.264376387057452 0.449385645906558
0.12639757999929 -0.270489686984199 0.466681507945599
0.134307219458548 -0.263790191751878 0.482498422937487
0.131442345481292 -0.266754875967083 0.483694259833997
0.127165129733739 -0.272099260511329 0.497294662104361
0.132360308434366 -0.267282745468911 0.502327974318042
0.138109377389702 -0.262493854632292 0.514861483039709
0.129584009969169 -0.27136650663364 0.519066930046099
0.13006937365547 -0.27206790477418 0.534353486669125
0.13592036708093 -0.266843445013105 0.542596723360346
0.135283019712598 -0.268015238831109 0.549454418176458
0.138787998618921 -0.265452805583131 0.561691668109111
0.136974060039839 -0.268174847600455 0.573321310963223
0.144309997830066 -0.262707885343919 0.5975985041131
0.137503696791443 -0.269391789812865 0.595813106260304
0.138528290275949 -0.269147801425418 0.605889800445133
0.135735446985765 -0.26724333437113 0.615910770734393
0.123985964781242 -0.267728989822456 0.615910770734393
0.120862734360968 -0.267356608810825 0.615910770734393
-0.26234171586128 -0.310060825791312 0.318931035433794
-0.274113197941679 -0.302592634897973 0.312126999490671
-0.272391132801938 -0.304972499913949 0.330223316883853
-0.272963310189778 -0.304891653710207 0.333640816866207
-0.274925671539272 -0.304722758151663 0.346801294022591
-0.277049995642527 -0.303933034631543 0.352986061248708
-0.269796377791353 -0.309291907403521 0.367234106714372
-0.269477532900305 -0.310741053734239 0.383981711402232
-0.279418178555905 -0.304684004215261 0.381551635665315
-0.284580072232657 -0.302689306967075 0.395573752544617
-0.28687529017743 -0.302092905200949 0.40566808392652
-0.277533922721526 -0.308570660553188 0.418391013460378
-0.281792710276473 -0.307315010639375 0.435141461403177
-0.280328175033739 -0.308458924201981 0.438840946823666
-0.290004371867258 -0.303083149318029 0.4433850626805
-0.28901743141261 -0.304283163256647 0.451578795130342
-0.294685115815296 -0.302106965304594 0.467160197270954
-0.282919960839885 -0.309963850726893 0.479177318745121
-0.292732092144731 -0.304579617870529 0.48467613327552
-0.292870340490018 -0.305100665494883 0.492682949155837
-0.296707608615001 -0.303724022787715 0.504517297707809
-0.29059650445446 -0.308742257988624 0.523208782989975
-0.29223981127413 -0.308302881128309 0.530271680942192
-0.290843708537371 -0.30973437821614 0.538328606181991
-0.301881406169795 -0.303935019867032 0.547933306908476
-0.292524145622116 -0.310407382287074 0.560459839593036
-0.299384758788402 -0.306886313677175 0.567540193171348
-0.301693841566503 -0.30589928328679 0.572554248576543
-0.304263640217113 -0.305417889164312 0.586331737342118
-0.30484573443016 -0.305863356806616 0.596818636728174
-0.306207383321633 -0.305972971036392 0.60896338376007
-0.315941549012821 -0.312505060941574 0.615910770734393
-0.332805594634197 -0.306331465224517 0.615910770734393
0.103212782530896 -0.264493581409474 0.0904575842902606
0.113113140011332 -0.256554619796494 0.116003326405869
0.111730122223302 -0.258641811654569 0.125022072714495
0.105147817734403 -0.264969179188582 0.121538034469808
0.110848908739698 -0.2605327664435 0.13798844610589
0.118024423245765 -0.254698876273247 0.155474590661378
0.113130153340411 -0.259714747692876 0.156888119221447
0.116748368906563 -0.257897448086921 0.180174597921851
0.116766109604351 -0.258630408752502 0.189835363649296
0.114087242488758 -0.261607447937039 0.193589520442056
0.112344700153288 -0.26337309294297 0.193832953460194
0.113009800834082 -0.263879137713644 0.208924109831468
0.115165228911331 -0.262649425923552 0.220903083526592
0.121506218220258 -0.25749894316249 0.236418812388912
0.123022851247105 -0.25645563343993 0.242556533602812
0.126232534214071 -0.254445883000621 0.258096776755
0.119042812008138 -0.262328040000402 0.266784986885244
0.124939568391017 -0.257099764683649 0.275569427915038
0.126819322814348 -0.256260623325386 0.289018402321749
0.123622142178129 -0.259858053189697 0.294070094236433
0.120915345633594 -0.26302198660312 0.299868987550804
0.121990127324698 -0.263291868979967 0.317205688236069
0.133714316803116 -0.253408296101218 0.341253582344192
0.125378658889862 -0.260832524471064 0.329267437130675
0.134005082829547 -0.253603644180107 0.347518010071346
0.132941153637562 -0.25577174609232 0.361693903762708
0.125296695309404 -0.263785447504618 0.366209145331161
0.129913058099236 -0.260280869084337 0.380658552717271
0.128760970001485 -0.26221828633047 0.390728760875216
0.131388943796034 -0.259899925532365 0.394794164962817
0.14002758009505 -0.253168156717801 0.419599224918658
0.135435173512126 -0.257875294710665 0.420933677132622
0.134927754472448 -0.258695539762974 0.424943519198967
0.140353503568293 -0.254592859854734 0.442136810044171
0.136441946527761 -0.258987981866344 0.448238550510229
0.138316017136023 -0.258008334500076 0.459806141159703
0.144287825226021 -0.253662892407683 0.480919210486533
0.140685844614233 -0.257446819326561 0.483149213048983
0.138575219442234 -0.260678414958594 0.497508913340969
0.14564937027181 -0.254149521718391 0.504744073726411
0.143571227308572 -0.256836823041915 0.512518648793032
0.149476042070538 -0.252777875706483 0.536454248109775
0.146718122243443 -0.255399541719692 0.534615658042118
0.148502370080521 -0.254785899284767 0.549734455240493
0.14752975547894 -0.256125302595853 0.554424324962429
0.147129769005124 -0.257336427813372 0.564849903371562
0.146515129952339 -0.258521514994744 0.572171578875094
0.152012253957168 -0.254527107817571 0.591678827599
0.154213484047552 -0.252717503765447 0.596786406825137
0.150048223430656 -0.257956919349381 0.610480169205829
0.155773207174235 -0.251891182672513 0.615910770734393
0.144129301641499 -0.259697708377769 0.615910770734393
0.128810249074841 -0.261544688604468 0.615910770734393
-0.282248130577318 -0.296021206211564 0.288689476663765
-0.280292525447784 -0.297995120533228 0.299559908577173
-0.290884021231646 -0.291660291349292 0.298022503869312
-0.281027383079987 -0.299528543055054 0.325698361404144
-0.292513807328256 -0.292408380217907 0.3212137411517
-0.293784608562099 -0.292580497854964 0.333541801777336
-0.285844924861919 -0.298371562192677 0.348145621748697
-0.285976901463599 -0.299164647495515 0.359716955162321
-0.283480004098139 -0.301376705631873 0.369501870351165
-0.292481502959779 -0.29719933270157 0.384669336874536
-0.297239676479762 -0.295024710833564 0.39313222402517
-0.301769458902864 -0.292894527344408 0.400392613030302
-0.303606688160036 -0.291859581722435 0.401066220517122
-0.291199254394327 -0.30103968585874 0.425619241986351
-0.305964329062378 -0.292300248900553 0.425426984543325
-0.304732678739461 -0.2938608088448 0.43648929483499
-0.298221582133823 -0.298337264930119 0.44484393593652
-0.302237666491218 -0.29710931061715 0.460057127918365
-0.307284549107431 -0.294744873544577 0.468264809507234
-0.297986764907614 -0.301203022408728 0.481069404956394
-0.301199310103824 -0.300170487415288 0.492570949723346
-0.303338793645268 -0.299578417725222 0.501500349090923
-0.299980642431582 -0.302351493971456 0.511977185369953
-0.305779497870909 -0.299927787190627 0.525300342071024
-0.304770763580762 -0.300655681684243 0.527051361887101
-0.307091540636575 -0.300742814190951 0.546426397615374
-0.31059730079577 -0.298818864715462 0.548388060077676
-0.306345913853224 -0.302769699716186 0.567498551470401
-0.321879590329299 -0.293332378732645 0.564068948481722
-0.322868621500731 -0.293524421488293 0.574383712695763
-0.320024698064393 -0.295985587390667 0.584753701131254
-0.313756194384363 -0.301116752132978 0.603709792652482
-0.311552971482879 -0.303063688411953 0.612278105490349
-0.326050176576909 -0.304761628941313 0.615910770734393
-0.345870512361328 -0.296016873683652 0.615910770734393
0.113635644021998 -0.254832829882822 0.100586757685642
0.117060930739674 -0.252172777562428 0.110539857794406
0.118112833213009 -0.252573988246776 0.129271401995591
0.126999955085966 -0.244876091793569 0.144849340200796
0.126172485275539 -0.247049797743668 0.162147476394631
0.125054942669947 -0.248028570203013 0.160327205885991
0.127609765876013 -0.246561707166254 0.174406319812751
0.130976864317646 -0.244633628341137 0.193028062213909
0.125178352297272 -0.250512336091188 0.193880822444709
0.133196887858401 -0.243892122907372 0.212122627802504
0.124347669171361 -0.252726435046431 0.211657297090658
0.129890631769737 -0.248296756076514 0.22615463643916
0.135527867690317 -0.243979280179993 0.243311880702179
0.128761309142184 -0.250219344523227 0.236327679338759
0.132953424356071 -0.24727851271778 0.252559083545903
0.130869164027645 -0.250389298092725 0.2657042509468
0.139757376977689 -0.243005648712873 0.285340074954399
0.138928322936753 -0.243752605245267 0.284257998994224
0.138540137456198 -0.245825215020929 0.305921604273997
0.135920826985291 -0.249073186225887 0.313930414611094
0.133710285641396 -0.2513871654121 0.315193156398827
0.134609800929239 -0.251195466660381 0.324329322854452
0.143087065631622 -0.244577202058228 0.348513425418131
0.143267065457438 -0.244843208685422 0.354258314069606
0.143169123238877 -0.245404028593852 0.360211715554689
0.146717652525051 -0.243043473592669 0.375608549954828
0.138212181243572 -0.251732369313541 0.377706017640844
0.139287435249617 -0.251256471559727 0.385451921074356
0.146900008063894 -0.244942371944428 0.402396294238536
0.143026106359373 -0.249724701189592 0.413966438900994
0.146959956888347 -0.246365635157043 0.421484499473205
0.148856338829203 -0.245304881837315 0.432296195476835
0.149181562902807 -0.24600522098154 0.44550345756022
0.152238481071975 -0.243981464634999 0.458892930953116
0.143847815348965 -0.252117655934637 0.455358952306301
0.14581224217669 -0.251687612700916 0.475164509370048
0.154089479374477 -0.244125259750567 0.484619653725884
0.152649861276632 -0.246735318934617 0.499636694023708
0.153052995591314 -0.24636571145589 0.500080585909595
0.159127981318106 -0.241766491611918 0.519258883378464
0.1528861395583 -0.24823382892066 0.521967696570989
0.158295764463172 -0.244535965694618 0.544162283577029
0.159517327449904 -0.244026641420551 0.553365309502535
0.158052365353631 -0.245181595209483 0.549330764527349
0.158936258074359 -0.245756685281928 0.568132647897928
0.161303414640557 -0.244047550435196 0.57667340338911
0.155722101728354 -0.250440700345677 0.586947823977106
0.164944901420831 -0.242282268260219 0.600929434917324
0.167141236817806 -0.240866553830304 0.611042549226945
0.156723485178361 -0.24882471948555 0.615910770734393
0.145412614787909 -0.248939802235815 0.615910770734393
0.147258205481995 -0.25100096159156 0.615910770734393
-0.292994700053266 -0.287928468347824 0.263415340119445
-0.301193366776378 -0.283508760634663 0.267550323747573
-0.296924184155693 -0.28713405267198 0.283602562641886
-0.297476843875344 -0.287321424046596 0.290554899031067
-0.302793970237828 -0.285414819451572 0.306434424680321
-0.302264531994241 -0.285849512702959 0.308220316251774
-0.30921657461369 -0.282602783041651 0.318615454792418
-0.310609852764388 -0.282701092202708 0.330998642123196
-0.299230688364019 -0.290522169047318 0.348456267465107
-0.313874499776648 -0.281900444776804 0.345836319992526
-0.310166445940372 -0.285582168918467 0.367107327161987
-0.312192256724165 -0.28443380298716 0.367354839028479
-0.317525333354288 -0.282104110252053 0.377542520234989
-0.307429852456967 -0.289522943432964 0.399632224626495
-0.308400427195683 -0.289688448284966 0.409592704292065
-0.319276614575231 -0.283807928745737 0.414838488334301
-0.31972975546491 -0.283536130760234 0.414688579791047
-0.314779168036674 -0.288158644149023 0.439059165417658
-0.319745586338091 -0.28534529648121 0.43969280915093
-0.320050217130576 -0.286189044971955 0.453707599174335
-0.317665166574866 -0.288804269745354 0.470787433840767
-0.319856528429621 -0.288058065944593 0.47787606144731
-0.314506392665093 -0.291999330412109 0.488482821364337
-0.326846399003087 -0.28454216574466 0.484869182463382
-0.317491990617607 -0.292408656813239 0.517356573148053
-0.330029146135667 -0.284440674793632 0.508672924648817
-0.324066907832987 -0.288974106201211 0.523343584404994
-0.333453656769848 -0.284401390742823 0.535246272776641
-0.334049996732461 -0.284780342002778 0.545178973780757
-0.323279617657273 -0.292393089071755 0.562581315217308
-0.330593882835955 -0.288413034800153 0.567125566166209
-0.337108552062928 -0.285275501799299 0.576204318168358
-0.333743270454407 -0.28763393799317 0.581498012019716
-0.33530290503682 -0.287814220691961 0.596135661427313
-0.337811353525045 -0.286668395599269 0.600605262632963
-0.346749819521388 -0.292505885113481 0.615910770734393
0.129767472782666 -0.240455565989678 0.123663546277177
0.129713295345236 -0.241347258501827 0.13443923024804
0.128133210156814 -0.243051921314963 0.135993490150594
0.136659367793773 -0.236169971967093 0.157415107849758
0.133916581411553 -0.239216556536086 0.161239687366953
0.135709950464855 -0.238425916531068 0.174198490565985
0.132029127856594 -0.242766583607722 0.182575772231637
0.141445681056628 -0.233931031873801 0.190343292362972
0.140227245629722 -0.236324782339763 0.205429888192904
0.136908511976456 -0.240231308944978 0.212891183846913
0.140425818506096 -0.237210323729263 0.219386685654275
0.142379706793902 -0.236808364178227 0.239417692386001
0.13731848621733 -0.242754706486633 0.250651234577655
0.143832969840335 -0.236422777597445 0.253201743673834
0.139596485649315 -0.241753129888472 0.267146978337813
0.14423550996588 -0.237863155145197 0.276929321884143
0.142004403461053 -0.240651445230783 0.284030344417947
0.142842651362049 -0.240443431076857 0.292166262037616
0.147084861167768 -0.237621306496775 0.310571399570583
0.151338461239 -0.233877952995203 0.317268852311449
0.149371481316451 -0.237242038798977 0.335186373674431
0.146616632107473 -0.240146893769669 0.337031540044073
0.146882135752227 -0.240790797809434 0.348742237152738
0.148681570794049 -0.239801899061879 0.359228042257558
0.146439724710703 -0.242328366733861 0.362821335335977
0.153124830686672 -0.236621751203051 0.37561942256199
0.15397111742719 -0.236854061402918 0.389525241043842
0.159207743702153 -0.233271721412108 0.41097487295311
0.15733960027205 -0.234876023759802 0.407521958224324
0.159647566606938 -0.234181268070559 0.42835250000967
0.156630597465441 -0.237932923781932 0.437713387221353
0.157418337246387 -0.237572516160902 0.443236754161023
0.154847071246908 -0.240492103412189 0.447639569190681
0.164903432587088 -0.231927852132709 0.467151243086605
0.16492643551119 -0.232784182070762 0.478467434527218
0.157474494910369 -0.239986205001488 0.475021107229538
0.156307787405056 -0.241845675871785 0.483899703327133
0.16375215702002 -0.235802393349495 0.502159339573007
0.16407200664143 -0.236208213271719 0.511507326940278
0.165017384931491 -0.23587037676522 0.519354549721209
0.160448141991307 -0.240857903680201 0.524595910017263
0.16585981104299 -0.236770115750358 0.541799213857658
0.17148638376992 -0.232112505914972 0.554441981203178
0.173621370967829 -0.230907160589909 0.566470838558717
0.174465763836177 -0.231332288893475 0.582833460413255
0.16658082606339 -0.239105068053384 0.581146468976538
0.167376116396925 -0.239440012313478 0.595715197820841
0.16858809653784 -0.238349163410081 0.597311405186207
0.172311257523965 -0.231896042098121 0.615910770734393
0.155584058534406 -0.241423953761292 0.615910770734393
-0.310556487461072 -0.275877188730869 0.23673666302076
0.146322377183767 -0.242068049615793 0.615910770734393
-0.317568235827582 -0.272282001346913 0.242812677372889
-0.320131369712662 -0.271706339192264 0.255190027561515
-0.322188849782821 -0.271249321482069 0.265195411883258
-0.314656574808345 -0.277192793710973 0.287290756206858
-0.318018424865751 -0.274896528094879 0.282330925035128
-0.313646450488013 -0.278765955542793 0.30092655790363
-0.321481038796926 -0.274281035031654 0.301282171316973
-0.317325608366435 -0.278267440376527 0.323200922065911
-0.322943360883238 -0.27552685272114 0.329992070198098
-0.323744553191782 -0.275836431482881 0.340592708321782
-0.319298729263803 -0.279534564255816 0.356248064765991
-0.319877562213355 -0.279953428626127 0.36659102233696
-0.330309226617604 -0.274651296162825 0.376271031885061
-0.320049819590196 -0.281672075844759 0.391588986185885
-0.322155210250614 -0.281119379738006 0.400657973456353
-0.332520299263167 -0.275721946176677 0.408500331542725
-0.33053439640759 -0.277336387624897 0.414978065814665
-0.329665717811177 -0.278734168000234 0.427321991901783
-0.324441144586969 -0.28236758979115 0.435921721824966
-0.327674669104669 -0.281690232696118 0.452208424250799
-0.336003646978738 -0.276495511395568 0.454628228077611
-0.337811023886754 -0.275649301339685 0.465407525713452
-0.332091317447043 -0.280459136282474 0.470247719661422
-0.333405834763573 -0.280948469621467 0.487384518556902
-0.341675951926322 -0.274795662405334 0.49878173101018
-0.341765926820822 -0.27598332691122 0.512599704741255
-0.335336753278906 -0.282662484180055 0.526242977100014
-0.343770865145557 -0.274495898199195 0.518631254365421
-0.344888922201883 -0.274921585985413 0.535550041772774
-0.343726641746285 -0.278019296281293 0.55619550416261
-0.338835889944676 -0.283575538989366 0.566503341584402
-0.345073291246144 -0.277918330272435 0.569945784535931
-0.347629316324611 -0.275991971927128 0.577310253080113
-0.345605241648968 -0.279440792187147 0.592250235457561
-0.343840371425246 -0.282052668618018 0.601008032304867
-0.351340447417633 -0.275544956585462 0.613380956239829
-0.362713907133724 -0.277631946068916 0.615910770734393
-0.364364741681557 -0.278354942396236 0.615910770734393
0.147767847456026 -0.223746618774038 0.140838316616509
0.140095010856747 -0.231793749471055 0.145417678813034
0.143797487086302 -0.228799515267677 0.154645953798386
0.146756954043584 -0.226198237595371 0.159346695715094
0.141710548924615 -0.232126642761403 0.170540525180081
0.141177907557208 -0.233147619720078 0.176808089887867
0.147399136413482 -0.227899278440726 0.189519740572642
0.149815426689336 -0.226683614078483 0.205044384410282
0.150394457045053 -0.227170465357451 0.218778318788532
0.153618809884811 -0.224883310658318 0.230938081973486
0.153859943881117 -0.225026005252042 0.235884739479668
0.14763864483471 -0.231642356816347 0.240776090102295
0.151065466408247 -0.228844416218167 0.24897460689583
0.150156274657202 -0.231567214611398 0.272284460570798
0.157817384131597 -0.224564694988941 0.280996151106677
0.155790212234889 -0.227216809602353 0.288975418715101
0.153519080908917 -0.230252736585498 0.298746809541615
0.156038025604619 -0.228327657752316 0.30646668246444
0.161972741496524 -0.224195613860965 0.329847356153747
0.156270916901482 -0.22946066452143 0.324050606737013
0.15619165064283 -0.230407856105303 0.335216842160548
0.155616636053188 -0.231608350126595 0.343247899268689
0.157704438255179 -0.230374684745947 0.354303679902225
0.161655038605399 -0.227439510074815 0.367492541762748
0.168310412806634 -0.221889431709056 0.386610205713863
0.168484288878811 -0.22305771088567 0.400056922265057
0.169104587421392 -0.22262855000274 0.405985257530247
0.169110971597786 -0.224130263462313 0.421083610196882
0.166951990820107 -0.226371438260558 0.4220745746667
0.164055715323318 -0.229814539275855 0.42902174812611
0.163192203661994 -0.231209120773701 0.435829001590099
0.169362806378713 -0.225763455855657 0.445348406287136
0.166283453152452 -0.22989508876841 0.45879423490903
0.171610908007418 -0.226281497964118 0.481013336083058
0.173561236976091 -0.222999581088497 0.480171540075226
0.175327948855573 -0.222141969978883 0.500391933199525
0.173822910734031 -0.224946103400987 0.502130483196889
0.173513447915135 -0.226445069298268 0.510923824607778
0.1740727230791 -0.226675787478829 0.52191787268086
