ply
format ascii 1.0
element vertex 861
property float x
property float y
property float z
end_header
0.166666666666667 0.0594625351613901 0.85780609552497
0.166666666666667 0.0533470243791786 0.871167689962572
0.166666666666667 0.0543053947140817 0.871905856296226
0.166666666666667 0.0552490450562022 0.886628976106472
0.166666666666667 0.0569511723275527 0.892944383605983
0.166666666666667 0.0528768803077424 0.904699929123459
0.166666666666667 0.0526400316880696 0.912283049151015
0.166666666666667 0.0526439485019842 0.922323378439139
0.166666666666667 0.0535509914268184 0.930596080912588
0.166666666666667 0.0547958018545298 0.946382344152932
0.166666666666667 0.0567943704117314 0.946331107855863
0.155883688802039 0.0522544077057836 0.955555555555555
0.145803839636591 0.0551698045386174 0.955555555555555
0.133320994514675 0.0530154493733586 0.955555555555555
0.124623167481491 0.0553459248207054 0.955555555555555
-0.444444444444444 0.0690718216553144 0.573958266780336
-0.444444444444444 0.0649816759337961 0.576742920164805
-0.444444444444444 0.0643376597307365 0.5910140512487
-0.444444444444444 0.0638181765326928 0.596946491751451
-0.444444444444444 0.0741398053431336 0.614194245363733
-0.444444444444444 0.0666987972240655 0.630043504359056
-0.444444444444444 0.0678813221407807 0.637586098950763
-0.444444444444444 0.0732486369454158 0.643958897610392
-0.444444444444444 0.0687970755563009 0.653416095608448
-0.444444444444444 0.0706202662103524 0.665557617551708
-0.444444444444444 0.0657368173317724 0.675781745611811
-0.444444444444444 0.0666878112570083 0.696113322759838
-0.444444444444444 0.0638844254152205 0.709763277437969
-0.444444444444444 0.0679606500158649 0.718842233899147
-0.444444444444444 0.0720168413212523 0.718402856286991
-0.444444444444444 0.063541397306818 0.744154857711593
-0.444444444444444 0.0679790539013084 0.747742185524777
-0.444444444444444 0.0723791561314548 0.755193436951838
-0.444444444444444 0.0744349394092653 0.771487267845098
-0.444444444444444 0.0632492154367418 0.783996496783046
-0.444444444444444 0.0719133611993185 0.795366232845012
-0.444444444444444 0.0734199153444115 0.807858403148499
-0.444444444444444 0.0691505409542444 0.816791468734557
-0.444444444444444 0.0746055380366318 0.831077441784501
-0.444444444444444 0.069432868585582 0.845767995475759
-0.444444444444444 0.0654692727404775 0.849875681302719
-0.444444444444444 0.064100676636488 0.866060668859367
-0.444444444444444 0.0727813039355689 0.878901056009062
-0.444444444444444 0.0714806192490034 0.887232472530209
-0.444444444444444 0.0731849503191057 0.901919239317991
-0.444444444444444 0.0634831602592192 0.911920908264258
-0.444444444444444 0.0739960573409284 0.924160192236179
0.166666666666667 0.0696348100891943 0.161863677756624
0.166666666666667 0.0665009508346182 0.161328281690363
0.166666666666666 0.0635335979467022 0.178485693802009
0.166666666666666 0.0702313488865528 0.191254942786801
0.166666666666667 0.0704184442034323 0.19538034873661
0.166666666666667 0.0649147017447154 0.20752977343014
0.166666666666667 0.0631429673748522 0.207233574875916
0.166666666666667 0.0631407290377262 0.218331156142134
0.166666666666667 0.0633523797789829 0.232492824199002
0.166666666666667 0.0650437611982029 0.244548213389276
0.166666666666667 0.0637804808654757 0.24882510314825
0.166666666666666 0.0678149254748111 0.264534204291755
0.166666666666667 0.0707775149961087 0.278296661777657
0.166666666666667 0.0699805003713737 0.28045089877082
0.166666666666667 0.0656648562372799 0.293550113949291
0.166666666666666 0.063940761532586 0.30281453408059
0.166666666666667 0.0643322965929363 0.306471669296784
0.166666666666667 0.0703721268922299 0.317085782419403
0.166666666666667 0.0686958874901222 0.322082838789505
0.166666666666667 0.0640275060505357 0.334001004739458
0.166666666666667 0.0708808315772606 0.346746813985229
0.166666666666667 0.0650988938729991 0.355361181666428
0.166666666666667 0.0669381999487227 0.364078700006388
0.166666666666667 0.0692631334106617 0.375502943443888
0.166666666666667 0.0665156764215488 0.379124126248952
0.166666666666667 0.0641615001774383 0.393703859872013
0.166666666666667 0.0703560519728363 0.404998817320606
0.166666666666667 0.0683766808508913 0.415849584086622
0.5 0.0550551923713254 0.726548431671321
0.166666666666667 0.0648628960751381 0.430505674774784
0.166666666666667 0.0701487426723516 0.433994817120364
0.166666666666667 0.0702232511039262 0.452870027959248
0.166666666666666 0.0652111804714107 0.466392430417123
0.496210817373841 0.0547811643322743 0.756783094301972
0.166666666666666 0.0633630619708358 0.480108463876325
0.166666666666667 0.0639087427108518 0.489175339785099
0.166666666666667 0.0668012460765676 0.502178792369929
0.166666666666667 0.068739552931964 0.502258121601145
0.166666666666667 0.0705252781652257 0.512125357480176
0.166666666666667 0.0689152740489446 0.523290241613316
0.166666666666667 0.063109791776497 0.539171887219601
0.166666666666666 0.0627801593057871 0.547125167180579
0.166666666666667 0.067984913104293 0.557145495674003
0.166666666666667 0.0696904419993645 0.564459819355876
0.166666666666667 0.0680844515094726 0.57098417448391
0.166666666666667 0.0631786711583861 0.583791772893712
0.166666666666667 0.0618410756372749 0.594748518245223
0.166666666666667 0.0640780557546726 0.596472781845513
0.166666666666666 0.0626773981219502 0.603960002579247
0.166666666666667 0.0639290159370949 0.626194059421715
0.166666666666667 0.0662242646235554 0.630895069210018
0.166666666666667 0.0636712411067866 0.639904229484677
0.166666666666667 0.062988587289788 0.640697813431322
0.166666666666667 0.0645181155054615 0.654608212567273
0.166666666666667 0.0642327215920875 0.669817755189148
0.166666666666667 0.0634710677633541 0.677124483199706
0.166666666666667 0.062380229384896 0.689663287790621
0.166666666666667 0.0651944216648164 0.690584844723549
0.166666666666666 0.0686997882391421 0.706022389131987
0.166666666666667 0.0628311580306646 0.720455975050808
0.166666666666667 0.0641508298202347 0.729167473241656
0.166666666666667 0.0679278951741729 0.737598209225944
0.166666666666666 0.065319596188273 0.743619112861029
0.166666666666666 0.0652256341695653 0.755209454011311
0.166666666666667 0.0637003011720912 0.761821974968624
0.166666666666667 0.0686692106742236 0.769880166603528
0.166666666666667 0.0695168456898111 0.778816689371381
0.166666666666667 0.0696743074780227 0.795197226748114
0.166666666666667 0.0655505618711782 0.799559180936963
0.166666666666667 0.0688311199666962 0.81159806159052
0.166666666666667 0.0687865173429715 0.814197417032406
0.166666666666667 0.069974515720105 0.824200130504031
0.166666666666667 0.0667043324121804 0.843355324565851
0.166666666666666 0.0707650478037537 0.843160072020457
0.166666666666666 0.0677942356309164 0.850871571467749
0.166666666666667 0.061663585855565 0.863011636947678
0.166666666666667 0.0624819412443808 0.86892410519344
0.166666666666667 0.0628157553543077 0.886573553722953
0.166666666666666 0.0632113840565924 0.899183495268464
0.166666666666667 0.0623866404041749 0.904706260010786
0.166666666666667 0.0688898819005953 0.915806483047989
0.166666666666666 0.0618242173768646 0.927594747104379
0.166666666666667 0.0679069789576585 0.925109707143092
0.166666666666667 0.0696126441833123 0.943620198280816
0.166666666666667 0.0634430521254707 0.953217469344002
0.151163630386231 0.0673709169966767 0.955555555555555
0.144472754860901 0.0675368720811672 0.955555555555555
0.131100595180209 0.0628077779839871 0.955555555555555
0.11610059157463 0.0627433669736871 0.955555555555555
-0.444444444444444 0.0781330395126305 0.566413245234705
-0.444444444444444 0.0835538001463024 0.58158151346245
-0.444444444444444 0.0835428227625518 0.590263012174649
-0.444444444444444 0.0789924283008611 0.600440373929026
-0.444444444444444 0.0797486011558779 0.613025914304153
-0.444444444444444 0.0792894606606217 0.622480988978324
-0.444444444444444 0.0788093551411009 0.632160128346947
-0.444444444444444 0.0833991191996609 0.643618662929706
-0.444444444444444 0.0803925852091617 0.664464001355536
-0.444444444444444 0.0848587641000581 0.669570889763446
-0.444444444444444 0.0754657173409394 0.684120588216155
-0.444444444444444 0.0761535553796428 0.69538946918809
-0.444444444444444 0.0754870662773281 0.702847595918542
-0.444444444444444 0.0788829207566554 0.70943007921048
-0.444444444444444 0.0820275322570548 0.725072589139583
-0.444444444444444 0.0759689179526039 0.736205468554841
-0.444444444444444 0.0767916801763492 0.752911529228692
-0.444444444444444 0.0836703042646454 0.755300806180416
-0.444444444444444 0.0828212930678451 0.779848948413238
-0.444444444444444 0.0840203892325178 0.786764511301393
-0.444444444444444 0.0782626982535058 0.789871289622213
-0.444444444444444 0.080180286105439 0.800828105430757
-0.444444444444444 0.0812470921294214 0.817475148971512
-0.444444444444444 0.0843062185164 0.830553141060631
-0.444444444444444 0.0830228052974379 0.848251797619812
-0.444444444444444 0.0806799527879018 0.846225119604707
-0.444444444444444 0.074892958265532 0.866485154329326
-0.444444444444444 0.083597069406125 0.874266179316758
-0.444444444444444 0.0755537962047609 0.891599185873226
-0.444444444444444 0.0754209045660327 0.900587634515372
-0.444444444444444 0.0842703630564011 0.913720122619385
-0.444444444444444 0.0787584483009579 0.92515763258886
0.166666666666667 0.0782470358714811 0.156950162553738
0.166666666666667 0.0707127445984336 0.174026173382009
0.166666666666667 0.0741427622082713 0.175341623111083
0.166666666666667 0.0755997033366557 0.179586272066354
0.166666666666666 0.0783863855788998 0.198143235102393
0.166666666666667 0.0737755145592257 0.205478911028649
0.166666666666667 0.075191847452514 0.217382468216091
0.166666666666667 0.0767879195862788 0.221492547507984
0.166666666666667 0.0710388070509168 0.230097464386485
0.166666666666667 0.0712756764919871 0.245386122168348
0.166666666666667 0.0716514557724883 0.247742606893371
0.166666666666666 0.0732208587274265 0.260568184406065
0.166666666666667 0.0732346584243756 0.264231069565502
0.166666666666667 0.0766180441402315 0.280962015972639
0.166666666666667 0.0797718725922736 0.286945762059473
0.166666666666667 0.0756976986856925 0.297491623454398
0.166666666666666 0.0764392755750612 0.30596427084354
0.166666666666667 0.0781096093280551 0.317979857348516
0.166666666666667 0.0800417549820938 0.321449805766708
0.166666666666667 0.0788918414050489 0.332683549887171
0.166666666666667 0.0783159632053327 0.352889853353185
0.166666666666667 0.0730141688253817 0.353742198216372
0.166666666666666 0.0740199531019078 0.35882235409059
0.166666666666667 0.0740743278760507 0.373758922817928
0.166666666666667 0.0795592524384033 0.385986706199965
0.166666666666667 0.0792653175455061 0.387153336661783
0.166666666666667 0.0743807572721588 0.399188095032915
0.166666666666667 0.0781613445513832 0.407239251397365
0.166666666666667 0.0750466743518202 0.423428064953099
0.166666666666667 0.0793013937137846 0.435366536269111
0.166666666666667 0.072374003268407 0.438518809267958
0.166666666666667 0.0736017510164356 0.453958099407339
0.166666666666666 0.0715186625915744 0.459425275687261
0.166666666666667 0.0745324144325214 0.470557749379241
0.166666666666667 0.075538615930214 0.485407706041976
0.166666666666667 0.0770354222321296 0.491971627579257
0.166666666666667 0.0761455505414369 0.489677862610302
0.166666666666667 0.0801151889500808 0.507037704367089
0.166666666666667 0.0736556469858041 0.516461726977237
0.166666666666667 0.0723050695220335 0.526907441941712
0.166666666666667 0.0784896027953689 0.533850164797736
0.166666666666667 0.0788209760556754 0.546609013718129
0.166666666666667 0.0798651421422453 0.554018887080127
0.166666666666667 0.0717058799243189 0.55954845897519
0.166666666666667 0.0766862885957028 0.572511245929804
0.166666666666667 0.0715165721321515 0.58439756289932
0.166666666666667 0.0772472751872784 0.588200789255074
0.166666666666666 0.0729256572668053 0.597621274635461
0.166666666666667 0.071448137171358 0.607716220246933
0.166666666666667 0.0764571005829925 0.623615916100065
0.166666666666667 0.0721566099542809 0.624135563299128
0.166666666666667 0.0753865400243338 0.637543051714988
0.166666666666667 0.0784781362484209 0.641532225055294
0.166666666666667 0.0707532531513515 0.66314178624853
0.166666666666667 0.0759459448617205 0.671852155081503
0.166666666666666 0.0743899092615523 0.678771080349925
0.166666666666666 0.0711668527322233 0.686043671878389
0.166666666666667 0.0778854702328648 0.693824966717344
0.166666666666667 0.0738083028206174 0.703851744226409
0.166666666666667 0.0754351195931154 0.713735614896244
0.166666666666667 0.0802251791235994 0.717827779678426
0.166666666666667 0.0744207076913053 0.733065719747268
0.166666666666667 0.0775656078299132 0.741705574426098
0.166666666666667 0.076915821753319 0.75998431330518
0.166666666666666 0.0789465393927082 0.765735264322655
0.166666666666667 0.073669070094179 0.772268186900431
0.166666666666667 0.0801533258132905 0.777227564707576
0.166666666666667 0.0794972360245506 0.790154757626924
0.166666666666667 0.0722000881848137 0.800686422569937
0.166666666666667 0.0742959704673237 0.805994937964431
0.166666666666667 0.0710968353219983 0.820376584497874
0.166666666666667 0.0799230160057337 0.829303114327947
0.166666666666667 0.0714965759981363 0.830991077051377
0.166666666666666 0.0715459887752535 0.848581313064619
0.166666666666667 0.07671782709894 0.851369609033596
0.166666666666667 0.0752516767253096 0.859853528645978
0.166666666666666 0.0762714219978598 0.877513318427883
0.166666666666666 0.0798069937305312 0.882041770892984
0.166666666666666 0.0790629072865367 0.895101446211125
0.166666666666666 0.0743127654021297 0.906563299687857
0.166666666666667 0.0736870999385706 0.908442395960023
0.166666666666666 0.0749854089269274 0.922116298373607
0.166666666666667 0.0801969119171451 0.924022620388441
0.166666666666667 0.0785209242057109 0.936342654353938
0.166666666666667 0.0725963613606617 0.946118515428606
0.166666666666667 0.0709740675964303 0.955180644924478
0.141397447653208 0.0716457029248286 0.955555555555555
0.136957992419563 0.0767943498205071 0.955555555555555
0.114077621353227 0.0762652379934523 0.955555555555555
-0.444444444444444 0.0861664583604174 0.569741676477993
-0.444444444444444 0.0875846442508271 0.57905191800148
-0.444444444444444 0.0932868739698455 0.588201949878132
-0.444444444444444 0.0888889023303354 0.601762792060489
-0.444444444444444 0.0976175676257743 0.613309397368624
-0.444444444444444 0.0942163913588091 0.619539173544278
-0.444444444444444 0.0931594957445415 0.641678946759338
-0.444444444444444 0.0935843050064101 0.647579725132947
-0.444444444444444 0.0864141742683511 0.6602161209908
-0.444444444444444 0.0950655322935381 0.674222598861158
-0.444444444444444 0.0897868005194371 0.674175912161186
-0.444444444444444 0.0968078470296058 0.69529823774646
-0.444444444444444 0.0943822937623857 0.700956653229848
-0.444444444444444 0.090943585513176 0.710485014308872
-0.444444444444444 0.0881515016388307 0.734365398397015
-0.444444444444444 0.0890802439719735 0.741775042247868
-0.444444444444444 0.0910939587274082 0.750211509196175
-0.444444444444444 0.0933893583096957 0.761134685100158
-0.444444444444444 0.0881784007586581 0.778823498813326
-0.444444444444444 0.0891777038820588 0.78919631013593
-0.444444444444444 0.0947612100442329 0.798465302410668
-0.444444444444444 0.0941756289967891 0.804621152800321
-0.444444444444444 0.0861070158172259 0.816898687787933
-0.444444444444444 0.0868470816426791 0.830417828056886
-0.444444444444444 0.0951269396045408 0.843649272181365
-0.444444444444444 0.0906701748239178 0.846757560065646
-0.444444444444444 0.0929700295789389 0.860421041272762
-0.444444444444444 0.0897904892408612 0.873108549182465
-0.444444444444444 0.0923130523426415 0.889938149565224
-0.444444444444444 0.0894093176492489 0.894927768094021
-0.444444444444444 0.0863000657466916 0.911331103035322
-0.444444444444444 0.0933713981398524 0.926643220252745
0.166666666666666 0.0880526937888487 0.161627123659768
0.166666666666667 0.0872012917612627 0.171280396399011
0.166666666666667 0.0875086845846426 0.175129864739061
0.166666666666667 0.0861298419696141 0.184091092313321
0.166666666666667 0.0854047282371248 0.202464039743182
0.166666666666667 0.0842905978680378 0.205967729900798
0.166666666666667 0.0859526924076359 0.214631567595662
0.166666666666667 0.0818424070828178 0.230093351547141
0.166666666666667 0.0883864561667262 0.22924567832294
0.166666666666667 0.083770672811591 0.234826534404689
0.166666666666667 0.0816001981319533 0.245646704646282
0.166666666666667 0.0856335291887797 0.266844730624306
0.166666666666667 0.0810279569087591 0.269272966215094
0.166666666666667 0.0816556183845957 0.287111399071253
0.166666666666667 0.0823693733539941 0.28688055538676
0.166666666666667 0.0813301863998536 0.297074636737354
0.166666666666667 0.0860178272979184 0.314991645796116
0.166666666666667 0.0897222479700976 0.314447671029254
0.166666666666667 0.084025413768913 0.328811052134577
0.166666666666667 0.0855763053140104 0.339962046728531
0.166666666666667 0.0885797424497662 0.343399930579514
0.166666666666667 0.0815739151890964 0.350927027791067
0.166666666666667 0.0880985893075561 0.358004699022846
0.166666666666666 0.081035017374169 0.367511270354524
0.166666666666667 0.0891189293535173 0.38503103729587
0.166666666666667 0.0814953476680326 0.394015311633896
0.166666666666667 0.0855781608750193 0.403279663523927
0.166666666666667 0.0840721724124087 0.411743633123382
0.166666666666667 0.0869774220402542 0.421187029867664
0.166666666666666 0.0895586986345397 0.432041848378223
0.166666666666667 0.0820256854463346 0.438104719288352
0.166666666666667 0.0849984621695497 0.441310296807688
0.166666666666667 0.086003288840188 0.459648061823274
0.166666666666666 0.0829049992010178 0.466506939046937
0.166666666666667 0.0861252616262006 0.470462460800363
0.166666666666667 0.0809440125008048 0.492011739269668
0.166666666666667 0.0831364640303554 0.499556911281459
0.166666666666666 0.0876360999754866 0.512157092464573
0.166666666666667 0.08688943345566 0.514670754373813
0.166666666666666 0.0861122901566242 0.525624582459766
0.166666666666667 0.0856078816650402 0.533455691972557
0.166666666666667 0.0821397889116054 0.544926807523426
0.166666666666667 0.0828615172751288 0.548908692573523
0.166666666666667 0.0848334948761278 0.567514832777989
0.166666666666667 0.0892316603310342 0.565370990935801
0.166666666666667 0.0828037493984852 0.582738193891664
0.166666666666667 0.0874690110852494 0.597424162797504
0.166666666666667 0.0894600585963899 0.597846915659114
0.166666666666667 0.0856399375053072 0.613451225288266
0.166666666666666 0.0886430417677979 0.628210487754573
0.166666666666667 0.0825554542341825 0.62398791709698
0.166666666666667 0.0869224871517084 0.644024822187575
0.166666666666667 0.0881590161402139 0.652414288338595
0.166666666666667 0.0835035609374985 0.659432851664086
0.166666666666667 0.0887630417073199 0.670953539784838
0.166666666666667 0.0841544678480889 0.671023180234012
0.166666666666667 0.0876459141459041 0.691462856570553
0.166666666666667 0.0875263740653735 0.701355670387726
0.166666666666667 0.0865236632984867 0.702791078418271
0.166666666666667 0.0816900629995931 0.717650048319282
0.166666666666667 0.0895475992086219 0.728906940628457
0.166666666666667 0.0863034093533425 0.73051133899989
0.166666666666667 0.0877189885290848 0.743109399163627
0.166666666666667 0.0806586803718359 0.751841338679882
0.166666666666666 0.0842981627327964 0.764301792844511
0.166666666666667 0.0850472816692032 0.777192667099574
0.166666666666666 0.0884305795067883 0.787306142016037
0.166666666666666 0.0809196364153754 0.790536819795648
0.166666666666667 0.0842738427403878 0.798007895791646
0.166666666666667 0.0880664267882864 0.807376168686486
0.166666666666667 0.0871196208105614 0.822621643494365
0.166666666666667 0.0850328539626511 0.829755099603955
0.166666666666667 0.0891958574985641 0.836619032166272
0.166666666666667 0.082770551890693 0.843697273039068
0.166666666666666 0.0890816865617009 0.860763704194983
0.166666666666667 0.0808288477124249 0.861140654424289
0.166666666666667 0.0809682634323558 0.872668765495505
0.166666666666667 0.0854727807252559 0.889645355026095
0.166666666666667 0.082168663682025 0.895620899716866
0.166666666666667 0.0873471231550452 0.902842637883753
0.166666666666667 0.0878002259417174 0.913903096595469
0.166666666666667 0.0874558695900688 0.925449723781808
0.166666666666667 0.0860995210276272 0.931169689956276
0.166666666666667 0.0863923724538463 0.941040742417175
0.166666666666667 0.0873266100305463 0.95058460512651
0.161587146224576 0.0844554191704459 0.955555555555555
0.151213655614287 0.0861099022209256 0.955555555555555
0.134363612536899 0.0845666852490038 0.955555555555555
0.123904884911278 0.0850794278213787 0.955555555555555
-0.444444444444444 0.10098016300055 0.569701116508813
-0.444444444444444 0.103663996784248 0.582796844397834
-0.444444444444444 0.105258424261442 0.592721762048831
-0.444444444444444 0.108407413209782 0.59579664791977
-0.444444444444444 0.107436003001506 0.612080832632078
-0.444444444444444 0.0983886746467663 0.623578120959875
-0.444444444444444 0.102727623425688 0.642136437743178
-0.444444444444444 0.107995625016342 0.648789028542239
-0.444444444444444 0.10451691027024 0.655303972659473
-0.444444444444444 0.10860898708278 0.670427768879423
-0.444444444444444 0.104959821580389 0.68166816306551
-0.444444444444444 0.100283019071743 0.693039963468354
-0.444444444444444 0.107465905447232 0.7052093792769
-0.444444444444444 0.104474551560172 0.707110310498541
-0.444444444444444 0.102142931223082 0.728798252650087
-0.444444444444444 0.0997807462654133 0.734212225656359
-0.444444444444444 0.104816081374249 0.745811869376983
-0.444444444444444 0.0998098462273882 0.755945638709076
-0.444444444444444 0.0978607236887796 0.772578468766656
-0.444444444444444 0.10521340191613 0.782281579726901
-0.444444444444444 0.0978444267343172 0.795572539179411
-0.444444444444444 0.0983849927986691 0.804202604171804
-0.444444444444444 0.102698114670729 0.82166593945631
-0.444444444444444 0.100467860241987 0.830560759200793
-0.444444444444444 0.105592678151451 0.837544687645529
-0.444444444444444 0.105436874517955 0.849502705426402
-0.444444444444444 0.108438553537497 0.86032987151322
-0.444444444444444 0.0981563502206579 0.872625529484369
-0.444444444444444 0.10505956961209 0.89258381209299
-0.444444444444444 0.108555704611697 0.903630793942027
-0.444444444444444 0.0990535610339325 0.906889677783118
-0.444444444444444 0.0995571423354351 0.916805696369624
0.166666666666667 0.093414747270332 0.150771970814461
0.166666666666667 0.0960887845001301 0.166887134699705
0.166666666666667 0.0979785470035672 0.17557577240333
0.166666666666667 0.0989443456803351 0.190248414337351
0.166666666666667 0.092849558517604 0.197380090540167
0.166666666666667 0.0960749015696963 0.20400581431059
0.166666666666666 0.0927033530999215 0.213225490410467
0.166666666666667 0.0979364182675429 0.226994061687156
0.166666666666667 0.0973607898072483 0.238796472639766
0.166666666666667 0.0958130485483523 0.242457114668146
0.166666666666667 0.0978891202093441 0.245395905131596
0.166666666666667 0.0926409812846845 0.262624670348104
0.166666666666667 0.0955341260118084 0.266368512237788
0.166666666666667 0.0966203990267569 0.278042849419856
0.166666666666667 0.0952325861137567 0.289640749507763
0.166666666666667 0.0949571946454595 0.299904366179157
0.166666666666667 0.0932052028270104 0.313041453793193
0.166666666666667 0.0986881492133868 0.317981217230268
0.166666666666667 0.0941369445211423 0.332494154609377
0.166666666666667 0.0974923312828658 0.339476393936321
0.166666666666667 0.0929691411323094 0.349291324822676
0.166666666666666 0.0912581498529358 0.361774997123534
0.166666666666667 0.0909326088821388 0.368157298793439
0.166666666666667 0.0975787236164695 0.37578011682436
0.166666666666667 0.0905238063960086 0.380453600668593
0.166666666666667 0.0916953342826807 0.392032386557132
0.166666666666667 0.0989116237152954 0.407745613716189
0.166666666666667 0.0928788735264319 0.410027966336675
0.166666666666667 0.0904304054516704 0.425908805910949
0.166666666666667 0.0933577598488432 0.426476033616364
0.166666666666666 0.0977420017487452 0.445142728999031
0.166666666666667 0.0963000689710611 0.447235896296826
0.166666666666667 0.0947741123667408 0.457764764923431
0.166666666666667 0.0967788565712358 0.46649107740472
0.166666666666667 0.0946124564990306 0.47573419068479
0.166666666666667 0.0969512481759614 0.485340257035754
0.166666666666667 0.0916615419043977 0.502231989893184
0.166666666666667 0.0977867186822491 0.507198343914021
0.166666666666667 0.0958993719417994 0.520822653401525
0.166666666666667 0.0975571250577347 0.523373658223541
0.166666666666667 0.0911112926514393 0.530080188767423
0.166666666666667 0.0988240299710519 0.552222033824311
0.166666666666666 0.0920758887783469 0.554105860552758
0.166666666666667 0.0930513998745363 0.567992919339005
0.166666666666667 0.0952005937442298 0.576513151483312
0.166666666666667 0.0897867780909787 0.582342851143168
0.166666666666666 0.0938931997490542 0.589555129764079
0.166666666666667 0.0941946964524155 0.59904326679185
0.166666666666667 0.093866981241272 0.612120596923624
0.166666666666667 0.0981516943002101 0.618509543390169
0.166666666666666 0.0899415029948642 0.629643602109287
0.166666666666666 0.0984110082035941 0.638106869663628
0.166666666666667 0.0916940700001993 0.64224220275846
0.166666666666667 0.0981660626280451 0.658595527450973
0.166666666666667 0.0924747127515058 0.666240272554554
0.166666666666667 0.0951503917791366 0.677873876941519
0.166666666666667 0.0989905720655436 0.684402398810303
0.166666666666667 0.0947120429560165 0.697182730860228
0.166666666666667 0.0915588601565509 0.707658167355658
0.166666666666666 0.0944599281267059 0.716076155829654
0.166666666666666 0.0928283693157884 0.72086122075753
0.166666666666667 0.0958525812201533 0.73271038058384
0.166666666666667 0.0926815219623863 0.742012652430694
0.166666666666667 0.0945952469092731 0.751222884947032
0.166666666666667 0.0907226072585421 0.763711931848461
0.166666666666667 0.0970310985500704 0.778575661143947
0.166666666666667 0.0936946674993396 0.78311538958559
0.166666666666666 0.0907398188923103 0.788684620967869
0.166666666666666 0.0912306053002759 0.797105030082305
0.166666666666667 0.0910809346548994 0.814377855707639
0.166666666666667 0.0954717896309152 0.823135504350437
0.166666666666667 0.0975642888491593 0.826909077820751
0.166666666666667 0.0939615570738291 0.837027033021908
0.166666666666667 0.0968222991961424 0.846641848598843
0.166666666666667 0.0962795018434072 0.854314406075783
0.166666666666667 0.0953975185838773 0.868326142238876
0.166666666666667 0.0957768333993012 0.874510423780142
0.166666666666666 0.0988683083993652 0.885436247596502
0.166666666666667 0.0961092530321884 0.892715015271242
0.166666666666666 0.0963486719119437 0.909262200826896
0.166666666666667 0.0902253733773222 0.916831725844664
0.166666666666667 0.0912232688222626 0.920311117034614
0.166666666666667 0.0954753919424679 0.929975644991338
0.166666666666666 0.0907640661654635 0.943424812158719
0.166666666666666 0.0927879273089882 0.947239949072935
0.161278673508913 0.0933864372274624 0.955555555555555
0.150997723550468 0.0971587228526413 0.955555555555555
0.14144204490362 0.0976934988132907 0.955555555555555
0.124025142359244 0.0975861904485668 0.955555555555555
-0.444444444444444 0.114118525235899 0.563733393543774
-0.444444444444444 0.118843118799326 0.578196287334753
-0.444444444444444 0.113681688818611 0.585002569505548
-0.444444444444444 0.115645150709894 0.599273403787994
-0.444444444444444 0.111646617545715 0.610121708303152
-0.444444444444444 0.114201020161743 0.61887412878409
-0.444444444444444 0.109126757912786 0.634115685490787
-0.444444444444444 0.111373879416002 0.646049580667484
-0.444444444444444 0.119690551966931 0.664170461004351
-0.444444444444444 0.112254792634832 0.669700919676579
-0.444444444444444 0.119644761884812 0.675796717529896
-0.444444444444444 0.120198502712051 0.688381755595791
-0.444444444444444 0.115815513272408 0.69948341747917
-0.444444444444444 0.117683674706506 0.718278448820025
-0.444444444444444 0.113690022671998 0.723092842238557
-0.444444444444444 0.118330876096745 0.736725640742041
-0.444444444444444 0.119934755798165 0.746790598205533
-0.444444444444444 0.10951631921379 0.765176146061783
-0.444444444444444 0.119043565922886 0.773752714641058
-0.444444444444444 0.119323281728978 0.788922487623063
-0.444444444444444 0.110391632566445 0.799395193580326
-0.444444444444444 0.117054724204345 0.809368314218523
-0.444444444444444 0.113863976475222 0.820408371946103
-0.444444444444444 0.116867749837811 0.826156469966607
-0.444444444444444 0.114621170773318 0.841136421797898
-0.444444444444444 0.111527756080514 0.855480080677399
-0.444444444444444 0.120539287659645 0.864159709270212
-0.444444444444444 0.113730234249319 0.873124251459375
-0.444444444444444 0.120335214218056 0.891370816951487
-0.444444444444444 0.114670785856732 0.899943257916198
-0.444444444444444 0.117293928422732 0.910396143141241
-0.444444444444444 0.109316542960438 0.927938859442338
0.166666666666667 0.101905310008155 0.153384490937022
0.166666666666666 0.105396588675047 0.164248599384972
0.166666666666667 0.101854991060265 0.17745389169837
0.166666666666666 0.100355009290324 0.18779433423309
0.166666666666667 0.104776400652974 0.194797259131481
0.166666666666666 0.104870884344288 0.201990651452377
0.166666666666667 0.105425806957296 0.217653123887129
0.166666666666667 0.105982088324335 0.226394138917357
0.166666666666667 0.10384604197071 0.233868496062239
0.166666666666667 0.10646726030527 0.2397813880673
0.166666666666667 0.107610744116431 0.252356023790807
0.166666666666667 0.105779335139298 0.255784558932671
0.166666666666667 0.102415362616061 0.275375374127723
0.166666666666667 0.100412839210494 0.273818359862587
0.166666666666666 0.103759136785081 0.288657428999534
0.166666666666667 0.106747114250463 0.300446276677509
0.166666666666667 0.0997193042462432 0.306730424730237
0.166666666666667 0.101533901341137 0.316953787960981
0.166666666666667 0.106224847746766 0.327742001887977
0.166666666666667 0.104166743600729 0.33617061136297
0.166666666666667 0.0993676841458482 0.344107062887492
0.166666666666667 0.108272741711259 0.360779349481745
0.166666666666667 0.107614171796719 0.366997647782046
0.166666666666666 0.107831145946757 0.37137873380627
0.166666666666667 0.100424899714554 0.386110419764624
0.166666666666666 0.102992932139435 0.400076079937985
0.166666666666667 0.0993059311998533 0.399995783211864
0.166666666666667 0.10677190531159 0.415257462402528
0.166666666666666 0.107131650099059 0.421361700916917
0.166666666666667 0.10437894860962 0.435119810174885
0.166666666666666 0.106820511457716 0.449282752600633
0.166666666666667 0.10710722698473 0.449017973946617
0.166666666666667 0.103263473088002 0.451533933793709
0.166666666666666 0.103810490785149 0.473485235430412
0.166666666666667 0.102301520000547 0.480425264349461
0.166666666666667 0.104205839475271 0.489560119013157
0.166666666666667 0.108073387716174 0.496648430976114
0.166666666666667 0.102650607791165 0.504358184636774
0.166666666666667 0.102201392310611 0.51352327796637
0.166666666666667 0.102697791258285 0.522199422623423
0.166666666666666 0.10821716346867 0.531796137302367
0.166666666666666 0.105522433834502 0.54850846048439
0.166666666666666 0.107429234925478 0.552978981032501
0.166666666666666 0.106579796492762 0.559285401135026
0.166666666666667 0.101071198380039 0.573134430104717
0.166666666666667 0.100135991835678 0.582735598957547
0.166666666666667 0.101477694348411 0.598297448458688
0.166666666666667 0.0993015373729907 0.601024435298065
0.166666666666666 0.100128561336112 0.60287638763964
0.166666666666667 0.101384830747523 0.616552754949468
0.166666666666667 0.10317890909741 0.635583061359748
0.166666666666667 0.10670725330532 0.64325363729662
0.166666666666666 0.100164440650132 0.652243212130229
0.166666666666667 0.100258862942394 0.660843041980304
0.166666666666667 0.107771507903937 0.661034941641116
0.166666666666667 0.103495044094605 0.676279444575831
0.166666666666667 0.0998051836877619 0.687291020296048
0.166666666666667 0.105415589343708 0.692287944289819
0.166666666666666 0.105611816213929 0.707525072193381
0.166666666666667 0.100370873809066 0.720020928202519
0.166666666666667 0.104240931762311 0.718136246876882
0.166666666666667 0.104228302105887 0.729993213573587
0.166666666666666 0.101212720717955 0.749614167705004
0.166666666666666 0.106189507644897 0.749479579105218
0.166666666666666 0.105768796320724 0.764953248009179
0.166666666666666 0.10108310696517 0.777493925344354
0.166666666666667 0.100927197313129 0.782096406560844
0.166666666666667 0.105260169982167 0.785138110967718
0.166666666666667 0.0999648968472542 0.798108061996918
0.166666666666667 0.108189180622285 0.803516676159012
0.166666666666667 0.100458008170694 0.814907498131535
0.166666666666667 0.107298840666367 0.822841081445931
0.166666666666667 0.102719338488371 0.832754184302231
0.166666666666667 0.105505982094666 0.842741076884957
0.166666666666667 0.103833347899758 0.854062660368159
0.166666666666667 0.107074279235145 0.868163565326439
0.166666666666666 0.101612114426842 0.876186850076112
0.166666666666667 0.108336982602371 0.882097948832098
0.166666666666666 0.105277309966786 0.896623371871574
0.166666666666666 0.0998192993146771 0.900983816820361
0.166666666666667 0.10117612063259 0.909611246287289
0.166666666666667 0.101232681833169 0.924340340311809
0.166666666666667 0.104796070074593 0.933873796983325
0.166666666666667 0.102758187182421 0.940361828087584
0.166666666666667 0.101962486561418 0.951428095551839
0.154948349461507 0.103905949220495 0.955555555555555
0.145704057603155 0.102102497199709 0.955555555555555
0.134495246128992 0.107283401367136 0.955555555555555
0.116637299064052 0.103739800400788 0.955555555555555
-0.444444444444444 0.131619392582379 0.566721501096494
-0.444444444444444 0.129970659876963 0.581038875502406
-0.444444444444444 0.123034990228847 0.596072147388124
-0.444444444444444 0.121105615260165 0.597055606015295
-0.444444444444444 0.128921891658013 0.605474340136563
-0.444444444444444 0.127201012259573 0.615885526187595
-0.444444444444444 0.124212513364821 0.632414752524516
-0.444444444444444 0.131606125893231 0.641511852498153
-0.444444444444444 0.129251629778069 0.650541929519883
-0.444444444444444 0.12258653368253 0.665301061716476
-0.444444444444444 0.125163813227814 0.682266199779681
-0.444444444444444 0.127954068515615 0.685491531364343
-0.444444444444444 0.128782158922291 0.704446093721704
-0.444444444444444 0.120728841225714 0.71192104727411
-0.444444444444444 0.12813348179751 0.727454055215652
-0.444444444444444 0.129120042771797 0.743133051704037
-0.444444444444444 0.125950932654956 0.748506583231212
-0.444444444444444 0.123558806401604 0.759001853498742
-0.444444444444444 0.125494492358562 0.77127486406562
-0.444444444444444 0.129180543690017 0.787834778894424
-0.444444444444444 0.128605251286085 0.79220467305928
-0.444444444444444 0.128192046163999 0.810973944595177
-0.444444444444444 0.125438780427126 0.815971874135992
-0.444444444444444 0.131258092118797 0.835491546352694
-0.444444444444444 0.127310432169123 0.840689571451641
-0.444444444444444 0.130468362136552 0.850071484672431
-0.444444444444444 0.128147903469388 0.866079592103401
-0.444444444444444 0.130307764969617 0.870847733035198
-0.444444444444444 0.127423414874204 0.879782311155524
-0.444444444444444 0.130809344313202 0.905631096214787
-0.444444444444444 0.124960316477618 0.906277615556129
-0.444444444444444 0.129643646750422 0.921690864758601
0.166666666666666 0.116079831185453 0.156098658405818
0.166666666666667 0.114993305869063 0.164475673362085
0.166666666666667 0.117787514275958 0.182619614666509
0.166666666666667 0.117789267488486 0.185626861496768
0.166666666666667 0.110229622445488 0.192327525219879
0.166666666666667 0.114462827565555 0.206845545046978
0.166666666666666 0.115694754866288 0.216154352636401
0.166666666666667 0.112452611525182 0.226783389729076
0.166666666666667 0.111935399480462 0.232980486574483
0.166666666666667 0.115193151579701 0.240432502453749
0.166666666666667 0.11641607852085 0.2532925203435
0.166666666666666 0.111355667909997 0.2589538154837
0.166666666666667 0.116267273623152 0.270528433909891
0.166666666666667 0.109447638467134 0.272577855121812
0.166666666666667 0.109102591292315 0.29193846565708
0.166666666666667 0.117033066913514 0.292663853979903
0.166666666666667 0.115498171966176 0.31238502319769
0.166666666666666 0.111531063626011 0.322184784284543
0.166666666666667 0.117880233754687 0.322490813657786
0.166666666666667 0.113716308691619 0.339090366737808
0.166666666666667 0.114664980928105 0.346425934243849
0.166666666666667 0.109054571080003 0.353533800666515
0.166666666666667 0.117023548749073 0.36771616719507
0.166666666666667 0.113046424168883 0.375054797304845
0.166666666666667 0.115859535981739 0.387739585489014
0.166666666666667 0.116356225017818 0.394486492051723
0.166666666666667 0.117299028775605 0.401100034034915
0.166666666666667 0.116346277418444 0.408450518596103
0.166666666666667 0.112982157306837 0.417942446058831
0.166666666666667 0.115076227124848 0.429163091102221
0.166666666666667 0.113668943418389 0.438940016028561
0.166666666666667 0.11415088993375 0.444706808133536
0.166666666666667 0.111134505962551 0.465793299294892
0.166666666666667 0.112418049727241 0.463298020004705
0.166666666666667 0.112082913140436 0.48337801360855
0.166666666666667 0.112307203351492 0.492356965508128
0.166666666666667 0.117610924663979 0.493987345031613
0.166666666666667 0.117018376311751 0.508123372964811
0.166666666666667 0.111164865367203 0.51748713000283
0.166666666666667 0.109634907356843 0.524135662977624
0.166666666666667 0.114276427027794 0.536979211612152
0.166666666666667 0.109794025503822 0.549177943751362
0.166666666666666 0.117943861607219 0.551336220786777
0.166666666666667 0.114453373984379 0.561799833885885
0.166666666666666 0.117648597803793 0.571227362322472
0.166666666666667 0.115530473723637 0.580043631197659
0.166666666666667 0.112333866781534 0.598754285228381
0.166666666666667 0.112915976526216 0.597616275786738
0.166666666666667 0.112616934162824 0.61521566342751
0.166666666666667 0.109452034173046 0.619461829094418
0.166666666666667 0.117527738716374 0.63084979130084
0.166666666666667 0.116903393014509 0.639912545058561
0.166666666666667 0.11423505812166 0.64706497013693
0.166666666666667 0.109432205510287 0.66414168595044
0.166666666666667 0.114230049236521 0.666132345576636
0.166666666666666 0.114967502039898 0.674677995753917
0.166666666666667 0.11561287736614 0.685903196873085
0.166666666666667 0.111481300219469 0.692265409007117
0.166666666666667 0.112229582781981 0.702279014945142
0.166666666666667 0.108727978251795 0.716374270096344
0.166666666666666 0.112110021264517 0.730190055462642
0.166666666666667 0.117359750828549 0.73481524156943
0.166666666666667 0.112774546935045 0.745463215854376
0.166666666666667 0.116469015988551 0.746278573338113
0.166666666666666 0.111920513764011 0.76285102159579
0.166666666666667 0.116184249593646 0.768908305857573
0.166666666666667 0.117425283558859 0.774962795106219
0.166666666666667 0.108933219179357 0.793343743633784
0.166666666666666 0.117409087494485 0.795207769009894
0.166666666666666 0.112059312039861 0.807784847087188
0.166666666666667 0.11530103962964 0.815752428231625
0.166666666666667 0.112573946557697 0.824920070944364
0.166666666666667 0.108869268200231 0.837342268310643
0.166666666666667 0.114699956983512 0.84300220979579
0.166666666666667 0.117066784544367 0.861373820258582
0.166666666666667 0.108846998059925 0.862778527818891
0.166666666666667 0.117500610538801 0.879635109463135
0.166666666666666 0.112618913568772 0.888898596462676
0.166666666666667 0.114179034081225 0.894418720957278
0.166666666666666 0.115972550466537 0.902232852850687
0.166666666666667 0.114738428638356 0.91263374950171
0.166666666666667 0.112204171109785 0.92380241705247
0.166666666666667 0.110982498371797 0.934552721148437
0.166666666666667 0.112048154236547 0.936740479150074
0.166666666666667 0.115671868021163 0.955119855012713
0.158166134634414 0.118022489350815 0.955555555555555
0.145714988812494 0.109917576552608 0.955555555555555
0.132897295848717 0.118741986063986 0.955555555555555
0.111766551096618 0.11746688471436 0.955555555555555
-0.444444444444444 0.134303464111965 0.567188835198203
-0.444444444444444 0.136862450299779 0.582806918249886
-0.444444444444444 0.138567562264103 0.590753112856784
-0.444444444444444 0.141403161322685 0.596901605927204
-0.444444444444444 0.134828763676553 0.611613353216843
-0.444444444444444 0.137659425061218 0.619379955756781
-0.444444444444444 0.141067203153722 0.627888395176323
-0.444444444444444 0.135993987826856 0.645113416310653
-0.444444444444444 0.136986243728996 0.663348816303693
-0.444444444444444 0.140818365577306 0.660788885761637
-0.444444444444444 0.132913658892748 0.680469074485014
-0.444444444444444 0.139289263404596 0.695196435498265
-0.444444444444444 0.140768897909705 0.700629014291969
-0.444444444444444 0.137840797523272 0.709307621391
-0.444444444444444 0.137296390756405 0.731637638753002
-0.444444444444444 0.140664569380651 0.734027996554086
-0.444444444444444 0.142675510299844 0.758143623130716
-0.444444444444444 0.136916752904823 0.759015087929993
-0.444444444444444 0.135653838573096 0.77546860069149
-0.444444444444444 0.141515127117359 0.781065666435368
-0.444444444444444 0.141385487686779 0.799159346424217
-0.444444444444444 0.140988485908872 0.802477405824402
-0.444444444444444 0.139674528145365 0.824260627815048
-0.444444444444444 0.141824143458094 0.837550088448261
-0.444444444444444 0.139822612777379 0.842220901073615
-0.444444444444444 0.141880172725356 0.849636060838317
-0.444444444444444 0.134953657619072 0.861505558685831
-0.444444444444444 0.140845685141799 0.878376563599582
-0.444444444444444 0.135110280892533 0.886182208743421
-0.444444444444444 0.139930332275973 0.895824138037322
-0.444444444444444 0.138044331433732 0.911981666821891
-0.444444444444444 0.132449862952744 0.923786175062008
0.166666666666666 0.12115977387758 0.148304716949617
0.166666666666667 0.123948691076669 0.164713748342166
0.166666666666666 0.121272166472665 0.175348371119947
0.166666666666666 0.123259047551123 0.178772054880502
0.166666666666666 0.126639290357773 0.200797384465866
0.166666666666667 0.117956693097181 0.208947959789089
0.166666666666667 0.122351240186186 0.217283094824097
0.166666666666667 0.119160863522151 0.22372801608023
0.166666666666667 0.11941044318371 0.234693500500908
0.166666666666667 0.126456482825274 0.233208113219421
0.166666666666666 0.121097611346538 0.252600023596162
0.166666666666666 0.122396766048741 0.257399800101862
0.166666666666667 0.125552043157661 0.269018638118761
0.166666666666667 0.122069268750148 0.280483835139031
0.166666666666666 0.125353937310019 0.289244445220786
0.166666666666667 0.119241885442293 0.294840405030355
0.166666666666667 0.126713110938951 0.305214426272478
0.166666666666667 0.118169847082003 0.325293389946492
0.166666666666667 0.120028986007505 0.331770877437981
0.166666666666666 0.125108264051161 0.338840235332237
0.166666666666666 0.124471938939041 0.345002411810342
0.166666666666667 0.122301631967166 0.358620838217142
0.166666666666667 0.1198634341377 0.359063764564079
0.166666666666667 0.122792412526386 0.37380351159599
0.166666666666667 0.119234318441854 0.386349868307966
0.166666666666666 0.126728508425112 0.391956687538502
0.166666666666667 0.125707005153227 0.401156811706385
0.166666666666667 0.126564232942853 0.41475588425436
0.166666666666667 0.121765118110161 0.422199990332369
0.166666666666667 0.12219261988061 0.424680360463185
0.166666666666667 0.119121140617762 0.441907183759981
0.166666666666667 0.126207982801675 0.449113788234199
0.166666666666667 0.119596895015256 0.454555780028846
0.166666666666667 0.123103344524401 0.474490902376257
0.166666666666666 0.127247492538984 0.48273739403775
0.166666666666667 0.126320454554641 0.494307791048892
0.166666666666667 0.121103917299383 0.500724139409307
0.166666666666666 0.124217223338203 0.502923353031828
0.166666666666667 0.126230022784957 0.511981885091314
0.166666666666667 0.11979779350918 0.527091991643227
0.166666666666667 0.12548657962323 0.534567713521986
0.166666666666666 0.126754499064889 0.551204466888916
0.166666666666666 0.12659667659311 0.556611366457914
0.166666666666666 0.121444862747336 0.564357539257617
0.166666666666667 0.118967137236295 0.576947407041746
0.166666666666667 0.122491556468311 0.578756802698861
0.166666666666667 0.127021335667075 0.592416825035075
0.166666666666666 0.123496611889974 0.606219456946
0.166666666666666 0.119237300820388 0.603601699692946
0.166666666666667 0.124590021783274 0.62327940407998
0.166666666666667 0.126740675603382 0.62739191316041
0.166666666666667 0.126882298202375 0.641031337094646
0.166666666666667 0.117856646480003 0.646377604570167
0.166666666666667 0.121868625881562 0.657940993915727
0.166666666666667 0.118046485422378 0.66907443446185
0.166666666666667 0.126159214690224 0.68031536294039
0.166666666666666 0.127227687153301 0.687479846685446
0.166666666666667 0.122907013338361 0.698716911765845
0.166666666666667 0.121223414932667 0.705125818103199
0.166666666666667 0.124087031173313 0.712342217836191
0.166666666666667 0.126468970812025 0.725496336844788
0.166666666666667 0.120141349729699 0.734001885574334
0.166666666666667 0.124405967045244 0.746160246592944
0.166666666666667 0.126940294878679 0.758280541373708
0.166666666666667 0.124486714042568 0.760265540668495
0.166666666666667 0.121867401970486 0.778212716959173
0.166666666666667 0.118075693201754 0.780213663492732
0.166666666666666 0.124396873109943 0.790509222533213
0.166666666666667 0.118027578562372 0.806657001823389
0.166666666666666 0.12109305926844 0.805442157257054
0.166666666666666 0.124323108812189 0.817030175670754
0.166666666666667 0.125372133580966 0.824726920069136
0.166666666666667 0.120953663536596 0.835984440690706
0.166666666666667 0.125364120006152 0.846268173473819
0.166666666666667 0.125691156605014 0.854509177055547
0.166666666666667 0.119851366065128 0.871133607238409
0.166666666666666 0.119069871391148 0.880040497702353
0.166666666666667 0.121828787716403 0.88513587046855
0.166666666666667 0.126600262611558 0.89612513389131
0.166666666666667 0.127125709830572 0.903784733824633
0.166666666666667 0.11819667614776 0.918938327445534
0.166666666666666 0.124479468022719 0.921570256876463
0.166666666666666 0.123122839435054 0.93095736099852
0.166666666666666 0.12143596087289 0.940051947584207
0.166666666666667 0.126779545432272 0.947765243388814
0.166666666666667 0.123520313055614 0.95469659373537
0.147953752796809 0.120922811499232 0.955555555555555
0.139294067521787 0.126608073160895 0.955555555555555
