ply
format ascii 1.0
element vertex 858
property float x
property float y
property float z
end_header
0.133073830569303 0.212670790514714 0.601697719181831
0.135848131323205 0.209055251380336 0.617715810639541
0.130918093093799 0.215480202289975 0.623711118913451
0.134670835238362 0.21058953350945 0.625663867584942
0.134658390394785 0.210605751945361 0.637841483138137
0.13270903104802 0.21314620650685 0.64430331165428
0.134727907151498 0.210515155944174 0.654791031294205
0.132480398464735 0.213444166290445 0.666798795682529
0.135223750529631 0.209868960272836 0.678413326825365
0.134455368771313 0.210870334876304 0.684748447566359
0.132775958163545 0.213058985391767 0.690652169900336
0.133444909425271 0.212187191134291 0.708541977731161
0.133251286354035 0.212439525633493 0.714386088224373
0.13365986334963 0.211907057726075 0.715733835283185
0.136038677477451 0.208806926797426 0.731770377691479
0.134505074194194 0.210805557508038 0.744828528009829
0.133505259731863 0.212108541083482 0.752607129807893
0.136240838491421 0.20854346543462 0.761327398372438
0.134433828029521 0.210898407317557 0.773805256229321
0.133137873065709 0.212587328708458 0.779789367228345
0.132540946436423 0.213365258637467 0.788238501259752
0.133947133252258 0.208031659333215 0.797044111862647
0.127054440674389 0.202418449532134 0.803253462584309
0.122882688657869 0.201845248528714 0.804587470997485
0.118387828722403 0.195239526211549 0.805694625329542
0.0278753222727485 0.109246302875515 0.717399323923564
0.0160855882125717 0.0977383339754686 0.717399323923565
0.0125493838254221 0.0925079441799102 0.717399323923565
-0.00418494984427655 0.085803933642829 0.717399323923565
-0.00539586625958588 0.0735314860169656 0.717399323923565
-0.0159940383920713 0.0644003898586682 0.717399323923565
-0.0294871974921761 0.0523219593712116 0.717399323923565
-0.0264043020887659 0.0509049888549389 0.717399323923565
-0.045115213684478 0.0374531335601196 0.717399323923565
-0.0540354900937084 0.0364704677654552 0.717399323923565
-0.0687109756156616 0.0199646771344402 0.717399323923565
-0.0748331263270009 0.0109572138062525 0.717399323923565
-0.0750624832129678 0.00520256132816957 0.717399323923565
-0.0981312186615345 -0.00998939125128663 0.717399323923565
-0.10549910349448 -0.0178396389501966 0.717399323923565
-0.119981830317002 -0.0280217623941874 0.717399323923565
-0.11681764076834 -0.0368099696059887 0.717399323923565
-0.12877218471399 -0.0411474317416507 0.717399323923565
-0.143605630254682 -0.059578966577639 0.717399323923565
-0.154060244109248 -0.0653181381704877 0.717399323923565
-0.165027202301411 -0.0711286995725564 0.717399323923565
-0.17374079485167 -0.0838543307156438 0.717399323923565
-0.187409392926159 -0.0890983116504659 0.717399323923565
-0.193436511292933 -0.108078386281495 0.717399323923565
-0.209680147903433 -0.112973989857109 0.717399323923565
-0.212908146250763 -0.128172432691921 0.717399323923565
-0.227577611806872 -0.138577296219451 0.717399323923565
-0.243529950704092 -0.150071563982033 0.717399323923565
-0.251564363575041 -0.159618006242278 0.717399323923565
-0.259527856649557 -0.169301017219432 0.717399323923565
-0.272721942647883 -0.18133161594148 0.717399323923564
-0.287869777967928 -0.194132704053639 0.717399323923565
-0.298594773278295 -0.208631630504497 0.717399323923565
-0.310341879798813 -0.21953169504521 0.717399323923565
-0.329960077319436 -0.232388433397034 0.717399323923565
-0.339101681114149 -0.234911468278966 0.717399323923565
-0.339952966234226 -0.237414116375597 0.722355372047696
-0.338785223093276 -0.238310157202676 0.739500124247937
-0.338269045980858 -0.238706233831613 0.75540416604816
-0.337641634576761 -0.239187663534543 0.75654359813564
-0.336818258746116 -0.239819462030646 0.771049140990577
-0.33686833599751 -0.239781036404168 0.788633155552249
-0.335028228417711 -0.242739612222411 0.796031593844722
-0.344649445786753 -0.246015056186887 0.802681087696987
-0.348638977026457 -0.255363899353033 0.805484222331149
0.140892526290978 0.202481267867702 0.23440231958804
0.14142587655117 0.201786192276007 0.239894466959709
0.139046308361384 0.204887305917344 0.258334325323318
0.141603669133341 0.201554488471819 0.260122863849436
0.139703262782024 0.204031146247565 0.266647917663003
0.138085762699733 0.206139113395378 0.275216679492403
0.140955796026769 0.202398813142685 0.29018837778996
0.140364771665014 0.203169051086892 0.298112644149702
0.140591378826494 0.202873730884384 0.309071396240672
0.141810661367649 0.201284730940089 0.310782174296381
0.141006797921159 0.202332346179854 0.328691576064097
0.143068327354904 0.199645708714937 0.331768917640702
0.141701699478151 0.201426732839155 0.342818591310719
0.137736246675364 0.20659461154655 0.354025192457543
0.137931504218881 0.206340146961601 0.363097700608573
0.138819695340691 0.205182633755726 0.371981295462162
0.13952962494272 0.204257435485431 0.384251929063188
0.139174851988222 0.204719784601332 0.386125162376446
0.141079323892975 0.202237828493193 0.398313545058011
0.138007399720167 0.206241238018641 0.409422643568343
0.140784911532683 0.202621514151204 0.415604074309829
0.137798904321717 0.206512954512022 0.423132171091281
0.139850189426803 0.203839667716142 0.433304786572254
0.141045638880163 0.202281727656573 0.450302210110148
0.13979746088595 0.203908384888454 0.458252519504637
0.138447992707531 0.205667046058412 0.461990043495328
0.139330372689759 0.204517106077086 0.477246176887825
0.138648417893239 0.205405846871041 0.486891210294828
0.141035044074923 0.202295535075584 0.490841077264871
0.138256424247653 0.205916702935961 0.499304843164531
0.138141199384547 0.206066866901144 0.510250381143912
0.139398505263158 0.204428313978715 0.525308368757755
0.140848167016245 0.202539078000055 0.531511871452866
0.14007000442941 0.203553199227414 0.540015738956939
0.140017525192867 0.203621591500024 0.54511443234605
0.142433370039985 0.200473201198413 0.557502948755701
0.14150750791989 0.201679808205073 0.567324540439615
0.136525951679464 0.208171898693831 0.570262576437193
0.137716493250658 0.206620354710828 0.585567621080512
0.142375555500925 0.200548546572634 0.595749175081959
0.137601011641727 0.206770853273684 0.60154003140774
0.137981963356143 0.20627438733363 0.608757711880576
0.137045169756538 0.20749524052175 0.61874600861127
0.141351709458047 0.201882848713596 0.629130588342394
0.135816512905974 0.209096457303921 0.642077976009364
0.140041437453781 0.203590428434879 0.647009678510594
0.138388610390904 0.205744434600138 0.660647993470359
0.140965947723126 0.202385583194416 0.665382300610423
0.137531553906553 0.206861372356502 0.670839393224819
0.140386573176605 0.20314063880382 0.681426069650879
0.140941424561703 0.202417542400605 0.694164464606662
0.13985614427955 0.203831907200952 0.700297912387783
0.138824546524263 0.205176311570207 0.7152652928378
0.136971511034468 0.207591234437284 0.722111341950448
0.138482983392808 0.205621445309547 0.732037761832399
0.139118924444384 0.204792670795501 0.735626501510516
0.142238597466632 0.20072703375794 0.749991446081686
0.138034637838355 0.20620574061191 0.756328071909495
0.139055157857482 0.204875773029491 0.767711872449182
0.141441354358813 0.201766021204371 0.778578735695528
0.139639390940161 0.20411438565249 0.778641008850006
0.137010699003321 0.20300030042975 0.797781545665467
0.134310666452701 0.200588310783335 0.800712467824449
0.129615977361166 0.197048817147084 0.803752657870668
0.127730970356538 0.191826505340548 0.805115672176013
0.0352373095907904 0.0979369583664413 0.717399323923565
0.0347543479221504 0.0957424741956483 0.717399323923565
0.0214312809678477 0.0887076083746716 0.717399323923565
0.0120987301723473 0.0791496796438339 0.717399323923564
-0.00900640004649185 0.0605991112292615 0.717399323923564
-0.00463777574490259 0.0657131350241878 0.717399323923564
-0.0230631201246461 0.0464137061345074 0.717399323923565
-0.0284459550930177 0.0346461706749283 0.717399323923565
-0.0456677200615576 0.0335645226005753 0.717399323923565
-0.0461523343920069 0.0277840352841547 0.717399323923565
-0.0616079103567882 0.00805550479702576 0.717399323923565
-0.070654733836962 0.003807501046253 0.717399323923565
-0.0803838625125573 -0.00861276067433633 0.717399323923565
-0.0816988767889941 -0.0107011439426888 0.717399323923565
-0.0968675559221711 -0.0175033088590136 0.717399323923565
-0.106361331905683 -0.0324751281640166 0.717399323923565
-0.112213144592798 -0.0472236702364076 0.717399323923565
-0.12648982161139 -0.0559620574943028 0.717399323923565
-0.134409440534582 -0.0600941314660547 0.717399323923565
-0.149185360687199 -0.0685675235064631 0.717399323923565
-0.154067577558434 -0.0842045585710387 0.717399323923565
-0.165129999354947 -0.0848990588731427 0.717399323923565
-0.179485863701432 -0.103785781893186 0.717399323923565
-0.195804274709384 -0.111917410682299 0.717399323923565
-0.203324489485893 -0.12571579875737 0.717399323923565
-0.216044011400892 -0.137776705685748 0.717399323923565
-0.227029287153424 -0.145936975045392 0.717399323923565
-0.232815370777848 -0.150276636457822 0.717399323923565
-0.240243515185001 -0.164153091861832 0.717399323923565
-0.253190840467497 -0.170187978653346 0.717399323923565
-0.265781937524093 -0.179656522431364 0.717399323923565
-0.276919831036276 -0.196815222124321 0.717399323923565
-0.292107701398718 -0.219843948099844 0.717399323923565
-0.299640094500818 -0.225467738208417 0.717399323923565
-0.324776262502837 -0.235057090647633 0.717399323923565
-0.327327774195306 -0.243433101744993 0.717399323923565
-0.32506924790405 -0.248834795131819 0.728535401633441
-0.324875441421533 -0.2489835080763 0.733738726682328
-0.325180152437554 -0.248749695090174 0.7527132760293
-0.322842557194509 -0.250543395007133 0.765005714277067
-0.33139052480529 -0.243984308767011 0.775268235633782
-0.330830622166004 -0.244413937172776 0.784697091997023
-0.334361467481118 -0.245727875690415 0.798134546506447
-0.334873979268094 -0.251101162781418 0.801541129383611
-0.341341576362724 -0.260318464647577 0.805444852763759
0.142926706350947 0.199830272800623 0.236501661735727
0.143677686959144 0.198851575817509 0.242853981816692
0.146041103921896 0.195771510865047 0.247951169371193
0.147943728201434 0.193291962628969 0.262941203993243
0.144951574857069 0.197191412786777 0.264861046497674
0.142922569676611 0.199835663819577 0.28366201660323
0.143398617601153 0.199215266085626 0.290576933952138
0.147398965919718 0.194001910656669 0.298209943853823
0.1465833375164 0.195064858286683 0.306925370873333
0.144765223877673 0.197434270111381 0.317858119909162
0.142692117886617 0.200135994439513 0.326382424264649
0.144371231206333 0.197947731357384 0.338956782574737
0.148730423806465 0.19226672095579 0.340680449878321
0.143601671582919 0.198950640984531 0.350353764132317
0.143580681625714 0.198977995629335 0.358733752090128
0.144485442048151 0.197798888890473 0.371359254313793
0.14658340612562 0.195064768873406 0.379308568922472
0.145153829368556 0.196927829575636 0.384221948525023
0.143713487648213 0.198804919451148 0.403728397104326
0.142043987670469 0.200980654182102 0.412255966064796
0.145057884764887 0.197052867017526 0.417691111301139
0.143066927099249 0.199647533563636 0.420046782633345
0.145709982266714 0.196203037007577 0.427712703428096
0.145938837379456 0.195904787217947 0.445312588083381
0.145592726256621 0.196355848015049 0.446868313351625
0.14768352246109 0.193631069351945 0.462896979867331
0.144286206225342 0.198058538069936 0.469989937748602
0.147169299218326 0.194301218129219 0.478196861370061
0.144835655386474 0.197342481982064 0.493026353268152
0.144743138494708 0.197463052342829 0.492961189792536
0.146673702939293 0.19494709177474 0.510231629452402
0.146790047535805 0.194795468544573 0.516231457015046
0.142031225014282 0.200997286799471 0.527630956639949
0.148797610763838 0.192179161208218 0.538248039669188
0.142999751962101 0.199735077906793 0.546109607919292
0.145892781426796 0.195964808504025 0.551028167150822
0.144136048440952 0.198254227504483 0.566731057593655
0.14646049886388 0.195224944735413 0.571305768375625
0.148145134223149 0.193029485191228 0.586243980271923
0.14556923216653 0.196386466109367 0.594497909877706
0.145143050176746 0.196941877291901 0.597938369036647
0.143836241892968 0.198644943004759 0.604423203172828
0.148207501009023 0.192948207213453 0.620690991453602
0.145714686997541 0.196196905682991 0.629156566186649
0.146999184818033 0.194522915531968 0.633688562742355
0.143747836570699 0.198760155063835 0.646677169016869
0.144539670408036 0.197728217115944 0.658356598190208
0.147068782614232 0.194432213918066 0.668934040956341
0.148420687859891 0.192670376700247 0.671789634310369
0.146676373193623 0.194943611831545 0.679807045818346
0.143920243006707 0.198535470621988 0.692446052312313
0.146143375197571 0.195638228343675 0.702994409856843
0.147337389222022 0.194082158971482 0.716896334506703
0.144392785567185 0.197919641167426 0.718406728240679
0.145144725693872 0.196939693715471 0.729632530451388
0.145399756261511 0.196607331408874 0.736780455943099
0.144445458797978 0.197850996076588 0.747617745937362
0.144998423840634 0.197130358002703 0.756112548737332
0.14212407021725 0.200876288575216 0.767675746014206
0.144648099823169 0.19758690915098 0.777545507818647
0.146786980743239 0.194799465266459 0.783402624802619
0.143087971783683 0.196048309029208 0.797092355964059
0.140525341383823 0.191772332991554 0.800972128970579
0.135814370038401 0.188661948634071 0.803828584025109
0.132347263297125 0.186415108669813 0.805029358686376
0.120055190384286 0.170331348903765 0.801931201548043
0.0286196887113431 0.091395071358712 0.717399323923565
0.0179458101219057 0.0714148456086899 0.717399323923565
0.0201781134588275 0.0706226852353109 0.717399323923565
0.00196231033046266 0.0610695719950696 0.717399323923565
-0.00493456706230099 0.0551330399988432 0.717399323923565
-0.00639120637267341 0.0529199287877375 0.717399323923565
-0.0272794113112464 0.0326872972981552 0.717399323923565
-0.0257373404238888 0.0272817586038125 0.717399323923564
-0.035218287459826 0.0197577812171566 0.717399323923565
-0.0549346989019717 0.0015392660749293 0.717399323923565
-0.0659797037294755 -0.00395731974854437 0.717399323923565
-0.0672873333908239 -0.0153163592360686 0.717399323923564
-0.0818852982754471 -0.0203394576027146 0.717399323923564
-0.0896265552971209 -0.0243877383842211 0.717399323923565
-0.10456907856173 -0.0427040288088975 0.717399323923565
-0.113059423374302 -0.0459696856744083 0.717399323923565
-0.126955537926818 -0.0591329790874433 0.717399323923565
-0.123635318196188 -0.064724373571403 0.717399323923565
-0.142597369905392 -0.0814544469996084 0.717399323923565
-0.148426466242985 -0.0862445828643962 0.717399323923565
-0.163494335296017 -0.107746456132203 0.717399323923565
-0.167047940884455 -0.112647626052939 0.717399323923565
-0.192297581892723 -0.122227592678644 0.717399323923565
-0.186484882372355 -0.135048762733896 0.717399323923565
-0.203275035490919 -0.147225400181708 0.717399323923565
-0.217474205689093 -0.157602729870002 0.717399323923565
-0.23061969713259 -0.16658890103785 0.717399323923564
-0.234532389681079 -0.175397308489662 0.717399323923565
-0.247527088224302 -0.184214941231905 0.717399323923565
-0.263964101384358 -0.192683974012364 0.717399323923565
-0.267884500531525 -0.208693145204886 0.717399323923564
-0.283026671637236 -0.228792578970459 0.717399323923565
-0.301419469481233 -0.239871849272354 0.717399323923565
-0.305495551309113 -0.247957594952426 0.717399323923565
-0.315485931191459 -0.25618833267974 0.718172210875053
-0.318334443576768 -0.254002592250899 0.731280033269992
-0.322711264894894 -0.250644139131941 0.742748677674919
-0.323220435497675 -0.250253438786941 0.754823053000494
-0.319407687971642 -0.253179062862017 0.767417075003347
-0.322404676858144 -0.250879392406731 0.77068973503199
-0.311930800425638 -0.25891628046215 0.791928340633518
-0.320815707136831 -0.255707418204487 0.797863440780938
-0.325011433258472 -0.264940127884636 0.803949922574255
-0.331302739275907 -0.269617597113249 0.805542284328849
0.149155081370051 0.191713296444156 0.231158223883712
0.148446834217894 0.192636302103091 0.245423692578999
0.15071985398641 0.189674045067789 0.248758731354938
0.150816962626275 0.189547490624395 0.256205406264974
0.150368112603624 0.190132443362516 0.267114560350255
0.147656882637242 0.193665787046312 0.28065960325898
0.150773468398824 0.189604173405182 0.291668695026483
0.152210539986842 0.187731345249087 0.294375584706706
0.152895293451737 0.186838957159496 0.305176031697142
0.151061693369481 0.189228551310336 0.314355596750596
0.148432633625773 0.192654808675051 0.325052235579418
0.149806010079011 0.190864989634729 0.334217893755034
0.147774320722114 0.193512738754368 0.343812123668565
0.152341311693265 0.187560920243229 0.356178336434177
0.150486444243154 0.18997823056747 0.360558676309125
0.152720730806197 0.187066451628314 0.363704300339713
0.149875194607116 0.190774826602294 0.385257073583611
0.150541556772611 0.189906406520719 0.385370661783702
0.151119035395698 0.18915382172684 0.394538339662602
0.149958659545549 0.190666052976785 0.410936459636199
0.148755172911993 0.192234467293511 0.413167896892263
0.14965652358728 0.19105980422365 0.423992185327098
0.151024523380559 0.189276992183007 0.436259763949105
0.153607986043701 0.185910158090612 0.444917670651631
0.149498059962197 0.19126631804053 0.446386241334426
0.149898295155373 0.190744721381679 0.463428439463839
0.151400776462608 0.188786649619871 0.470366081792053
0.148666048824949 0.192350616065078 0.479523313968418
0.150470886114061 0.189998506316058 0.484512155388921
0.150810404519899 0.189556037315022 0.500958778251494
0.152786400890897 0.186980868707696 0.510565726994003
0.148845038485972 0.192117352197356 0.518355136585714
0.152414931503287 0.187464977038863 0.523082396828589
0.153585021482382 0.185940086089599 0.536742236623011
0.154020205510657 0.185372943222097 0.540948179129776
0.148518196845204 0.192543300516507 0.555764636495472
0.151489568913179 0.188670933045371 0.561044637416248
0.152460481076354 0.187405615679519 0.575672031774006
0.149852678925054 0.190804169610444 0.584549799769481
0.14836663997911 0.192740813269829 0.587920390300385
0.151026936971441 0.18927384673013 0.602402632656643
0.152957323504983 0.186758118020226 0.610026133437882
0.148700859730663 0.1923052496095 0.622111105416201
0.151456003146128 0.18871467680465 0.629622686697582
0.150254174285435 0.190280930669718 0.635909624484118
0.148990416585748 0.191927891769073 0.646187879310149
0.148878503454876 0.192073739800781 0.652255965039783
0.15295870281676 0.186756320466122 0.659669501902619
0.147980487448435 0.193244057045591 0.677705482571444
0.151411443057032 0.188772748643377 0.684125345301525
0.150894126238009 0.189446929047724 0.693034405939125
0.149629942122748 0.191094445862675 0.699208347098023
0.152299865029048 0.187614934587654 0.707170737864667
0.152509201954228 0.187342121395287 0.717068905623337
0.151472473750017 0.188693211895756 0.727245659034932
0.151302197230476 0.188915120576421 0.734318177929787
0.150204576979834 0.190345567136802 0.741108236663372
0.151590979754768 0.188538771863529 0.752910593398864
0.149674431024755 0.19103646679677 0.762807702082176
0.147143881683904 0.194334342904994 0.775017419024673
0.150779404855782 0.18959643686385 0.781776086490026
0.151615357262122 0.188507002477419 0.792858025892789
0.145790725029564 0.189836667355767 0.798645442721861
0.142932252817558 0.185792391982626 0.802001996911246
0.132868472556008 0.179461165462297 0.805549736177384
0.122212976164776 0.163827682318625 0.800594026929051
0.0428567025085457 0.0885457535942655 0.717399323923565
0.0301007937463335 0.0685625796572855 0.717399323923565
0.0270257552756293 0.064589763826325 0.717399323923565
0.0214296679823505 0.0577544672143216 0.717399323923565
0.00321455227018681 0.0505660561075897 0.717399323923565
-0.00454200277595553 0.0305723871615292 0.717399323923565
-0.0126343255650389 0.0265265354784236 0.717399323923565
-0.0238909097418912 0.0151177491834472 0.717399323923565
-0.0329919732621781 0.00974178971754845 0.717399323923565
-0.0492377387278521 -0.000508126284169409 0.717399323923565
-0.043559345927813 -0.00225165169940817 0.717399323923565
-0.0614950495702148 -0.0150150143557927 0.717399323923565
-0.0799178892408739 -0.0325307006936858 0.717399323923565
-0.0784311162248664 -0.0318346178043509 0.717399323923565
-0.0894243878230659 -0.0471674899999182 0.717399323923565
-0.105407400724522 -0.0573527894588383 0.717399323923565
-0.115007443075486 -0.0692505650451546 0.717399323923564
-0.118956543368857 -0.0788499804338686 0.717399323923565
-0.13250484064216 -0.086888470877937 0.717399323923565
-0.149063013597053 -0.102950513548506 0.717399323923565
-0.151095580481897 -0.103301059196659 0.717399323923565
-0.155659245526947 -0.119104733451979 0.717399323923565
-0.175247435337696 -0.129915816274313 0.717399323923565
-0.180176601518255 -0.14090812904398 0.717399323923565
-0.192842976152485 -0.147081149214724 0.717399323923565
-0.2155379019552 -0.161819233883587 0.717399323923565
-0.226128115201769 -0.173901689530555 0.717399323923565
-0.239329184844542 -0.185389967892416 0.717399323923565
-0.246036868580088 -0.197444564689788 0.717399323923565
-0.251728501302979 -0.207829604833156 0.717399323923565
-0.265182043944839 -0.224381206266269 0.717399323923565
-0.270482618547915 -0.224618200858074 0.717399323923565
-0.288949374112221 -0.23564957519205 0.717399323923565
-0.300895403193053 -0.252396601092711 0.717399323923565
-0.309226385883179 -0.26099145072726 0.722083946129321
-0.303321710427924 -0.265522267559335 0.736037331002584
-0.307861337412847 -0.262038889258446 0.742163583669903
-0.309232639927241 -0.260986651830468 0.750489570076056
-0.306719257114865 -0.262915238293528 0.7630483152853
-0.307396865246809 -0.262395291286612 0.77382268941729
-0.309227740774111 -0.260990411082884 0.789336839280988
-0.30530255677541 -0.264002310697871 0.791938453684047
-0.314904942754485 -0.26719383785749 0.801904563682741
0.158447350575452 0.179603375444407 0.229045849651869
0.152467108556531 0.187396978579196 0.236994571264396
0.158705159714636 0.179267392032871 0.24917488387932
0.156444440819798 0.182213618257487 0.248980722214452
0.152823786324783 0.186932147061682 0.268221690284482
0.158695436059985 0.17928006414633 0.272327080279318
0.153488366219359 0.18606604968079 0.284825472315402
0.15535366970008 0.183635138856665 0.297117458140564
0.155921540300805 0.18289507548131 0.305966424456004
0.157728904827821 0.18053967217173 0.307616886033887
0.157541843135911 0.180783455714913 0.321308600046778
0.156419327628367 0.182246346405752 0.332394909900461
0.153278920123363 0.186339005147335 0.346170626293633
0.154702191217234 0.184484162145371 0.356705359051083
0.156472238978221 0.182177390992111 0.35803413302548
0.154764589255085 0.184402843439227 0.36190336360858
0.156064028017795 0.18270938187321 0.376354531975466
0.156653696058405 0.181940911521134 0.387689369784432
0.155912869257016 0.182906375805585 0.400437259701436
0.155328831649604 0.183667508434258 0.411301661176104
0.155798451375558 0.183055488091807 0.416285098582552
0.153843085451036 0.185603770577833 0.424437229861371
0.153712886879298 0.185773448660029 0.433066543114298
0.159005943536136 0.178875402924953 0.440724040243264
0.158448228591638 0.179602231191437 0.443643216083284
0.157644075129139 0.180650224387423 0.458166408744465
0.154696518395959 0.18449155510999 0.467605533077896
0.155408396278671 0.183563817790877 0.486414809780097
0.156382902123843 0.182293817047467 0.495074919788075
0.157538148508945 0.180788270646519 0.497668173938698
0.156353512558431 0.182332118274809 0.507959063925661
0.154459731199188 0.184800142192787 0.518949119671037
0.156387417458605 0.182287932548637 0.516537109994579
0.157403941312098 0.180963172870667 0.530156017724905
0.154473596025364 0.184782073199525 0.536964672338421
0.154221704101992 0.185110345145277 0.553742751508038
0.156372095544583 0.182307900455752 0.562814641197186
0.154957537666412 0.184151388173936 0.574315211762828
0.159729829858322 0.177932015902827 0.579075908839937
0.15985106347002 0.177774021184022 0.585143313438218
0.156933667282802 0.181576045917834 0.598741822971859
0.156920993368927 0.18159256288397 0.603712758223401
0.156102942022453 0.182658668154981 0.621732709929483
0.158966973673148 0.178926189439176 0.62830580632005
0.153505837896101 0.186043280148354 0.638218958712192
0.158624903117857 0.179371984466132 0.639141993144694
0.156460261859405 0.182192999877246 0.657735559917004
0.156654154614959 0.181940313918598 0.654621191422052
0.153573505805852 0.185955093611439 0.67755861348819
0.157968956323524 0.180226830971741 0.682049773476199
0.156479652903554 0.182167728976506 0.685600026320788
0.158842179417563 0.179088824479439 0.696931708391311
0.154868986469062 0.184266790341119 0.709213726450029
0.153223217902197 0.186411597695281 0.716822176405616
0.153809842654565 0.185647093433659 0.726838136144335
0.159313578214879 0.178474485606049 0.736585241702864
0.156015741649956 0.182772309892941 0.749501497206766
0.158419816775521 0.179639258191088 0.755561618052654
0.156518825626294 0.182116678090307 0.772963171158334
0.156562800933616 0.182059368354027 0.772051857045035
0.15978119224227 0.177865079140857 0.785227726291683
0.157522270804964 0.180808962873209 0.787284897178469
0.155765035832696 0.173964593483893 0.80003303204265
0.148586515770672 0.1767398041153 0.802611910080181
0.14423439757947 0.175517856015188 0.804373541123439
0.141345307099471 0.163007921273918 0.805637150525111
0.0445916567044641 0.0731701994760137 0.717399323923565
0.0437959673579333 0.0674798016824835 0.717399323923565
0.0313426702876448 0.0544658404015789 0.717399323923565
0.0162008840458537 0.0432405562934377 0.717399323923565
0.0121100287062258 0.0453963701132658 0.717399323923565
0.00922696274947104 0.0301823678249356 0.717399323923565
-0.00314024515861877 0.0204327531949474 0.717399323923565
-0.012742113525955 0.0126612473264617 0.717399323923564
-0.0273835018919619 0.00192529553719896 0.717399323923564
-0.036023147728908 -0.00320910831852439 0.717399323923564
-0.0395743843687403 -0.0099511756916588 0.717399323923565
-0.0533040744338376 -0.0300220844997957 0.717399323923565
-0.0682708455352671 -0.0415578102220124 0.717399323923565
-0.0764645613180868 -0.0469120931458545 0.717399323923565
-0.0933759955190191 -0.0556706404221336 0.717399323923564
-0.0940919923806039 -0.0676242176372322 0.717399323923565
-0.104652763995073 -0.0670939432990423 0.717399323923565
-0.107766984104267 -0.0794865150733575 0.717399323923565
-0.127157339956013 -0.0960939429658819 0.717399323923565
-0.139945993045101 -0.10098233871612 0.717399323923565
-0.148512023154612 -0.121807587781045 0.717399323923565
-0.15676788586011 -0.127214285023754 0.717399323923565
-0.166230262918568 -0.136644636369208 0.717399323923565
-0.175048870699592 -0.154363032708064 0.717399323923565
-0.18897774408905 -0.154825009970435 0.717399323923565
-0.197738800395763 -0.164751758454279 0.717399323923565
-0.215121784842864 -0.180012485114807 0.717399323923564
-0.221790052517167 -0.192198603536798 0.717399323923564
-0.227689400492506 -0.202580059831473 0.717399323923565
-0.242602305507412 -0.210522629954808 0.717399323923565
-0.257114651642768 -0.220643289013397 0.717399323923565
-0.271155549721762 -0.233519413780657 0.717399323923565
-0.278131632532263 -0.244453262215776 0.717399323923565
-0.281702435197187 -0.250403941579067 0.717399323923565
-0.29880122437107 -0.268365082339286 0.721065987374951
-0.298452722633157 -0.26850943648564 0.731844961275957
-0.299748292399047 -0.267972793917608 0.748931752913742
-0.299779311886933 -0.267959945225028 0.756869594638655
-0.295347518194825 -0.269795654277939 0.772698318473541
-0.303443628352673 -0.265428716645357 0.779091887923138
-0.300573675161306 -0.267630909183331 0.78198292788594
-0.301985403631848 -0.271599917436607 0.798971584309244
-0.31583896374406 -0.278170360106201 0.805286013173053
-0.318251584164907 -0.280064062112374 0.805568653407944
0.162660878105731 0.171674627242338 0.226025084615345
0.161233075149961 0.175121648502556 0.236394364941264
0.160280629725225 0.177214199540922 0.251012355577349
0.161527257883985 0.174411428556258 0.258069535205162
0.16021079233273 0.177305213402794 0.267748613598324
0.161386786086416 0.174750557475081 0.269197938153559
0.161878851714415 0.173562605962386 0.284847445590681
0.162180041973465 0.172835468354132 0.300164149023085
0.162385394511376 0.172339703472043 0.301068621504012
0.161936229672231 0.173424083318445 0.303162143731724
0.161573686020362 0.17429934111974 0.326147348518848
0.161253103357563 0.175073296132131 0.325662945732665
0.160228944442268 0.177281557113075 0.343244813794445
0.162148439312583 0.172911763926643 0.349999113403306
0.160978317500448 0.175736687875127 0.355509501627868
0.160174559255768 0.177352433268028 0.366473240822451
0.16223129463061 0.172711733494147 0.377924957571597
0.1636471771457 0.169293490723489 0.387483819890306
0.161536680287979 0.174388680860743 0.402127195934506
0.162482962479217 0.172104153560826 0.404151003401142
0.162411639321015 0.17227634289667 0.405695058380662
0.158881192597538 0.17903798151342 0.421196979649244
0.162024532983736 0.173210900266207 0.433197793874711
0.159062916733017 0.178801154009205 0.437755957373946
0.1604448182339 0.177024669039945 0.450688169134447
0.160315592081512 0.177168635711114 0.462772855643206
0.1626569399237 0.171684134854807 0.469032804799322
0.16074615347259 0.176297181419876 0.472022337338174
0.159207807908342 0.178612328153221 0.483863291229765
0.161070015703595 0.175515308829444 0.499725992884413
0.162030804830225 0.173195758689354 0.496402680034496
0.160293173498727 0.177197852177023 0.51903647742809
0.162265567412028 0.172628991680426 0.527074221242093
0.160232821068999 0.177276504994758 0.535036537619411
0.161482988006116 0.174518305495813 0.540578553311806
0.161625734938401 0.174173683915904 0.557618776368638
0.161780155416598 0.173800879903132 0.554367362893536
0.160592765993495 0.176667491552205 0.56686624700633
0.160231596818688 0.177278100468824 0.579384001071586
0.161947946670503 0.173395795982308 0.583686905645731
0.16198700145241 0.173301509398154 0.599462234904876
0.162667659701472 0.171658255021927 0.605808034885495
0.160645163822917 0.176540992001777 0.623572205511047
0.162635629046099 0.171735583864537 0.622340459805389
0.16139191774627 0.174738168552263 0.634858908054223
0.159502593485397 0.178228156109656 0.639582810818242
0.16216027087906 0.172883199998388 0.656783817191485
0.162486180511902 0.172096384542672 0.664434587495385
0.163129280981727 0.170543802666453 0.668462649496628
0.162123670452801 0.172971561243853 0.687329650291499
0.15996530782795 0.177625135038064 0.692528540619201
0.162809842885648 0.171314994450346 0.69261330126054
0.162115324262978 0.172991710728516 0.709438686348303
0.163192312198526 0.170391631848005 0.709610743420416
0.159699457408423 0.177971598050172 0.723849658837552
0.161028015073279 0.175616707320779 0.740722584229291
0.160680038025161 0.176456798229742 0.745279932002338
0.16295664716688 0.170960577563584 0.753237633588777
0.161367403081061 0.174797352189488 0.760218144444384
0.160759107251191 0.176265908231895 0.768340020350043
0.163476966298876 0.169704416058356 0.777957521135775
0.160850288132511 0.176045778111582 0.790638546583034
0.159589690004227 0.171607681339218 0.797863440780938
0.157606023825289 0.166533372279002 0.800869224440593
0.146989656729682 0.164062161939393 0.805224357735119
0.137684453700568 0.15176439668219 0.804389443013177
0.0477408567957973 0.0618079486798148 0.717399323923565
0.0432951204251649 0.053735965873904 0.717399323923565
0.033030304120572 0.0545158201474625 0.717399323923565
0.0280444735876645 0.040398709105989 0.717399323923565
0.0190431191903483 0.0382553030116529 0.717399323923565
0.0150730872126438 0.0230631267861103 0.717399323923565
-0.00677045207911779 0.0146564655339145 0.717399323923564
-0.00196030529317799 0.00478224469031321 0.717399323923565
-0.0187671761802934 -0.00564644248262382 0.717399323923565
-0.0324800935782243 -0.0125876669101225 0.717399323923565
-0.0412777172332863 -0.0283965188258852 0.717399323923565
-0.0454558132088594 -0.0271941920643371 0.717399323923564
-0.0559096649282016 -0.0366469976723024 0.717399323923565
-0.0714990834946998 -0.0561297093843942 0.717399323923564
-0.0736307102912831 -0.0626149405111028 0.717399323923565
-0.0811890256067997 -0.0721656822271183 0.717399323923565
-0.096824871634995 -0.0885062835095672 0.717399323923565
-0.103573845082713 -0.0949504946987638 0.717399323923565
-0.115377007009664 -0.107462590187841 0.717399323923565
-0.121688530751293 -0.114900012137034 0.717399323923565
-0.133751975302335 -0.118106518671546 0.717399323923565
-0.156888161610659 -0.14196791315604 0.717399323923564
-0.152296123245257 -0.141712715316346 0.717399323923564
-0.171119053800979 -0.154925527486209 0.717399323923565
-0.17721031762832 -0.162261068820783 0.717399323923565
-0.193309295318916 -0.175694618374242 0.717399323923565
-0.209640692326336 -0.193805211975042 0.717399323923565
-0.223954412098874 -0.202953127820045 0.717399323923565
-0.226166888674382 -0.217281379979316 0.717399323923565
-0.24023610790653 -0.22354711226242 0.717399323923565
-0.248671713782192 -0.225607925129412 0.717399323923565
-0.259597130519644 -0.239578608687247 0.717399323923564
-0.267120790523184 -0.25244461859374 0.717399323923565
-0.283153137388383 -0.265086561335593 0.717399323923565
-0.289546686573669 -0.272198437408464 0.723685388430295
-0.283688055142789 -0.274625162004079 0.732169783360821
-0.290226929537175 -0.271916671547271 0.754185971578811
-0.288215088244932 -0.272750003495861 0.751414529638246
-0.290418569164187 -0.271837291814675 0.772464141120956
-0.289861270549442 -0.272068132459194 0.776753515564126
-0.294599302342008 -0.271493033772382 0.796092992394707
-0.286034624105748 -0.277402546553188 0.79835888032328
-0.299853274291152 -0.283446572112648 0.804507918759
-0.312707469046929 -0.293377932256481 0.804920305382229
0.164599290448097 0.166994885875928 0.221746729827339
0.163649960450813 0.169286771230538 0.233630760908095
0.164203095576318 0.167951384908719 0.246291652936602
0.165218481545075 0.165500026331902 0.251834913037182
0.165597272310028 0.164585544529849 0.262937227935195
0.164035470038699 0.168356068755038 0.265794861403215
0.165597324616494 0.164585418250869 0.283610156080347
0.165251484145894 0.16542035100541 0.28934280312423
0.165355911239094 0.165168241700729 0.294087448494043
0.167436937913704 0.160144198879224 0.305087508920933
0.16536519107111 0.165145838204418 0.316045917384303
0.165984791026869 0.163649991587979 0.326057139739798
0.16293142575738 0.17102146743246 0.333066056884028
0.165498123750403 0.164824910327185 0.342532515245616
0.166182451449515 0.163172797114883 0.35234521241478
0.167016110932144 0.16116016508552 0.36462498563581
0.165978575948084 0.163664996115472 0.375967974421303
0.164732451425196 0.166673406839036 0.380690410674517
0.164197616317179 0.167964613010443 0.394887277369878
0.163889849368982 0.168707628150832 0.39872399865274
0.163490948636226 0.169670659709891 0.412230504407623
0.166090165812855 0.16339559435052 0.421109315417419
0.165341618753592 0.165202746813066 0.423865458572679
0.166277520020392 0.162943281281716 0.432253172239455
0.165729186618756 0.164267075216647 0.45034376777322
0.164660217860762 0.166847794089951 0.45785831698439
0.164307747080697 0.167698733827523 0.461772458090409
0.162690426276302 0.171603291648202 0.476494433823904
0.165826976165852 0.164030990365792 0.487601194677125
0.163663623237104 0.169253786346573 0.492032372510935
0.164692777786071 0.16676918747668 0.499624761473103
0.166849350834714 0.161562759574396 0.51123405089145
0.165184662193051 0.165581673470227 0.518128200566108
0.167337965788563 0.160383138726036 0.528622279208759
0.165725006595512 0.164277166685453 0.543288424875162
0.164317929669097 0.167674150884507 0.545221915585373
0.166556206936913 0.162270471548194 0.554928663466202
0.165053654360813 0.165897954355593 0.564414541814001
0.164655941133587 0.166858119022698 0.578551223589221
0.165144746470439 0.165678038549109 0.585897012991008
0.163728638253894 0.169096826211282 0.600380079327101
0.165564855331138 0.164663806039938 0.599125455796109
0.164149442527964 0.168080914825716 0.614034560766778
0.164778699084376 0.166561755113016 0.626429266843717
0.164126213385964 0.168136994935375 0.6326511077987
0.166080714652518 0.163418411469986 0.640514590821488
0.16458663980272 0.167025427235569 0.643959199268931
0.164851311049273 0.16638645432257 0.650309330481352
0.164197953869829 0.167963798086257 0.664455036271761
0.165910339219431 0.16382973415124 0.675370118065646
0.166017030984432 0.163572157445179 0.685523359484528
0.164830830964925 0.166435897619962 0.694408077352921
0.165039595588904 0.165931895233408 0.703257752459707
0.166482075983006 0.16244943950251 0.714178278858616
0.16557886744358 0.164629977808044 0.730442626747374
0.165217669600758 0.165501986538883 0.727150838249843
0.164799176370368 0.166512318571454 0.73808281982333
0.163600602124857 0.169405932770475 0.747398975806409
0.167279429561569 0.160524457679138 0.755496234111857
0.163431186705559 0.16981493777342 0.771137188121726
0.165532491297985 0.164741939727708 0.774676718197432
0.165290771240939 0.165325503567726 0.786396428881068
0.165755025228972 0.164204695293432 0.793490148089052
0.158969237544264 0.160200989379064 0.801561734554875
0.157275021106124 0.159268485557866 0.802731417781775
0.145729725739327 0.145418855451402 0.805430908118803
0.138373144028916 0.145222334309818 0.803635668757576
0.0473198948768135 0.0542118889713237 0.717399323923564
0.0378492857452722 0.0415642417114586 0.717399323923565
0.0374180508860128 0.0320953866066005 0.717399323923565
0.0275622280735476 0.0180420657726156 0.717399323923565
0.00828071294413761 0.0125970483198795 0.717399323923565
0.00460102287810798 0.00544977876014045 0.717399323923565
-0.00645996446256981 -0.0105558643539351 0.717399323923565
-0.0136018543864318 -0.016892970924861 0.717399323923565
-0.0195187279572178 -0.0295840154994385 0.717399323923565
-0.0273101216415581 -0.0244508294221029 0.717399323923565
-0.0422887978933774 -0.0403000560069997 0.717399323923564
-0.0523072597822772 -0.0488410467301127 0.717399323923564
-0.05165274696012 -0.0568275338966297 0.717399323923565
-0.077693362312643 -0.0763766547890993 0.717399323923564
-0.0790419426023215 -0.0775974629014706 0.717399323923565
-0.0900757701934802 -0.0892503461244814 0.717399323923565
-0.09904873607735 -0.0962140906406049 0.717399323923565
-0.110301915922866 -0.116637805760499 0.717399323923565
-0.118969058390096 -0.116619544514558 0.717399323923565
-0.134001825464488 -0.136585255508852 0.717399323923565
-0.141941578138003 -0.139534025265062 0.717399323923565
-0.149846787068411 -0.149602933512314 0.717399323923565
-0.158621353785061 -0.161634269234243 0.717399323923565
-0.170202804701824 -0.168808637175947 0.717399323923565
-0.187997928255127 -0.186254061053069 0.717399323923565
-0.200695542122111 -0.197998653603926 0.717399323923564
-0.203063456454857 -0.20216332120632 0.717399323923565
-0.217627203002682 -0.218774740095944 0.717399323923565
-0.228470679853694 -0.228299633123226 0.717399323923565
-0.247782251589094 -0.237734669526759 0.717399323923565
-0.256940630316023 -0.256971400346896 0.717399323923565
-0.264876734683855 -0.268683634712475 0.717399323923565
-0.276197478081276 -0.27551448434742 0.717399323923565
-0.278325316855149 -0.276846480934278 0.732855600279608
-0.279533142435932 -0.276346183197736 0.731874547896397
-0.27986762744937 -0.276207634968759 0.740679255694794
-0.273828955243891 -0.278708934894994 0.76345650586255
-0.281666825427856 -0.275462382764677 0.773260048170504
-0.276883184822049 -0.277443831581122 0.788707304770256
-0.276252502224278 -0.277705068866671 0.794255330111089
-0.278847768893223 -0.28220362834626 0.799748347846957
-0.293671281407423 -0.284806725781481 0.804145677317221
0.169336452814705 0.155558364243296 0.213326871996521
0.169139479700458 0.156033899407135 0.224794794254648
0.168830390105772 0.156780107698615 0.243586990003869
0.168320892720355 0.158010143196483 0.245118091975773
0.169444305526006 0.155297984764937 0.254626913293635
0.1665295683021 0.162334782901644 0.272596830666807
0.16876883487871 0.156928715162621 0.282924101985799
0.168505815408643 0.157563700334428 0.279211191348875
0.169345148096061 0.155537371977119 0.294017079736077
0.167956437829212 0.158890015137552 0.306085686723721
0.168844548380098 0.156745926600717 0.317050727875442
0.168928832171972 0.156542447527285 0.324197979339727
0.168809293689115 0.156831038953825 0.33559521008934
0.169170972543566 0.155957868958186 0.340726544739707
0.168811497771831 0.15682571782744 0.353409332975874
0.16804264996149 0.158681880638567 0.362846448909121
0.168821645914303 0.15680121804425 0.365314752548564
0.168034741066413 0.158700974400325 0.371391272376029
0.168965271846661 0.156454474370442 0.385484062267117
0.168993304297216 0.156386798048128 0.391266080756618
0.168875101303023 0.156672165319822 0.404614137954869
0.16893831630269 0.15651955081028 0.419400727407631
0.168768522622864 0.156929469014921 0.424538907462694
0.169260989402403 0.155740549036741 0.436772971032348
0.169880502588143 0.154244911901657 0.446969022460406
0.166909231673331 0.161418194441682 0.45561737404557
0.167924492436195 0.158967138138631 0.46212527676158
0.170587957382198 0.152536964943084 0.471309546108711
0.169776260073128 0.154496575595184 0.482264740279891
0.168640243796755 0.15723916149668 0.495735272812724
0.168258809270587 0.158160025902912 0.491922280327892
0.1718072060635 0.14959343824078 0.50395770231117
0.169270508815362 0.155717567140868 0.518036931630354
0.169313177748607 0.155614555223536 0.516791044335704
0.166806029200805 0.161667347250525 0.536547834734406
0.167768905132798 0.159342759116624 0.541778588618284
0.171042346861268 0.151439971700114 0.551427781026829
0.16889503178406 0.156624048882197 0.563839347139961
0.16860390792646 0.157326884047546 0.567594979433673
0.171643335099889 0.149989057743608 0.580407271732329
0.171536727690444 0.15024643079734 0.5918798799007
0.16730489307118 0.160462983328886 0.604357844544284
0.167954330119985 0.158895103597755 0.613859095514134
0.170749558118 0.15214682625502 0.616677950670249
0.168621663196971 0.157284019032674 0.636485045327113
0.168056756247455 0.158647825051674 0.635046661457459
0.167755345403632 0.159375495198678 0.642588303713851
0.169324325457641 0.155587642273198 0.655645900894204
0.169904568299978 0.154186812133757 0.663945468058623
0.168507223131666 0.157560301790412 0.674784554548085
0.168850906948002 0.156730575659845 0.679226768194294
0.168463800994824 0.157665132102084 0.686522324967911
0.1693397207581 0.155550474730031 0.697565139998226
0.167544566140759 0.159884361353773 0.709176219931542
0.17078488451766 0.152061540781854 0.713837741456039
0.171254802177067 0.150927059195311 0.72203880918923
0.168993018302769 0.156387488499802 0.732490712707265
0.168066417856017 0.15862449986525 0.745128248890417
0.169072563324052 0.1561954498306 0.754749714727428
0.170250064691859 0.153352710058727 0.76748812301575
0.167633100143024 0.159670621364774 0.780890949777668
0.167201876565877 0.160711687173137 0.783697733842584
0.170374177793545 0.152400731306328 0.794937235345528
0.166387211970354 0.153289618683549 0.798465228162982
0.162041040606299 0.141501944121268 0.803698519530715
0.155418181997091 0.146024949144367 0.805016981421674
0.154792390814744 0.138304761716119 0.805523572299146
0.0616613866667058 0.0482458299473996 0.717399323923565
0.0572850155621113 0.0436688897909233 0.717399323923565
0.037025641002507 0.0233224076276971 0.717399323923565
0.0256407881477169 0.0144495792896668 0.717399323923565
0.0153459301626751 0.00127778612042592 0.717399323923565
0.0111831450240691 0.00369075501743774 0.717399323923565
0.00459129888575187 -0.0128849237594978 0.717399323923564
-0.00377891628036893 -0.020850196248634 0.717399323923565
-0.00963371427692936 -0.0293065645112444 0.717399323923565
-0.0153323431301001 -0.0395036807134666 0.717399323923565
-0.0269692505064749 -0.0422489065629087 0.717399323923565
-0.0371973616754595 -0.0571682828899914 0.717399323923565
-0.0526183481620612 -0.0728256379141206 0.717399323923565
-0.0601545773257161 -0.0762053379989329 0.717399323923565
-0.0680801677078354 -0.0772885709042155 0.717399323923565
-0.0893204634138371 -0.0955781513279495 0.717399323923564
-0.0939395428877276 -0.10261820620155 0.717399323923565
-0.10788823332318 -0.121902922202856 0.717399323923565
-0.117716965865127 -0.124592824723349 0.717399323923565
-0.125855649771723 -0.141070437785615 0.717399323923565
-0.123482482032658 -0.147868462302165 0.717399323923565
-0.138021276536014 -0.159967483234646 0.717399323923565
-0.150571050657095 -0.16180244131524 0.717399323923565
-0.160980982745607 -0.175353524505255 0.717399323923565
-0.176863720032647 -0.190294781021857 0.717399323923565
-0.18379212500157 -0.201748566029842 0.717399323923565
-0.204269069520937 -0.21583821404784 0.717399323923565
-0.206137915446488 -0.223368714956661 0.717399323923565
-0.223539521858079 -0.234281662722312 0.717399323923565
-0.226696992645767 -0.246244930902032 0.717399323923565
-0.250892941750612 -0.25682458911897 0.717399323923565
-0.25076035454483 -0.262400723297679 0.717399323923565
-0.26425346809266 -0.282675231539363 0.717554005516442
-0.267795128870114 -0.281208227612017 0.737142716559853
-0.265231548962079 -0.282270097178153 0.736746104816496
-0.2627097006353 -0.283314680957353 0.754912332675801
-0.266718763189089 -0.281654072875172 0.755486159359947
-0.260259674464538 -0.284329515025452 0.774719210083782
-0.267289765390361 -0.28141755601926 0.79064745260423
-0.260387779233672 -0.284905458975846 0.795308399253041
-0.277095554422926 -0.288426113085785 0.802934898104118
-0.282544837401832 -0.304572658945904 0.805201722179764
0.173605537544276 0.145251881990247 0.214287221298685
0.17424622711094 0.143705120549136 0.221927052023947
0.174564300291731 0.142937223962243 0.234040506428051
0.174279578323328 0.143624603599867 0.250728264781826
0.17298793889513 0.146742897025119 0.24554884867478
0.174109892913246 0.144034260418223 0.254982300438642
0.17317467571292 0.146292074467016 0.277679882238121
0.17336189309294 0.145840091729059 0.284577940475318
0.172515665634399 0.147883065536322 0.289683511699998
0.170720622975494 0.152216681868488 0.301950808523358
0.172435689760392 0.148076144376011 0.309315497071061
0.174361429376543 0.143426997677101 0.312557945665821
0.172025337058078 0.149066823435295 0.330009298700622
0.17421572492759 0.143778759333862 0.331474637145949
0.173442218615714 0.145646168762573 0.345159660187613
0.172887497875961 0.146985383095816 0.354606626531561
0.171338303144375 0.150725470027566 0.372484015222706
0.171768849087531 0.149686040172376 0.370375077716709
0.173487219181902 0.145537527785367 0.390647132478201
0.173491475821861 0.14552725134745 0.393083156646717
0.173931273946664 0.144465484749845 0.408210563546756
