ply
format ascii 1.0
element vertex 853
property float x
property float y
property float z
end_header
-0.453450415042773 0.186119643912401 0.840217590556188
-0.455952106128915 0.174486387239671 0.851823593091717
-0.455872484310573 0.175091174993809 0.85901115665009
-0.456139776364506 0.173060890275848 0.868934803760462
-0.455136977844353 0.180677901259537 0.873620712072204
-0.453490037030478 0.186023987972318 0.893069729746071
-0.454252424663061 0.184183421409951 0.899040456859733
-0.462404984918928 0.175940962024352 0.913746134965037
-0.463481000173784 0.172124593639581 0.914176356221007
-0.475873497577687 0.163598465247107 0.917860856409622
-0.478374497863262 0.157518897909807 0.917642004362766
-0.144608630518425 0.40632504790132 0.171345334314469
-0.140043621803526 0.405724053102495 0.189108341377712
-0.142665153575592 0.406069184307792 0.191102289471203
-0.135045367863502 0.405066020487715 0.215197471630253
-0.132031084040707 0.404669182494006 0.222587303101482
-0.14264658191995 0.406066739302943 0.224364224015481
-0.135542000050851 0.405131403355561 0.233818967062134
-0.136993058655088 0.405322438844955 0.249202791002839
-0.141366240758643 0.405898179191292 0.250785678757388
-0.13802897649647 0.405458820016068 0.266929364149872
-0.13680444988832 0.405297608029743 0.27567302688527
-0.130483090409422 0.404465385266198 0.283863214233386
-0.136655971208816 0.405278060440748 0.293699855892011
-0.142940189595221 0.406105393486703 0.295260841922254
-0.135269673715365 0.405095550913336 0.315463183864634
-0.141228104078534 0.405879993152348 0.312533154297987
-0.131791864476198 0.404637688640867 0.335423878643153
-0.138238013524946 0.405486340262956 0.336296347852884
-0.140045561979256 0.405724308531476 0.352563407147239
-0.144893836861235 0.406362596028679 0.350926803084349
-0.136472982617502 0.405253969535672 0.372295383961398
-0.134815538407489 0.405035762865812 0.377201763173808
-0.142552423768989 0.406054343147201 0.384948228719773
-0.135387001377248 0.405110997393059 0.401622944335522
-0.144949395102197 0.406369910409863 0.40055564608643
-0.13610961427055 0.405206131185251 0.416547070303931
-0.139599803097568 0.40566562326138 0.430468366781174
-0.133458877851845 0.404857155115283 0.433575515454425
-0.14036086064886 0.405765818388815 0.435424116975539
-0.138965043846324 0.405582055620587 0.452359129570692
-0.134881265134144 0.405044415953534 0.45935153442751
-0.132039395805011 0.404670276758537 0.475244655943553
-0.132507767586411 0.404731939073358 0.482187631544332
-0.143222207787544 0.406142521886088 0.484806727509746
-0.142041429961665 0.405987069536215 0.497661249925344
-0.140163603140352 0.405739848945152 0.505672443758375
-0.137776404645537 0.405425568301073 0.520211308476025
-0.141020685677891 0.405852686001858 0.529556671001835
-0.133847328043937 0.40490829555326 0.541356631769215
-0.143446121419354 0.406172000674959 0.54124888681368
-0.142764839376997 0.406082308192522 0.548167192745929
-0.14128938488374 0.405888060923408 0.564803530049076
-0.132399387750746 0.404717670597304 0.576125472514436
-0.13576637569638 0.405160942969693 0.587640547582632
-0.140537945681789 0.405789132075686 0.585887149815664
-0.137665932453371 0.40541102436106 0.603660734939751
-0.142065161592709 0.405990193864714 0.60710922613411
-0.136392002709669 0.405243308328551 0.620429343342468
-0.142047291210887 0.405987841184314 0.62526185987178
-0.131060997040799 0.404541468117592 0.646073453102966
-0.133636802297963 0.404880579312997 0.649567119249826
-0.137652828578779 0.405409299203243 0.658495897170334
-0.142589281300778 0.406059195533316 0.659693760875898
-0.13488225632673 0.405044546446514 0.674015256544018
-0.1366956001203 0.405283277685922 0.685950934363596
-0.136654806067772 0.40527790704702 0.69629527181063
-0.141559865196941 0.405923670332189 0.707947763031565
-0.132511598034514 0.404732443361418 0.71947974668719
-0.137830544770819 0.405432695983786 0.727948232406167
-0.129874347705622 0.404385242768856 0.739080648982368
-0.131580209516259 0.404609823736765 0.744442016807789
-0.132954487205417 0.404790750826922 0.749770574956274
-0.137178830216294 0.405346896134969 0.76356955218935
-0.143565856333583 0.406187764075466 0.764528607569257
-0.136039184094257 0.405196858876637 0.774653730703994
-0.13035841816779 0.404448971854209 0.791372847436958
-0.135550977545517 0.405132585265157 0.799362444428084
-0.140700444990778 0.405810525515571 0.805417429443099
-0.142570017267529 0.406056659375225 0.818777618573276
-0.134092721046777 0.404940602154974 0.831415251780344
-0.132970948991863 0.404792918062221 0.841351051891394
-0.134964032028944 0.405055312421952 0.842086698500205
-0.139709161774603 0.405680020604345 0.857433581080446
-0.134289190091401 0.404966467795398 0.870385416427687
-0.141261080822491 0.405884334623053 0.876237912753227
-0.144719246146592 0.406339610725041 0.876312732501938
-0.136511936675138 0.40525909793465 0.896037676455252
-0.14005753592598 0.405618899238998 0.901029983827984
-0.14613059293469 0.406316982340433 0.901783234985993
-0.146862210818829 0.401522211729034 0.912484108171137
-0.149358095222704 0.395416103726721 0.916553602542119
-0.163014976830376 0.382713469822932 0.915986403954503
-0.458427270533963 0.155685647030362 0.65396768994764
-0.457859907965733 0.159995193591399 0.668527466133233
-0.457097918825563 0.165783075736698 0.681031765372402
-0.457379493649775 0.163644302607652 0.691626936157074
-0.457170889510958 0.165228808353002 0.698601720372236
-0.457709425942845 0.161138218035642 0.713358233721976
-0.457631128543154 0.161732945831359 0.728059716037199
-0.457691468071431 0.161274621611287 0.726184940948987
-0.456847416632937 0.167685828796578 0.741720271576621
-0.456995717734305 0.166559370095943 0.75876549156331
-0.457221585122071 0.164843736956389 0.769913570050344
-0.458562193777286 0.154660803249983 0.77487169405027
-0.457376652494814 0.163665883322126 0.779417193252257
-0.457542200538424 0.162408421089022 0.801021436490354
-0.457826660752109 0.160247731251019 0.809027693434905
-0.456946055640637 0.166936591148172 0.822646336902796
-0.458126431498894 0.157970746368253 0.818828955063955
-0.4578397770236 0.160148103277898 0.83940764246625
-0.457026488055481 0.166325646302323 0.844768510665819
-0.458682137197886 0.153749742519668 0.854823386968912
-0.457302101272631 0.16423215607463 0.874832521957762
-0.456843523063468 0.167715403392894 0.884474997368626
-0.457583503649257 0.162094692815049 0.893292326442095
-0.459153621752778 0.168752099918293 0.909130334001912
-0.460696190999345 0.160767690317973 0.909730514410101
-0.471354893412271 0.156555775961712 0.917164163889235
-0.471279311173569 0.146411074260107 0.916592795004764
-0.120131556222207 0.402154993905349 0.189796403693735
-0.120864622904756 0.402458640067384 0.199909543111081
-0.124670931641725 0.403700200048057 0.209644287110563
-0.125356459596857 0.403790451515516 0.217896749709064
-0.126008282231305 0.403876265593325 0.216889048502516
-0.130775385894859 0.404503866696889 0.231817069873869
-0.124301360159538 0.40365154503939 0.243563410458486
-0.13229324178911 0.404703696216346 0.246986252431251
-0.12348511815743 0.403544084741176 0.255136455334243
-0.129879055115604 0.404385862511136 0.270602827600623
-0.121767833862909 0.402832762295935 0.286678488660723
-0.122095269901909 0.402968390744099 0.293349732138027
-0.12129533615532 0.402637047337262 0.308993776780497
-0.121551402505876 0.40274311349253 0.309423286477974
-0.128261744713024 0.404172939557263 0.318104031491138
-0.128419653671565 0.404193728666047 0.321531486962355
-0.120971947493654 0.402503095367682 0.334218998276678
-0.128011840823911 0.404140039086104 0.340951716706777
-0.132581461691386 0.404741641086335 0.354338342991291
-0.127114782209548 0.404021939079041 0.358012949080221
-0.124755201186206 0.403711294344059 0.36950409274561
-0.120367033949718 0.402252531973721 0.386610699580049
-0.11914331504659 0.401745651007513 0.398207057167648
-0.128987717960507 0.404268515748476 0.399429614384286
-0.130902692997057 0.404520626994855 0.403577705875354
-0.124925744053886 0.403733746738534 0.417733226355674
-0.122847068195862 0.403279795793623 0.430453025384718
-0.12722441768436 0.404036372863125 0.440850503661475
-0.124527001453816 0.40368125127934 0.457408706629868
-0.122947612729297 0.403321442702995 0.459903043206066
-0.119861323164714 0.402043059707934 0.471436629756835
-0.126568795653728 0.403950058585318 0.478807934261647
-0.126269351929511 0.403910636071139 0.484334809588342
-0.131479708903943 0.404596592580144 0.489771430371795
-0.123049335137783 0.403363577504187 0.506946840138016
-0.122419887062398 0.403102851574553 0.515994570571327
-0.12156379327946 0.402748245918996 0.527586487162149
-0.126457525488875 0.403935409590209 0.529109555033388
-0.129360432764265 0.404317584583278 0.537154293794603
-0.132299981724096 0.404704583545621 0.551060544014632
-0.125015134530412 0.403745515218029 0.560787345223939
-0.125004311619855 0.403744090354823 0.569081983830658
-0.127526125427008 0.404076093440985 0.578750325627482
-0.126397735232541 0.403927538053631 0.59713212491519
-0.124468910962737 0.403673603521104 0.598056193417223
-0.129421672682682 0.40432564697149 0.602413474754309
-0.122119559105375 0.402978451661594 0.613709262829871
-0.124867648393401 0.403726098299733 0.621119421109931
-0.121843893446138 0.402864267206858 0.639690896397512
-0.118691477518761 0.401558493775497 0.652671006139991
-0.12408175070032 0.40362263290559 0.654528947863187
-0.123003391839175 0.403344547166803 0.663416090706715
-0.127189600611968 0.404031789108586 0.672873704846052
-0.12031050175827 0.402229115573312 0.682444193931286
-0.120682805845948 0.402383328975756 0.696017978793894
-0.126439131813266 0.403932988016875 0.694499162578148
-0.126643898512827 0.403959946064295 0.710519140677697
-0.125842570048289 0.403854449170551 0.71296946037943
-0.125801843821946 0.403849087461136 0.720663032056141
-0.11957948869336 0.401926320047555 0.738112616023478
-0.129410303326778 0.404324150167389 0.746440634657347
-0.120020134683018 0.402108841592676 0.759207450195783
-0.12107032290058 0.402543843795435 0.765932983707417
-0.125534245278762 0.403813857444574 0.771949894624341
-0.127707246883375 0.404099938533083 0.784172203620652
-0.131069811071748 0.40454262850678 0.792217517630856
-0.122538501065424 0.403151983103294 0.809404424767701
-0.130523513686455 0.404470707091581 0.815172408989467
-0.126244175582065 0.403907321542117 0.821777128622518
-0.118984382362662 0.401679818934326 0.830798250643818
-0.127992278075357 0.404137463601398 0.840260745232405
-0.120402205971775 0.402267100702274 0.850406114478442
-0.122817282467042 0.403267458140781 0.86317878966374
-0.126057782920494 0.403882782482689 0.867618323456012
-0.128733521250978 0.404235050116788 0.879723522109352
-0.127056913632183 0.4040143205363 0.888969428217074
-0.123065431260249 0.403166072133006 0.901648272481799
-0.132240572175514 0.404696762130168 0.899797298048897
-0.131426495786148 0.402166777964197 0.909074231303583
-0.14013354887499 0.395178598502191 0.916158049950599
-0.141582946648467 0.387297215507015 0.917842643611557
-0.147449673017005 0.38861498585045 0.917912831459958
-0.460267018138347 0.141711376597982 0.64430047090543
-0.459932806974705 0.144249962418738 0.654122007268947
-0.459004256460244 0.151303003807826 0.664207792740677
-0.459163910873187 0.150090308144095 0.678393885933305
-0.459137390592053 0.15029174967859 0.693970037501436
-0.458739256362896 0.153315879387125 0.70376768117875
-0.458750257879347 0.153232314573299 0.723517367880469
-0.459375111247477 0.148486082032475 0.716206031717407
-0.459839076289761 0.144961917654384 0.732978282769211
-0.458709201718757 0.153544167073955 0.747486981413664
-0.459055704587237 0.150912216485621 0.759059250757436
-0.459054639523142 0.150920306450604 0.768412594781334
-0.459060474108084 0.150875988378032 0.783002324436753
-0.459676973918253 0.146193207409457 0.787859432115653
-0.45909954384499 0.150579224263251 0.797752941899848
-0.459029012842366 0.151114960416504 0.812710208830338
-0.45865822110572 0.153931403275098 0.819892736837831
-0.460141204650828 0.142667024913236 0.832064628146111
-0.460392358569994 0.140759321498808 0.844531269482779
-0.458989659968434 0.151413875170525 0.85690869227198
-0.459321475481999 0.14889348611869 0.859750507394132
-0.460127658806315 0.14276991581741 0.869484614493185
-0.459015813249244 0.151215221280249 0.884363294692881
-0.459560326155392 0.147079235133944 0.893094460428657
-0.462439962839023 0.142496166919933 0.908728401453014
-0.470726999363234 0.146062937877629 0.916350609895325
-0.477111122496018 0.131739643340595 0.917584311898377
-0.12065125796653 0.402370261416236 0.190644338639256
-0.117044930741056 0.40087647176909 0.200537456202159
-0.112181315092228 0.398861896205175 0.213786952100278
-0.12130873016703 0.402642595318567 0.215935140224741
-0.108465248206923 0.397322650902596 0.235030784316682
-0.110117222908465 0.398006921228672 0.235823897461188
-0.11330016412722 0.399325338649717 0.247032028221959
-0.109330603662104 0.397681092868406 0.258352330289152
-0.111741274005849 0.398679625219195 0.264977195049019
-0.11444090576882 0.399797849308831 0.280028061705347
-0.110763079980729 0.398274443987359 0.290507620272251
-0.116349818650855 0.400588546913959 0.288449688398114
-0.112728381473047 0.399088498519629 0.300975583496082
-0.114817947163926 0.399954024968261 0.311970171434627
-0.115849080431729 0.400381134352399 0.326911515143732
-0.117169035817142 0.400927877774764 0.325135780768365
-0.117094967795613 0.400897197795709 0.339234497056214
-0.110751750361711 0.398269751105505 0.352849549631289
-0.111283261384066 0.398489910179515 0.358373699151736
-0.115477436760777 0.40022719450352 0.374115070556152
-0.117867459973711 0.401217174532704 0.379982830012723
-0.116723464850818 0.400743316237513 0.387435741267682
-0.117640234864956 0.401123054810946 0.401344656533052
-0.112089782625854 0.398823982216205 0.409269044025305
-0.117054345088099 0.400880371319316 0.418186071963561
-0.110487704077508 0.398160379553494 0.424652317780894
-0.11479131122683 0.399942992001869 0.434131237029377
-0.116430263205797 0.400621868139635 0.450005030266102
-0.11059456775965 0.398204643939962 0.457188789961821
-0.115187733043174 0.400107195294619 0.462578478586566
-0.113648413936924 0.39946958844399 0.472536199145574
-0.117892569387407 0.4012275751924 0.478622294722959
-0.114925586150707 0.399998610496425 0.488861877474892
-0.11274792429305 0.399096593420722 0.496167964955057
-0.110556976740457 0.398189073229989 0.506803632406209
-0.109527057824078 0.39776246684668 0.517744487426255
-0.117475032778403 0.401054625866163 0.523982368177321
-0.114679742083795 0.399896778549681 0.530685654251472
-0.117254449238054 0.400963257172115 0.548093516103108
-0.117428666890933 0.401035420486742 0.556775368632378
-0.113390162998606 0.399362617402843 0.56296020882182
-0.110459588729281 0.398148733794948 0.581286492056892
-0.112534694857049 0.399008270896432 0.581259942117851
-0.110886895274637 0.398325729961325 0.589784418044969
-0.113067106977384 0.399228803217447 0.60253596837343
-0.113927229446763 0.399585077609565 0.620189935995611
-0.113400703278916 0.399366983329899 0.618124081188142
-0.114207023721638 0.399700972192893 0.63401868741236
-0.113952434338262 0.399595517817463 0.63889960739747
-0.118899583094068 0.401644693927195 0.648697340612297
-0.117173420594133 0.400929694008862 0.657255631167373
-0.119598478762872 0.401934185991897 0.667671129619868
-0.11855391534167 0.401501513656077 0.674636917493626
-0.11167962171509 0.398654088004212 0.681936654570191
-0.119563635027419 0.401919753244109 0.69155754120201
-0.117614683834578 0.401112471227631 0.70503843500372
-0.11319122032192 0.399280212648026 0.714758770246312
-0.113669356433306 0.399478263110021 0.728374737963994
-0.115345941783185 0.400172727500417 0.73271354294057
-0.118528604954163 0.401491029750302 0.741011180112895
-0.120197674502749 0.40218238099387 0.747725104265055
-0.112686554975462 0.399071173417063 0.766340386888392
-0.113233149403492 0.39929758024227 0.766705019907647
-0.113994886591602 0.39961310211655 0.777021317103293
-0.111330426327905 0.398509446538922 0.788211659062998
-0.109906250332387 0.397919533526372 0.804533658502136
-0.113474605025094 0.39939759443545 0.806414146732878
-0.119142641577809 0.40174537204761 0.813579472333726
-0.117571761304671 0.401094692133613 0.821180099933223
-0.111829696447921 0.398716250993921 0.838094692538975
-0.110253854884852 0.398063516046346 0.85147974066236
-0.1117410993778 0.39867955288589 0.854212491243095
-0.117461556759917 0.40104904391654 0.862234199664324
-0.118635721738459 0.401535398975115 0.871926154261347
-0.117005463633113 0.400860123957712 0.883150777425393
-0.113043514037952 0.399219030701958 0.887183862200654
-0.116087384275748 0.398543403568169 0.907615027205829
-0.113908925910521 0.397731809473197 0.907415455133639
-0.125727477765524 0.397239515490078 0.913712685419759
-0.128985661594336 0.391986854024498 0.916856126173832
-0.131113681396783 0.387552052622534 0.917772849743317
-0.461538606084166 0.132052707228832 0.627862322275808
-0.460485551231226 0.140051452958972 0.64147124947393
-0.461863364893409 0.129585919167885 0.648304662114343
-0.460469084222893 0.140176532305251 0.666287215887035
-0.46207784367205 0.127956791102929 0.671416718222631
-0.460873715891929 0.137103049641028 0.688065593791241
-0.460454646127568 0.140286200527195 0.699050365669528
-0.461112619150845 0.135288399229569 0.706797811491349
-0.462538502520148 0.124457739762919 0.70832180330865
-0.461050431777656 0.13576075922523 0.726181286406591
-0.461904466931099 0.129273718196053 0.741132733685122
-0.460562017319896 0.139470635351477 0.745098521179408
-0.460557715127362 0.139503313748117 0.760383882938002
-0.462701579966442 0.123219043579543 0.758910546406921
-0.461296818536021 0.133889265992062 0.779144365237196
-0.460263931889835 0.141734818982813 0.792445367521582
-0.46114695581147 0.13502758639841 0.801156892170557
-0.460850775808633 0.137277296873066 0.815977698799778
-0.462034704175234 0.128284468113283 0.817430331585068
-0.460819233157903 0.137516887092081 0.82910212775564
-0.462080203672354 0.127938865120913 0.846099907590644
-0.461804886994964 0.130030102905501 0.849389534231062
-0.461387305726964 0.133201947539305 0.864332031849754
-0.461254041758024 0.134214187879462 0.883896726437004
-0.460597408843804 0.139201810038198 0.897814136181036
-0.460499843519448 0.140203253060033 0.90049013383713
-0.464971105683748 0.124878745960847 0.909228145238085
-0.470614677464911 0.1246224356417 0.914836335552264
-0.472139665972653 0.119656647727868 0.915514995244311
-0.10431718869532 0.395604468395359 0.195165716880862
-0.105260934647382 0.395995380768138 0.204338833924186
-0.104122130113835 0.395523672485451 0.208843332853336
-0.103213334019827 0.395147236817881 0.225660592681992
-0.104319447262154 0.395605403924374 0.231064611223317
-0.107863671689812 0.397073469750403 0.244438660802674
-0.109272281362707 0.397656934981007 0.248495174084043
-0.102490223905648 0.394847714801499 0.260838207593299
-0.100834550885881 0.394161912581857 0.272127216030534
-0.104288791027769 0.39559270569632 0.280688001959989
-0.106712553086773 0.396596660813125 0.286255398193263
-0.107338336962631 0.39685586898162 0.294915940706074
-0.107791961266377 0.397043766320453 0.305512936396639
-0.101466558113404 0.394423698547014 0.322881089929038
-0.106740432673569 0.396608208916089 0.322070770105677
-0.110456251521706 0.398147351478309 0.330047632970025
-0.0996205101124535 0.393659040428229 0.348606731544597
-0.107336008710244 0.396854904587905 0.361145775217563
-0.105941915091694 0.396277452103883 0.363415871994787
-0.105592139445414 0.396132570287406 0.372407972625171
-0.102188626553655 0.394722789087928 0.386681785034889
-0.10974611935516 0.397853205103848 0.390850450713871
-0.100253629113792 0.39392128690518 0.405035145837239
-0.103428463920416 0.395236346540378 0.413059849898135
-0.0998211711339313 0.393742156944765 0.420639684938818
-0.100955876451073 0.394212167276422 0.430213092546888
-0.104416686675217 0.395645681808061 0.445330237569172
-0.108733160643703 0.397433623867439 0.452045403513331
-0.101910279817929 0.394607494094948 0.462490012785142
-0.101697894099478 0.394519521049911 0.464114096380752
-0.100989824159581 0.394226228877697 0.479224117558839
-0.103034971506228 0.39507335664573 0.486060213901089
-0.105996153301671 0.396299918306054 0.495538799921688
-0.101584076372123 0.394472376203603 0.508315006986112
-0.100373733279056 0.39397103567933 0.517918032597762
-0.106571923775509 0.396538410245132 0.519996705676554
-0.103656598347747 0.395330842914222 0.527919420823027
-0.102288612071306 0.39476420444538 0.548640133415968
-0.103999140990575 0.395472728722572 0.549484041765376
-0.10419715160691 0.395554747405352 0.560631717358441
-0.108357580077637 0.397278053303211 0.569058592545118
-0.108250884030042 0.397233858353245 0.579411212401277
-0.103803618188526 0.395391740526211 0.593298227099081
-0.102517443450544 0.394858989506157 0.597254146597411
-0.0992006573427393 0.393485131716813 0.611748618707925
-0.104478079320831 0.395671111474505 0.619811784728308
-0.107613623621483 0.396969896449257 0.624804865694733
-0.101609489983511 0.394482902866108 0.631197774209196
-0.102751556913747 0.39495596247775 0.649696476550725
-0.104266969789303 0.3955836670434 0.65728338022506
-0.104313655028515 0.395603004702644 0.662569990391666
-0.106193719264096 0.396381752807154 0.671633124112168
-0.105593031034603 0.396132939595741 0.680035190768348
-0.108506021276245 0.397339539660889 0.685174951558519
-0.100731023299427 0.394119030051467 0.702690343712858
-0.103188553447811 0.395136972368869 0.708949088671665
-0.106277955732051 0.396416644694628 0.719851501684956
-0.106277465138445 0.396416441484102 0.731994020911832
-0.102339581997294 0.394785316879997 0.738585109817492
-0.107004200142688 0.396717464979111 0.743176876040801
-0.105493837447574 0.396091852266693 0.758159193314279
-0.103564250908981 0.395292591352635 0.772208329363092
-0.103932832089166 0.395445262676303 0.771801050783329
-0.105232838169273 0.395983742825851 0.784554214666619
-0.105913768115929 0.396265793244782 0.794969903567406
-0.105440574836179 0.396069790170686 0.798955270034319
-0.105264018663309 0.395996658209362 0.8069776724607
-0.103703410835893 0.395350233281701 0.815641740460736
-0.0997895366450465 0.39372905351043 0.835042213552709
-0.105629652530407 0.396148108715978 0.835376973263433
-0.107172555088218 0.396787199880843 0.845551510321681
-0.100102291198747 0.393858600688267 0.861016744387942
-0.108100744342071 0.397171668458237 0.865452965437125
-0.105247688073185 0.395989893857451 0.878182782080594
-0.107455376938306 0.396904348526885 0.882954292824147
-0.103289156099244 0.395178643351503 0.896002211380815
-0.102735571503036 0.39475037156156 0.901612273238496
-0.107480275966768 0.39381612118957 0.909666050160139
-0.10976860959055 0.388159210073682 0.915544535685835
-0.119656757514116 0.388064502789416 0.917125619803689
-0.463277160415368 0.110421033037927 0.608944137138739
-0.463222469531985 0.119262494519791 0.617189392348905
-0.463695436122372 0.115669956595674 0.628901807813882
-0.462528710912839 0.124532114404407 0.647825715171534
-0.463603960844267 0.116364780315559 0.6500463711059
-0.462788997198224 0.122555043781713 0.665303839614741
-0.46353601694442 0.112387243583077 0.669241667291233
-0.463293884193669 0.1187200463096 0.682193584073584
-0.462931625468786 0.121471674508997 0.698497496038583
-0.463457400716175 0.117478015011271 0.70704162962593
-0.463762978243697 0.114111185805488 0.71952327538129
-0.463622793040169 0.11304637346925 0.723000274753901
-0.463804806573465 0.114839205541982 0.735750989266777
-0.463597325303479 0.112852926803547 0.747412870775376
-0.463609035740777 0.116326232649526 0.763421333662154
-0.463480728995358 0.117300819138726 0.77456441679772
-0.463183837539239 0.119555933637581 0.788948650570276
-0.462644954146628 0.12364915938328 0.797138760005807
-0.463006868258488 0.120900148779666 0.806989059347367
-0.463700695715439 0.115630006020008 0.817178624596723
-0.462745473651698 0.122885637939233 0.827412441746641
-0.462439315443328 0.125211140409606 0.843423560472347
-0.463305203384238 0.118634068521278 0.845422587487642
-0.463314525722299 0.110704850721716 0.851789277157237
-0.463714138621136 0.113740212041561 0.867852742931067
-0.463532597379926 0.116906839643326 0.886336324585941
-0.462394539349282 0.125551248610111 0.898685795831165
-0.46334233283722 0.110916066729243 0.894199651604333
-0.466598395204096 0.111500339983863 0.910037725213067
-0.475273104683638 0.109590634577694 0.91678481519263
-0.0992753697322241 0.393516078601815 0.194706704268221
-0.0924061831108104 0.390670768340754 0.211780810789045
-0.0955094943400325 0.391956201940162 0.219611053836227
-0.0922272283196233 0.390596642839192 0.234563295978799
-0.0995462063857087 0.393628262816876 0.238006458005857
-0.0951463474143819 0.391805781558423 0.24171121542836
-0.0965695159528033 0.392395277268581 0.2549704487792
-0.0977506027192415 0.392884499425579 0.26410197509548
-0.0991499696246172 0.393464136176522 0.274228984459508
-0.0975885645518551 0.392817381019025 0.282931789016089
-0.0940884862394335 0.391367601112652 0.288977179133966
-0.0971013713385951 0.392615578982597 0.302921696140716
-0.0946187398861112 0.391587239364603 0.311520713862623
-0.0909145917777741 0.390052930981092 0.329884325434287
-0.0936674452916404 0.391193200241762 0.333867347040036
-0.0950940421109594 0.391784115992362 0.342489657357612
-0.0957943772680959 0.392074204312655 0.348755222090446
-0.0989998832287983 0.393401968355846 0.360324869549779
-0.0961041277425334 0.392202507160119 0.365838158432177
-0.0929671304594994 0.390903120340358 0.378007794944386
-0.0946280099833181 0.391591079164592 0.387666036430094
-0.0952832651689209 0.391862494749284 0.391523594386691
-0.088778518724527 0.389168140552217 0.409184543209447
-0.0951077074365834 0.39178977635557 0.421273853734189
-0.0902656349097541 0.389784124244962 0.429189489719771
-0.100285153456004 0.393934344715269 0.428014086876621
-0.100806294319586 0.394150208328871 0.43691022287331
-0.0947045816677568 0.39162279619478 0.450629718109236
-0.0903884522791747 0.389834996865072 0.462621506239518
-0.0920593701264712 0.390527113699033 0.472530803387123
-0.0928398773670663 0.390850410383618 0.483082279961314
-0.0959208546952704 0.392126592978325 0.495187226157405
-0.0947233446726028 0.391630568085858 0.498890786506872
-0.0922477405789415 0.390605139295197 0.510559780571186
-0.0955740509875532 0.391982942179107 0.521999746325282
-0.0944638307919809 0.39152307391688 0.527930516598089
-0.0974572398097092 0.392762984529753 0.533802396157567
-0.0949560905910147 0.391726974601851 0.541737985260707
-0.0960578346717367 0.392183331942351 0.552191123287558
-0.090949159376358 0.390067249349244 0.569985398775551
-0.0977036787464998 0.392865062879669 0.567708217423742
-0.0964319846688144 0.392338309945502 0.580989599402887
-0.0922928840362626 0.390623838327472 0.594568401091278
-0.0898656756891794 0.389618455711405 0.600769095538221
-0.0934919279363894 0.391120498572785 0.604125654257338
-0.0982868450133049 0.393106618256498 0.615016039221302
-0.0964416595640134 0.392342317418308 0.622658791054143
-0.092375996619039 0.390658264686462 0.640597074248948
-0.0985247753343329 0.393205172222368 0.645301243365606
-0.0966703200730821 0.392437031702343 0.659270589222148
-0.0897665848417895 0.389577410938509 0.668556223420575
-0.0918842514795093 0.390454577180438 0.678752381854684
-0.0952459192367506 0.391847025557679 0.692129637432103
-0.093718235810119 0.391214238363355 0.687826744986936
-0.0928871109653422 0.390869975180624 0.707128083090714
-0.0957140200216841 0.392040919251356 0.717880006683647
-0.10067500966043 0.394095828442517 0.72309438322306
-0.0962934588848652 0.392280930687052 0.727731080492943
-0.0941960814453456 0.391412168506188 0.736053158915945
-0.0987599287387139 0.3933025759517 0.752088361457118
-0.0939569245600257 0.391313106480753 0.761690644336386
-0.0951733131738905 0.391816951141732 0.761755368399584
-0.0943320223899597 0.391468477089129 0.784063909542916
-0.091653995596522 0.390359202070889 0.789652631726897
-0.0929083105064155 0.390878756318053 0.791588794094827
-0.0947904507597397 0.391658364337268 0.80214378914517
-0.096975488011895 0.392563436401402 0.817305005049359
-0.094098258477552 0.391371648906216 0.821607795001134
-0.0967438748890232 0.392467499104684 0.83786129708363
-0.0907876946396172 0.390000368465442 0.848105545863845
-0.095893011460907 0.392115059933031 0.843852733509462
-0.0939668107621753 0.391317201479764 0.859882486579775
-0.095673374615165 0.392024083372727 0.873425869919971
-0.092482503434836 0.39070238125405 0.885550404313127
-0.0964284391019087 0.392336841323603 0.888902238526062
-0.0930536191175343 0.390938945115507 0.893070053250457
-0.0957466356917074 0.390001932278828 0.907870245562079
-0.100823788214246 0.39180168578001 0.908537162041549
-0.10208941459577 0.384677049827933 0.915658229103264
-0.116620540554958 0.377027944049316 0.917401237381707
-0.46190661918713 0.100010738866872 0.606064731711652
-0.463168887089784 0.109598615479822 0.608792726227008
-0.462210686145195 0.102320356714148 0.628302038355259
-0.463456198147717 0.111780959629752 0.643067775290156
-0.462247654716484 0.10260116089155 0.648135513153111
-0.462599592296995 0.105274392216144 0.660340607257779
-0.462881428246103 0.107415148785691 0.66284796586431
-0.462577129539643 0.105103770634602 0.68335816402916
-0.462586264434092 0.105173157046683 0.688944211717788
-0.462891831128685 0.10749416652385 0.698736060506761
-0.463142705927885 0.109399749811652 0.711704477851519
-0.462308458207377 0.103063009257571 0.71991143977092
-0.462569319395518 0.10504444670024 0.735878919140894
-0.46307184565915 0.108861512633982 0.742451021259018
-0.462797474189617 0.106777454415859 0.755435478514413
-0.462586107215224 0.105171962850817 0.763445462965428
-0.46333556996532 0.110864697617195 0.782838264096883
-0.463063182130464 0.108795706600334 0.782204091403224
-0.462459631186652 0.10421128203663 0.799413195897551
-0.461981602741201 0.100580295506099 0.8010749474997
-0.462605994983413 0.105323025447834 0.819973950682953
-0.462655920653522 0.105702248561896 0.831146537425334
-0.463228604349692 0.110052213102373 0.847450470022868
-0.462477668304866 0.104348287551484 0.846537481117181
-0.463529661180352 0.112338966762017 0.867999733298977
-0.462979340230601 0.108158864144625 0.86988658108427
-0.462062237091762 0.101192774205993 0.888293728501273
-0.462709490029613 0.106109148370652 0.89367668297326
-0.462717496536967 0.101489456307481 0.90481082725224
-0.466091574628578 0.105017010993133 0.910479420281569
-0.471310171970026 0.0963615669340412 0.915885427557348
-0.0851071768627908 0.387647420960978 0.205255627035373
-0.0881941308502879 0.388926079169021 0.212315172651966
-0.0833099469337844 0.386902983949681 0.222419181481595
-0.0846515999732129 0.387458714834611 0.235178622276181
-0.0874825545494817 0.388631334614564 0.247442631359692
-0.0850711573764596 0.38763250120123 0.25389732146996
-0.0820590651691722 0.386384851757853 0.262713665065016
-0.083229813333611 0.386869791525687 0.270790925180934
-0.0840454613840148 0.387207644010288 0.271969740307036
-0.08781551821807 0.38876925268187 0.288385723868116
-0.079956799799713 0.385514064930116 0.299040056827065
-0.0853336919205646 0.387741246569989 0.305373279001718
-0.0854588172673215 0.387793075185613 0.318294415597703
-0.085088378963313 0.38763963461607 0.32421357709094
-0.0843707144385122 0.387342368236664 0.334293036320002
-0.0788685451158552 0.385063295080746 0.349619218712486
-0.0827351362998613 0.386664889589313 0.355961807960454
-0.0872228058587964 0.388523743184074 0.363720789188155
-0.0801763480687996 0.385605004800767 0.369377325624039
-0.0803364836983349 0.38567133515034 0.381490699309216
-0.0836118430799384 0.387028033427846 0.393508403101832
-0.0895698679000218 0.38949592811328 0.394350706591125
-0.0797049870950401 0.385409760692663 0.406097387840959
-0.084332765174883 0.387326649136986 0.419203580983265
-0.0879980440939156 0.38884485737513 0.427440972188534
-0.0839389000392931 0.387163504856079 0.442553047765544
-0.0887151740265482 0.38914190231921 0.439772073125271
-0.0853539998110696 0.38774965837366 0.459954051171513
-0.0878169756369491 0.388769856364536 0.457575959742159
-0.078610634881354 0.38495646516374 0.477658981450854
-0.0852612863523643 0.387711255201649 0.478418635077968
-0.0790212326203431 0.38512654031591 0.495132890263849
-0.0879195376478371 0.38881233894043 0.50366500980563
-0.0825752514888027 0.386598663132156 0.51011123529963
-0.0807092705764273 0.38582574853112 0.524032857861606
-0.0868257830377468 0.388359290947023 0.526438112564003
-0.0816173809661062 0.386201900170658 0.53808194511747
-0.0868214095241637 0.388357479378382 0.544070607179635
-0.086964690448833 0.388416828280609 0.552277650102191
-0.0862155884495805 0.388106540072918 0.569860326299215
-0.0859811015066699 0.388009412400965 0.570544197382961
-0.0876632864363259 0.388706196213248 0.578963256960847
-0.0864847476512307 0.388218029464679 0.587747519653787
-0.0871081313595996 0.388476243451248 0.605163316598909
-0.0817576536774458 0.386260003030125 0.615273454943279
-0.0838480510147026 0.387125873957966 0.621207040221637
-0.0875744092996227 0.38866938209784 0.630956261760471
-0.0884272975602461 0.38902265998258 0.643124387405199
-0.0848975919779656 0.387560608059215 0.646177222403817
-0.0838349444970963 0.387120445060617 0.657976922145146
-0.0840642556189996 0.387215428837313 0.675209936347011
-0.0835822379365817 0.387015770575952 0.685266562727431
-0.0896885971092893 0.389545107362008 0.682965097094124
-0.0850713642619056 0.387632586895987 0.694104783588078
-0.0821115780224931 0.386406603293898 0.712544291296412
-0.0844340945663859 0.387368621145214 0.715107396323591
-0.0838416230608774 0.387123211412313 0.731954423583905
-0.0784423447354286 0.384886757102885 0.733341633492898
-0.0868102490713367 0.388352856567458 0.742599436227909
-0.0834984663373313 0.3869810712434 0.746029787062671
-0.0865869938474538 0.388260381225855 0.758723357968742
-0.0837597794405156 0.387089310674766 0.779281832812978
-0.0831351424827872 0.386830577575314 0.779555546080836
-0.0909133241117716 0.390052405896642 0.786349119517568
-0.0874680248451335 0.388625316213966 0.792201705452506
-0.0888052951986785 0.389179231730963 0.808960941327502
-0.0835012859940014 0.386982239183435 0.821487227884389
-0.0808929831920814 0.385901844788104 0.826554185099428
-0.0834256913459923 0.386950926854987 0.837683501317615
-0.0900383123741958 0.389689964167702 0.849232508819188
-0.089681404298119 0.38954212800207 0.8554166902901
-0.0840018879601165 0.38718959530715 0.87163383465392
-0.0870150940022475 0.388437706116025 0.864983407257855
-0.0876428610544836 0.388697735743072 0.882394709200207
-0.0882330761915617 0.388942210857568 0.891878313729841
-0.0832370350133215 0.386202165264154 0.904875539226385
-0.0886462130403509 0.388425342604412 0.904995772102379
-0.0849060154388012 0.381340868374732 0.913112144082524
-0.097198546953613 0.381762194132383 0.915993646594746
-0.460850954739842 0.0919921712997287 0.593588726560578
-0.461182793481455 0.0945127367860989 0.599167181742652
-0.460928069424675 0.0925779154842 0.613781284294469
-0.460967175852138 0.0928749582914402 0.622334547678387
-0.460407727796586 0.0886255284226227 0.629277817515366
-0.46024158554937 0.0873635527650286 0.639258741885513
-0.460424772802935 0.0887549980996962 0.650517487934762
-0.461186583070804 0.0945415215749842 0.664596853865866
-0.460820692717141 0.0917623084163408 0.67493721182287
-0.461658872251432 0.0981289140611357 0.681144198713895
-0.461028234839932 0.0933387473490976 0.695075711447857
-0.460690628995975 0.0907743763713778 0.70729788216607
-0.460519795203743 0.089476764891442 0.713795664916516
-0.46095769181294 0.092802919861695 0.728915280357985
-0.460358264250747 0.088249815490883 0.74374377154768
-0.460921758160478 0.0925299766732226 0.754674313680224
-0.461171161380486 0.0944243822073191 0.757254388962049
-0.461969843373435 0.100490974240028 0.776292156526099
-0.460723121895614 0.0910211844474385 0.788829850503271
-0.461684936313219 0.0983268902656445 0.799649793067622
-0.461463118078343 0.0966420134958062 0.81215996068615
-0.460360466145613 0.0882665405428761 0.813259656640709
-0.46143044297485 0.0963938214440724 0.823132914596599
-0.460087504508283 0.0861931910635083 0.836823446048342
-0.460593160719368 0.0900340313084791 0.852598948726514
-0.460768313502539 0.0913644487815994 0.861267084442886
-0.461566460734292 0.0974269788997559 0.874574704833453
-0.46160832364811 0.0977449592995608 0.879182948566602
-0.461125703285763 0.094079093697371 0.895127929183126
-0.4611188547951 0.0928031251482282 0.901432041390533
-0.464798220552273 0.0896520273712481 0.911408712493673
-0.471029706125754 0.0903201543072643 0.916093907845697
-0.0757595948184741 0.383775525702827 0.215190609070878
-0.0737951435372991 0.382961823339543 0.220552482598318
-0.0776792603278565 0.384570677192033 0.231318102897874
-0.0706311462966847 0.381651252771169 0.242196676607496
-0.0741008503024201 0.383088451227765 0.244938776462635
-0.0772356985028898 0.384386947868381 0.254707797210718
-0.074608654959677 0.383298790803837 0.265655810879457
-0.0732653890404019 0.3827423918422 0.272598848304548
-0.0799573557900522 0.385514295228855 0.276336986027504
-0.0799751321850805 0.385521658452765 0.284218174869538
-0.0713297787058121 0.381940635790143 0.306652961062601
-0.0725708036239463 0.382454685142477 0.31452010997624
-0.0704659744469386 0.381582836350882 0.323042958467247
-0.074566321693944 0.38328125579103 0.333328453647302
-0.0695478157260858 0.381202522556294 0.346502629460468
-0.0745542495675831 0.383276255352566 0.34236818934707
-0.0733430757296821 0.382774570722516 0.356432601854788
-0.0756213209324948 0.383718250783932 0.369419848731844
-0.0764711627036919 0.384070266771433 0.370878418529084
-0.076803780201228 0.384208041449995 0.383101154793217
-0.0708342542850779 0.381735382854588 0.391171261630428
-0.0724747263948456 0.382414888651149 0.40269866541155
-0.076232800394727 0.383971533870301 0.409631335370895
-0.0751045403347987 0.383504193251595 0.419237318734288
-0.0715573175197984 0.382034885452862 0.428022713799076
-0.0713077015374459 0.381931491127587 0.442483727785627
-0.0772519214245556 0.384393667622556 0.444867242280263
-0.0740293335767922 0.383058828030073 0.458329368155855
-0.0768762116169749 0.38423804352474 0.472338083756339
-0.0747716403656278 0.383366301569451 0.473017473961909
-0.0776031396379637 0.384539146969902 0.485536729476359
-0.0720823912216543 0.382252378101417 0.498311048672899
-0.0725157842349521 0.382431895365362 0.50627142098425
-0.0760463411785396 0.383894299934127 0.51701595790643
-0.0769623181704117 0.384273710026982 0.518288491078969
-0.0786932990421021 0.384990705780245 0.531304140498538
-0.0698831145633037 0.381341407882117 0.542015584809154
-0.0739909081561534 0.383042911699705 0.549127220893658
-0.0747862181735552 0.383372339895204 0.557186237826116
-0.0694274317125294 0.381152657865186 0.570797395318343
-0.0723862045853861 0.382378221717105 0.583836779968655
-0.0774698282345898 0.384483927578606 0.587148199115758
-0.0769052724829661 0.384250080929567 0.596284098725999
-0.072330578107252 0.382355180475435 0.608519121893556
-0.0775662923747496 0.384523884333743 0.620437497016087
-0.074146788401008 0.38310747941123 0.626996919737843
-0.0781133479151664 0.384750482157954 0.631206902089464
-0.0735192243249438 0.382847533859666 0.646843937915208
-0.0798768228228509 0.385480937381622 0.651788602302845
-0.0771208163957796 0.384339362141542 0.665308828065503
-0.0726158991447965 0.382473364318816 0.675106441317035
-0.070679127765196 0.381671127346169 0.681417579591908
-0.0774218709710365 0.384464063029627 0.694973619769874
-0.0771180018721746 0.384338196327693 0.699130914763401
-0.0808704531131178 0.385892512523835 0.705252833543834
-0.0815350607358197 0.386167802014815 0.718295427309919
-0.0793575273724539 0.385265838163189 0.728704744652323
-0.0767119959015411 0.384170023148252 0.735583646186057
-0.0746496402628665 0.383315767472277 0.745199191209012
-0.0763186036292626 0.384007074733741 0.750905604705459
-0.0729873947516828 0.38262724283755 0.764145045576727
-0.0702870054864117 0.381508704980188 0.78084310235969
-0.071383855237478 0.381963035022966 0.781553946941461
-0.07086434766052 0.381747847938834 0.791595592344884
-0.0729074201627073 0.382594116278152 0.799783038490374
-0.0756838802112083 0.383744163685628 0.814199169586823
-0.0782309107878504 0.384799178294253 0.819687270340359
-0.07461204393185 0.383300194562074 0.83012337797522
-0.0753768190936494 0.383616974806257 0.841901798960643
-0.0747949965049774 0.383375975999135 0.847294874233287
-0.0761402097449103 0.383933181567398 0.861961002702334
-0.0738170518576853 0.382970898062975 0.87302680918006
-0.0796102647500548 0.38537052541271 0.874501331253462
-0.0777037174324021 0.384580807656432 0.88215609840277
-0.0745371463443198 0.383269170965529 0.895389602214436
-0.074971241735968 0.383448979164114 0.900412628535648
-0.0782769280212286 0.382445137040674 0.908575279545597
-0.078573244530189 0.377738062456023 0.913796892540969
-0.0923067548434349 0.375417451104375 0.917409827162013
-0.459485331561167 0.0816192334238708 0.579649427202826
-0.458865067589508 0.0769078608101702 0.595976802678243
-0.459354435953099 0.0806249825705523 0.60756574570889
-0.458783395902259 0.0762875027558559 0.610883526403307
-0.458858321254494 0.0768566173082391 0.62146565795143
-0.459513124874781 0.08183034460006 0.644406806450729
-0.459304554488648 0.0802460952318042 0.642460117048531
-0.459465291234127 0.081467012027342 0.648765892227892
-0.459665533631822 0.0829880040431727 0.670705780769278
-0.459120166958205 0.0788455328891037 0.675987446253049
-0.458196383433164 0.0718287003795076 0.688682214216981
-0.459389329733952 0.0808900271499749 0.699159379200774
-0.459807824250923 0.0840688085984141 0.70989926560909
-0.459023609012584 0.0781121024765387 0.722065773228622
-0.459078254730706 0.0785271779147081 0.728927887573973
-0.459285178857428 0.0800989227012726 0.754597322826006
-0.459564610759323 0.0822214187193245 0.758599980711954
-0.459754073391562 0.0836605302873542 0.769353972420936
-0.459582401151684 0.0823565501652692 0.780032885505173
-0.458975628154433 0.0777476516759045 0.780945960048198
-0.458291375547832 0.0725502371251739 0.79251190513774
-0.459669152319714 0.0830154907066094 0.808504356027461
-0.459523005553185 0.081905395803688 0.821397788180966
-0.459253494830744 0.0798582586252898 0.837396409597885
-0.459061946632421 0.0784033056100846 0.842550646546559
-0.45907241006516 0.078482783272348 0.852686148649665
-0.459149399597941 0.0790675768326054 0.864614184600558
-0.458690900018093 0.0755849267632895 0.871214612719064
-0.460070196759378 0.0860617256585742 0.889512482202034
-0.458623834312063 0.0750755121508896 0.891998643836755
-0.462366775299345 0.0757021683514279 0.910650853102609
-0.464130470503514 0.0826750695436086 0.911728186774481
-0.475316677984044 0.0695851594619866 0.917826810982063
-0.0722661899392553 0.382328510022994 0.206683564559569
-0.0641337629179253 0.378959948455749 0.226222286288595
-0.0673317394093956 0.380284593690667 0.221733359407998
-0.068014809222499 0.380567530471302 0.244070529464327
-0.0688966763793132 0.380932811807866 0.248618986308858
-0.0674446473442158 0.380331361688568 0.265432669547833
-0.0653051269698496 0.379445143332532 0.267735879960682
-0.0659165318545943 0.379698395527895 0.278499886941092
-0.0666294431587169 0.379993693058832 0.277852445746594
-0.0660518742127598 0.37975445616821 0.300367772295757
-0.0658541881894447 0.379672571936262 0.313030976303265
-0.0710919610389906 0.381842128487174 0.313815458390185
-0.0670826863307548 0.380181432527743 0.322882394752029
-0.0649517541962981 0.379298771537154 0.331877721342318
-0.0652512027444543 0.379422807187033 0.346542028096705
-0.0692627099842857 0.381084427891329 0.347902127798868
-0.0632691490180054 0.378601813652186 0.359291327704343
-0.0660188109573278 0.379740760919395 0.373160194925172
-0.0714248660740059 0.381980022267659 0.378425836497308
-0.0609336839818026 0.377634432359743 0.389178393515164
-0.0614496797121619 0.377848164789384 0.397926684314942
-0.0614108453068421 0.377832079052014 0.404148287682908
-0.0654643006798105 0.379511075241972 0.411143928107614
-0.0624355233988493 0.37825651461479 0.43101369658831
-0.0694498761856501 0.381161954670353 0.436177136113396
-0.0642721787087812 0.379017282153568 0.439855608299004
-0.0673537068937192 0.380293692920605 0.448132093359381
-0.0619006994805921 0.378034983294367 0.467686272602006
-0.0643582410884294 0.379052930358429 0.473630961710645
-0.0611742679732083 0.377734085511873 0.488000297875757
-0.0618506617706389 0.378014256996274 0.490961763513331
-0.0658644595150244 0.379676826458621 0.501893933632812
-0.0635875808062649 0.378733712417574 0.507509075855839
-0.0671370595848652 0.380203954667026 0.518783659182118
-0.0683842014747973 0.380720537752039 0.522795672116429
-0.0629466658056419 0.378468236731988 0.540846555573135
-0.0678462734041562 0.380497720649599 0.541519641083608
-0.0640671251326154 0.378932346181307 0.55790896371381
-0.0720363520716628 0.38223330806109 0.563236180427941
-0.0669931598341114 0.380144349438642 0.569426814264575
-0.0681412171303844 0.380619890341139 0.586271302561401
-0.062895335047562 0.378446974835824 0.592820796415539
-0.0661214886323055 0.379783291404924 0.599021673389715
-0.06439357484138 0.37906756607811 0.61254055433623
-0.0664529407974589 0.379920583387008 0.615837821860291
-0.0637686674570106 0.378808720964278 0.634391272196131
-0.0643517423454774 0.37905023849096 0.648586907310374
-0.0660143542488369 0.379738914890294 0.641570713710223
-0.0683384435457861 0.380701584197257 0.654599560305175
-0.0631756681152008 0.378563092594422 0.666647723786236
-0.06504284286443 0.379336501698873 0.680775696786433
-0.0654485728478678 0.379504560560674 0.691614196122984
-0.0647332863325404 0.379208279185044 0.698740080541709
-0.0614210116159077 0.377836290075108 0.709021108691962
-0.063238482914115 0.37858911133605 0.713449802054897
-0.0600798274342799 0.377280753397438 0.725413871760732
-0.0615382800806479 0.377884864263643 0.736036126098985
-0.0660900917082405 0.379770286373159 0.738329715702211
-0.0663547112637726 0.379879895381929 0.74857599532662
-0.0661175594449262 0.379781663882222 0.753817072625772
-0.0681258830510222 0.380613538757501 0.7668756902495
-0.0687896965552875 0.380888499313854 0.778470944371196
-0.0623622807458263 0.378226176514565 0.794295989194263
-0.062802813300167 0.378408651073239 0.798410782268812
-0.0603063040082676 0.377374563065944 0.811053330066204
-0.0617248045766759 0.377962125239613 0.820968000235837
-0.0611208068366457 0.377711941184049 0.826272855047762
-0.0647935529171175 0.379233242421734 0.827931987853123
-0.0650931544692846 0.379357341447949 0.845770810892826
-0.0644222986823163 0.37907946388259 0.85546144755846
