ply
format ascii 1.0
element vertex 866
property float x
property float y
property float z
end_header
0.15060294843358 -0.147923333897493 0.868734579374206
0.127201331365493 0.473226566256508 0.46965484617468
0.129156124688921 0.472416864350307 0.47578184820057
0.127122867084581 0.473259067225823 0.483372076835585
0.127084531610987 0.473274946298906 0.493776651011748
0.125879526658032 0.473774075693146 0.503331037572578
0.128879795239866 0.472531323755789 0.505071607668635
0.128284452651805 0.472777922730021 0.510985921404003
0.127559179513029 0.473078340700528 0.524895983384386
0.127254798402192 0.473204419484766 0.533220792136188
0.129387310333654 0.472321104120833 0.534272217727193
0.12632662971481 0.473588879543251 0.549073473727433
0.123055939238708 0.474943643896776 0.562169082294008
0.128432474622606 0.472716610022187 0.559530927981983
0.123517544500192 0.474752440737007 0.581947999262403
0.126136516398621 0.473667627057204 0.577203076842395
0.129239249665937 0.472382432857455 0.590873036007732
0.12269134098713 0.475094665437398 0.603698109440967
0.127730501011055 0.473007377012519 0.601925403550143
0.128572297995239 0.472658693284906 0.614370768253026
0.124676037355085 0.474272577284598 0.624659571536841
0.124565271439698 0.474318458029 0.631371347958358
0.12638935058866 0.473562899706658 0.643161050521106
0.127168835176736 0.473240026618616 0.649572823293974
0.129729205749058 0.472179486402859 0.653688690660035
0.130446068665872 0.471882552060353 0.66674092962027
0.122514019125743 0.475168114557289 0.684094642509131
0.127319310170501 0.4731776978354 0.686068694193948
0.13036109677484 0.471917748570038 0.689684476196724
0.123166262334548 0.474897946574237 0.694291295818465
0.127382721486216 0.473151432008423 0.710254945945912
0.12885647077346 0.472540985066109 0.722112153166223
0.128078792598991 0.472863109913136 0.720025104920532
0.124625959853005 0.474293320065129 0.735588218930216
0.124946800454604 0.474160423536587 0.744206299677711
0.129466173499263 0.472288437928066 0.748306587918876
0.128082060853457 0.472861756157811 0.75881833486402
0.124904579411989 0.474177912065056 0.772937481893074
0.126604524952864 0.473473771566729 0.772194925059521
0.130791924836763 0.471739293743739 0.784952398676149
0.126119625035862 0.473674623688745 0.796116308385235
0.125058037489886 0.474114347647935 0.79954222158381
0.129117423446225 0.472432894929912 0.813429545850511
0.124425113581754 0.474376513314634 0.821889564194648
0.127423470229066 0.473134553326486 0.823067863513695
0.126776563858951 0.473402510718572 0.839529188911188
0.129727560907316 0.472180167718616 0.848854438927431
0.123548047696178 0.474739805899534 0.848615608159744
0.124089288425663 0.474515616648873 0.858693491595017
0.127395016437308 0.471809330783286 0.864054454368418
0.125829816355816 0.466481694058516 0.870443515256815
0.125468636982086 0.460708296571866 0.87209896097322
0.152187594822591 -0.14234398293931 0.386446237185114
0.161917841763171 -0.138313582691282 0.38612592930503
0.15905038520159 -0.139501322088605 0.401954751725581
0.160474723946763 -0.138911341662941 0.420418023734904
0.15716883462369 -0.140280685856262 0.424017550130316
0.157689749987194 -0.14006491564785 0.433135043968831
0.159647799155671 -0.139253865126473 0.444416125926044
0.158801727407538 -0.139604319519291 0.458599426311596
0.159306756125033 -0.139395129775116 0.467974832039851
0.158371376211718 -0.139782576821183 0.477290716538753
0.154604961815971 -0.141342676745418 0.490159898851698
0.155465996807282 -0.14098602437434 0.495170920974814
0.15799453884167 -0.139938667970666 0.502489010994404
0.160806264896218 -0.138774012905194 0.517164140492932
0.155413588215008 -0.141007732724045 0.536759741290448
0.154458691028381 -0.141403264089418 0.546792229516842
0.157755989854519 -0.140037478196434 0.547578792921828
0.160303259334338 -0.138982364630874 0.568489369948202
0.158888442876274 -0.139568400796073 0.573435978755468
0.153662391714463 -0.141733102064951 0.582305533895641
0.155085599885101 -0.141143589938593 0.593930488557688
0.15431097472981 -0.141464450183669 0.595906651328141
0.155959064965525 -0.140781788856021 0.606548312142373
0.152196241282437 -0.142340401458375 0.621276485479506
0.1596548761354 -0.139250933745489 0.63354951213282
0.158627569450886 -0.139676458106932 0.646302786568594
0.155362345276761 -0.141028958244042 0.659114290188997
0.158977237786818 -0.139531620739856 0.666539317030554
0.153561579504263 -0.141774859849668 0.670612172889731
0.152682794032071 -0.142138864710667 0.689395187649096
0.159110338724759 -0.139476488526197 0.700199355379177
0.157455584329285 -0.140161910239198 0.700793501455621
0.16128953636522 -0.138573835308425 0.722933854193326
0.160416493152717 -0.138935461647583 0.732176473034199
0.153334492509308 -0.141868922362817 0.733154895534454
0.157947443756477 -0.139958175393674 0.753106469225973
0.158765068779961 -0.139619504020011 0.764436160626665
0.155377783271226 -0.141022563617359 0.765940494584193
0.159023805444193 -0.139512331784603 0.777282821060478
0.158873968555924 -0.139574396255867 0.792713215441501
0.152490788457896 -0.14221839602354 0.798955507605741
0.155964964123804 -0.140779345344656 0.818002433256136
0.160042807023896 -0.139090247510211 0.823754810052155
0.161824888742288 -0.138352085093195 0.832802219500907
0.153892841432755 -0.141637646666189 0.84587242665294
0.154257637671763 -0.141486543116489 0.847362344473378
0.159927385897002 -0.140936238939431 0.865091952268896
0.155722499579157 -0.143970320029431 0.866828424307319
0.152721507942329 -0.153696930449651 0.871895081323169
0.131238940570524 0.471554133764221 0.463664402089605
0.132957594650318 0.470842243935342 0.463956506787146
0.133780841236517 0.470501244034162 0.483197601973229
0.13572955917377 0.469694058635312 0.482847321282017
0.133709417853747 0.470530828567976 0.501063883353912
0.134787176134871 0.470084406470974 0.50742410144112
0.137035020653838 0.469153318785112 0.507697720532608
0.135709923056945 0.469702192181213 0.515439865920712
0.132051447449534 0.471217582395414 0.537809316962532
0.137809796368309 0.468832396176381 0.531196167364895
0.136920199159407 0.469200879405357 0.540977352491288
0.133638874728613 0.470560048487138 0.550646797213802
0.133395491285715 0.470660861210043 0.561271584568283
0.132125129259343 0.47118706239049 0.569127510360611
0.13120002103107 0.471570254765304 0.586028060423225
0.134518410164114 0.470195732981166 0.594383214838223
0.134401756229095 0.470244052623155 0.592032691187135
0.132642555174545 0.47097273755889 0.602151633639743
0.131734615272626 0.471348818580085 0.613773243150021
0.135663036698829 0.469721613146635 0.622911597593249
0.135479109845084 0.469797798143941 0.630567786711581
0.135271464390025 0.469883807707591 0.639807534008645
0.138433836663197 0.468573910222771 0.649296481254325
0.134104847447733 0.470367036267183 0.652117571724791
0.137440807130431 0.468985236523079 0.662972580324594
0.13659242798474 0.469336646671259 0.665043235479325
0.134801699809807 0.47007839056784 0.683746305280062
0.134428701410177 0.47023289156371 0.696408539566475
0.131855095477162 0.471298914045368 0.696388450136638
0.133967146179996 0.470424073999835 0.703502430944857
0.136249157397061 0.46947883400424 0.715032802640668
0.135019878407645 0.469988018033595 0.725027273896401
0.132690317644724 0.47095295369597 0.736331433000993
0.13872981214368 0.468451313164624 0.734363596749199
0.13239926200789 0.471073512888152 0.752942221410399
0.135858206048202 0.469640771355165 0.752801163216745
0.136010406271036 0.469577727958671 0.765448858216753
0.130824433122039 0.471725828371089 0.769273487455995
0.13420911308629 0.470323848025603 0.786659090839905
0.133147439334862 0.47076360769226 0.79111892707337
0.131640724171801 0.471387709547433 0.799931762693498
0.13694625666525 0.469190086033035 0.811880674406842
0.132315438411845 0.471108233758481 0.81302509067985
0.132087293520741 0.471202734466562 0.824280374588597
0.131028153220877 0.471641444743221 0.828598009016453
0.136451761095849 0.469394912804415 0.836711444773266
0.139063572515709 0.468313065091948 0.846619802107131
0.138288408431759 0.468135781590507 0.862167771870629
0.131031111243517 0.468745490937791 0.866590625259469
0.137609691660534 0.463319636513966 0.869215566787297
0.134437999058998 0.45613105463976 0.872204712938082
0.165711155858302 -0.135979393881111 0.393419430054871
0.169605452009779 -0.132991195344899 0.395311888423163
0.163550528110096 -0.137637301863285 0.410013694003403
0.165411089095251 -0.136209643206594 0.420082960050959
0.17073545022568 -0.132124117217471 0.437456844192824
0.168593718916639 -0.133767525451897 0.449595978606416
0.169557013723969 -0.133028363348853 0.453350655867415
0.166125522278206 -0.135661439344206 0.462784000727545
0.164541910073526 -0.136876587727351 0.469268071759883
0.170286383495508 -0.132468698238935 0.486341898616494
0.162710751153796 -0.137985148867952 0.488580173129239
0.162390858561839 -0.138117652718044 0.499029587864064
0.165413175171759 -0.136208042503792 0.51094809277726
0.168624986334453 -0.133743533118365 0.527171460856984
0.165379830493607 -0.136233628775242 0.531574929829133
0.170929877532185 -0.131974927897989 0.540889060620924
0.163602149331887 -0.137597691506652 0.558314170588001
0.167012676286008 -0.134980702131526 0.566625892737961
0.169077161383088 -0.133396567000255 0.57704570447398
0.166283020442571 -0.135540586752131 0.58722893878554
0.162746532123497 -0.137970327905027 0.597970740561799
0.169718664831078 -0.132904324091732 0.607779309607545
0.162507132329118 -0.138069490546688 0.617915988110168
0.170135360311967 -0.132584582403477 0.630808069172274
0.171477359844614 -0.131554829944221 0.642900942923526
0.170401529829764 -0.132380343349094 0.650445514858896
0.166148441309965 -0.135643852952599 0.655495078049175
0.164147372344799 -0.137179327174378 0.670267904103757
0.166766533330864 -0.135169574263908 0.676352242172593
0.168855432021095 -0.13356670592374 0.691875105403018
0.163188304014784 -0.137787339996181 0.701905244692121
0.170952139946051 -0.131957845347013 0.719845541529018
0.1681769705082 -0.134087307752891 0.722490662849247
0.170609062456561 -0.132221097963666 0.728656763337712
0.164872737119951 -0.136622735206275 0.745870824819009
0.171905406665211 -0.131226378066659 0.760906093998003
0.166510801479238 -0.135365804215347 0.760009975782593
0.164173292075194 -0.137159438265725 0.764644714166104
0.171721508381687 -0.13136748818265 0.782584773720987
0.167025568341487 -0.134970809709426 0.797060882805728
0.166816315982595 -0.135131374691702 0.813173475871838
0.166373870447537 -0.135470875091463 0.818857282749197
0.166259406653996 -0.135558706249394 0.831751269327037
0.166592481348621 -0.135303129047195 0.839485058029427
0.166501819276715 -0.135372696501754 0.847929908480232
0.170182234958363 -0.132712177078043 0.859634426592522
0.164064964759575 -0.139208761955111 0.865242406334652
0.16324743394967 -0.143658481563964 0.869430068856808
0.144100527775949 0.466226689910089 0.46155837087348
0.14153549126881 0.467289162819329 0.466528794655173
0.145287807436775 0.465734902572246 0.47814324606939
0.145786551330558 0.46552831608729 0.478937667003969
0.144571796751467 0.466031483908904 0.491866198582716
0.141059482154677 0.467486332250216 0.501063053316729
0.146885848125776 0.465072972445637 0.508109577042342
0.141510820628108 0.4672993817333 0.524318326059044
0.146728372730745 0.46513820089 0.520831110714448
0.141557376196236 0.467280097785578 0.535312955411308
0.144375162048369 0.466112932669761 0.538846487477659
0.14528815592545 0.465734758223511 0.550086420743457
0.145281761607433 0.465737406836755 0.560492864059304
0.142250036614033 0.466993188446407 0.56827662783713
0.14728401920111 0.464908044586089 0.575497386875598
0.140618488364244 0.467668997859136 0.58269183236187
0.144084645671912 0.46623326849298 0.596991777414511
0.146875296020701 0.465077343270671 0.600241876356036
0.139814691548938 0.468001941401428 0.616836060259756
0.142022716241863 0.467087347627563 0.621632809326564
0.140108054240541 0.467880426595871 0.626069814054515
0.145540885574646 0.465630074175199 0.633206635544998
0.14017220176611 0.467853855820788 0.647212395414814
0.140680281310458 0.467643402382755 0.649422360714854
0.145305507581603 0.465727570932202 0.65314233961569
0.143848440692026 0.466331107799149 0.663396764380646
0.145621523038002 0.465596673044242 0.669036498891964
0.144596751304368 0.46602114739465 0.686751719674517
0.139609328608161 0.468087005516706 0.697729406609645
0.145084306575003 0.465819195389146 0.706086650343587
0.145645225068235 0.465586855341864 0.710833875376492
0.145546136048987 0.465627899357518 0.720782179778452
0.141060452913459 0.467485930148763 0.722496198905719
0.146986192141606 0.465031408593378 0.733579658196792
0.142385100023043 0.466937243350614 0.74546628937108
0.143281119761625 0.46656609982274 0.758577146673679
0.147524957254951 0.464808244776497 0.760049210819465
0.143466225207972 0.466489426636394 0.768148267038494
0.140428371535213 0.467747746828156 0.778199639262937
0.144347031380516 0.466124584773904 0.791539671046209
0.140972716427261 0.467522271791261 0.794948678149526
0.145926170679767 0.465470483859278 0.803556232779717
0.147958227018745 0.464628778564167 0.80595529817186
0.145286672627797 0.465735372625516 0.822213192848327
0.144466995448353 0.466074894030009 0.827541210212984
0.140377635113052 0.467768762542321 0.845473559217531
0.143435273821101 0.46650224712061 0.84300282397037
0.145629517751847 0.46559336152534 0.853398146741937
0.140782798906441 0.464969720220494 0.866270614673666
0.147522045732014 0.458363057095706 0.869823881264628
0.148192136504302 0.456412596130167 0.870754743791605
0.179949715218092 -0.125053763014403 0.402216394785618
0.181473249979424 -0.123884713674909 0.407146058818028
0.17385476377521 -0.129730583746948 0.416307425453703
0.182078544543279 -0.123420254820387 0.421054527013247
0.177410454962496 -0.127002205938024 0.443325231051374
0.179102436154511 -0.125703903106237 0.449822046317071
0.172526222634569 -0.130750009218802 0.44954004266583
0.178123033376095 -0.126455425290218 0.460483542187291
0.174615918216457 -0.129146529402159 0.476571015355849
0.17418175603163 -0.129479673763737 0.482591558052258
0.174705499856626 -0.12907779099203 0.501182969367112
0.172564331866655 -0.130720766976531 0.506232556223025
0.181799913875378 -0.123634055651545 0.525951862709611
0.178704494970016 -0.12600925411673 0.52923634138366
0.180260722396462 -0.124815118812985 0.542277571771351
0.172705112961652 -0.130612741842943 0.539412007040815
0.173638487795779 -0.129896538142817 0.558086515133447
0.173822928059069 -0.129755012151124 0.567505822064867
0.176810338232236 -0.12746269170109 0.587494013681848
0.177242209934845 -0.127131304888334 0.59200431470081
0.174177032509607 -0.129483298249663 0.597533861685697
0.172360362014379 -0.130877278548917 0.615657872360494
0.175682915709465 -0.128327793429668 0.620168507088901
0.17961589062279 -0.125309915635629 0.633658796038175
0.179898727423614 -0.125092887325164 0.645119820004653
0.172248904660029 -0.130962802784918 0.653674455688193
0.173699289156178 -0.129849883618077 0.663472872712146
0.178193724779323 -0.126401181868703 0.667082602196207
0.174755077686278 -0.129039748585332 0.686384724008783
0.174567425916165 -0.129183738852882 0.697495375157303
0.175760735426759 -0.128268080260392 0.712586753501585
0.178432471763056 -0.126217984864787 0.723555487914065
0.179060892087416 -0.125735780990111 0.73384324069042
0.173702752541965 -0.129847226068693 0.73972183430207
0.172479544724393 -0.130785826439022 0.746217073759569
0.173540381832418 -0.129971817496185 0.757440695433563
0.181439467320235 -0.123910636021031 0.771374841648086
0.172227105107441 -0.130979530169944 0.774229417309453
0.173473686740836 -0.130022994439922 0.791497639313424
0.17775189998776 -0.126740205955228 0.802227980923653
0.17284008447654 -0.130509174556961 0.807858672803777
0.175711303516393 -0.128306010699283 0.813173247991238
0.180153752923121 -0.124897199376768 0.828816989061644
0.178195885667625 -0.126399523760791 0.845876662314866
0.174617987142022 -0.129144941859737 0.851266715002926
0.172795503714118 -0.130856254669588 0.86054194544412
0.175914269818235 -0.136666405811739 0.870443515256815
0.174490475103774 -0.142506732792053 0.871872496852434
0.153533313002557 0.462319502338276 0.456443956878409
0.151407973802001 0.46319984665979 0.462946518719241
0.153757326517592 0.462226712902194 0.47101764320663
0.153936752903428 0.462152392059732 0.479049159113658
0.155252144087052 0.46160753919165 0.486848678891576
0.15165891203972 0.463095904638408 0.492363000294406
0.15428804743048 0.46200688110224 0.503850103061051
0.153632227550757 0.462278530590896 0.518454683604746
0.153383745614243 0.462381455179005 0.522248734742299
0.151744056899443 0.463060636482744 0.529830911903159
0.154077414544599 0.462094128100254 0.53538821637345
0.155640239059947 0.461446784990388 0.54407593608465
0.155761268039784 0.461396653145499 0.553636925699406
0.156647917699918 0.461029390831199 0.558164332807559
0.150620573338601 0.463525998610749 0.573497660200264
0.149374915246213 0.464041967086695 0.585111202118221
0.149959929942417 0.463799646065341 0.591267299292979
0.155015600271343 0.461705518848212 0.594871605347009
0.150772212433249 0.46346318764116 0.610917662872904
0.156095088875367 0.461258380027998 0.614572679897968
0.151356598182143 0.46322112713831 0.624887051327196
0.14877843796952 0.464289036064349 0.627470049376961
0.152108258514094 0.462909779234518 0.645753173831932
0.152345897351224 0.462811346005232 0.647377143275803
0.149873269391811 0.463835542040724 0.658725097862881
0.1478959599158 0.464654570442697 0.67006475032839
0.153221105032707 0.462448823113669 0.673639359676188
0.152392522912722 0.462792033065306 0.685353135588825
0.149897775857671 0.463825391130199 0.686926410650452
0.149014774901127 0.464191142101988 0.69772221790855
0.154922710290552 0.461743995138065 0.708616582108201
0.14842526864288 0.464435323589258 0.716440452488961
0.156848113980843 0.460946466816502 0.720198704238425
0.150822221594968 0.463442473168132 0.7368808260209
0.152048625019001 0.462934480236957 0.740696650520143
0.147926359977483 0.46464197832485 0.75626732343377
0.151841201009668 0.463020398074785 0.763810734993572
0.147927807397199 0.464641378783974 0.770090817382751
0.155194432870826 0.461631443960112 0.772351969271312
0.152525286166126 0.462737040725162 0.786958809773324
0.149030741092661 0.464184528688915 0.788956333078033
0.149783944222324 0.463872541737387 0.803484982654351
0.154731523251817 0.461823187402458 0.811284861910554
0.14959579170867 0.463950477060337 0.821193066891254
0.149953566654144 0.463802281825645 0.831194679738221
0.151744200208325 0.463060577122262 0.835536752865617
0.148852329943166 0.464258429006715 0.843214615158053
0.155167097561764 0.461642766615857 0.847506494994485
0.154206206836487 0.462040780586225 0.853109413347818
0.151469310429114 0.457165641701206 0.86951098543123
0.154279595523816 0.452994922803517 0.871100650662994
0.155666527027003 0.444757699891286 0.872017711797209
0.157012192006233 0.438939586525105 0.870443515256815
0.184283008881751 -0.12172870983944 0.41874466953402
0.185595713307039 -0.120721436306677 0.430689945399021
0.192046473922938 -0.115771593593105 0.439995267504466
0.185177249464334 -0.121042534906678 0.449635308798389
0.189866548950823 -0.117444308855979 0.462039712207244
0.184881275173205 -0.121269643968009 0.4682164868662
0.189475478849021 -0.117744387499283 0.484697662757995
0.186595635111458 -0.119954169320277 0.492510580373262
0.184793781504173 -0.121336780221534 0.507680307091578
0.188541991588929 -0.118460677466886 0.520961201042484
0.184875187650621 -0.121274315088378 0.528128373183278
0.189727174919257 -0.117551254311823 0.533874434096908
0.191698352293289 -0.116038716714634 0.549478452699047
0.188001356953981 -0.118875521012917 0.561432690774633
0.183143008782671 -0.122603462681762 0.555063050428861
0.190520804362423 -0.116942281021627 0.579018221992248
0.185986813681819 -0.120421334434099 0.587398708891305
0.187496177922025 -0.119263158517899 0.600427577427056
0.183585042986731 -0.122264277907377 0.612953207390896
0.188791790570343 -0.118268999966877 0.616750129913774
0.18946123511964 -0.117755317097247 0.63582400692032
0.188377802208231 -0.118586664409835 0.636523779771658
0.184934777635597 -0.121228590084691 0.646557035403592
0.188465477570326 -0.118519388738319 0.657835324951253
0.186063263158605 -0.120362672687344 0.668922585291934
0.190481176980167 -0.116972688181494 0.689531177777993
0.186082891608735 -0.120347611247828 0.687893192027953
0.19102807086036 -0.116553041747662 0.701312572125397
0.190904491423995 -0.116647867584344 0.71689438552982
0.184163618754165 -0.121820321106434 0.723678658417564
0.186726488455973 -0.119853762017563 0.736144513959375
0.191297841604515 -0.116346039375105 0.754814317599381
0.189674634451833 -0.117591570030438 0.75228097543547
0.18901327015351 -0.118099052705426 0.766270081748777
0.187620685607349 -0.119167620410738 0.774883284189334
0.183657954772506 -0.12220833072641 0.791126692474867
0.186903079460197 -0.119718258974188 0.792537973143145
0.18405030656529 -0.121907268607025 0.799850609934458
0.18473513443356 -0.121381781701581 0.816488719476693
0.18708505470504 -0.119578624457676 0.824172422360184
0.188818962350786 -0.118248150326432 0.843766675506834
0.187360126957171 -0.119367554094972 0.850786734546243
0.189269522210599 -0.118244734773357 0.860720879688763
0.185113047909968 -0.122983820430475 0.864701706921564
0.182693231723349 -0.129692110692818 0.869355104293108
0.165035025016276 0.457555337231684 0.452779108597388
0.164396813257249 0.457819693197939 0.462894128608745
0.163274982178501 0.458284370845448 0.459709548751644
0.157115023416996 0.460835909308123 0.481512782822967
0.161989378081874 0.458816885498114 0.480572287230783
0.160844615855741 0.459291061537871 0.495816007811892
0.156768604585151 0.460979400686535 0.507137938762812
0.16391570521554 0.458018974673781 0.506580819225087
0.158350594436324 0.460324119034641 0.524802921402556
0.163610376107966 0.458145446131126 0.526939101201406
0.162184544092918 0.458736045089425 0.539718898733099
0.159611977201063 0.459801637186143 0.546969510078222
0.156710101073542 0.46100363363449 0.559446397276957
0.157895951396324 0.460512438347849 0.554959877531897
0.164557064037267 0.457753315151475 0.562407468775214
0.165029472724651 0.457557637066177 0.576395167436378
0.15859518184193 0.460222807614054 0.588514114028582
0.159818276133909 0.459716185370255 0.593253373707406
0.163751216628721 0.458087108077298 0.606746193003292
0.156889410996687 0.460929361032455 0.607115969241363
0.165336516221638 0.457430455485487 0.614228978775527
0.162391385720081 0.45865036848219 0.629482004989287
0.161687183519251 0.458942058584427 0.636693061929277
0.164891616772348 0.457614738871275 0.637968185981548
0.157819649739837 0.460544043528797 0.658147691987449
0.163403298540464 0.458231220468049 0.659911773883744
0.158749701613609 0.46015880342897 0.674518819801566
0.160147994904267 0.459579611383804 0.685951048196767
0.157441530349995 0.460700665708265 0.686811155746845
0.160744096771106 0.459332697906003 0.698635973647166
0.163894210329348 0.458027878147164 0.707152291199979
0.157157035581756 0.460818507299694 0.710367628245496
0.158392478992373 0.460306769883472 0.724113311132791
0.163398633785802 0.458233152672694 0.729680106254556
0.157317140065091 0.4607521898513 0.745775278652376
0.156925322680184 0.460914485926102 0.754401855829058
0.160477446702223 0.459443147980942 0.758391422326387
0.163176744111059 0.458325062385324 0.761971774025764
0.15707115961258 0.460854078290809 0.776890321925509
0.164430637365353 0.457805682793627 0.7828374893247
0.157324522036132 0.460749132138778 0.79346109211473
0.164019039249366 0.457976172315516 0.79861412444747
0.162136636991226 0.45875588886068 0.803327328646467
0.157767212661541 0.460565763677798 0.808348565077284
0.161765679492076 0.458909544487892 0.827258443072551
0.1568841008939 0.460931560549047 0.832795859530292
0.161570843960762 0.458990248007394 0.841452106350921
0.158614387508625 0.460214852366435 0.851595744970521
0.165092229223726 0.457471429803935 0.859066464836624
0.163339314855045 0.454958449854972 0.867081909817013
0.162725325292812 0.448005091069017 0.871676346599579
0.164560873270969 0.443515163085575 0.872221715060259
0.198605551032584 -0.110738636710639 0.420597494427846
0.193859140006852 -0.114380685986724 0.427224759172582
0.193091430717375 -0.114969770043462 0.437324825548068
0.19344089121871 -0.114701619569555 0.439493229802982
0.193992501995284 -0.11427835373383 0.449057410518506
0.192383608219429 -0.115512901348834 0.459893393277455
0.197300487431968 -0.111740047232421 0.478924503218918
0.19544006825019 -0.113167597079553 0.487178385345776
0.202019387842108 -0.108119107594136 0.497853709457894
0.195572780549893 -0.113065763350354 0.503144656911644
0.198112201918171 -0.111117196800623 0.517504127680709
0.194499551211498 -0.113889281185995 0.530302599958178
0.194929956189023 -0.113559019830979 0.537493515527613
0.192548883778613 -0.11538608095182 0.549851787752826
0.196171125319585 -0.112606637260453 0.566251941998533
0.193347817074498 -0.114773037872292 0.567559586988874
0.192578458496396 -0.115363387472703 0.585977823842323
0.193357020112312 -0.114765976133005 0.592943002262436
0.199528368771977 -0.110030533754217 0.608720395369678
0.19866562475436 -0.110692540522652 0.617810008322297
0.194158904002771 -0.114150668982631 0.618956088962584
0.20206205096592 -0.108086371027843 0.635869093299064
0.199936195645423 -0.109717597187798 0.649507552781934
0.194415142823499 -0.113954050020118 0.656385830369727
0.198098395094382 -0.111127791149135 0.670747556145066
0.194654463747379 -0.113770412616438 0.672300428934111
0.197537801601307 -0.111557949665657 0.683731337330602
0.195201193394587 -0.113350892203006 0.694696931319663
0.195463151956397 -0.113149884328797 0.706383846684424
0.192500273126736 -0.115423381216908 0.712218997897445
0.19677790102604 -0.112141041885239 0.723645450143643
0.199873637828277 -0.109765599489204 0.741812646639578
0.200073975624075 -0.109611874891777 0.755786592292892
0.201527701979487 -0.108496391426132 0.762593119111467
0.192836481794501 -0.115165399232539 0.768073090238579
0.193257319992334 -0.11484247872577 0.783837458142159
0.200760045928479 -0.109085434631556 0.79582691825904
0.193009192063648 -0.115032873981922 0.802728885630828
0.198489085869599 -0.110828003573357 0.8133471711559
0.199174295513338 -0.110302223721293 0.820870590021528
0.192868741488026 -0.115140645499074 0.827678981370109
0.196049212862891 -0.112700183978644 0.843575274198915
0.19920578210637 -0.110278063208699 0.855517073989139
0.194240259097953 -0.114088243022489 0.854849767079992
0.197055768918832 -0.118865881916608 0.869474550744487
0.194482440385199 -0.1271948165318 0.871875494877593
0.168902083627603 0.455953549108381 0.444198287281966
0.167893588623298 0.456371281416749 0.458729045147017
0.172179562629204 0.454595972855525 0.463981522641933
0.170522916801884 0.455282178025249 0.476664261575122
0.170477883888019 0.455300831268926 0.480670441684132
0.166218297555058 0.457065209698137 0.484285369652049
0.166581078421931 0.456914940942909 0.495868411541442
0.168194814563882 0.456246509546821 0.50864784664086
0.173666368060485 0.453980117881279 0.513396501169333
0.166943600907567 0.456764779212693 0.528478947195594
0.169436470752814 0.455732198713561 0.532919874483793
0.172494774929043 0.454465407645904 0.537516632295694
0.173383205828573 0.454097407518088 0.546067790943112
0.170869957921317 0.455138428886879 0.554689672548895
0.173199839876135 0.454173360182465 0.564450275637689
0.165666230595005 0.45729388332033 0.577711448467629
0.168638782550374 0.456062611985557 0.58415675251843
0.172423877910238 0.454494774152626 0.586931129648965
0.165019268973807 0.457561863598164 0.604652276787374
0.170237929349512 0.455400223693128 0.609012960912761
0.168771088950409 0.456007808880274 0.609977873215637
0.171045058876991 0.455065899696254 0.623176906511065
0.171233154035758 0.454987988130477 0.635593119410128
0.166563643877495 0.456922162567668 0.639511029692826
0.165619334651772 0.457313308256036 0.646700354786619
0.173048000601799 0.454236254069196 0.658806899406101
0.171809715838646 0.454749168412174 0.66533985400116
0.171475736229474 0.454887507295849 0.673230242977084
0.16611885711349 0.457106399277683 0.691001637569815
0.172050266746111 0.454649528963861 0.697263298505917
0.174189287077833 0.45376351773227 0.697852827207111
0.170163231852129 0.45543116440962 0.70994781921886
0.173531907036943 0.45403581346084 0.716482686074411
0.165445350292057 0.457385374937471 0.728761347647019
0.168729840256629 0.456024894648667 0.735648733363887
0.1716851614964 0.454800760509985 0.739480244095793
0.172990719868359 0.45425998052585 0.751966322881553
0.171126412595074 0.455032201882875 0.757077738830551
0.173134940154675 0.454200242527288 0.772588330370461
0.165651777389368 0.457299870034124 0.778041149596047
0.165291680906244 0.457449026881196 0.791543522823087
0.167015578992512 0.456734964913715 0.799815510356326
0.165454218605968 0.457381701561574 0.805200134594323
0.169405984449356 0.455744826553921 0.815137568565872
0.167721001610106 0.456442769298303 0.82121840792961
0.169508781832511 0.45570224648364 0.8223339791063
0.167540347297353 0.456517598764747 0.834858857705094
0.165885247307235 0.457203163627737 0.842612117081784
0.165793607304184 0.457241122159857 0.8576953494068
0.166710721186859 0.454254965190161 0.8662403247645
0.170784812825802 0.448566685008555 0.869938729071599
0.169380221492421 0.446479639242333 0.8712011611124
0.171993378505752 0.435063916319604 0.871805079161736
0.20491025209645 -0.105900869433194 0.432898765968484
0.207451946415249 -0.103950558787188 0.446843966564925
0.211235775003363 -0.101047124993641 0.458472559407866
0.206188010836051 -0.104920410668172 0.464348960791766
0.212086022531656 -0.10039470711872 0.475005666735412
0.210610027502847 -0.101527277938448 0.48968247665595
0.211935494524896 -0.100510211320754 0.500300604093375
0.206735323381968 -0.104500442980832 0.499603242249318
0.20372462131569 -0.106810635929051 0.50943019823467
0.203793091361703 -0.106758097014876 0.522823057572871
0.208023552964571 -0.103511949655388 0.534169096620912
0.206816720344674 -0.104437984894607 0.547465439717001
0.205862507167988 -0.105170178417364 0.551268370288544
0.205132576022677 -0.105730274284527 0.563861455763083
0.208640632466633 -0.103038447899727 0.582912146321483
0.20498597615262 -0.105842764321257 0.58542462145876
0.205089218715261 -0.105763543516633 0.592917466627085
0.211895921435114 -0.100540576820541 0.610898924102661
0.207694884522747 -0.103764145820895 0.623054417849473
0.203485690019084 -0.106993974361209 0.629876869047955
0.211887794471418 -0.100546812859115 0.645163621734294
0.209956060083361 -0.102029084788678 0.653435691491232
0.20520952547321 -0.105671228894424 0.658259038267907
0.211514351541254 -0.1008333656979 0.670566298864951
0.203125948656953 -0.107270013617065 0.673640841705397
0.205058998930755 -0.105786731972856 0.687167471403115
0.211168338380054 -0.101098870934685 0.704506865056906
0.206280186697339 -0.104849681642166 0.716345657903348
0.209350883122549 -0.102493453403213 0.731021826866829
0.205355734138168 -0.105559039039925 0.733698908150438
0.206363590687044 -0.104785683509961 0.742905741750335
0.21115712136382 -0.101107478053965 0.756671201877359
0.210962884802716 -0.101256521009353 0.770139848136253
0.211301038831483 -0.100997046296986 0.783465180400195
0.206256685139313 -0.1048677150219 0.788181086665311
0.203882478715791 -0.106689507685701 0.794749332408485
0.203260011870074 -0.107167143295541 0.802635182183651
0.207987470307681 -0.103539636851818 0.82110398959384
0.206980336635932 -0.104312437698653 0.834188135338508
0.203730372713266 -0.106806222726472 0.833758638821144
0.207760671186995 -0.103713665937969 0.852621711592663
0.211068301443642 -0.101453005330074 0.860326180006911
0.209874516518865 -0.10392979152812 0.864597607594689
0.205188015912037 -0.118311730325336 0.871805079161736
0.176486318090057 0.452812056333815 0.441809860737194
0.177760526246363 0.452079178184487 0.456362659594263
0.181584738822224 0.449144756667261 0.456872513621099
0.179458942645047 0.450775937444951 0.471202853515036
0.180973069548216 0.449614107008925 0.478499621682517
0.182350079427186 0.448557490166077 0.475451878708291
0.174252700428788 0.453737251062269 0.496905942829368
0.174111540486342 0.453795721424894 0.501467001894122
0.175755380702008 0.45311482051319 0.511418315719181
0.175218765225381 0.453337093921389 0.522318914792535
0.181914879156358 0.448891431079059 0.522023247992733
0.177179738785938 0.452524832077151 0.533811282865287
0.175527106544697 0.453209374765088 0.545918498802464
0.177693180427307 0.452130854448976 0.550865076360967
0.1815002582057 0.44920958092428 0.562998867589131
0.181670239979768 0.449079149321573 0.569204853871512
0.173974556588931 0.453852462013028 0.586489755599281
0.178718705976192 0.451343941018454 0.580074415900226
0.180163280065418 0.450235480333657 0.596333428110308
0.178323576609843 0.451647134444998 0.607234418333087
0.178837123448861 0.451253076095828 0.614833457707184
0.180585738220624 0.449911316789876 0.614709184892466
0.182732075478428 0.448264374286658 0.632542355897387
0.18211275900582 0.448739592530189 0.636042944908996
0.176459007391297 0.452823368795639 0.64745598565587
0.180452857345437 0.450013279871593 0.659680746594108
0.176719587498117 0.45271543298131 0.666140165949
0.174743890207548 0.453533793594207 0.674427178633348
0.17767003417151 0.45214861519572 0.679690244770392
0.181857354139892 0.448935571576678 0.681825555627339
0.180229305181414 0.450184817480269 0.695448329665276
0.17516022183719 0.453361343386765 0.711396862616823
0.174106923979633 0.453797633644583 0.723272005343386
0.180119353688631 0.45026918622805 0.725879390324885
0.179851023089512 0.450475083538454 0.734726150717245
0.180658534173887 0.44985545849032 0.736611033777644
0.176831775844135 0.452668963046849 0.755499301806049
0.181397409984281 0.44928849914024 0.757889996159261
0.180749711541839 0.449785495635199 0.763638837423349
0.174994150272916 0.453430132481011 0.774852964021132
0.174341991265105 0.45370026558687 0.782990099744701
0.180256671031673 0.450163818924816 0.792668390389157
0.179953118689658 0.450396742829108 0.80333217402261
0.174069092766812 0.453813303846015 0.810348403971252
0.178408688163806 0.451581826052652 0.81307674648639
0.177570075126346 0.452225316468767 0.833713569259407
0.174975020476959 0.453438056301942 0.832413952913079
0.174511548261166 0.453630032779507 0.848492473007374
0.176059407021344 0.452988888688403 0.856976683092817
0.174399378944645 0.453676494831692 0.856036458900997
0.175070416048996 0.449546751517685 0.867752893635537
0.182922365447081 0.444719802515691 0.866619380886061
0.18177771742006 0.439457562693567 0.870782585282529
0.217500096260457 -0.0962403422317028 0.447012593687619
0.21552221722883 -0.0977580221916283 0.443965348600648
0.215698951220051 -0.0976224094304714 0.452982569676007
0.213506800332623 -0.0993045059681166 0.475709351392297
0.219872489067238 -0.0944199412049725 0.478275759020103
0.21410475379446 -0.0988456801392933 0.492654674410621
0.220034599827955 -0.0942955492432331 0.501236039521509
0.21593208234436 -0.0974435216270509 0.514084112142683
0.212995245842432 -0.0996970355342618 0.523305225243748
0.215134320007217 -0.0980556661983342 0.530752040374275
0.212738896304622 -0.0998937394529787 0.535650209567806
0.217749247530461 -0.096049161738139 0.552352813420241
0.219437281891113 -0.0947538874165759 0.570658023466955
0.215796816822591 -0.0975473145124476 0.573255041602419
0.216368032725098 -0.097109005134491 0.582520577693158
0.217276531213357 -0.0964118897259121 0.596316211662486
0.212971743211479 -0.0997150697372802 0.603650265002163
0.219080595587583 -0.0950275824435162 0.620420394591523
0.212226016366702 -0.100287286070939 0.624644381185525
0.214754579112956 -0.0983470516349391 0.635679248328854
0.218051400832276 -0.0958173113551501 0.649636936248652
0.212232760727609 -0.100282110940798 0.647695775456492
0.216314364637612 -0.0971501861064124 0.666436856578637
0.221426115845204 -0.0932278014489931 0.686837756597352
0.220453853777598 -0.0939738443728548 0.685414649626465
0.216739346598148 -0.0968240859786881 0.696443090124423
0.214227998362353 -0.0987511112562277 0.706962583129736
0.217293455999997 -0.0963989028803562 0.720735700046577
0.214147487121167 -0.0988128897044254 0.723394949042022
0.215583403792065 -0.0977110720903566 0.73695873646201
0.21215876242781 -0.100338891833298 0.744829269313153
0.21186431738481 -0.100564827461269 0.755098936111533
0.215615070237129 -0.0976867735724449 0.767608931682914
0.216239655348275 -0.0972075125603731 0.778950741148689
0.218013659490975 -0.0958462713048923 0.798811002909369
0.213061306664123 -0.0996463452829307 0.799661740775348
0.219043423456568 -0.0950561056228453 0.810868344467832
0.214065511358637 -0.0988757919193747 0.81595919367692
0.217768684680474 -0.096034247088365 0.836176356282643
0.213395843353907 -0.09938964625239 0.842510763576454
0.21285084114251 -0.0998078411577025 0.85493721053814
0.212855782609704 -0.0998040494365643 0.854947192820238
0.217619704976853 -0.104632058924207 0.870432696306516
0.214088152402694 -0.112468712697227 0.871908983823816
0.183942122584263 0.447335872485625 0.444564202650287
0.182945703228745 0.448100451948458 0.444497448089376
0.190297779512529 0.44245900539823 0.451628361295676
0.188497026321872 0.443840771920111 0.454550301272219
0.186205957537357 0.445598770829785 0.471380527896489
0.190812201065213 0.442064275857658 0.476880387619683
0.187682556208647 0.444465736818891 0.481771998373192
0.190780156153072 0.442088864783571 0.493322186253205
0.185865172398242 0.445860264464131 0.503674390760657
0.186784793967443 0.445154614015355 0.511445525059918
0.189317345571438 0.44321131882116 0.52085851005329
0.187070501219006 0.444935383130569 0.526894743601678
0.188252899013517 0.444028097392314 0.536244323199695
0.184653727901361 0.446789838521026 0.553373578072444
0.188566810841773 0.443787224374647 0.548852948274726
0.188441945919967 0.443883036599001 0.55991939569054
0.191758912903083 0.441337838314622 0.571505020552462
0.188299419703353 0.443992400811504 0.586529385754683
0.19114380972993 0.441809823579774 0.586994172660069
0.190587906112485 0.442236383428153 0.592026695825454
0.190820434906773 0.442057957808815 0.607736556165582
0.18643994473024 0.445419226141845 0.611373747855953
0.184473311009878 0.446928277270949 0.619737966349205
0.191007290003583 0.441914578850191 0.625191309899383
0.183442502115293 0.447719244755212 0.641243601827949
0.186417228353564 0.445436657030738 0.656608088805258
0.187617028186697 0.444516018238602 0.658098350715044
0.188120477449459 0.444129708032206 0.670321108275038
0.191158939159678 0.441798214360015 0.678024768605317
0.189677772686147 0.442934753368844 0.682028791672478
0.18745340876991 0.444641567832859 0.686103235795106
0.190984150059079 0.441932334754109 0.699061549259971
0.189241865815092 0.443269236475251 0.711358487791424
0.185582635505295 0.446077062647189 0.717499549722453
0.189500077076447 0.443071104005813 0.72140446970094
0.186439086355937 0.445419884795613 0.734523130256517
0.189006618880928 0.443449747796674 0.739441573552681
0.190470956515807 0.442326122009918 0.748950522684379
0.190987952443196 0.441929417082157 0.762247581120629
0.185108496369819 0.446440882401896 0.769675502416393
0.187339134842594 0.444729253301312 0.781931121960974
0.184248432880703 0.44710083232847 0.79155273332482
0.188723902335698 0.443666683831777 0.795109849651036
0.184731476441157 0.446730179968164 0.80373538233405
0.188376541518715 0.443933223161215 0.806338613358485
0.187207573622861 0.444830203775784 0.816433463816051
0.185009894660305 0.446516542154667 0.833423419672189
0.189527050562366 0.443050406522108 0.8369526083374
0.184343465366026 0.447027911337747 0.846058004282428
0.185416762230074 0.446204341687849 0.85389456423741
0.188940972100818 0.443500120342726 0.855418123934603
0.184790381505699 0.443296843636337 0.86660851422752
0.186694503520733 0.434752658556133 0.871091540058893
0.191042749427383 0.4287375286717 0.871860475957308
0.228877732542424 -0.0875099748531414 0.461013273573565
0.230224446486713 -0.0864766048986005 0.473567443659383
0.222297300545412 -0.0925593179170088 0.474417726152451
0.226460419780406 -0.0893648441738233 0.493039633793722
0.229544017531158 -0.0869987163996009 0.495848266982917
0.228749361720095 -0.087608477249583 0.504099823212711
0.230186274045106 -0.086505895643242 0.516096061953722
0.224471701253752 -0.0908908415708188 0.532086108310038
0.230924880874712 -0.0859391426893811 0.548941742117089
0.223826379752378 -0.0913860141747457 0.549735574811856
0.224034503113006 -0.0912263155033071 0.559775210019975
0.23072733450573 -0.0860907253496768 0.574330787366586
0.223124116350089 -0.0919248798359929 0.572968683214195
0.229242607755471 -0.0872299962549252 0.590520774421975
0.225904489132571 -0.0897914247633521 0.602622243299998
0.228165004151898 -0.0880568705822908 0.613850826292404
0.226491793400714 -0.0893407703482501 0.622098022311401
0.225278172348703 -0.0902720145346381 0.632446642574573
0.224572315180542 -0.0908136377894264 0.643132404633483
0.222247599586723 -0.0925974548039398 0.647953082015191
0.223805222102217 -0.0914022490107172 0.665532359240496
0.231572718302487 -0.0852934117121791 0.669361492702711
0.226297624497194 -0.0894897613881477 0.688787096225356
0.225626299382193 -0.0900048872665956 0.690989985146244
0.229919890134385 -0.0867102992071023 0.701725431276646
0.22616903131473 -0.0895884344075229 0.711623220719622
0.224772774136951 -0.0906598202221913 0.728853991084627
0.226977608371502 -0.0889679914100007 0.737804885068805
0.222118252111485 -0.0926967066125157 0.743379473950001
0.223583138631225 -0.0915726596515926 0.746884809471244
0.223683128682952 -0.0914959345863735 0.755259986200525
0.228990676733475 -0.0874233097272121 0.775858713206431
0.227211273834058 -0.0887886935944232 0.779340776518941
0.224073923548454 -0.0911960671393111 0.803274442423756
0.229602289608227 -0.0869540026622195 0.80525962295814
0.221341747512923 -0.0932925395472827 0.81658492524275
0.22493733565126 -0.0905335477310802 0.826702147094899
0.224685968955474 -0.0907264281806351 0.831615980625874
0.226439504244664 -0.0893808932288661 0.8463442948183
0.226899673650781 -0.0894171906606095 0.861007077804733
0.230505331872115 -0.0883280743952035 0.86503973941608
0.226242125323037 -0.0999294667315244 0.871066973258679
0.196143734703996 0.437973246209303 0.429019802763461
0.195456843593456 0.438500316296222 0.443182717636861
0.198870722577474 0.435880754818091 0.444619768116945
0.196183182129459 0.437942977135138 0.447848770610049
0.198280739967076 0.436333464397488 0.464874805737982
0.195204970890106 0.438693585019038 0.471757358198932
0.19856586173829 0.436114682767575 0.48012444192869
0.198782423577624 0.435948509023687 0.482247666375834
0.198005847480918 0.436544396820909 0.497796983307865
0.199433235307467 0.435449123619285 0.500204989975553
0.194389955964725 0.439318967966889 0.519176814133552
0.199436885738522 0.43544632254502 0.519538322839501
0.200558740165075 0.434585493366943 0.529035597120182
0.196379990893754 0.437791960458824 0.545226480877374
0.19368281171951 0.439861578830636 0.554481767951217
0.192781975567116 0.440552814722114 0.5577212350884
0.195594836867307 0.438394430333037 0.571882224919698
0.194866648254748 0.438953189107793 0.575665386575873
0.197976636702639 0.436566811039423 0.582217015608073
0.198198387624259 0.436396655572655 0.586605709969395
0.200595821176206 0.434557040106359 0.598081316510715
0.201216385150746 0.434080864620927 0.606019475809102
0.192393748069544 0.440850712158477 0.623004684607516
0.200968024729877 0.434271438274606 0.619126696198936
0.20090311270207 0.434321247025387 0.631102423156435
0.194492590187038 0.439240213958217 0.64916476342049
0.195924527865216 0.438141449532647 0.658141961959132
0.197946479468674 0.436589951498927 0.658445986984537
0.196953031717636 0.437352250769446 0.665896673264618
0.194610713941209 0.439149574413721 0.679112437765873
0.195764164262169 0.438264500853155 0.682043288572591
0.198927548157704 0.435837151016773 0.691532116851122
0.19941592458949 0.435462406600371 0.696548280020416
0.196171814272328 0.43795169999871 0.708736612417609
0.197178393188949 0.437179324830457 0.720098808823071
0.194650331313541 0.439119174934738 0.732268647699001
0.194046129175687 0.439582795541308 0.73936067477307
0.192649297477611 0.440654622200906 0.750789777670426
0.196956871864801 0.437349304120888 0.754336685215206
0.20104248816829 0.434214300468694 0.755183721209562
0.196526784849152 0.437679321495175 0.772011316560073
0.198559318284408 0.436119703736334 0.778498814592043
0.195202917603635 0.438695160561161 0.787424532535742
0.19439212868033 0.439317300783568 0.801201785858924
0.195777580067113 0.438254206543956 0.804924768976553
0.193024450887577 0.440366756864807 0.812436217007223
0.200737598637007 0.4344482504344 0.821806514599886
0.192820281516876 0.440523421533065 0.831905601499683
0.192751360079587 0.440576306811946 0.842142599846996
0.192809918910372 0.440531373040701 0.85373920948597
0.192218942766294 0.440984844985303 0.857298646158154
0.194494477620561 0.438309326576871 0.862842139679487
0.195806350825123 0.427987082504938 0.871016568529285
0.198048336129213 0.427253516081436 0.870689500510969
0.198048538588357 0.416651542681364 0.871971577159422
0.238950937364362 -0.0756779294243624 0.477271440771379
0.232770230853993 -0.0837327829707593 0.48513042133094
0.231309765280026 -0.0856360987629157 0.489584395139902
0.238592609527339 -0.0761449113533667 0.511423271763838
0.233814223929731 -0.0823722247053878 0.510433287669269
0.237194060348668 -0.0779675361281769 0.536277802638005
0.233080422970644 -0.0833285327338849 0.530352694059324
0.239249965850035 -0.0752882279146305 0.551455441733769
0.23918983011623 -0.0753665983287397 0.565450428244537
0.24094287219871 -0.0730819894071943 0.567055571397071
0.235499859633808 -0.0801754614864677 0.576590553513016
0.232541224153759 -0.0840312303130564 0.582649641348025
0.235716186020987 -0.0798935394498799 0.593871836586497
0.236263200976881 -0.0791806556800359 0.608489815319946
0.238115151332523 -0.076767146987322 0.62244415025604
0.232634058945996 -0.0839102456563305 0.631013557587412
0.236870476562534 -0.078389238728507 0.644613691173793
0.239997060766875 -0.074314594863084 0.652613809786361
0.23190857789519 -0.0848557109692565 0.649801071995771
0.233427028012471 -0.0828768282490211 0.669110792987551
0.234113838106575 -0.0819817599080611 0.675158833192697
0.235112097100507 -0.0806808034585024 0.690311228615184
0.232953251789488 -0.0834942654438613 0.70045942788491
0.231395403226799 -0.0855244932178034 0.703149063042649
0.234696919805748 -0.0812218730432603 0.725679856670198
0.233592190000068 -0.0826615849561566 0.727101750197024
