ply
format ascii 1.0
element vertex 856
property float x
property float y
property float z
end_header
0.218866960934029 -0.129256056612798 0.41217627603285
0.222401281612259 -0.12654407697222 0.409700696586751
0.224815694798274 -0.124691432574458 0.415197755048824
0.22005887354206 -0.128341469901343 0.440307898712574
0.222373040982541 -0.12656574676956 0.446655805370867
0.215813265373577 -0.131599239629404 0.45881454693169
0.220947980681719 -0.127659233997878 0.463533481516978
0.215427333388432 -0.13189537565713 0.478266091534079
0.217655985615127 -0.130185270656768 0.48308730476832
0.224436609987526 -0.124982314580478 0.489672145972949
0.21974814202772 -0.128579902578312 0.506664689322809
0.221284811746182 -0.127400774431726 0.51273071888566
0.216464801592847 -0.131099298304712 0.525018108475428
0.223536776191679 -0.125672781336727 0.524785609737987
0.216501515051754 -0.131071127076871 0.539427315826288
0.224385502220222 -0.125021530949626 0.548825644821487
0.221840535038201 -0.126974352951911 0.560761610663344
0.218647664235383 -0.129424328888043 0.572452398273536
0.224936629415008 -0.124598636179257 0.572531493285285
0.216166383112897 -0.131328282858089 0.588404099819354
0.224900754901157 -0.124626163661915 0.589731830722451
0.225436081402914 -0.124215393189737 0.598387308294346
0.217684357126951 -0.130163500430055 0.61922322877921
0.22382880557764 -0.125448699307597 0.619455985205022
0.21647113228717 -0.131094440592106 0.633886432007726
0.216129779234874 -0.131356370001561 0.645272152452146
0.221230181135067 -0.127442693974003 0.654901356176516
0.216768302015598 -0.130866414239473 0.665054637465298
0.220927332440562 -0.127675077950571 0.678462615439852
0.215777042034812 -0.131627034774833 0.69047589275171
0.218896737675948 -0.129233208115109 0.693178999325689
0.22538343025229 -0.124255793838559 0.692429649823952
0.220287028327633 -0.128166400576936 0.713206091324641
0.222919959182156 -0.126146081674778 0.71780699273273
0.221221437580675 -0.12744940313926 0.736814533214454
0.218100894341382 -0.129843880183925 0.738796439451891
0.216577103906661 -0.131013125708511 0.749318937495055
0.225583534238867 -0.124102248649256 0.75870489606974
0.220856850074848 -0.12772916097196 0.7729121617614
0.223875673415527 -0.125412736350717 0.778579326614562
0.217451837304232 -0.130341919165268 0.794356088903278
0.218262009162283 -0.129720252433684 0.803164030703627
0.220877723306508 -0.127713144377982 0.811237843948772
0.222344538658168 -0.126587617372271 0.814322442368282
0.219579712991198 -0.128709142723594 0.827612723264551
0.222528760688788 -0.126446258836397 0.832243676642556
0.223752888122271 -0.125506952819959 0.84842961880684
0.222864252642128 -0.126188826806349 0.857184674708908
0.225424236575765 -0.124224482045276 0.857118243161719
0.21993580515449 -0.122551978425181 0.868827299495747
0.25247603122835 0.349332728787003 0.53870840414336
0.25135252618465 0.350796909066469 0.549519186904305
0.252848321741387 0.348847550344345 0.562295348911295
0.25249464643655 0.349308468975356 0.569199012911595
0.256497793702393 0.34409146588729 0.585240744864796
0.254629929510482 0.34652571389521 0.594979508070078
0.260613220002154 0.338728137913384 0.603213862318234
0.254359248722507 0.346878471966039 0.606910092182147
0.25465885940445 0.346488011723357 0.624158290773143
0.257193776749426 0.343184443121329 0.636438937458939
0.251924587143328 0.350051384710307 0.6432237088982
0.258611324597468 0.341337058798544 0.658735474874955
0.253896562642225 0.347481456205523 0.67102251846474
0.25441273084931 0.346808772701396 0.682828454506003
0.258591563103548 0.341362812478827 0.696117392114612
0.252985590137279 0.34866865868793 0.70763336036414
0.25772414653204 0.342493251763637 0.721578403982223
0.252927478009615 0.348744391887172 0.723921078799184
0.260356041222656 0.339063299824182 0.741611602667874
0.253022164374634 0.348620994213816 0.742439768381687
0.253027797237593 0.348613653323886 0.761225191755293
0.258577396902968 0.341381274230858 0.769662157041517
0.251303816772519 0.350860388408254 0.778165291698915
0.252831245095783 0.34886980506218 0.783641425755081
0.259760108572888 0.339839934373864 0.803543052023569
0.252323367083081 0.349531684574641 0.81134919468036
0.25627003763948 0.344388283367296 0.824677333287829
0.253102005466959 0.348516943276503 0.833013003154635
0.255934583909974 0.344825455179004 0.843250115180699
0.261302218024975 0.341183535036835 0.865758551384882
0.258742505701282 0.351639581483965 0.87014906352478
0.254049388104459 0.358088268808149 0.870369131291551
0.253284326300282 0.377639468727101 0.871444368233798
0.234241189096577 -0.117458996424328 0.111870885246035
0.227780667801393 -0.122416328770536 0.129848939333945
0.229238423739277 -0.121297753297511 0.128392845758945
0.225667636624941 -0.124037714618669 0.14024325558471
0.230972376066787 -0.119967244880744 0.151842708415854
0.229900532554243 -0.120789699334808 0.162362673894488
0.227272089980581 -0.122806574257932 0.174403885526868
0.23441390011232 -0.117326470600827 0.177377291116404
0.229721554808194 -0.1209270337896 0.185383153357562
0.234262472879477 -0.117442664803303 0.194954599005714
0.231634037936819 -0.119459533870952 0.20686174608933
0.233521559128638 -0.118011187920087 0.216429220940808
0.228457476674917 -0.121896995056177 0.227154151364353
0.232789253601504 -0.118573105714502 0.230946324085136
0.229794921807937 -0.12087073731067 0.248353859623102
0.226486021284503 -0.123409745982838 0.253436257873181
0.227894143232099 -0.122329256010083 0.264930877849106
0.22897762231411 -0.121497873269545 0.271162317247141
0.228712750536853 -0.121701116532588 0.289379812804659
0.231534478869814 -0.119535928229962 0.292929735475291
0.229323809816104 -0.121232234256364 0.298081646673948
0.229064245341143 -0.121431405083122 0.31469382321371
0.226811874519873 -0.123159710001218 0.326810302228278
0.234140270250733 -0.11753643417834 0.325909078641468
0.226868018222559 -0.123116629422943 0.338002599401883
0.23007796069834 -0.120653553931416 0.351348409809556
0.233182912213326 -0.118271040837601 0.353262136729647
0.232323251031772 -0.118930682062725 0.369326217836319
0.22754719662162 -0.122595477507692 0.381926537382693
0.23367902444456 -0.117890360533509 0.387187180423834
0.234862517246462 -0.116982234566531 0.402172152781802
0.22905637223745 -0.121437446328064 0.40454375098637
0.231597889967209 -0.119487271183594 0.425179423977457
0.2347570433787 -0.117063167511791 0.424579031361789
0.226643235471232 -0.123289111294468 0.432793627452364
0.230020168048909 -0.120697899791031 0.447059720261767
0.229855726475708 -0.120824080248095 0.464444203776539
0.232387834043204 -0.118881125775089 0.47051880979289
0.226227901202115 -0.123607808488194 0.477893538566137
0.232010164798013 -0.119170921579453 0.480580852255407
0.228933230532293 -0.121531936281778 0.49627416213295
0.234965005146251 -0.116903592835081 0.499194060556143
0.230375861380301 -0.12042496669841 0.517307758736126
0.227734309397377 -0.122451900825058 0.518953569506148
0.232251092981455 -0.118986050882133 0.529155917442891
0.225397782936461 -0.124244780636645 0.547577516034543
0.227576547141956 -0.122572956061326 0.556170531541685
0.233936303196134 -0.117692943603992 0.557233241664719
0.233458317171611 -0.118059715180486 0.567303119951852
0.232975440135633 -0.118430239762068 0.580259925273934
0.232015869758184 -0.119166544009548 0.596042126009498
0.234834118382589 -0.117004025781209 0.596201038689412
0.233144760055005 -0.118300316018331 0.603388735232356
0.225289883107654 -0.124327575087287 0.627050913086855
0.226098688189994 -0.123706957119592 0.63566507404701
0.228890505532809 -0.121564720326943 0.644505342589142
0.230626263428031 -0.120232826449341 0.64297785773577
0.232349989395494 -0.118910164994627 0.659857841827049
0.229303437837719 -0.121247866225177 0.663251956400758
0.225938006091866 -0.123830252829971 0.67744381783788
0.228326590073917 -0.12199742787749 0.688641268638887
0.232347677984893 -0.118911938602361 0.702462790080201
0.235041679572872 -0.116844758478247 0.704484157338314
0.226865971559935 -0.12311819988241 0.714685461199064
0.228286334171466 -0.122028317317866 0.72464116544091
0.229743052589902 -0.120910537961513 0.735753758973462
0.230139063333875 -0.120606668230133 0.74344607422226
0.229348900046625 -0.12121298184535 0.751568025795805
0.226767135282374 -0.123194039625574 0.759509975839859
0.231088813941398 -0.119877898957131 0.777305949166598
0.232562471289111 -0.118747121903197 0.783408546150746
0.230212896371264 -0.120550014147941 0.796620924311145
0.232524580805419 -0.118776196293923 0.803409254145842
0.227131136462052 -0.12291473169675 0.814054716432517
0.22560383667177 -0.124086670044568 0.828771496222796
0.230494737853501 -0.120333749572288 0.837865011599504
0.234739137776929 -0.117076906963265 0.841115516034264
0.231728287630369 -0.119387213537482 0.854129544675637
0.2335758808238 -0.117969505417356 0.856290974522563
0.231102726885017 -0.116518849783053 0.866567047276805
0.230340997152584 -0.112584018013978 0.870045366403205
0.265914221649447 0.331819738065158 0.562524574976754
0.26512518507781 0.332848030545415 0.566553032836873
0.264356280159664 0.333850086944045 0.579349457342843
0.263360105162198 0.335148327476533 0.588500431201056
0.268736046139042 0.328142264792613 0.599108999166099
0.26808589452016 0.328989558878535 0.612882895204405
0.266529370480538 0.331018060500406 0.624787868077838
0.263874915644019 0.334477413394419 0.62444433516938
0.267298488056443 0.330015726960789 0.6516373442108
0.26807468386508 0.32900416888868 0.654400382129519
0.269043184557413 0.327741994212818 0.672785921565728
0.264462097130947 0.333712183582193 0.677896255612724
0.2618427409319 0.337125795041299 0.687564302682768
0.261402988613046 0.337698891420995 0.702848721292792
0.269141124153166 0.327614356846626 0.707089072504747
0.264532932483474 0.333619869153485 0.724162822981083
0.26995598972243 0.326552403361307 0.740375368059136
0.269900435386208 0.326624803181843 0.749583284481854
0.267709276364196 0.329480377215259 0.753030863472758
0.265057043438226 0.332936834459068 0.77219768819604
0.271474079465596 0.324573990289764 0.789396143175312
0.26918831495866 0.327552856591542 0.795002700251582
0.266578748367765 0.330953709984916 0.805579764162118
0.266762062838572 0.330714809915349 0.81508155454696
0.268268691967827 0.328751332606645 0.826326965521773
0.267630913824606 0.329582501265134 0.828186338475956
0.264700637822454 0.333401311300566 0.840159142790006
0.26668550662279 0.330814579918207 0.853726832133568
0.262850035075183 0.338269152895114 0.864687414200127
0.265408101149928 0.344904335467015 0.870780904126745
0.239224178304161 -0.113635414324541 0.0994920848234118
0.245773857462803 -0.108609668743513 0.101158111884104
0.240788753449231 -0.112434873591008 0.117595512455095
0.24202871695872 -0.111483416126068 0.130991953812582
0.236943940090523 -0.115385102644886 0.146590791977134
0.241308136806008 -0.112036336724246 0.153058084442479
0.238242560884559 -0.114388635862472 0.165924586871744
0.236753523987749 -0.115531214059491 0.168682393750181
0.240513502889252 -0.112646080774136 0.182648428469573
0.240639474256291 -0.112549419544494 0.188445348094147
0.237673518866959 -0.11482527715987 0.203990014012401
0.246049922383078 -0.10839783667975 0.201514613341411
0.23907170240989 -0.113752413193231 0.219798645914642
0.245449378314026 -0.108858650351405 0.223880495488336
0.235773233737105 -0.116283417224863 0.243890412291868
0.237952366905487 -0.114611309534363 0.249729669505482
0.243296671758445 -0.110510480188701 0.246257462524064
0.244451108065378 -0.109624650054489 0.262647464682481
0.236583519949833 -0.115661662745849 0.285414637164087
0.237988485399384 -0.114583594839232 0.287964815326763
0.24037252056118 -0.112754260319294 0.30127971537918
0.242104454337214 -0.111425300791551 0.306683552868399
0.242807983820892 -0.110885463631885 0.315552313979811
0.238820659658092 -0.113945045071823 0.324879074130798
0.238682258624027 -0.114051243920425 0.335865645671427
0.236873787598057 -0.115438932545629 0.34715314823947
0.23975873345835 -0.113225235728169 0.354809985217128
0.23958837094443 -0.113355959482839 0.35775550485497
0.238804606463178 -0.113957363121524 0.368005543108277
0.245575643282427 -0.108761763833514 0.380370602012315
0.244821225136789 -0.109340649236884 0.388323076476248
0.23563775892355 -0.116387370705495 0.398243074046708
0.237994401658921 -0.114579055133621 0.414911046344023
0.242993368796669 -0.110743212736806 0.414274233451206
0.242955745439208 -0.110772082154364 0.42740516341952
0.244144729090462 -0.109859742910492 0.43865017932138
0.242726827990536 -0.110947736690749 0.446783096161037
0.236088483769645 -0.116041517366934 0.458413187163101
0.235548034380046 -0.11645621876921 0.469693990912648
0.239478555495655 -0.113440223840382 0.481321348008131
0.236619828965246 -0.115633801858416 0.482886311211049
0.241075677365895 -0.112214709126255 0.494649584613041
0.23763899098792 -0.114851771333295 0.508533406314447
0.243523206882392 -0.110336653674372 0.514355884079036
0.236528217835748 -0.115704097550479 0.52595940090604
0.240031282372456 -0.113016101590831 0.53940763221723
0.24011419530845 -0.11295248025739 0.538490482199298
0.243129489175518 -0.110638763896502 0.546113881175495
0.238498151938557 -0.114192513948854 0.5611649306673
0.237665581617633 -0.114831367625489 0.576613545128889
0.237061255284094 -0.115295083530759 0.586353453928625
0.242000845368571 -0.111504802749387 0.592817823664163
0.244920500279889 -0.109264472740347 0.599831365243683
0.236533809812658 -0.11569980667568 0.616377576560123
0.237037863047692 -0.11531303302506 0.620151855044167
0.236130869756031 -0.116008993455668 0.632979426125382
0.245512653383687 -0.108810097682787 0.63927592129617
0.244239209229719 -0.109787245749811 0.647577600881653
0.240494359197546 -0.112660770245432 0.661937936167571
0.242234960062468 -0.111325160226477 0.666050906547364
0.242986849515438 -0.110748215157237 0.680196316025022
0.244366018663507 -0.109689941448936 0.695652583847002
0.237598295763933 -0.114882997876942 0.705384816810215
0.237041919169184 -0.115309920653573 0.717147007394925
0.239339939885883 -0.113546587338715 0.713418641157731
0.238400046252782 -0.114267793089222 0.722781951763901
0.241050117305592 -0.11223432205034 0.738686511467211
0.24422016144235 -0.109801861631121 0.746190230053793
0.237186780119048 -0.115198764937238 0.758558299502674
0.238905655994287 -0.113879825089181 0.771941035421042
0.245804306054454 -0.108586304717392 0.774392434863225
0.237630657199026 -0.114858166074426 0.791461020845569
0.241927370911742 -0.111561181683039 0.797615750259195
0.24468466429073 -0.109445436059566 0.802406157949641
0.240398223183353 -0.112734538003639 0.812320954842262
0.242532131615947 -0.111097132473434 0.820919045784206
0.245602710183441 -0.108740994669886 0.830770370835681
0.242886884696815 -0.110824920860415 0.846906575757487
0.235774903362605 -0.115992452234432 0.860401004577854
0.239566641823563 -0.108884384771054 0.867755753982775
0.245531023257614 -0.102458902041479 0.869105555333569
0.237527156986575 -0.0936659382648024 0.871861062842437
0.272682855479968 0.322998682717752 0.573833220971685
0.274161598749156 0.321071546969427 0.585709715816139
0.277902350418366 0.316196504480616 0.596683933328872
0.278269689932274 0.315717778305644 0.611268496556402
0.279018982274484 0.314741281513599 0.621798508094066
0.273172331129368 0.322360785632065 0.6332735365368
0.279381115824614 0.314269339882713 0.648336371280876
0.272332653587007 0.323455074710276 0.652648128042467
0.27790872073971 0.316188202516207 0.671500438217599
0.275165416540933 0.319763346153475 0.676567772247227
0.277294777440371 0.316988309001391 0.686899617206311
0.280226109977925 0.313168122062216 0.701424992569956
0.277466069054641 0.316765077423521 0.713774345605949
0.275577377523416 0.319226468148482 0.727822512465567
0.275406153495485 0.319449611646121 0.72543736252333
0.277900937150934 0.31619834628659 0.751609068262899
0.275398981083002 0.319458958916054 0.748845111839817
0.28056145337891 0.312731094033437 0.765765621894814
0.278434086609435 0.315503532384756 0.780902764360024
0.280942216047475 0.312234874462732 0.789142852283053
0.274965919717188 0.320023335475981 0.797388256870098
0.276936896031983 0.31745470913327 0.809814216413303
0.273395091827415 0.3220704782383 0.824531009864152
0.280037480282848 0.313413949066912 0.837696869271811
0.273663374833335 0.321720845017881 0.84048627383704
0.276367506625866 0.318196751854349 0.852665165481422
0.271999693720447 0.323888996456514 0.857476574347474
0.277463924120362 0.336702189179552 0.872086584601518
0.278711169795284 0.337339321225317 0.872269483253848
0.25526927568169 -0.0988052382441065 0.0910222508000648
0.248745041816912 -0.106329798802343 0.102491805581235
0.249565617184215 -0.105700149177341 0.110663673980994
0.252954510715467 -0.101821898680253 0.123182140545665
0.249535331599006 -0.105723388124219 0.141020637346078
0.254255259209185 -0.100126730239555 0.144861296442882
0.252073886868817 -0.102969550021136 0.152619632425556
0.248845301263679 -0.106252867023039 0.169411054258882
0.246783514479428 -0.107834931666054 0.17500876213793
0.249625255323813 -0.105654387223315 0.179863779260688
0.250478548248757 -0.105048635789071 0.192821105411148
0.256010199250992 -0.0978396478492564 0.194109731747912
0.255890524464148 -0.0979956110679607 0.200677541036743
0.249707656416468 -0.105591158641081 0.224953437707193
0.248070293017165 -0.106847551766495 0.229398985059971
0.24682688928169 -0.107801649009679 0.245096699158903
0.250007311081221 -0.105361225529743 0.25579902802428
0.250996931742752 -0.104373065266836 0.26288767916307
0.247509008609771 -0.107278240440221 0.267809802674358
0.250197743048756 -0.105215101941679 0.274235152167637
0.246528278148849 -0.10803078139082 0.293448631507913
0.251835390896932 -0.103280364023017 0.303087384915632
0.246890010299315 -0.107753214549347 0.318933122698696
0.254364510337379 -0.0999843513972802 0.317754414052982
0.245406639858681 -0.108891444721616 0.338053931958028
0.249531688377551 -0.105726183666364 0.334779512687452
0.246258104592802 -0.108238092851812 0.348959635341941
0.251407219466692 -0.103838367894831 0.35198803455382
0.248751224036221 -0.106325055018622 0.364366267278958
0.255050183819454 -0.0990907643179563 0.36850088392953
0.253073249846325 -0.101667154832169 0.382789603711459
0.254470896355076 -0.0998457064397014 0.391902107100519
0.249366375136191 -0.10585303297793 0.404015194210312
0.24946313438043 -0.10577878699849 0.416614176759485
0.251679918478361 -0.103482979623675 0.418114524743339
0.254236695010266 -0.100150923574612 0.42401511998858
0.247081536331306 -0.1076062514561 0.440342739743304
0.252034178889544 -0.103021298467228 0.447738718528028
0.254566984857323 -0.0997204814655354 0.460858760837965
0.255266658956434 -0.0988086484268546 0.471189068076997
0.253683138888848 -0.100872331957335 0.478686749420355
0.249186237440776 -0.105991257493173 0.495474726375374
0.246322484335414 -0.108188692537827 0.499249228414181
0.24778152398983 -0.107069132034463 0.514063013908547
0.250569989568795 -0.104929467140671 0.511797594034231
0.249472905720602 -0.105771289185466 0.525100973301602
0.253859986817561 -0.100641859249502 0.536256997574394
0.253669020259379 -0.100890731713489 0.545619291289099
0.249738589792728 -0.105567422626648 0.563773116728482
0.247484747098621 -0.107296856952496 0.57313704378327
0.250569989568795 -0.104929467140671 0.571727342806175
0.25395618809237 -0.100516487307271 0.589537086761026
0.249464691316942 -0.105777592319085 0.599635574522269
0.255145279113786 -0.0989668337175453 0.595227704579627
0.251714629285152 -0.103437743619554 0.618472511598271
0.246073819206477 -0.10837950000223 0.631633860001947
0.247631180316594 -0.107184494792408 0.636212063144398
0.251024864541757 -0.104336662534437 0.640754939341907
0.255625223538523 -0.0983413579656737 0.644309579516015
0.247201451615051 -0.107514237222612 0.668824241183919
0.249869627103478 -0.105466874161678 0.678510821289844
0.247853174333465 -0.107014152792093 0.687647575397812
0.250569989568795 -0.104929467140671 0.688066753338436
0.246479012088256 -0.108068584568703 0.706387320124818
0.245446109160581 -0.108861158861072 0.721251961139551
0.251306390307676 -0.103969771013184 0.7177046685071
0.252578303996732 -0.102312180821542 0.735602736782594
0.245658540657283 -0.108698154440555 0.749934843521466
0.248509371146685 -0.106510635267883 0.747627755539914
0.252251155086723 -0.102738529581763 0.758967068184177
0.252062748098667 -0.102984066349017 0.768578329734947
0.245815712868628 -0.108577551961029 0.783916430535779
0.245702079354085 -0.108664746023477 0.793407616407524
0.245642924451781 -0.108710137176487 0.805520282033787
0.256216545698229 -0.097570731923622 0.797050049598108
0.247870357301333 -0.107000967837114 0.819310315608033
0.247446060554161 -0.107326542182132 0.834029283585247
0.251553530527644 -0.103647691607871 0.837292886720292
0.253017701614238 -0.101739546697642 0.843701419188344
0.248581199069535 -0.106387196880516 0.859055546991968
0.255218716580486 -0.0985803497819189 0.859996434513177
0.256771489088634 -0.0943236221476934 0.864787924755951
0.249399122790544 -0.0904116389000945 0.871701265200558
0.252549929298611 -0.0728368697317041 0.87140566913138
0.286268446782423 0.301971049160477 0.612099127750185
0.288277091063119 0.297121752896039 0.629438599813108
0.288053690899635 0.297661088600557 0.637262166311981
0.289290162462294 0.294675982184497 0.650067939984385
0.282096789136743 0.310730205517998 0.640519826285297
0.283624015065455 0.308355272076351 0.664004519555651
0.287398151980731 0.299243699549238 0.679249964322171
0.289899335199623 0.293205309100209 0.695747453355863
0.290461232780025 0.291848768340937 0.705887653884822
0.285709837926835 0.303319650235699 0.712289835696445
0.288632170003004 0.296264516503653 0.73150750377098
0.282990716027599 0.30956521731237 0.73212429167031
0.287756060681635 0.298379631509425 0.749323249954095
0.288995845845672 0.295386525351978 0.75810544543122
0.285946293334855 0.30274879638276 0.758523016007147
0.290584647845782 0.291550818015387 0.781120329154134
0.286681859096412 0.300972983545192 0.787693773744853
0.28955404468983 0.294038914131911 0.79861832083703
0.287754720284567 0.298382867514205 0.815229193436757
0.290259440990628 0.292335936815676 0.832456354412697
0.286633208188664 0.301090437226499 0.830697175335926
0.282757641773366 0.309868965594242 0.837718775374849
0.29109375950777 0.290321713736251 0.858785120862273
0.283195482947051 0.310878127366981 0.863388388380709
0.287342697281049 0.306809710486132 0.866813787065467
0.286272076792819 0.327202896590183 0.872292348577336
0.263051115755872 -0.08866374681204 0.0813891063856732
0.264172378678803 -0.0872024885212501 0.0837496230667582
0.259382827029778 -0.0934443537547938 0.105280610956266
0.261853576800991 -0.090224409963007 0.103985857337318
0.267140405388234 -0.0833344808062499 0.113396761392846
0.261787527156667 -0.0903104875353576 0.125271279951982
0.259485075186792 -0.0933111013622462 0.140798326210579
0.258356242427352 -0.0947822248560438 0.151326674837237
0.262503698666277 -0.0893771546527273 0.156860821153124
0.267946883507436 -0.0822834580586643 0.160343020185322
0.261211094343288 -0.0910617094034902 0.172316581591591
0.258966211028489 -0.0939872982984057 0.198157451533416
0.264824845633961 -0.0863521770303484 0.190691702269837
0.258535547927643 -0.0945485493785743 0.21134181995827
0.264591687139818 -0.0866560350958091 0.207163765032339
0.263480686547881 -0.0881039192564626 0.228037308021265
0.257746056086994 -0.0955774351769595 0.234065136823129
0.265606266000487 -0.0853338101818374 0.242531398399308
0.266164851962184 -0.0846058467836399 0.249697814646297
0.267356991823089 -0.0830522198689329 0.254753533628729
0.263108559815665 -0.0885888842557984 0.270345452432714
0.259540104063389 -0.0932393863340269 0.29264437143127
0.256882809506967 -0.0967024400230686 0.304713711953216
0.260036889087399 -0.0925919634858882 0.308045509356392
0.266065361086007 -0.0847355058178411 0.308109526378615
0.266138400158222 -0.084640319445721 0.311791412412983
0.264484974701398 -0.0867951054531552 0.330410703407417
0.264785886931842 -0.0864029489994432 0.336997977600591
0.261902047839977 -0.0901612412751525 0.349902961717747
0.258035787765811 -0.0951998495018078 0.370186089758689
0.267610597437496 -0.0827217145975433 0.365859891770941
0.265759331319395 -0.0851343315745332 0.375758723496971
0.257519745809714 -0.0958723684724451 0.389360079422954
0.257585808361552 -0.0957862740786942 0.3987510279567
0.256238203239047 -0.0975425072669137 0.418474685586117
0.263046491254074 -0.0886697735801204 0.419663284729429
0.262642301763553 -0.0891965235796027 0.430118425171501
0.261216748253836 -0.091054341083809 0.443548120210152
0.265433163586666 -0.0855594016396281 0.443992056656894
0.256709861056158 -0.0969278308323568 0.463821877725693
0.265545051788317 -0.0854135860963153 0.467292692094519
0.25770558162534 -0.0956301825223385 0.479338066123232
0.265690829285057 -0.0852236051637737 0.488787172817569
0.264471842595322 -0.0868122195469925 0.498175617335199
0.256836912239412 -0.0967622545066908 0.508874220995571
0.262482932322362 -0.0894042178790185 0.510599643987263
0.267030462035642 -0.0834777617729227 0.520080972007704
0.264872354052762 -0.0862902628535434 0.537644760966414
0.266972424033667 -0.0835533983696858 0.53926912147352
0.267210497596731 -0.0832431348616979 0.545427035716471
0.25696675459061 -0.0965930406601386 0.572972240997847
0.263415157781991 -0.0881893180068213 0.576490658651582
0.256239563937959 -0.0975407339695679 0.597357631271431
0.266364030019012 -0.0843462728862682 0.591575833800516
0.26680688146492 -0.0837691376455614 0.594951246786815
0.262027214445187 -0.0899981209794101 0.613334540349693
0.257641261570646 -0.0957140060495985 0.630316053229302
0.258236113641206 -0.0949387797381566 0.636867687494945
0.264451337611713 -0.0868389421619013 0.639302704070071
0.259388991170761 -0.0934363204898626 0.657854086298381
0.265536048328518 -0.0854253196335694 0.660203341127653
0.258170553462518 -0.0950242194264708 0.673559119758468
0.263009544840121 -0.0887179230842193 0.680263479014555
0.266164806354001 -0.0846059062213812 0.694999594345027
0.266052950418235 -0.0847516797149754 0.697790797549528
0.262893141343827 -0.0888696230740774 0.711215034413195
0.262429628272296 -0.0894736850695398 0.71779196156449
0.257799951446084 -0.0955071973775141 0.738443635930944
0.261112805971371 -0.091189801303628 0.741201840095952
0.266819426047801 -0.0837527892268591 0.744187554172014
0.259581907468906 -0.0931849070752864 0.759279115778955
0.264703812852117 -0.0865099100225925 0.763349173994508
0.259470625613071 -0.0933299324133469 0.788072017183272
0.256632034859749 -0.097029255906188 0.797746188632711
0.260292268981902 -0.0922591459276596 0.800334716696312
0.259776435403186 -0.0929313933356059 0.814549251985157
0.265563177375271 -0.0853899643714991 0.81006218837446
0.263095354835784 -0.0886060933206273 0.823030246924357
0.264215930572329 -0.0871457305885728 0.837495382052585
0.266286345234245 -0.084447513668861 0.834758585174622
0.259218555865791 -0.0936142057014716 0.858846558859903
0.26293711390074 -0.088044919857187 0.862219337637429
0.265615039472004 -0.0781053393216235 0.868614790417223
0.260057982426148 -0.0729274029687495 0.872062556324408
0.267527182062773 -0.0574064232466472 0.872008614902444
0.297120153369319 0.275772711943501 0.644882558530284
0.293533066350038 0.284432706074861 0.641969252753469
0.290855902225501 0.290895952013016 0.655260099282849
0.294530668261696 0.282024282009887 0.674702482430953
0.298526773991177 0.272376829361097 0.68362176413394
0.295507358043318 0.279666344292862 0.690779837896472
0.298353733510602 0.272794586036141 0.710295043033508
0.295817188333237 0.278918347804907 0.715626796266157
0.290612658616697 0.291483194032352 0.715119996123167
0.2991489137665 0.270874851077818 0.749009368739352
0.298473768738547 0.272504795360873 0.757015286233165
0.299586178968385 0.269819199497075 0.760967341933435
0.291529565373144 0.289269585305506 0.764938765693904
0.293095216523558 0.28548976906423 0.776852511547241
0.298306677396738 0.272908189544422 0.804635641800248
0.294481453648775 0.282143096595868 0.797483755018574
0.29944559654976 0.27015859547875 0.820037223223585
0.29763566805239 0.274528149404026 0.825467339067852
0.29192941626416 0.288304259861488 0.830931304450821
0.297592141451815 0.274633231913459 0.845454000382217
0.296468009597958 0.277347126280936 0.857502852961984
0.299588219411727 0.278266757533862 0.867327051201859
0.297146886130322 0.299444261579176 0.871415750182707
0.297450123524932 0.308911255530103 0.872199611711353
0.269847932206227 -0.0798059631593936 0.0664796886270547
0.271755210729091 -0.0773203493953218 0.0787701055477214
0.273580367498658 -0.0749417587838088 0.0822158643966826
0.272153904282009 -0.0768007618411712 0.0970428361225994
0.269756168958395 -0.0799255513522624 0.106134728109749
0.278259642461719 -0.0688436089254472 0.108785317127821
0.267332983053748 -0.0830835087063094 0.135888569320605
0.27544317326149 -0.0725141030490114 0.128692490557287
0.277420182435007 -0.0699376145317442 0.130688168731982
0.270027975617583 -0.0795713260175014 0.155124178161401
0.267814178620359 -0.0824564024346032 0.169419847975469
0.271358709409559 -0.0778370799753005 0.181304982521419
0.275276556271833 -0.0727312425374796 0.178402616415229
0.276931698370298 -0.0705742193591012 0.184245595453028
0.269766032945433 -0.0799126963540774 0.206726280806177
0.273523141197622 -0.0750163375513127 0.206163634132928
0.270046430057641 -0.0795472757229765 0.228105153464494
0.273968529827137 -0.0744358957885538 0.232093128770609
0.269785522958398 -0.0798872964746636 0.240906887840178
0.275283914843674 -0.072721652659949 0.256527983250942
0.270847402501578 -0.0785034281110902 0.260730977863684
0.27727625062526 -0.0701251901181664 0.259989492503671
0.277685171249396 -0.0695922743853142 0.272844889226412
0.268593599271033 -0.0814406416665282 0.29901284911382
0.268640432120381 -0.0813796079089757 0.305017221746187
0.274697983245248 -0.0734852535857663 0.306797333424656
0.276465535460126 -0.0711817346915154 0.314512996147548
0.278197628764401 -0.0689244267492566 0.319053479012543
0.268227350601213 -0.0819179462258071 0.348121395524539
0.27196772951672 -0.0770433895190775 0.34679035669568
0.271647648728051 -0.0774605269242307 0.364553649961259
0.272663413331021 -0.0761367567208065 0.368878861372781
0.270951466035154 -0.0783678098737466 0.37926556846801
0.275263342689092 -0.072748462813773 0.388697283808415
0.274741963649511 -0.0734279372070222 0.396831457815534
0.275361315620461 -0.0726207820037624 0.407854241539484
0.275935914795323 -0.0718719497798686 0.417191194876145
0.272761216517669 -0.0760092971264225 0.429181862892171
0.274792869566056 -0.0733615953249538 0.432145832171437
0.269328257666283 -0.0804832162054683 0.453648835181005
0.275104084625786 -0.072956011962704 0.460009789126301
0.268164622084238 -0.0819996956207302 0.468138841112042
0.273253916894219 -0.0753671974944935 0.479037682026282
0.268017755901809 -0.0821910953560831 0.493086021991114
0.273530311570269 -0.0750069929397473 0.491026040649777
0.274457983547248 -0.073798027281674 0.502043399198302
0.270461541731251 -0.079006291657365 0.51514297899708
0.272840154838201 -0.0759064227042148 0.522736957846669
0.270573402214115 -0.0788605122378784 0.533998835948865
0.277605608184318 -0.0696959629904652 0.533198998119456
0.273689512255238 -0.0747995185677211 0.549409080293059
0.270665472170857 -0.0787405243341761 0.55894129365268
0.271255097333718 -0.0779721098614702 0.570879872546738
0.271301549104229 -0.077911572735526 0.586369725719246
0.276656799928645 -0.0709324739832185 0.589211028417546
0.274033111291554 -0.0743517315855114 0.598660296124937
0.272409546311113 -0.0764676026624778 0.614600963822082
0.2752880968777 -0.0727162025270961 0.623785402512889
0.271523012951479 -0.0776229554306225 0.635688965085723
0.273215879913084 -0.0754167682534148 0.639924695978088
0.274992593284642 -0.0731013103073339 0.644168570795592
0.267811359716695 -0.0824600761013814 0.668402686704604
0.271775222584464 -0.0772942694376415 0.66723036046344
0.26802787929525 -0.0821779022928924 0.682302139733253
0.274818787139486 -0.073327818885658 0.688051376474433
0.272257193488856 -0.0766661527260673 0.702834754265874
0.271307226675175 -0.0779041735810137 0.711346858614253
0.275046887974877 -0.07303055208941 0.715935688088536
0.273868789041562 -0.0745658805110234 0.728723684562329
0.27506079453331 -0.073012428709611 0.737753666207074
0.271516840612896 -0.0776309993788748 0.751443752090367
0.268659208258967 -0.0813551383687663 0.762118434225984
0.273639479641457 -0.074864722339471 0.772672113083313
0.274513456619789 -0.0737257333660293 0.773976580522498
0.276132449350275 -0.0716158209612148 0.778293405833958
0.268894198522536 -0.0810488930949123 0.799186171687596
0.26994835723725 -0.0796750867108953 0.806414277778561
0.27821773817974 -0.0688982196489539 0.803838066432664
0.268505779946331 -0.0815550900387064 0.832052398808657
0.268015996266933 -0.0821933885569011 0.839551257505063
0.268264210031501 -0.0818699100810275 0.853561730521725
0.274677352320178 -0.0735121403307829 0.856970158757014
0.276359638285626 -0.0710603328855874 0.859850134072409
0.268756957380714 -0.0714265090834351 0.869832337257683
0.27833728763531 -0.0545007068610265 0.871242952225065
0.278096717867344 -0.0441234259403654 0.87204834524333
0.303040125964051 0.261480633816421 0.668863012116736
0.303178173035221 0.261147358704956 0.667721777667595
0.301632555268277 0.264878810080156 0.677730097863144
0.307878531167146 0.249799690354853 0.705262278340758
0.300605209524859 0.267359042107163 0.706366931209176
0.304012746379697 0.259132520417925 0.7144210613163
0.307375407555576 0.251014338201454 0.744126109738353
0.305270669158474 0.256095626184986 0.743058770077359
0.304424418867556 0.258138655114482 0.750894108874265
0.303168997192061 0.26116951114996 0.762309779863274
0.304950832984691 0.25686777901347 0.773481403122253
0.305820989144134 0.254767036211959 0.78997269441208
0.303484210103241 0.260408519864753 0.795133949588758
0.303573384107064 0.260193234775311 0.800340491052537
0.301372203983687 0.265507353682395 0.811809049947431
0.301140122749981 0.266067647344381 0.818475298600904
0.3066893401558 0.252670651422696 0.841215294529568
0.30369794113204 0.259892527516325 0.845371691718591
0.300383769120446 0.267893646534753 0.852666635452836
0.308693485149966 0.264356597326732 0.870108628623138
0.310453004427149 0.282027820553991 0.872110261351462
0.311395849166125 0.282296943444187 0.8719809168556
0.308605560057592 0.304287397066457 0.869472741627716
0.28311895127808 -0.0625108343814944 0.0620374964639619
0.284754118149951 -0.0603798434252439 0.061191338013376
0.286412179296207 -0.0582190160697208 0.0666086325026232
0.279738626220098 -0.0669161597655082 0.0862982747270082
0.282890277624755 -0.0628088476886078 0.0916236740342471
0.281292690523264 -0.0648908637345954 0.0986572011231236
0.281942072875261 -0.0640445721767975 0.115384527731159
0.281088842721619 -0.0651565233618968 0.119402506256121
0.289158927868039 -0.0546393836380934 0.120739426835982
0.279062946283657 -0.0677967230025979 0.14377911935446
0.284799539983602 -0.0603206485391488 0.141869061216036
0.278980862357211 -0.0679036968582451 0.167622073227685
0.280357223518989 -0.0661099880700226 0.175364725962845
0.289612224046085 -0.0540486365574515 0.165395744187772
0.285027279133496 -0.0600238531006169 0.1794579504279
0.281362874468044 -0.0647993982369911 0.202053286797231
0.278209803631141 -0.0689085601540091 0.2173559879863
0.286760070383022 -0.0577656355783978 0.214883112918067
0.288029112906013 -0.0561117871632215 0.218108453754677
0.288732118273706 -0.0551956127308 0.231484430774369
0.280857488858394 -0.0654580295865567 0.255233118600511
0.282232449728588 -0.0636661456938562 0.262370943031471
0.280385638858303 -0.0660729564788506 0.265462936013141
0.2871081045859 -0.0573120685745908 0.276126598783825
0.28430674990371 -0.0609628650747489 0.283190708991233
0.285624678766187 -0.0592453067415677 0.293766494884335
0.289246361273466 -0.054525438205707 0.305003703793674
0.284790059401931 -0.060333003873731 0.311391249396995
0.284690120009761 -0.0604632474253536 0.326327757818875
0.285802386572209 -0.0590137134198082 0.330105564396022
0.279880050335269 -0.0667318522702856 0.343554083440783
0.279771244429318 -0.066873650887636 0.36086119245663
0.28784881851026 -0.0563467513943479 0.355989703770066
0.287778416501215 -0.0564385010788348 0.368018617264413
0.279123764651615 -0.0677174629623396 0.387990958890538
0.288089434006249 -0.0560331751748767 0.386982034992624
0.288442951238997 -0.0555724625474223 0.394831465887579
0.27893200036627 -0.0679673750446066 0.426573883103436
0.281713744283255 -0.0643421357912443 0.429373100031291
0.281790177353995 -0.0642425262741324 0.432992431518036
0.280139255520169 -0.0663940494965523 0.449439138165338
0.286249645235457 -0.0584308345816407 0.458454305276908
0.284428217418044 -0.0608045655280912 0.467453625149068
0.28713124703473 -0.0572819087480855 0.47294247842148
0.279212129055126 -0.0676023042296286 0.484145101383674
0.278849994840041 -0.0680742467271009 0.502021470144292
0.279333938409901 -0.0674435591878365 0.505801839623342
0.288886783472108 -0.0549940491199469 0.513393883017697
0.283034443267902 -0.0626209673645667 0.528617253742929
0.288900408824501 -0.0549762922149948 0.525347424775515
0.286956952827831 -0.0575090533808554 0.537713362007086
0.282955280735905 -0.0627241339848436 0.54756704275781
0.288143515630408 -0.0559626946300682 0.558067844584896
0.289883545885829 -0.0536950430516915 0.561398308852543
0.280292260219502 -0.0661946498902175 0.584785439500909
0.280890366200604 -0.0654151829999966 0.586137151106046
0.288005170735604 -0.05614298920718 0.592398012443952
0.27989698197342 -0.0667097865298438 0.616845619324967
0.286227472459978 -0.0584597307052321 0.613515054698586
0.283875988144791 -0.0615242447286201 0.632437236750055
0.286770828806117 -0.0577516149284484 0.631749823878584
0.28086576188417 -0.0654472479694556 0.656012402800151
0.283418497018017 -0.0621204587728818 0.664076558896286
0.280235874355681 -0.0662681333786182 0.671689974558951
0.28898491719901 -0.054866158757117 0.676079363164257
0.286211825687829 -0.0584801219756987 0.686667802633091
0.28976408744097 -0.0538507243280317 0.693387677475916
0.287564859146036 -0.0567168144426603 0.703615053799916
0.286151101359074 -0.0585592594616817 0.710471535146186
0.281857413229939 -0.0641549027746375 0.728734366723226
0.279063366070355 -0.0677961759259213 0.744923210573779
0.286368766966383 -0.058275592119441 0.743713750601086
0.28969427088034 -0.0539417110412894 0.746673893266846
0.287003776618564 -0.0574480314287202 0.760098375244028
0.279334158455584 -0.0674432724187194 0.77533704354273
0.28326971788581 -0.0623143515129246 0.782761153216265
0.278759662098525 -0.0681919706478427 0.798634622003985
0.284670390784694 -0.0604889590520472 0.805050990740129
0.281055612300334 -0.065199830090066 0.816399977439385
0.288415626009221 -0.0556080734801845 0.821960101269065
0.281999195839371 -0.0639701280805966 0.833946174161369
0.284776288162413 -0.0603509509024865 0.84142708570252
0.288868563107838 -0.0550177943609665 0.849762789031744
0.282435323794492 -0.0591245408465554 0.866497853294454
0.282506262653595 -0.050595665009985 0.870854312900251
0.28174292154565 -0.0449952923253071 0.872036021553432
0.292317890956001 -0.0300656325049372 0.872128829276055
0.291129198420228 -0.00368577538704737 0.865454877915927
0.313513217029389 0.236196355326513 0.709015552558097
0.310535999040183 0.243383995374195 0.707113510035952
0.316208455922507 0.228378035937547 0.726813649910053
0.312851560977771 0.237793734339954 0.726009780856324
0.313603055536109 0.235979465985165 0.744927544754717
0.315472103682265 0.231467184601987 0.761200438280473
0.314983606486696 0.23264652115671 0.767625941807664
0.312559556996024 0.238498694312955 0.774795133070709
0.309194574431555 0.246622480857245 0.777174024989608
0.311516387481481 0.24101712830282 0.792413541153187
0.309079856422265 0.24689943463112 0.80625267051052
0.316482823463768 0.226294007557614 0.831011077005734
0.312050500071037 0.239727666445279 0.835482800286976
0.314437937379016 0.233963882917041 0.842626347758939
0.316214991953319 0.228328389854624 0.858664128088233
0.316331906121945 0.236900222252059 0.866852345489921
0.316740256991293 0.246705946280959 0.870546682549104
0.311091612798673 0.263425209327601 0.871039470862453
0.314320699482499 0.269557074129917 0.872269483253848
0.297169043943076 -0.0442003971297014 0.0338412055327203
0.293589950365377 -0.0488647626919329 0.047391045914517
0.293577619383575 -0.0488808327402882 0.0578236683830288
0.299013490825198 -0.041796667154062 0.0547196242974119
0.290227154269514 -0.0532472438877525 0.0797168944046569
0.294027271899284 -0.0482948341728546 0.0927271463317503
0.300389378465018 -0.0400035754716706 0.0909475074464992
0.300094207466068 -0.0403882498068296 0.100864615178746
0.297561248434027 -0.0436892662857532 0.112571601882509
0.291969580722898 -0.0509764695233929 0.130499109101254
0.290152823031792 -0.0533441142427464 0.145776297094896
0.292104636112199 -0.0508004619133164 0.15095702901507
0.299555293664953 -0.0410905759462163 0.152797879616937
0.294475896894842 -0.0477101746957524 0.16346453910576
0.299481366535718 -0.0411869196567771 0.172410185317864
0.299607911384882 -0.0410220031985436 0.183440370049829
0.290637052658583 -0.0527130539068308 0.202369237056011
0.298568009560015 -0.0423772296419744 0.205184906915855
0.298258073867208 -0.0427811457007895 0.207637233900228
0.298096284869968 -0.0429919932270399 0.219059435318779
0.299466014134712 -0.0412069272953025 0.230068817678685
0.293940411337558 -0.0484080330607964 0.24681287963787
0.301133515629348 -0.0390337970382419 0.245464932506019
0.295935506724697 -0.0458079741310379 0.261463287891336
0.299292397381324 -0.0414331890534677 0.264728118158218
0.2945336961797 -0.0476348492011936 0.284372319991833
0.294813466180264 -0.0472702458378991 0.293528737441903
0.291550860738636 -0.0515221560309979 0.314399786781277
0.294144897417513 -0.048141541613006 0.313594403036727
0.291601595182195 -0.051456037616876 0.325387921315622
0.292046779808191 -0.0508758617166787 0.336065886960404
0.293376327955868 -0.049143160836212 0.344879595538981
0.300333664425842 -0.0400761834211487 0.350054881156271
0.298819667557156 -0.0420492625548223 0.352103863045181
0.296397738661915 -0.0452055817423176 0.374862899238592
0.301408053355312 -0.038676012507964 0.366532695753914
0.300871109617491 -0.0393757712108795 0.385381470237257
0.30002673828359 -0.0404761773573199 0.387972107545361
0.299748458736144 -0.0408388383242943 0.405532022448995
0.298779044973483 -0.0421022029365745 0.418457431401083
0.291071904120116 -0.0521463444487448 0.43773994657467
0.299836819685806 -0.0407236840927255 0.433988794703711
0.299984646297791 -0.0405310327012059 0.445753684628041
0.301237008240926 -0.0388989228409315 0.452173312014348
0.297208059447292 -0.0441495511346734 0.471236589934635
0.290006974322558 -0.0535341879812165 0.482751611706565
0.297635377979929 -0.0435926587806561 0.486915624510966
0.297486255109549 -0.0437869994890058 0.497583958145773
0.295758831068845 -0.0460382223285071 0.50912217670167
0.293765951682067 -0.0486353933103685 0.519065748195133
0.299022785385135 -0.0417845542477234 0.524656453339234
0.293365295984079 -0.04915753798176 0.542215039183085
0.296129808667973 -0.0455547549085683 0.546580237421376
0.291566602175902 -0.0515016413905487 0.562188620126447
0.290577549454575 -0.0527905999920592 0.574188022440802
0.294516703184024 -0.0476569949043201 0.573585548808762
0.293719306982022 -0.0486961818669761 0.589122342775402
0.296032624432656 -0.0456814078698731 0.604550077006537
0.292129866413243 -0.0507675811448324 0.613130624767863
0.294314872746053 -0.0479200254520944 0.614104649920137
0.301046175577398 -0.0391476208100082 0.620374587048005
0.290495762333153 -0.0528971870438673 0.639066871661732
0.293490172665526 -0.048994795522022 0.652423041640037
0.296445209262039 -0.0451437168517724 0.653731765438885
0.295002988740632 -0.0470232552285017 0.666078812247195
0.29285405837984 -0.0498237957991554 0.680181830618956
0.2978891947554 -0.0432618783188093 0.687620076799342
0.290134251631123 -0.0533683169633075 0.700329465116282
0.290768917993382 -0.0525412036567237 0.7098705118267
0.294370063945042 -0.0478480988812155 0.724823948672756
0.292378378552366 -0.050443713819668 0.731283452193296
0.300926372764495 -0.0393037508755211 0.726605895453814
0.289967254882291 -0.053585951363567 0.752117969072264
0.292796652662949 -0.0498986083859534 0.754216605951875
0.29293831726974 -0.0497139874759497 0.769670521630114
0.294599363337923 -0.0475492700944351 0.775505770963438
0.299737850569251 -0.0408526631565481 0.777752952849167
0.29816111267873 -0.0429075079817954 0.798834728045672
0.300862004849733 -0.0393876367752366 0.796608677249925
0.293748768733881 -0.0486577865644242 0.818033862164632
0.291916172768591 -0.051046072124557 0.822763569397213
0.291827515957375 -0.0511616119304091 0.840008016220559
0.298155589934097 -0.0429147053627279 0.846911956506564
0.300686480443996 -0.0396163846343462 0.845831614616793
0.292792458730297 -0.0483440872149759 0.863359066240585
0.300638307440188 -0.0365634514781526 0.865665216133941
0.2942062050054 -0.0317335642236505 0.871795068944311
0.294007559916983 -0.0181773459940855 0.871805079161736
0.30352323609359 0.00363806928306721 0.871863896570776
0.319814629259892 0.200986429978904 0.740295056258722
0.318961706154589 0.207465024163846 0.743174100485883
0.318954418352015 0.207520380520219 0.757865397781561
0.31949845322525 0.203388025394381 0.765025280332221
0.318309260623232 0.212420839991981 0.781141992442033
0.322842933088743 0.177984178716322 0.80546241935648
0.317007303750091 0.222310184265733 0.785463887482741
0.317553255800131 0.218163266736288 0.803071922525334
0.316955987625671 0.222699968928839 0.808647057631228
0.321013007146299 0.191883846219628 0.839605132879693
0.317029713044048 0.222139968778994 0.833217044289071
0.32217527947433 0.187463948823827 0.862447766818207
0.317575373241647 0.219966517602172 0.860611522091245
0.319714803783941 0.222255462420249 0.866594324048911
0.324381628461379 0.22936263744423 0.871059944752378
0.328498768010719 0.244014744993588 0.871877406546304
0.32180482174926 0.252339368178381 0.872226261045456
0.311028164449388 -0.0215350658982756 0.0183208077675979
0.303474258312998 -0.0359832817816171 0.0368032139816178
0.30471322209302 -0.034368632747461 0.041939430156151
0.312139792056543 -0.0188513594527731 0.041905600458511
0.30587526764251 -0.0328542255029685 0.0633622211609438
0.302008322393042 -0.0378937266674623 0.0732193908704416
0.306734583339528 -0.0317343434833345 0.0777801248201049
0.308184421145301 -0.0284004695509107 0.090060811230426
0.304157585053743 -0.0350927530351367 0.112830410720474
0.308175482546541 -0.0284220492372645 0.113265010956467
