ply
format ascii 1.0
element vertex 856
property float x
property float y
property float z
end_header
-0.182203245809757 0.359961342227958 0.412597818626876
-0.19100146023775 0.358396063735188 0.424312406735243
-0.186917620117676 0.359740620078523 0.427884948195506
-0.190171699142554 0.359674703579848 0.439697006046156
-0.191572225966837 0.360514162886712 0.457433115664819
-0.19343058751554 0.360081108671959 0.458414039483377
-0.196035986805635 0.360558069065111 0.475594609200107
-0.194242383743824 0.361348296220862 0.480075194564099
-0.189287623699874 0.362619700567746 0.479162656474822
-0.188953836596451 0.363794588916568 0.494981457661694
-0.192324470635577 0.363447085481461 0.503145694782759
-0.190004987836856 0.36496194220349 0.516126631506838
-0.193182144614047 0.364801505249533 0.526258712382071
-0.193386077301224 0.365323976359357 0.534676439424439
-0.195613730691848 0.365241269784355 0.542214733944411
-0.193186272506634 0.366832329211378 0.555882819152608
-0.194448179636724 0.367435001129996 0.569622627808026
-0.194799688541348 0.36741627826379 0.570729422416812
-0.190082904329442 0.368974278345475 0.574929351569031
-0.194146147967384 0.368857563290001 0.589176977050421
-0.196253081790271 0.368643556093679 0.594327151714755
-0.202655279690349 0.368132104156093 0.612000785451875
-0.196537310490536 0.369602530571161 0.609423955254315
-0.184234239417126 0.362291547281762 0.615910770734393
-0.177896971903013 0.357755811934588 0.615910770734393
0.207299593651718 0.00129060216850312 0.151143549365303
0.207360716787695 -0.0057312004031373 0.151979800161117
0.20826335195097 -0.0073416391237183 0.166272134420638
0.208496498493298 -0.00744301878007841 0.169969766841937
0.209982849234729 -0.00372095443248309 0.193625977595562
0.210012021382632 0.00287460413887657 0.194214416635764
0.210715020856573 -0.000681824772043683 0.205301899103532
0.211609943129077 -0.0043072006262425 0.219433494225245
0.212008032348693 -0.00190450853782934 0.225796093034279
0.212327617813267 -0.00416509705465687 0.230824238345704
0.212998391166503 -0.0108188929882927 0.241341404123453
0.213394041368832 -0.00679297312218731 0.247696196326346
0.214205049486534 -0.00778251652946634 0.260546413285393
0.215063814821052 -0.0103632071371221 0.274124155224884
0.215216209913212 -0.00502847960341395 0.276643894103617
0.216093485204127 -0.0121403999249118 0.290429106463916
0.216751421991495 -0.00896271071647201 0.300929709212689
0.217677018417865 -0.00728061670971124 0.315649060371001
0.218244701036576 -0.00860005635153427 0.32463191687026
0.218187519491842 -0.0165924326304084 0.323572439322597
0.219190301202275 -0.0132974170995322 0.339547263629573
0.21963138390736 -0.0182951046219498 0.346451226876744
0.220533932061719 -0.0129493631418167 0.360874580670972
0.221235602488145 -0.014921586341199 0.371971126773178
0.22207861512147 -0.00966041526978374 0.384328918234259
0.22236350866751 -0.0132969010932532 0.389292241716229
0.22303178524268 -0.0203497989015508 0.400369580755824
0.223407955211729 -0.0190839387177358 0.40631053643469
0.224046033462442 -0.0136693778042286 0.415310344689997
0.225288552728941 -0.0128858613594547 0.434359078260592
0.225224393830817 -0.0211208300797709 0.43465463235933
0.226385512703702 -0.0137108337783114 0.451413036834265
0.227229666431856 -0.0111601419248779 0.464039466349161
0.227784600637892 -0.013210131582826 0.472921641956921
0.228505498023327 -0.0177657235071921 0.484755614209213
0.229003627050213 -0.0209777465872155 0.49294272566681
0.229749859322858 -0.0231812659616802 0.504800437375505
0.230154199723758 -0.0240870472679055 0.511180465607263
0.230803576411254 -0.013974150398183 0.519621192551019
0.231886893031133 -0.0205537284896589 0.537362935227829
0.232099070949988 -0.0237477869445435 0.541135254410953
0.232729050369693 -0.0239028712868856 0.550879521980342
0.233017026263716 -0.0247762642945628 0.555459086764696
0.233881004787326 -0.0220213209200165 0.568359512888775
0.234518742014183 -0.0247544698332888 0.578625910969211
0.234941489815142 -0.0320106545893418 0.586281243419847
0.235559179266678 -0.0216495433125057 0.594194316553357
0.236524226259695 -0.0301043966013847 0.610403986239615
0.23904387219926 -0.0294583071524911 0.615910770734393
-0.174584047280397 0.358764762176977 0.365245317287868
-0.178882960364116 0.358615063639061 0.37993712943952
-0.175049673044851 0.36047448533925 0.39199950728578
-0.177242745810972 0.360222364082343 0.396932124104969
-0.173766124576383 0.361976591346024 0.408860848560489
-0.179678419643289 0.360818342770566 0.415181677358596
-0.179926890889012 0.36159468698524 0.427475510500249
-0.175599959225487 0.362819060206496 0.428341676468123
-0.181405636717842 0.362705528285034 0.449475196938224
-0.176445501874002 0.364562295842049 0.457075721897009
-0.175767027254781 0.364871047849148 0.458913914629899
-0.182960443191275 0.363720945632079 0.470382230069665
-0.185531857248105 0.363887404388658 0.482902516221704
-0.180278213896846 0.365805254955853 0.490241492001009
-0.184243926611279 0.365989403000611 0.508492644650142
-0.181256147739556 0.366887975582601 0.509865388033176
-0.18252670537623 0.367144116914823 0.518586993725219
-0.185297527169902 0.366782955842012 0.52419770004647
-0.181726953722828 0.368571821331668 0.536262638232653
-0.185969715241921 0.368426641569013 0.550799921879089
-0.183299343679271 0.369533690501461 0.556457998298778
-0.192087812717698 0.367931695343077 0.567599031632067
-0.180564676728116 0.371606224659521 0.57593975619184
-0.184010546105995 0.371567049283982 0.588894504688134
-0.190203809195896 0.370368123450347 0.595725158833751
-0.1885703293162 0.371294017506607 0.602812190167936
-0.188173007379848 0.368092017352641 0.615910770734393
-0.164756183041578 0.35360675940848 0.593428231351886
-0.178203657524254 0.357714668847201 0.615910770734393
-0.169506908473948 0.35786463838021 0.615910770734393
0.208441974528891 0.0128245871768606 0.169490344985291
0.209127131058427 0.0132708052006376 0.18037088039757
0.209593983157018 0.02022023144646 0.187037073008803
0.209766006514323 0.00731785572673202 0.190395230874222
0.210500270158718 0.0156779023658191 0.201729382685789
0.211527085346937 0.00850721931678881 0.218362612306172
0.212018107641358 0.0102522317353734 0.225995297136039
0.212099832336443 0.00168681197652645 0.227321127624455
0.21367186544761 0.0156396929195971 0.250670427286805
0.21435749503689 0.0158724568978668 0.26121278789593
0.214318210236864 0.00543183495922485 0.262236429514106
0.214853377345691 0.00327324654990534 0.270830567421368
0.215411072365435 0.002407604571411 0.279570464284933
0.21627846811877 0.0107932492770285 0.291644667068267
0.216609510425645 0.00941777641220374 0.296967085118664
0.217165279542867 -0.000827070042241311 0.307141353859668
0.218249345884104 0.00494531843251365 0.322966531174691
0.2191166374967 0.00486803455232605 0.336360184110386
0.21932895613505 0.000980033649797815 0.340242998386502
0.220647949937455 0.00580053551837023 0.359841500036377
0.22067577108397 0.00124456135671608 0.360981941443128
0.220994977124067 -0.00206568578968789 0.366423752580591
0.221560888899024 -0.0038044779757151 0.375426725258344
0.222292829697937 -0.00217361289036635 0.386465386794227
0.223403733857613 0.00364199924543424 0.402697902167261
0.223358041006793 0.00139390473236569 0.402343825351686
0.224303536807817 0.0033051362807692 0.416633698134731
0.225612005724384 -0.00109534490017561 0.437509198245224
0.226150454862154 0.00371905207811674 0.445065497217303
0.226749360788551 -0.00331486708383052 0.455404107682965
0.227587828980844 0.00282416639367002 0.467382676602575
0.227517802343548 -0.000767853388511873 0.466862935430577
0.228014685845215 -0.00750923179349016 0.475581759251664
0.228470700788556 -0.00511012095316408 0.482243191493711
0.229916236033177 -0.00395024322982076 0.504365543207399
0.229898781035008 -0.00853981560201986 0.504812655976189
0.230820684643818 -0.00413088728934231 0.518348632198737
0.231641268643753 -0.00693398405939762 0.531447122875713
0.231801219084278 -0.0124982345513287 0.534783600704306
0.232637763381852 -0.0109844329600312 0.547454480838692
0.233423864137883 -0.00187152258234889 0.558160843719885
0.234246006543341 -0.0043801098138092 0.571237406575849
0.235083143580777 -0.0121485333315707 0.585366380738806
0.235483604548387 -0.00772174121309932 0.590854141730014
0.235867480118781 -0.0067656701646505 0.596627780840901
0.236446746482906 -0.0166274486726824 0.607104795952514
0.244453065672755 -0.0174628014352268 0.615910770734393
0.251037594217173 -0.0252218581621057 0.615910770734393
-0.162040147583791 0.359804650270821 0.362318646634149
-0.15823943289289 0.360244509665165 0.369043347870723
-0.160734268590086 0.360467812718211 0.372539255323671
-0.157619378784847 0.361396260955514 0.386824586922081
-0.157583236299695 0.361591405509926 0.389838590726038
-0.16659966593197 0.362820159295286 0.408987962117697
-0.169364261843255 0.363337362210628 0.417029154526842
-0.159172460489973 0.363476282584821 0.418986397540726
-0.166325599915296 0.364280556935884 0.431543708469325
-0.166404589483492 0.364997141565149 0.442615266952456
-0.169589196479282 0.365543727645885 0.451118165507702
-0.162467674630091 0.366617489676597 0.467574120771272
-0.165427625309097 0.367148528004571 0.475832668303414
-0.174965367843377 0.367393879914922 0.492548217776489
-0.168070674781306 0.368152104479743 0.491385307708506
-0.175455057886853 0.368573251287255 0.511664731205154
-0.171881725781696 0.369293111682642 0.509082676967703
-0.175149148490094 0.369452452575639 0.523282061796488
-0.174135770634135 0.370590963520929 0.535902944357594
-0.175814974019329 0.370804474966397 0.545607074426257
-0.170307027898468 0.371646680721218 0.54541240233714
-0.174053953622506 0.372386846236326 0.561764427222259
-0.17235240403659 0.373073118017926 0.567486495041161
-0.1734913653154 0.374056288550797 0.583895355840855
-0.178245668973699 0.373198071179255 0.590045011603862
-0.171068145113964 0.374784272540907 0.593897318010236
-0.180573434878643 0.37404377359578 0.611511785669519
-0.156464918284797 0.353798632179415 0.590937777428206
-0.174827850211696 0.36829809988639 0.615910770734393
-0.166394065723159 0.359784089333515 0.615910770734393
-0.160181307323509 0.36074820736997 0.615910770734393
0.209778445235092 0.0325300427527117 0.187961617075877
0.210650439518994 0.0274291600327688 0.202212008424163
0.21041880915173 0.0212576495865254 0.199601512574412
0.210960362191697 0.0223515682313059 0.207786466122954
0.211784217919143 0.0208013960848015 0.220739856220438
0.212416641930818 0.0260258324928898 0.229682102561446
0.212645838000851 0.0168682385318428 0.234647901204652
0.214295955359995 0.026542420359258 0.258597708326736
0.213870817058818 0.0210436323491926 0.252896534356158
0.214946570614659 0.0211928702025551 0.269471221995213
0.215546807389571 0.016485946891199 0.279467123998777
0.215921600626058 0.0212655992540263 0.284503771999368
0.217486032479857 0.0253530195118867 0.308003612358745
0.217881539104591 0.0229148836057785 0.314486542195309
0.217863304447795 0.0168931356630364 0.315145187037495
0.218448351691466 0.0140673099612201 0.324613089234585
0.219451117794937 0.0132304119985867 0.340215576205459
0.219758191267615 0.0161106213944741 0.344503866173324
0.220405183396219 0.015967304725434 0.354508788780543
0.221668730947422 0.0179553812010611 0.373693940373338
0.221815779644697 0.0138011240525827 0.376611256094406
0.221923437935805 0.00660363983532949 0.37939585609431
0.223263304609195 0.0184478662995216 0.398220010532837
0.224209712816745 0.0197980311821151 0.412611543086343
0.22419475386635 0.00743008452410906 0.414311366330677
0.2255686786742 0.016586879247503 0.434080515613719
0.225817828475805 0.00838674489024927 0.439204725012904
0.226042617992342 0.015257695916929 0.441600490057178
0.22745776047989 0.0140448896956157 0.46362428100852
0.227898758447594 0.0129347804388934 0.470601800482016
0.22785784633905 0.00671420277586645 0.470941588259463
0.228576352703173 0.00508617456773086 0.482281678486401
0.229623863639395 0.00818276886022556 0.497960525787893
0.23011717366673 0.0116113176114375 0.505036695684367
0.230477649160267 0.0114931694442725 0.510616975884943
0.231559084237886 0.00756197011072922 0.527916277942468
0.232163034681473 0.00815636742484504 0.537141946499013
0.232701614177876 0.00476255275752477 0.54598155262602
0.233403051735612 2.93338347720891e-005 0.557543003349871
0.234504840514258 0.00890256057170282 0.573157584566201
0.234445663475587 -0.000777524814819517 0.573755586270823
0.235022037983771 0.00830158080823692 0.581231324299754
0.236204274505344 0.00702196559981523 0.599671998543939
0.237061007330728 0.00569989010749814 0.613097049225371
0.237164434597496 0.0033569277649413 0.61505858072395
0.249773025384623 -0.00832148836100937 0.615910770734393
-0.15105091169829 0.359220837617164 0.353096035233901
-0.14063437176625 0.359442501081336 0.356327363162872
-0.154853443583368 0.360704784717659 0.376091123559154
-0.153598448778166 0.361061062352304 0.381571792031998
-0.144722742867413 0.36158342475546 0.389476993119319
-0.153935762288163 0.362401404338887 0.402284198133207
-0.158111092975445 0.362828479879054 0.408959206901653
-0.154819811012651 0.363641500336667 0.421458093986844
-0.144409399473597 0.363578777003219 0.420296210978174
-0.150368466433488 0.364841180993409 0.439908771040527
-0.15363187406927 0.365100445119282 0.44397446177079
-0.153723376145956 0.366090813633835 0.459275778450239
-0.165040999039571 0.367189720907919 0.476461868992265
-0.152928236148719 0.366936723454698 0.472329008009127
-0.155809012667742 0.368136111785719 0.490911034825349
-0.157261876106625 0.36823114430148 0.492406058171363
-0.162660999507291 0.369524797877935 0.512490998855341
-0.161188127942461 0.369860151993972 0.517644394884536
-0.164211993025242 0.370630776604 0.529605354426888
-0.159184053844938 0.370588986858279 0.528866600445677
-0.156320698224272 0.371502137377755 0.542920267572887
-0.159726348165052 0.371973820143726 0.550270124811933
-0.161076784649438 0.372726642728569 0.561925062349321
-0.158267351979325 0.372822421997347 0.563352640609335
-0.16355950054027 0.373787044828091 0.578352596413081
-0.16048705750409 0.37469802449457 0.592368852874831
-0.169073151982676 0.375431539994306 0.603859604850846
-0.160612657817571 0.37532364311139 0.602035994600604
-0.16537484959254 0.376091985000611 0.613993901286388
-0.157823399915859 0.364409961327815 0.615910770734393
-0.14946925560634 0.366328789544285 0.615910770734393
0.209720514680928 0.042971230440412 0.195046325448318
0.210889261797067 0.0391700038748934 0.204064100615801
0.211482130928726 0.0392153242194545 0.213204504249434
0.211699346158119 0.0402258865554146 0.21639820672111
0.211953382623816 0.0440678486551256 0.233783017873314
0.213407402933782 0.0360547835136589 0.243403209733569
0.213947396073437 0.0301189392535175 0.252661436160082
0.214515805124977 0.0371345046969737 0.260336390922777
0.215004900151083 0.0379979855245391 0.267747932077664
0.216071204318228 0.0354145748545751 0.28460338793453
0.216033045323423 0.0311767475323717 0.284676148092655
0.217209230421961 0.033878692728671 0.302401935242653
0.217192831248787 0.0252147916892854 0.303501338236417
0.218464075588063 0.0349353692041829 0.321598207122082
0.218361877624298 0.031765989941266 0.320516115237045
0.218990689210763 0.0245897439436738 0.331338362304806
0.220508149930901 0.0301045145893663 0.353890668747819
0.220831089904017 0.0317482082468661 0.358616784836129
0.220871988537623 0.0234058608172919 0.360550051098574
0.221513553865316 0.0217990444756456 0.370699693904303
0.222125071194689 0.0243185424096501 0.379741606423858
0.222949892938403 0.022127875688246 0.392809882084022
0.223731547485336 0.0274937900866627 0.40403254698264
0.224130845005618 0.0253427047419357 0.410529158805269
0.225155070802925 0.0261060482146906 0.426212954505181
0.225777258881967 0.0279696486433987 0.435521892946632
0.226798523404772 0.0335353435169756 0.450410355103027
0.226457451405717 0.0182898065735473 0.447527714700224
0.227908377073667 0.0316028798783069 0.467836131232966
0.228492410750554 0.0271050457124946 0.477549394234066
0.229026636134273 0.0228527961437662 0.486455821079776
0.228978853301402 0.0136105567602921 0.487161278472232
0.230422780224757 0.0228316643391722 0.50800046304542
0.23113032275317 0.0239842248131848 0.518737342538919
0.231060322043417 0.0171674803757334 0.518721378565573
0.232426907779146 0.0218334581394403 0.539078305303718
0.232559106737599 0.0200241829818203 0.541400451920663
0.23322551223575 0.0226084659671304 0.551279130380618
0.234185058376606 0.0277260213409304 0.56528528343118
0.234859033425184 0.01997988502736 0.576893324655679
0.235110292349009 0.0221104453659691 0.5804374621783
0.235664750714963 0.0181379960021318 0.589612390521828
0.236264779183608 0.0104025915921431 0.600077822215418
0.237077364871989 0.0186405878752407 0.61132939904706
0.24353988922352 0.00558667807815765 0.615910770734393
-0.129838586491271 0.358180712840939 0.336634690059595
-0.139919872663934 0.359076804545004 0.350664692481258
-0.12742427773321 0.35942954105005 0.355882365463026
-0.134673963653986 0.360048510143521 0.365578793400436
-0.139778081416358 0.360854605398458 0.378126265604696
-0.132694013948427 0.361310428202696 0.385036734968099
-0.13581997486976 0.36148472724554 0.387787303149664
-0.134749127545042 0.362342231533253 0.401014539898487
-0.138765110721122 0.363301329639797 0.415905499874691
-0.145728475016108 0.364146103114291 0.429084941386545
-0.137330729484856 0.364822398326038 0.43937701667053
-0.139628127286276 0.365401533288856 0.448366303604488
-0.147498200287252 0.366556245486676 0.466350607798483
-0.139348843135747 0.36643979333771 0.464400597704752
-0.145463468082699 0.367140401909072 0.475337193039126
-0.138705253302152 0.36763336847994 0.482827512741421
-0.146628908947711 0.368735297377899 0.49999739165498
-0.145494180679631 0.369029562077648 0.504522287306515
-0.14902834969839 0.370062753558859 0.520548944165481
-0.150008084961464 0.370509888836322 0.527474628977344
-0.15266725414677 0.371223261405884 0.538544377503497
-0.147181442483135 0.371559581134471 0.543638330097787
-0.154394505143866 0.372519578502255 0.558602424780982
-0.147920611392966 0.372660489525687 0.560659313767147
-0.150095433367659 0.373228648990049 0.569476775320308
-0.1504518638293 0.374217482875891 0.584759293600851
-0.144684920890732 0.374276813441732 0.585568993989498
-0.155916244497054 0.375450684704479 0.603911559991168
-0.159078388872895 0.375774089315476 0.608966242950492
-0.148662161871593 0.371972250916853 0.615910770734393
-0.145602384755083 0.370256533692865 0.615910770734393
-0.135760485045145 0.365061689557697 0.615910770734393
0.208171765946289 0.0540607622820329 0.217063687038421
0.20698286787909 0.0608427351263335 0.226824760007542
0.209425540204269 0.0529829627013325 0.231828195331398
0.208305097138949 0.0607842742196783 0.246843255685351
0.211272207115359 0.0529671732841868 0.260058344062553
0.210203909390353 0.0571208642858359 0.260824801389022
0.211436842710881 0.0530059966171555 0.262741107594792
0.212184791711214 0.053591855006538 0.276618299152175
0.214666919838567 0.0468528053562856 0.28684962743786
0.213964097672589 0.0536553493264747 0.304143390111931
0.213690185141919 0.0573443679749843 0.315164778062144
0.216300723981516 0.0471043193381434 0.31292092873718
0.215571589025908 0.052657887091874 0.32465909419125
0.219041031612979 0.0420322212268216 0.333984879117322
0.216876797004067 0.0536222197879309 0.348636132011386
0.219913339840513 0.0442757929171198 0.356606140380543
0.220996711306094 0.0400852732038146 0.35987077572377
0.220441858947883 0.0464502050395336 0.373674437695773
0.221319323095322 0.0474639450080458 0.391301253579869
0.220621038699109 0.0509978928586256 0.395180549096426
0.223324009814276 0.0354235096581751 0.396506755907094
0.22460521390868 0.0415427624741797 0.417222080142259
0.224654653910456 0.0356011239901977 0.417009763255955
0.224179512687582 0.0474042686082356 0.434879908410424
0.225952966691719 0.0376109310382588 0.436727921336847
0.227159673154353 0.0382955482807337 0.455239531192542
0.227558106007403 0.0374806425009525 0.461514225266213
0.228104827904102 0.0326267942350583 0.470707372040522
0.228684121265486 0.0434255778426526 0.487487755726859
0.229314295124131 0.030743599984985 0.489662411583382
0.230044355516533 0.0333699258208817 0.50051666931469
0.230292002579185 0.033737957049037 0.504280208324377
0.230866169523622 0.035782996603991 0.51281989804324
0.23147586212577 0.032737703199795 0.522702316392292
0.232430500370825 0.0348810225750639 0.537097020750708
0.2333309931052 0.0344738859746007 0.551054429177914
0.234077901863828 0.0405488178694436 0.561630318319901
0.234497370288021 0.040347860870628 0.568133736823234
0.235017075180025 0.0311410936397437 0.577589521126778
0.235593758978002 0.0288375713493823 0.586846851125527
0.23701741900116 0.0353301696769274 0.607799252564632
0.237259444694961 0.0299940059939879 0.612366479173729
0.238396747112643 0.026572030132123 0.615910770734393
-0.118507891438526 0.358116879222768 0.335438601869618
-0.122257221744249 0.358675451909455 0.344137138896012
-0.117847274594095 0.359301754215442 0.353730797894925
-0.115601854126024 0.358989904142454 0.348871601287437
-0.12605418885707 0.3603576442409 0.37019469816613
-0.130181109382629 0.361338050594129 0.385416892414368
-0.124115155579682 0.361155994788865 0.382492015888644
-0.1299700096438 0.362817321800751 0.408265372173477
-0.127511223797391 0.363406029158769 0.417314404341601
-0.123820682063438 0.363269739321737 0.415140556242029
-0.122464764280771 0.363984905547386 0.426163613509286
-0.123634511450447 0.365001300773316 0.441886981662594
-0.133037332678321 0.365648954109174 0.452066433648093
-0.134238616685222 0.365895326921065 0.455894762464796
-0.126726779517251 0.3668081059729 0.469856553675673
-0.132111128874989 0.36690502013411 0.471453496709131
-0.128414083136683 0.367900977898159 0.4867709558392
-0.125350207345526 0.368068615350762 0.489303914064998
-0.133148237999113 0.36917094261051 0.506477619178443
-0.123867354298334 0.36907202172323 0.504777471820528
-0.138804638432315 0.370855637882352 0.532608300590371
-0.134207537634243 0.371064203232646 0.535745118874991
-0.13023771613797 0.3712254174779 0.538162061382884
-0.139318204597854 0.37250977003199 0.558171532499839
-0.144462976363672 0.372975229665428 0.565457478511392
-0.136928229347641 0.373560144638555 0.574353865736675
-0.138602124010337 0.373756825054617 0.577423283509067
-0.140619586098521 0.374727901948778 0.592462263723114
-0.14008705005258 0.375484420715058 0.604139409522111
-0.141649474086888 0.37605270765734 0.612947492545375
-0.136847890965562 0.375939967060307 0.611116854986048
-0.13164316162853 0.364871602949536 0.615910770734393
-0.118489535538303 0.362379020443243 0.615910770734393
0.206445376150814 0.0640489147642348 0.231815629872343
0.205847916187578 0.0683049809471382 0.240218760422609
0.204105763691039 0.0797248539548468 0.260635483171067
0.207726740839223 0.0657498040495687 0.258465862074352
0.208734835221839 0.06529582151073 0.272039419521735
0.20986490280279 0.0629426302877235 0.27964705490797
0.208109886051083 0.0738256886478466 0.297652136167139
0.209064631628854 0.072372656808538 0.306286868842101
0.208865679708885 0.0761922215196868 0.318995373789231
0.210096827042857 0.0723951876971824 0.322195479974574
0.211998678274106 0.0651979672701505 0.321645500057828
0.212325363677711 0.0690594957086419 0.342581120119653
0.213281881913588 0.0655112298049466 0.342599508529219
0.215621938949338 0.0584124839234128 0.349170112057799
0.215882851671381 0.0623393525729614 0.369367488885287
0.2174201959147 0.0579251512000505 0.37471324062817
0.216337675807147 0.066536576431959 0.393651346191069
0.220092347225889 0.0519566759107736 0.391035035329344
0.2182010942285 0.0648228959388019 0.415133827887046
0.218833384514613 0.063968296899939 0.421296511516651
0.221647411586161 0.0545680071075368 0.425634852802056
0.220346527586634 0.0638420715592221 0.44396070650727
0.221989882837066 0.0571240473086186 0.441426795859809
0.222758565103873 0.0575169509639483 0.454825670352914
0.222860334948286 0.0594540477077429 0.464376162907975
0.225286074558632 0.0525104472462956 0.472899649322917
0.225301381794424 0.0549583774710792 0.483232681388248
0.224345503433755 0.0606029211733177 0.491467892563821
0.226334151189962 0.0550732830812377 0.499531162316088
0.227602565455023 0.0534098815645625 0.512104196126604
0.228628910295136 0.0510923058200921 0.518269480059755
0.229854892825572 0.0501601140935526 0.533208832266259
0.22862665502444 0.0581527178881596 0.546029604725162
0.231690447642574 0.0467151637039766 0.547122340095195
0.231488711060415 0.0493665187255251 0.554968941691405
0.231744385521132 0.0519177227978846 0.568661969927448
0.231769253285342 0.054667909833897 0.579601410274413
0.233669743608885 0.0496334560497827 0.588656718917479
0.234368353445286 0.0492598754695206 0.597661114425266
0.235048110054815 0.0493901999557134 0.608320067226342
0.236463798857999 0.0502604694505823 0.615910770734393
0.243990911282595 0.033060480087159 0.615910770734393
-0.10174059002478 0.356668876545277 0.312758557931128
-0.110761192972789 0.357950611619622 0.332726483450821
-0.108931282576741 0.358263986204091 0.337533714610657
-0.103909617832181 0.359055931069156 0.349674952899735
-0.111848441355304 0.359731163090154 0.360253323601213
-0.106829748309413 0.359715472981863 0.35991793891231
-0.114762226060879 0.360849379418472 0.377581983502253
-0.116819371950645 0.362030194024207 0.395861813705512
-0.101976318395366 0.36200288598112 0.395164902923895
-0.114287909379975 0.363061774977032 0.411751193041521
-0.109471189727172 0.363320218160349 0.415654475071445
-0.113390049877997 0.363463133173412 0.417934902409615
-0.119311131294141 0.365172375034593 0.444449694247564
-0.118967816952872 0.365695130744669 0.452519078294924
-0.108732514611242 0.365640714980388 0.451488778849718
-0.119810918495485 0.367113554717498 0.474447099469262
-0.1172468200305 0.366812816529687 0.469753658675611
-0.118790748343249 0.367773702692471 0.4846264335904
-0.122609988910369 0.368565521648394 0.496929550599594
-0.116710804810263 0.369039264237444 0.504138808322384
-0.120862907080684 0.370276478287759 0.523328740376148
-0.118856841513488 0.370152959233854 0.521383394293668
-0.117792728145927 0.370797618407118 0.531322636743272
-0.114796640716168 0.371228590924068 0.537924959744638
-0.126132531376813 0.372174325705786 0.55274511697941
-0.120700968657568 0.372892116639319 0.563733199266809
-0.127252014212078 0.373175906094072 0.568238688004279
-0.128669122609981 0.373932711981752 0.579956396690588
-0.123862056985189 0.374996714137967 0.596304464744881
-0.130533608984148 0.375569037221789 0.605269572951813
-0.0962881033727943 0.352787472585676 0.584729981794413
-0.12637674248066 0.373123133172177 0.615910770734393
-0.118302841994318 0.369484863889398 0.615910770734393
-0.112190027281458 0.362289310802338 0.615910770734393
0.202765819810433 0.085160521207204 0.262528240742664
0.203719708116874 0.0812891143055751 0.261173273256781
0.203665097699045 0.0860677924189416 0.280050077086558
0.205924151305625 0.0774297895689274 0.27902959378753
0.205674453356495 0.0820674388190127 0.294335408475814
0.207320148770581 0.0794203940747124 0.308631437273703
0.206447870559035 0.0847455098148217 0.316778519394842
0.206346098507158 0.0875475743002555 0.326024818680496
0.20642203025579 0.0887342881278192 0.331719575953335
0.210106491893135 0.0783110361442907 0.346727354800766
0.207646488318588 0.0902612150602659 0.35588501720328
0.210581373918414 0.0800584680237036 0.360538564322224
0.210261250852651 0.0847299526488724 0.373705263341508
0.212495351626155 0.0772567727648692 0.378374985053727
0.212683383447231 0.0812635224312366 0.396581167630537
0.211977759218412 0.084692138177689 0.399211174892933
0.212889048491758 0.0844973469178997 0.412080829403641
0.216140768975449 0.0752184223772167 0.425018968724145
0.216248019729751 0.0754722196512367 0.427596943202075
0.216243606716209 0.0772101704698655 0.434209215272761
0.219081865635617 0.0672758538461099 0.4384502552889
0.219912899813817 0.0672340222073938 0.450708350911658
0.220278530408376 0.0695082131571516 0.464911040332962
0.219135472174999 0.0775205842324754 0.478617564311777
0.222282959890172 0.0658919827493879 0.480969238882885
0.22358664390812 0.0628594988865818 0.488798707521681
0.221717571211063 0.0752729381569644 0.508567259237848
0.221684139726716 0.0765912843151566 0.513133518557875
0.223193718228767 0.073762828800773 0.524823836035172
0.22362105511992 0.0760967368328245 0.540178121950484
0.225608133592947 0.0681619295777946 0.539382542048598
0.227166887427873 0.0671115722619203 0.558640216591258
0.227710579473069 0.0631952656779712 0.551716329310394
0.22886556755718 0.0643560189188322 0.573436570080598
0.229946090305892 0.0611490161930949 0.577260550535878
0.23042478305807 0.0646384177142787 0.597822369002909
0.231591111588944 0.0583611786119019 0.591130980263705
0.233538541724308 0.0662129950877356 0.615910770734393
0.234493815464625 0.0540567354943537 0.615910770734393
0.234835723181551 0.054820361888005 0.615910770734393
-0.0865526264895937 0.356424906206941 0.308708167432154
-0.0923687814416962 0.356877065558407 0.315801086074539
-0.0845551687996816 0.357491590659162 0.325149735321122
-0.0963417196041796 0.358112171809488 0.334955136028497
-0.0934529978868966 0.359405686696895 0.354884358690969
-0.0981716335014491 0.35990541054305 0.362691735995568
-0.0911540940759917 0.359839606328197 0.361545128887545
-0.0883487042192236 0.360559869259751 0.372620063149549
-0.0886800927877435 0.3611950852599 0.382439282509067
-0.0887088152760813 0.361627976393063 0.389127295442378
-0.0959809644259403 0.362644480092531 0.404965418119088
-0.107171192794396 0.363797780629186 0.422989437559761
-0.102233076082323 0.364197711382347 0.429076228389049
-0.0943016617574526 0.364619448586707 0.435444427838851
-0.0947998886330435 0.365146937925143 0.443602532862713
-0.101678475295384 0.365589052452905 0.450559962008012
-0.0977090004701738 0.366396658357321 0.462962635788126
-0.107200646336008 0.367563666413597 0.481166939555816
-0.106659678533512 0.368277793773822 0.492189049194556
-0.0974873767399244 0.36818925343 0.490651276797043
-0.111819282167223 0.369589488206564 0.512548254113262
-0.104090015867857 0.36951893908463 0.511315157277208
-0.103750736293588 0.369660582422 0.513497035029163
-0.110660094274626 0.371093173523238 0.535756324839087
-0.107829169523578 0.371920227855125 0.548480543515035
-0.108278752810134 0.372342111834793 0.555006312041294
-0.11208568741079 0.373454242321114 0.572257505599609
-0.109188729429069 0.373367778931685 0.57086810227749
-0.106378765210097 0.374236256061344 0.584232625814438
-0.112357994986469 0.374978910756402 0.595816258101946
-0.110085946133349 0.375558503403262 0.604727942729614
-0.107785215220251 0.375678072450901 0.606532461651143
-0.0882985595201361 0.352857935707142 0.587064331160273
-0.0960014482001777 0.363145241538843 0.615910770734393
-0.0920714824186548 0.35640980728752 0.615910770734393
0.200159521966155 0.100801531322708 0.284503066710443
0.199686130152039 0.104768746464819 0.292673129338441
0.199045149155865 0.109827823187822 0.302534335192478
0.202136905136874 0.0974715566154748 0.301257050813799
0.202798096183917 0.0976270208688916 0.311735164553183
0.204315288831541 0.0948625079669214 0.32378497132501
0.204625981809911 0.0982573175200085 0.341472751549826
0.204120833121566 0.100848748977216 0.343881682386523
0.204682257814021 0.100510042271429 0.35097001156004
0.206789027366122 0.0975357120210802 0.371024117490195
0.205848080372893 0.100612115035947 0.368784093847709
0.206741010442794 0.100944442028038 0.383404886836252
0.206991970897332 0.103778999244655 0.398047218288343
0.209481588242564 0.0950014830949889 0.401523317618681
0.209589912303245 0.0984388637547877 0.416350513238309
0.210149483252609 0.0984905830983249 0.42491138468958
0.210688518450902 0.0974823820078837 0.429092541558637
0.210665133854234 0.100734205583697 0.44123848640777
0.213265873848909 0.0935198813288016 0.452381878040765
0.215003128262196 0.0885323476407241 0.459178110611881
0.214267273509271 0.0931541639424745 0.465941329509552
0.215652202324358 0.0903653462396521 0.475921214267245
0.218601689759956 0.0822670886271917 0.488879643049971
0.219838821082962 0.0784027569599765 0.492518115414188
0.218429961685718 0.0867167886945229 0.503411706787146
0.21880717480898 0.0870305694177481 0.510254445555696
0.220059444128728 0.0844611439115668 0.51909492139954
0.220779687232359 0.0858031648599361 0.535014941294008
0.222607198387702 0.0804127864237117 0.541611991490158
0.223034283361177 0.0805114783169315 0.548373510354182
0.222214119804017 0.0875282112020983 0.563079497012273
0.223614632080461 0.0838110511171153 0.569725026237446
0.224582649473273 0.0821387510877611 0.577764967019318
0.223890529457065 0.0892006892289775 0.594558120076477
0.227320915004225 0.0787981186804245 0.605848498025552
0.226686142375686 0.081168763732297 0.605471960185755
0.227130988876443 0.0813549100494228 0.61283495521179
0.243634278854835 0.0639527433030058 0.615910770734393
-0.0779190183421408 0.355451580895303 0.293511854173703
-0.0751591721169671 0.355925179821094 0.300777065111805
-0.0663242469899952 0.353720486589345 0.303096508325405
-0.0806119543847054 0.357979568190967 0.332615144834014
-0.0832608538141862 0.358083912528831 0.334276183842973
-0.0774980241980017 0.358527010709435 0.341014560786838
-0.0865109620981948 0.359698490326214 0.359279072506465
-0.0900194910956365 0.360421116590399 0.370507514736498
-0.0842515981219656 0.361033559462746 0.379861904471622
-0.0884278537728851 0.361586027025585 0.388474038043312
-0.0850321870712547 0.362444493060824 0.401673052877269
-0.087597557758793 0.362729597065924 0.406124993945199
-0.0837851672984862 0.363429179447624 0.416861786615902
-0.0855456788524537 0.363947609075364 0.424903323891694
-0.0878384761772998 0.364599230393272 0.435012324676319
-0.0825529954389725 0.364851168554788 0.438806428207013
-0.0839557502392191 0.365430080421952 0.4477756907462
-0.0895334212153834 0.366440107032166 0.463482353644284
-0.0850432077067229 0.366706503586175 0.467514552850571
-0.0848241762985847 0.367743197536885 0.483525769716891
-0.0956679092083341 0.368823779037914 0.500419974881245
-0.0825434374866402 0.368656400922607 0.497591049554455
-0.089053298081194 0.369661560314768 0.513239795329141
-0.0955347590353998 0.370508696394702 0.526446805574638
-0.0905663980824273 0.370822987824023 0.531210044389362
-0.0863902803536828 0.371372318104867 0.539618940717321
-0.0913933342222818 0.371955469285442 0.548720408209353
-0.0941834324792413 0.372780997960768 0.561525216640584
-0.0926242462477611 0.373475098249319 0.5722190720197
-0.0982429895738246 0.374348401974739 0.585814344503898
-0.099216212867113 0.374924084410826 0.594725758152094
-0.103794417261661 0.375249073438314 0.599831157717635
-0.101247276667206 0.376204026415196 0.614536465971663
-0.0945578747932689 0.368532713309195 0.615910770734393
-0.0932200115912898 0.364120693823953 0.615910770734393
-0.0846296951067977 0.363624325299281 0.615910770734393
0.19829218314439 0.113191377207049 0.304206869639363
0.196451504152748 0.122054615657738 0.310757792620136
0.197439419608238 0.118879644224408 0.313320947904471
0.199766927655984 0.113199216427767 0.326275330266324
0.201589004697332 0.109002103167581 0.337376393854854
0.201443803773351 0.111190573588666 0.343615913449003
0.20158412175482 0.112671213650204 0.351402283728612
0.20232995461552 0.114042543384126 0.367817334141919
0.203837128888688 0.110417540796255 0.376410925370051
0.203539761434089 0.113301753235396 0.383049939636484
0.204065143263251 0.114051287785888 0.393781307044539
0.204672021176266 0.111927322018439 0.394688876377948
0.206447526581852 0.109600081406291 0.4122791210819
0.206914166692312 0.108894922911203 0.416542883922357
0.207607244818319 0.110214102913771 0.431969186670744
0.209417937562439 0.104014556228053 0.435205609553579
0.208940898685997 0.109536303172945 0.449294587798591
0.210982811645822 0.101893075199499 0.450438862834149
0.211058285769361 0.106742808168075 0.470202234708745
0.209842571587678 0.116213323226581 0.488426038790335
0.212224227943161 0.105705002070862 0.483638025927492
0.211428564472633 0.114725194943183 0.506408598124007
0.213355109009729 0.109404196502634 0.514752185135633
0.214006918262322 0.108121390264538 0.519563425860786
0.216533506127542 0.0985859484810181 0.520679614737261
0.216240754382819 0.103878482696049 0.536641780535873
0.215538138310425 0.109551424843262 0.54794075055811
0.217674224472749 0.103739293353797 0.55752847365606
0.219886540597666 0.0968063394818317 0.563948512211033
0.219155195992585 0.102227900854699 0.57385221643184
0.220751051457482 0.0969666575989705 0.577483654936103
0.219465569904053 0.107317692952437 0.598048338850048
0.222746021473568 0.0947002540778017 0.598587313979247
0.224361580925796 0.0980341476024503 0.615910770734393
0.234930278217494 0.0935058784443081 0.615910770734393
0.371865551641553 -0.0272876010936023 0.488056998326651
-0.0592740907836276 0.350200445566306 0.277948760727261
-0.0500399967546197 0.348173283345266 0.284622625915221
-0.0536629120142356 0.349619339016181 0.291982164614464
-0.0638556974027265 0.353710949549698 0.313044114862989
-0.0710181465540065 0.356834688505676 0.331655873553068
-0.0533345630977612 0.351459340942896 0.321539038866852
-0.068684677763189 0.356930949255172 0.34267342214127
-0.0613556725702441 0.355574456200596 0.351841342175822
-0.0751150656633893 0.360698788188949 0.374520917963771
-0.0595993731159133 0.355829281406005 0.362930257040796
-0.0583508226247735 0.356035471971622 0.371197242463955
-0.0746029035562344 0.362125875371634 0.398131999145452
-0.0694683269261594 0.360704112063674 0.397326105834645
-0.0689072217619811 0.361504355413385 0.411891242051322
-0.0739692437788177 0.363813457090544 0.426600098510144
-0.067127226998333 0.362006616906435 0.426871190597285
-0.0811614516692642 0.365750261731936 0.452670204694389
-0.0795198345397765 0.365916469939783 0.455207438107111
-0.0702656435515282 0.365545942454711 0.468309662417481
-0.0632940679566665 0.363161602219999 0.460255234515962
-0.0841374345738972 0.368280008381915 0.491805919502815
-0.0803545425287234 0.368717636096467 0.498496475087207
-0.0742062114654274 0.368731808982406 0.501048276868518
-0.0762819540400899 0.369554548120605 0.511349971169594
-0.0840071524277825 0.370819223595251 0.53103034884348
-0.0764323769576344 0.370911377450283 0.53231361742283
-0.0863719319818897 0.371748850972642 0.545435435698406
-0.0805200550176944 0.372184109307159 0.552051049401781
-0.0804984529313964 0.372962359716876 0.564073382300886
-0.0832042768425577 0.373513419541761 0.572636521149958
-0.0845559431430951 0.37388233688151 0.578360754971503
-0.0833336692377381 0.374682143056002 0.590693841513146
-0.0915395193307456 0.375770191787356 0.607654523012287
-0.0888513147368128 0.37619299130811 0.614136291331874
-0.0813825086817928 0.369367028386118 0.615910770734393
-0.074386954537869 0.364039163969825 0.615910770734393
-0.0687639755582046 0.357165214811761 0.615910770734393
-0.0505564381763127 0.350756344755225 0.615910770734393
0.195921923833154 0.126713473924454 0.320745879298595
0.186338624898472 0.148816804093572 0.363409515474317
0.198028299593724 0.126006559350743 0.349506832289275
0.194955024306423 0.133435048334177 0.359442473601173
0.196323410055051 0.132331207186999 0.369457842043397
0.19971157937187 0.127096395196336 0.378849270711448
0.20006074077686 0.128559302866194 0.390792508900874
0.201960071486135 0.123002007501322 0.396717341998279
0.200274389546382 0.129939974291115 0.404703434415303
0.200051181218517 0.132080122874764 0.418653397893595
0.203894580901875 0.122893688043248 0.425210103911948
0.202486519858359 0.12950214203338 0.431600647153575
0.203630309182733 0.12870271282639 0.443582528118997
0.204032321346649 0.130041376315146 0.45711560389862
0.204797544655429 0.127424839278271 0.456115167194848
0.205271876811368 0.128079843191372 0.465720414966054
0.208198664478933 0.12070087718531 0.481103559518643
0.208529870342969 0.120436857993506 0.485038529577547
0.209903223165969 0.119762763711915 0.502971423852703
0.211741595979351 0.113997582087496 0.508290576693327
0.211155923329424 0.119853809143509 0.522041417240367
0.211075942913818 0.123453957729011 0.534680071132244
0.211771319853785 0.119281452509274 0.529038473404653
0.212887599867641 0.119488791233684 0.546516693239576
0.213355442849338 0.120730787607304 0.558280534826207
0.216472698401601 0.109019223395739 0.559861633831806
0.215265910939655 0.118157711777296 0.576942997434134
0.216522080536384 0.116262641064291 0.588433022303322
0.217926778033662 0.111992271640348 0.593015342246814
0.216042676129438 0.123356528594719 0.608527730365271
0.218829974516006 0.113668949255968 0.612955332992595
0.226279201245487 0.106880255007764 0.615910770734393
0.366089759094446 -0.0127648817198258 0.489848038437728
0.374732217283483 -0.0194464976363374 0.487697206889522
0.389108643546171 -0.0293914411031557 0.481966604725604
-0.0285864436176238 0.34009644364455 0.248496915133554
-0.027794961819489 0.340267504220516 0.254356279548253
-0.0284632136735136 0.341568116747 0.271567173596863
-0.0330400014779178 0.342920251439601 0.273586180520201
-0.043710052786097 0.347738739623469 0.303842413508461
-0.0427394013955525 0.34787155221481 0.309847910705882
-0.0446322008590711 0.349713225341543 0.330348183212678
-0.0388275810157661 0.348216689114028 0.33113552742783
-0.0438236849906037 0.3506032151392 0.347301132529965
-0.0497898562778001 0.352528239853182 0.352423574283589
-0.0423620484969739 0.351115939000353 0.361139749097155
-0.0464172509230356 0.353217824181542 0.376788048126928
-0.0411920181618211 0.352195147842002 0.382472374443839
-0.0354780562582672 0.350574543424939 0.380986580730308
-0.0532251962519365 0.357211824459492 0.410193797767763
-0.0420810643387854 0.353959252335712 0.405887548766746
-0.0628194386201784 0.361178828378338 0.431792481774103
-0.0540285745703317 0.359430721600734 0.440932975766486
-0.0468850507189232 0.35790429713749 0.446736768581963
-0.0455314959702627 0.357603892983536 0.447665080713945
-0.0584668139374085 0.363018448092546 0.477798671715789
-0.0517300941896594 0.360878160733508 0.472526186777187
-0.0596157904947516 0.364190247493624 0.491068695282417
-0.0545960200414107 0.362996135902529 0.493284132981902
-0.0528467032154894 0.363057417437464 0.501376731773136
-0.0692033542446841 0.369080070270989 0.526845028439611
-0.0684838132234022 0.369904086207197 0.542422530063091
-0.0584829953508382 0.366515727698894 0.531359170411091
-0.0714096981168564 0.371289344054111 0.551699947804639
-0.0733858562899335 0.372632774921298 0.564219410064703
-0.0697511507853548 0.372563610359513 0.578021085065771
-0.0785355806391933 0.374619801148495 0.589641848442457
-0.0608459118027273 0.37085440061725 0.588225695910981
-0.060749750553228 0.371155589170143 0.593237268937757
-0.0661352014352015 0.373181288716094 0.602277993840769
-0.0682338232788422 0.374422526176075 0.612729689253644
-0.0624878890193007 0.361118257624427 0.615910770734393
-0.0497166061418878 0.357163595688963 0.615910770734393
-0.0423371585955354 0.352967830108924 0.615910770734393
-0.0401585223258832 0.350098629183814 0.615910770734393
0.187187916444851 0.148604912599311 0.373387815251691
0.181777576154599 0.160816616860383 0.395136743143542
0.180815904233302 0.162677517125374 0.39631627929886
0.186220669167297 0.154871909406074 0.409795059143382
0.180484927198451 0.167124279947611 0.425571702235119
0.187599216520788 0.1529459836302 0.41354955838615
0.186165449314226 0.157743370053077 0.430816843590586
0.185838219630482 0.160902486046734 0.450363042693281
0.193682798974269 0.14562886851536 0.438918153743128
0.189922471811563 0.154656382838234 0.457914102724048
0.194725904330226 0.14725542758048 0.466174552774898
0.190133674040609 0.157011154732818 0.478600437121832
0.193130949118942 0.151808609470564 0.479451955625207
0.201742398430433 0.136843819672295 0.479751736101887
0.196221818520759 0.149607211735305 0.504308284858243
0.198883686251218 0.145936488712176 0.51226218576194
0.203874029047606 0.137419980738555 0.513605204242394
0.205287380704466 0.136048940855384 0.522113714198882
0.202158289940291 0.142763727601785 0.532225572328546
0.203453763693197 0.141406879886952 0.539352782069376
0.205440146415133 0.139094816713979 0.548427714448568
0.202509465703742 0.146880284176535 0.568146433714809
0.211344281034968 0.131490228802161 0.569570106229944
0.205618987665076 0.143893733187279 0.58730246574989
0.209884150105265 0.136722491975392 0.59027298840717
0.212142660384009 0.133631303411917 0.597032817588114
0.213627350158284 0.130196998346468 0.598718568422509
0.217621958691216 0.129323188495489 0.615910770734393
0.221473556545444 0.127455579823453 0.615910770734393
0.22711788703939 0.121986651878565 0.615910770734393
0.370959308465486 -0.00196113611573596 0.488641120038889
0.381895930306936 -0.00267995245082165 0.485840906329742
0.398533658360362 -0.0285019662154237 0.477863967288165
-0.0193305514267488 0.337361772783973 0.244411100753246
-0.00849155329534703 0.334597741196629 0.246348360115768
-0.0135578233298433 0.337155676725581 0.264855420597044
-0.00801213794590163 0.334872373670065 0.252519844654017
-0.015709850522405 0.339007034775795 0.284444223429016
-0.0249600816216196 0.342540100252059 0.300795627081813
-0.0307043172875833 0.34482727298892 0.312378672227244
-0.0192526212166074 0.341729320711882 0.311700959667291
-0.0189215096579335 0.341839646930893 0.314746590302294
-0.0228959059515554 0.344181826729269 0.334409938826187
-0.0316797674062409 0.347345455123572 0.347003435277581
-0.0243843052796681 0.346109800042573 0.357887106458397
-0.0153301695984122 0.343125218757187 0.349144232024994
-0.0281247896378719 0.348436883543607 0.378275431879788
-0.0299588240717767 0.349593080949891 0.388505030406924
-0.0256580657927107 0.348269845844481 0.385800485867111
-0.0269093134041431 0.34999224181427 0.407095075271753
-0.0242453004705742 0.350018184780214 0.418385971302086
-0.0329435960959863 0.352749229998549 0.424696191010545
-0.0399499115731647 0.355755198601183 0.442140507238498
-0.0364475392092222 0.355116912011546 0.446674258830193
-0.0260548337475075 0.352789648538377 0.453483961795198
-0.0287372499200911 0.353951942678637 0.460338031999098
-0.039026316322586 0.358258669575381 0.484304847361555
-0.0289568194252678 0.355038302484191 0.47609826529868
-0.0452310185641322 0.361433924702669 0.507622752245114
-0.0393929138475745 0.359835291714544 0.50698148179362
-0.0351956155478961 0.35881888660255 0.508558768244905
-0.0499769729696769 0.364687240454863 0.538102413196599
-0.0316641664032982 0.359496197395706 0.533384550697052
-0.0399946025297682 0.362368347115707 0.543362611290588
-0.0437304414278698 0.364479820017087 0.560463797268814
-0.0438361640743685 0.365409075128915 0.574280532446521
-0.0418827432963033 0.365254848990947 0.579903151510051
-0.0426339725503351 0.365662838514713 0.583087430229727
-0.0571679147435499 0.371517845721568 0.613438095603331
