ply
format ascii 1.0
element vertex 865
property float x
property float y
property float z
end_header
-0.458385869310492 0.0921661210881167 0.658859465771718
-0.457861370189997 0.0939180257152844 0.675664907062776
-0.459637111673108 0.0879867865590086 0.676852238546187
-0.458632761652678 0.0913414641539394 0.695690566487027
-0.456848813424407 0.0973001150526909 0.706333041909324
-0.457334213403077 0.0956788073413315 0.715112171679477
-0.459702385029119 0.0877687638970836 0.72586710172082
-0.457898085105547 0.0937953924678206 0.742909672812991
-0.45977544891529 0.0875247197123375 0.75542500963802
-0.458845234936503 0.0906317719646894 0.765020414989202
-0.458291855758231 0.0924801402557153 0.776940891901007
-0.458492765542249 0.0918090718658728 0.780186910504691
-0.458978483593223 0.090186701745984 0.799774617674096
-0.457999187768113 0.093457694623442 0.813029233357298
-0.458667964659891 0.0912238809039066 0.816443250575021
-0.456769155505563 0.0975661842817146 0.831261658665192
-0.460078866095446 0.0865112614602554 0.84834626546198
-0.458711957183855 0.0910769393681037 0.852609784404322
-0.459959999768782 0.0869082925696655 0.868075341083734
-0.459551433108778 0.0907832770212339 0.872003847556387
-0.483092240555276 0.0937212513690341 0.872003847556387
0.220562185955935 0.0793179650578809 0.210933147735496
0.219559868066678 0.0835472081356568 0.219332870057104
0.220449213080898 0.0797946499049196 0.234647995253971
0.219394041213316 0.0842469083796693 0.243829384292002
0.219948642415618 0.0819067892209662 0.251355750479061
0.220043396409333 0.0815069782664734 0.248874805048684
0.218597072508899 0.0876096882047987 0.268575466805586
0.220598062614925 0.0791665848288017 0.276116172101055
0.218720868365766 0.0870873361882212 0.27755782099344
0.219289152123694 0.0846894839946266 0.292909465627321
0.219482845821327 0.0838722006370175 0.304538336544482
0.21945113882423 0.0840059871327234 0.314920032459171
0.219927732062873 0.0819950196771421 0.315518420649247
0.220592402911262 0.0791904657380351 0.325202154749237
0.219252936612284 0.084842293998899 0.33723113797556
0.219119911031636 0.0854035904919087 0.344119448655885
0.218996950389123 0.0859224183525724 0.351196736859921
0.219280296413218 0.0847268503358133 0.362891743845505
0.218700296445814 0.0871741386398017 0.373984972710212
0.220639455104501 0.0789919307575836 0.383293857088927
0.218687634480452 0.0872275653320049 0.400073594558288
0.219776323244635 0.0826338835578582 0.403520465051462
0.219470910665552 0.0839225605831822 0.413051156882564
0.21858328467214 0.087667865469515 0.426518348464719
0.219121583969981 0.0853965315907468 0.428594410975998
0.220088298718997 0.0813175146398554 0.437212108588195
0.220521215180495 0.0794908397219771 0.44871369479071
0.219303992270494 0.0846268665468096 0.459602638165864
0.220567087212193 0.0792972843892787 0.467910802641792
0.219793317185363 0.0825621782566203 0.480765057012352
0.2195186905189 0.0837209552679477 0.486032795977051
0.22007771827435 0.081362158432769 0.501678134241961
0.218710672855566 0.0871303557645431 0.508079143056303
0.219568710585091 0.0835098974578893 0.519707924660374
0.219073097965703 0.0856011164835846 0.525108595066328
0.219638247804488 0.0832164877453288 0.536691079635764
0.219860151979227 0.0822801713281442 0.545864155481607
0.220667358025165 0.0788741954209871 0.554814147094865
0.219157278080257 0.0852459216191765 0.564513972573197
0.21982042034745 0.0824478174716125 0.570434034084827
0.219019192854395 0.0858285670971075 0.580719975327947
0.219288697199398 0.0846914035307827 0.585406442802869
0.218948639728007 0.0861262633914534 0.601469480940746
0.220030022450817 0.0815634091873204 0.607757444383781
0.219704590503812 0.0829365571914747 0.616677192256954
0.220479520458579 0.0796667690513134 0.626356129136584
0.218646104141217 0.0874028010547335 0.628850741534844
0.218841752372151 0.0865772706165086 0.646686211873929
0.218679596185571 0.0872614826184747 0.65579531371732
0.21864520442552 0.0874065973716715 0.659724801671991
0.218811761674083 0.0867038152522626 0.678924981190739
0.219283007798661 0.0847154097457202 0.682780455989381
0.220570481724445 0.0792829613710017 0.691707160150731
0.219066777945547 0.0856277835737167 0.696421577688975
0.218716947607274 0.0871038796829429 0.707162154824437
0.220451631257723 0.0797844464976885 0.72035438897151
0.219557826003276 0.0835558245462803 0.728803590213675
0.218669722390993 0.0873031447276848 0.741403803183477
0.220058345066968 0.0814439029612184 0.747599204274128
0.220172208512402 0.0809634603854897 0.752103314777035
0.219463882453133 0.0839522158642471 0.767587367342085
0.219481706927219 0.0838770061583716 0.776577568957845
0.220286253291841 0.0804822526776652 0.781368889667705
0.220067010190404 0.0814073407949602 0.794561579320249
0.220141898411901 0.0810913527279336 0.805006217464802
0.220460447346661 0.0797472473381075 0.811737242562194
0.220689175480002 0.07878213748125 0.825090663174119
0.218996343352892 0.0859249797193867 0.835664185652797
0.21931210411144 0.0845926389354521 0.840204864617509
0.218924937520119 0.0862262739766316 0.850764168902065
0.220232666922681 0.0807083583705435 0.860989866042176
0.220059681339234 0.0822526828561651 0.872003847556387
0.218668257188019 0.0822028306697867 0.872003847556387
0.196712675733533 0.0843659767987856 0.872003847556387
-0.455220182706037 0.102739982499491 0.38447251632249
-0.453950486055273 0.1069809570801 0.405699485670034
-0.453216072025498 0.109434008547189 0.412767172998075
-0.454052906171429 0.106638858745904 0.417374923960404
-0.45641544649813 0.0987476246742273 0.426086934889988
-0.454839966768994 0.104009959956839 0.440565853072758
-0.453393833391289 0.108840259297492 0.452491877275999
-0.454473637898799 0.105233552557247 0.462954443400161
-0.454681228557346 0.104540169058488 0.471037723978235
-0.4565192588284 0.0984008761390072 0.488954192926385
-0.455339866864733 0.102340219710146 0.496107816283755
-0.454706056180701 0.104457241124891 0.517023217657851
-0.456026267795443 0.100047539094274 0.525156515728234
-0.456590471587644 0.0981630149919469 0.530504622752827
-0.453488848179989 0.108522895852124 0.554131622992348
-0.455004958743023 0.103458862364008 0.5600920955395
-0.454823852139116 0.104063785203719 0.567369834368657
-0.454087763470926 0.106522430210767 0.580876013207835
-0.454274447114849 0.10589887923265 0.589570753359827
-0.456369892208756 0.0988997827374615 0.606090992157777
-0.455765045561607 0.100920059985717 0.614730639624119
-0.454023292825642 0.106737771700156 0.633685870652969
-0.455840469585977 0.100668132590359 0.640767525140186
-0.4556599306528 0.101271159325882 0.651943936179964
-0.456661208849564 0.0979267420762693 0.662370244466967
-0.454184801807468 0.106198307816359 0.671099436707864
-0.454039590329724 0.10668333562639 0.689797355438529
-0.454747570958208 0.104318575628671 0.699451445009251
-0.456507741296474 0.0984393463988906 0.707917881936703
-0.456103729345616 0.0997888060614171 0.721352876500763
-0.455344618235343 0.102324349429659 0.731804358858177
-0.454093691564477 0.106502629501639 0.737444085569191
-0.453696542870358 0.107829164871697 0.753747388548926
-0.453705641891248 0.107798772796327 0.762117929690268
-0.454813346620794 0.104098875188506 0.768906115140309
-0.455831062944786 0.10069955216302 0.785640268092681
-0.453889678361359 0.107184063770221 0.797294705536173
-0.456091698771006 0.0998289899597363 0.816976662555276
-0.453881323733181 0.107211969463844 0.823996965442644
-0.454432898100906 0.105369629506951 0.840707240808281
-0.45643147837629 0.0986940758303266 0.844371985160068
-0.456363316934037 0.0989217451273973 0.856455968357986
-0.455690688056945 0.100686319118596 0.872003847556387
-0.470221098023619 0.108770951479528 0.872003847556387
0.217912799575151 0.0904969524144746 0.213601417956651
0.217831018149117 0.0908420261018275 0.21283675424538
0.217468290129031 0.0923725435000609 0.230828799326639
0.21799524986138 0.0901490564963924 0.240420266878131
0.217393284150655 0.0926890284378551 0.252263820138285
0.217733994222179 0.0912514149551831 0.255372322666312
0.217390343834884 0.0927014349909632 0.261208757966557
0.217922678065852 0.0904552704901434 0.270059119439297
0.216926737147151 0.0946576061776925 0.276782571451175
0.21668124643324 0.0956934451202009 0.289972325401834
0.216984423077114 0.0944142025403892 0.300240011845289
0.216432649222335 0.0967423918113106 0.301828692138246
0.217117305269559 0.0938535110685674 0.319803063663785
0.216866071569234 0.0949135823287842 0.329034529198904
0.21801200746151 0.0900783484255166 0.339016189349147
0.216706393864276 0.0955873364696669 0.346174629663079
0.218051499962091 0.0899117112872475 0.358517021153484
0.217085918632434 0.0939859458172774 0.362476047816003
0.217196631701323 0.0935187961382892 0.376803416832853
0.217123600395806 0.0938269490173577 0.377432594000147
0.217348727277701 0.0928770345071191 0.394613166306022
0.216970323680339 0.0944736944210051 0.403882408728023
0.217019368783676 0.0942667504304738 0.417089345295142
0.217380233959871 0.0927440932327993 0.419614684038402
0.218215580998782 0.0892193774517831 0.429017578506453
0.218382502696119 0.0885150575543185 0.43609934529959
0.217360835159381 0.0928259457504191 0.445532284954533
0.217646754620872 0.0916195192102221 0.457472516876689
0.218222352485712 0.0891908054143769 0.464035279789648
0.216777242775941 0.0952883921203415 0.481053184452631
0.218046037987926 0.0899347578842136 0.490717768108837
0.217257307946592 0.0932627749766964 0.495276924651021
0.216672448394837 0.0957305681162252 0.50227138482908
0.216655317297079 0.0958028521464542 0.512277533246836
0.217686799338158 0.0914505520140867 0.529229412634036
0.217873268280045 0.090663753244804 0.533215044249072
0.217432765067306 0.0925224401775464 0.537088380132636
0.217794464594705 0.0909962624659821 0.556941705647124
0.217766695729369 0.0911134321611049 0.554667298133575
0.216656739873782 0.0957968496369308 0.573691706201839
0.217864479055777 0.0907008390499089 0.581327545163748
0.216602329900841 0.0960264304953488 0.582528939655396
0.216932311351914 0.0946340860278878 0.604142373913891
0.217450499235423 0.0924476115143511 0.60547010537998
0.217746492169728 0.0911986803300476 0.614937117258802
0.218173955574332 0.0893950143830401 0.634421560377606
0.216819594560836 0.0951096903381829 0.638865499079496
0.218141590934715 0.0895315757769185 0.640976179868521
0.217931289651952 0.0904189342226862 0.655070782650904
0.218269396887133 0.0889923033112096 0.662183943510391
0.217605363497471 0.0917941675169112 0.676672660171144
0.218271618377661 0.0889829298144996 0.683886639422333
0.218181188515463 0.089364495256787 0.692759360521916
0.217004361425506 0.0943300734204501 0.699298704866153
0.21729795387469 0.0930912709938866 0.709181555769299
0.216999391680686 0.094351043073994 0.720896316799451
0.218207304860191 0.0892542983109472 0.727287286506217
0.216305751443166 0.0972778322737501 0.739229793239394
0.218182700023256 0.0893581175058342 0.744473241143381
0.216523558585487 0.0963588031325724 0.753274994431317
0.218228098366261 0.0891665608849747 0.765195836158817
0.216405043754633 0.0968588720561927 0.772907059772978
0.217171604489507 0.09362439752829 0.784624712020795
0.217061263728083 0.0940899762697745 0.79096290455352
0.217854512911128 0.0907428908268146 0.805370288854862
0.217335164788254 0.0929342609272261 0.816227379612645
0.216965045057442 0.0944959673741153 0.821874464139376
0.217389008001871 0.0927070714887098 0.831435165098077
0.217071454565027 0.0940469764120768 0.838547442508117
0.216403423912064 0.0968657069217001 0.850810355503961
0.216640933874867 0.0958635424618497 0.856290540761641
0.216440138184593 0.0967107924134262 0.859442149869307
0.207317148232759 0.0966940701152588 0.872003847556387
0.201746364167278 0.096829318364243 0.872003847556387
0.189358595712625 0.0921858499351228 0.872003847556387
-0.452225136643684 0.112743879265342 0.393816531051609
-0.452548851055928 0.111662625256458 0.413759368253249
-0.451621844725915 0.114758963487547 0.420128692878811
-0.452882213640385 0.110549144925582 0.431207581927257
-0.451130600633295 0.116399791403746 0.446316052056774
-0.452299836990807 0.11249436905901 0.455383167050149
-0.451029316962479 0.116738093842444 0.472002508899765
-0.451208934037627 0.116138146249066 0.473947911391353
-0.450750458691276 0.11766952170677 0.493111402861496
-0.452175047605273 0.112911184060967 0.499177158959836
-0.451256596889569 0.115978945275034 0.514921405038341
-0.451687649369102 0.11453916624789 0.525708510450296
-0.451226581819221 0.116079200048727 0.532505421869153
-0.451934738424395 0.113713852262842 0.549595988148312
-0.450967577614276 0.116944312395666 0.56939761494049
-0.452209648680028 0.112795611354365 0.580850495081108
-0.452388862501845 0.112197010686746 0.583423862740789
-0.452836242180366 0.110702696400456 0.599250229128373
-0.451282998384468 0.115890760377728 0.601505195764123
-0.451247494455806 0.116009348749904 0.619221127412658
-0.449788572479357 0.12088236390158 0.623984617095301
-0.450259535819106 0.119309276699163 0.640357563329318
-0.451679914477582 0.114565001929425 0.657585618221975
-0.452930359380289 0.110388331034346 0.666380902665511
-0.450871981732853 0.117263616776659 0.678110902994741
-0.449981167690246 0.120239067415578 0.69136124360969
-0.450368178648673 0.118946393581938 0.703860547598909
-0.452074141156835 0.113248226521141 0.71318093363816
-0.451612584482424 0.114789894070242 0.717484367184333
-0.453127092553929 0.109731213140816 0.727155421883171
-0.451163555781263 0.116289716336015 0.742161217360785
-0.452126716445434 0.11307261728221 0.759920274902637
-0.453092229676669 0.109847660306506 0.767055833451834
-0.452644424764067 0.111343394937508 0.773721494330982
-0.451780563234355 0.114228820197526 0.792979527630528
-0.452416006350438 0.11210634621832 0.797551428494045
-0.45058212171227 0.118231792110896 0.814051524906694
-0.450471430149378 0.118601518300396 0.828510712261358
-0.452788380914489 0.110862560106376 0.834657775189054
-0.45295263005265 0.110313943695196 0.847157860268578
-0.450268683378931 0.119278722496574 0.864141190262807
-0.451717513908237 0.114439414270709 0.869974249599885
-0.469932682513059 0.114990345604644 0.872003847556387
0.215811538447026 0.0993631456411726 0.209869194437189
0.214097354945494 0.106596079210055 0.217239054706356
0.215292435119976 0.101553482834701 0.227147155200081
0.21528078358088 0.101602646070834 0.237211681593533
0.215907810737926 0.0989569282881407 0.244852351033536
0.21584379552499 0.0992270380996957 0.249056077266685
0.215497229715094 0.100689359652771 0.268748500593011
0.21619004105757 0.0977660679448419 0.271902076217973
0.214143892922847 0.106399713944418 0.282498358597092
0.214007190904856 0.106976523028148 0.288765369288848
0.215664764273284 0.0999824538117155 0.298956997544029
0.21557742790899 0.100350966354579 0.305277635308904
0.215700306660371 0.0998324840305047 0.320200893130129
0.214665087491616 0.104200552834191 0.327878833957077
0.215171700871232 0.102062916509611 0.339480932924435
0.214973543181528 0.102899035515838 0.343746685522344
0.215478594807516 0.100767988952641 0.351343741900267
0.215432775229902 0.100961322957281 0.368172009855063
0.214410608986533 0.105274315427477 0.36951090687793
0.214932409408421 0.103072597942532 0.382319482890478
0.216020203260307 0.0984826922175592 0.397001177185868
0.215016493952938 0.102717806332347 0.40349731877976
0.216133749540692 0.0980035879079698 0.408440007218186
0.215802520910876 0.0994011947997808 0.415696570121197
0.214715796658407 0.103986587389763 0.430615018665528
0.214598525479023 0.104481408772232 0.441893052007545
0.215902493582724 0.0989793638268762 0.447920825566585
0.214410532665477 0.105274637461333 0.45540650810583
0.214433044389539 0.105179650078412 0.464317773451344
0.215186240522936 0.102001566989682 0.477947683613096
0.214954878112608 0.102977792080373 0.48577341428439
0.215140221437392 0.102195742810613 0.498359412822161
0.214387253799258 0.105372861772078 0.505305704405244
0.215888420475241 0.099038744780811 0.507277964451626
0.215152457975393 0.10214411119335 0.516432782801116
0.215709567961205 0.0997934063158732 0.527076130567273
0.215718773215257 0.099754565088556 0.541560563975947
0.214109126779495 0.106546408394046 0.546792312284742
0.214679800657032 0.104138471179603 0.55345582261376
0.215225174393303 0.101837286970831 0.567767639631645
0.215227087699953 0.101829213844539 0.579155411096743
0.214767829642722 0.1037670361465 0.587219425021439
0.214360004201262 0.105487840437958 0.590809405831176
0.214863109125362 0.10336500791102 0.600754559523527
0.214613135019088 0.10441976436096 0.611835312206766
0.214857481396229 0.103388753904914 0.620861316231538
0.215812164774371 0.0993605028762203 0.631769231339133
0.215298697843861 0.101527057504055 0.64695616341888
0.214283731278136 0.105809671202043 0.655236948608219
0.215415452758481 0.10103441448157 0.663123749458426
0.215965590501344 0.0987131287240592 0.669677022488486
0.214958622473613 0.102961992888287 0.677901582064811
0.215693938393252 0.0998593546969055 0.689244402374879
0.214229988098073 0.106036438552695 0.696727903878692
0.215105386181582 0.102342728877687 0.701889071413939
0.21439740912128 0.105330011768277 0.714166603738726
0.216233664171368 0.0975820018376333 0.730180570094836
0.215232968202201 0.101804401283882 0.734886609707073
0.216144700173102 0.0979573821215466 0.738291907157224
0.215528682218915 0.10055664698198 0.752040897923768
0.215805317594516 0.0993893942971102 0.763963233980432
0.215208018309632 0.101909676428194 0.775034424680155
0.214339251650253 0.105575405055574 0.788274603132453
0.215770407597605 0.0995366957314822 0.796738363528202
0.215890557442673 0.0990297279261594 0.799255888409052
0.21549137706115 0.100714054708548 0.814831224787864
0.21606270584197 0.098303354154043 0.824904931020865
0.214235569719671 0.106012887107827 0.828403267784272
0.216067327537923 0.0982838530797591 0.838840809748977
0.214175720682016 0.106265417897637 0.852143359337724
0.214609034397415 0.10443706678169 0.852268519518062
0.214090739622862 0.106623992318008 0.866957187168705
0.214708137366407 0.104018905487666 0.870621794230918
0.20157292592016 0.102985114071237 0.872003847556387
0.19532403207751 0.0992539385536557 0.872003847556387
-0.446608388805718 0.131504647667906 0.400241186241121
-0.449495690625081 0.121860632607226 0.416845367603666
-0.448196121414497 0.126201385955289 0.422457992328419
-0.446621921987613 0.131459444839045 0.438390517701537
-0.448958842627075 0.123653784311474 0.451002488032301
-0.446961428186137 0.130325443928642 0.455039474812517
-0.449309324261853 0.122483123820901 0.472741029685018
-0.449019084712955 0.123452566835829 0.485340408671802
-0.449189966085289 0.122881797781716 0.499172073239494
-0.447348447476812 0.12903274226406 0.507182756371144
-0.446494575570526 0.131884800704537 0.518432130154167
-0.449049409232343 0.123351278456582 0.527135447476751
-0.447889829461007 0.127224446375442 0.540364718272382
-0.44956729608051 0.121621459796836 0.555402019091286
-0.447576053371525 0.128272504916586 0.565692949411097
-0.449283966255317 0.122567823312756 0.576872157364708
-0.448487861772569 0.125226930015773 0.592522580255177
-0.44702772908028 0.130103989137404 0.595657532648968
-0.448394947035181 0.125537278979194 0.612936966726095
-0.44910759667872 0.123156923780725 0.618519296101838
-0.447550245077363 0.128358708435705 0.631601972916327
-0.446741008138251 0.131061679485044 0.636725336695369
-0.446845551705758 0.130712488509316 0.657750917851686
-0.446659017641526 0.131335539869142 0.664082037968318
-0.447458514675061 0.128665101544797 0.675248182304108
-0.448472210037874 0.125279209124286 0.6920858775658
-0.448336884135136 0.125731217651884 0.698701447018029
-0.448632769363267 0.124742917233417 0.715899804474156
-0.448792821474193 0.124208319513871 0.724554315715865
-0.448506884171793 0.125163392389269 0.73573826091449
-0.448345916055949 0.125701049700696 0.74001633922457
-0.44832547314844 0.125769332034945 0.75611579977978
-0.447325522264267 0.129109315864217 0.772088918093241
-0.446515154961369 0.131816062495767 0.787553116883247
-0.448751506439381 0.124346317839951 0.791394421291927
-0.448672180538935 0.124611278078425 0.802235174844758
-0.449693671240953 0.121199348072166 0.816761218925323
-0.447440711271471 0.128724567545615 0.828354608520127
-0.447280701609033 0.129259023480928 0.835066874660703
-0.44948190087576 0.121906692409235 0.84950306019669
-0.44673668351004 0.131076124382813 0.865774936464836
-0.448161756048576 0.126316171359531 0.866404987486013
-0.46055439520859 0.124599618682619 0.872003847556387
0.214037659205799 0.106847963164823 0.201056090956957
0.213620843051765 0.108606703433799 0.219086695131418
0.212148315520052 0.114819978620332 0.216720513867319
0.213674767389402 0.108379171695495 0.224435881844496
0.213472592165 0.109232242540051 0.232755752799945
0.212979501874647 0.111312818692138 0.257715511280015
0.213600097529636 0.108694238393318 0.260231189128869
0.21392330551764 0.107330474301503 0.270627437377339
0.212532279293188 0.113199857751431 0.273875637114381
0.212871096752293 0.111770230076514 0.292556281744313
0.212283274264822 0.114250525213161 0.295490575584239
0.212711702162014 0.112442789625533 0.305249723112137
0.212824367954553 0.111967400501678 0.314837362316805
0.212162705187949 0.114759261951501 0.31688376590587
0.213545501704313 0.108924603448949 0.333249000553694
0.212758954030962 0.112243412120849 0.339492248153714
0.212313150756028 0.114124462469023 0.354548758888725
0.213415772830848 0.109471989608542 0.363336966460192
0.21359807981416 0.108702752068768 0.372703149995692
0.212385648040002 0.113818562874003 0.378778845525249
0.212517181625207 0.113263561800304 0.390674015160223
0.213838857683777 0.107686798797582 0.401395834705019
0.212848849291618 0.1118641024099 0.40973093315744
0.213342655920369 0.109780503694567 0.416761355422524
0.212489912702944 0.113378622004212 0.430506880659575
0.213654157878202 0.108466132761953 0.435331382289276
0.212479871768569 0.113420989353588 0.443381384259726
0.21299547401001 0.111245424860651 0.457595867486639
0.213499720128131 0.109117777107961 0.467159083236836
0.211969830675742 0.115573088786652 0.470303259328186
0.211847430683804 0.116089551003056 0.479272774490089
0.211929781632562 0.115742074235737 0.490976667321239
0.212973157657054 0.111339587882455 0.501158562768594
0.212845994822331 0.111876146736953 0.510387675709846
0.213098810314206 0.110809401166083 0.520968955277463
0.213733020248673 0.108133375921047 0.524253042387303
0.213788739638885 0.107898270025125 0.532966914831193
0.212325570687476 0.11407205702992 0.542798913974307
0.213954214708725 0.10720005411861 0.555042654552307
0.212067195064795 0.11516226336606 0.559842885733058
0.213652542290128 0.108472949675783 0.575798868203277
0.212168692357178 0.11473399931348 0.584657791794959
0.212432097879678 0.113622569502019 0.596704413160772
0.213918910832014 0.107349017514155 0.596610461275495
0.213015307666088 0.111161737486042 0.614352710670805
0.212309392096525 0.114140321993083 0.626299051265664
0.211805900936109 0.1162647842298 0.630886958056621
0.213408305820734 0.109503496380172 0.635284532084543
0.212849102353943 0.111863034622824 0.650747577816457
0.212287027450162 0.114234688787125 0.658602196262088
0.211867533803517 0.116004726636652 0.667084825207369
0.212133818975673 0.114881146250505 0.669150504038981
0.212101178450607 0.115018871732778 0.684919120428032
0.21294986960956 0.111437850933242 0.695245720705223
0.212668139479314 0.112626600745968 0.706250031177915
0.213786429969357 0.107908015589852 0.717892862118369
0.211968181676344 0.115580046678323 0.728494408127402
0.212130605345454 0.114894706043763 0.725096803730622
0.21234134731903 0.114005488119493 0.742036146155024
0.212227101817809 0.114487542765415 0.747670039764835
0.211891976582582 0.115901591238925 0.764919394003788
0.211932977001897 0.115728591493601 0.761245899389594
0.212925662233837 0.111539993055327 0.781705708879581
0.21379957968796 0.107852530840981 0.784277583629321
0.213860201793247 0.107596738121029 0.803033628288999
0.212549315157058 0.113127975557055 0.809091163148211
0.212082987949363 0.115095625876638 0.814260899872688
0.212518270075346 0.113258969125399 0.825098797795749
0.213106225257451 0.110778114088675 0.832436252484187
0.212689853441546 0.112534979489433 0.838600029000192
0.213459799222277 0.109286221886361 0.853701303150207
0.213562418168182 0.108853225058437 0.870903031334728
0.20951062630008 0.110879309289606 0.872003847556387
0.202419464174574 0.112244799045518 0.872003847556387
0.192907750890274 0.113150092052828 0.872003847556387
-0.442040313398179 0.142738860467833 0.407397688323126
-0.441825910658855 0.143086454829879 0.426596972585582
-0.442064609862191 0.142699470514445 0.430553529458924
-0.444640956558133 0.138076162325405 0.437047589012714
-0.4446374916571 0.138087735607256 0.455091701318024
-0.445416105015803 0.135487051845198 0.464550369031535
-0.446438929264784 0.132070667594879 0.474602244396413
-0.446338513670044 0.132406070531106 0.478891753708909
-0.446440249666053 0.132066257259373 0.491413403572426
-0.445940552701714 0.133735319017152 0.50453949536962
-0.445662624458718 0.134663640449732 0.512313236327016
-0.44572707784653 0.134448356602853 0.523181878344448
-0.44359188208092 0.140223423733454 0.546468273693286
-0.443080294743687 0.141052820198614 0.562210407336154
-0.445460707609151 0.135338072587433 0.566253553377568
-0.444911842179678 0.137171364289959 0.579474535374716
-0.443060067608262 0.14108561286841 0.591106975165149
-0.445900447971358 0.133869274747363 0.600581168519831
-0.441894207341207 0.14297573077007 0.617944294419278
-0.445776531783161 0.13428317314109 0.618885561568996
-0.445517339540996 0.135148913560149 0.634260319810224
-0.445609502599642 0.134841075314886 0.64890392176418
-0.445122997475328 0.136466074376124 0.657393228100337
-0.445301846450158 0.1358686923514 0.666064102664735
-0.445842153930875 0.134063985463296 0.680142949011916
-0.446416589211605 0.132145286676215 0.69507060338204
-0.442616022848313 0.141805507845223 0.708263125810866
-0.444346249600863 0.13900042678076 0.715123857748947
-0.446058200634111 0.133342357524767 0.725336476327979
-0.443019522292404 0.14115134581214 0.742476225587982
-0.446220151898695 0.132801416351156 0.756154343413796
-0.4448419629555 0.137404771232691 0.756087874767173
-0.443142916211468 0.140951296919516 0.772532306681529
-0.445581267019317 0.134935386328746 0.785317468608452
-0.444726451041798 0.137790598106752 0.790809571745621
-0.443577051720475 0.140247467034831 0.807161340611101
-0.444981400795734 0.136939028225764 0.820409549100972
-0.444360857990068 0.138976743343962 0.826710296805264
-0.445960886491105 0.133667401153556 0.836627032668994
-0.441720107219787 0.143257985655562 0.847309420612297
-0.445053620288253 0.136697804440689 0.859753139110713
-0.459840725226405 0.140020440687418 0.872003847556387
-0.461841593839359 0.133793885019461 0.872003847556387
0.210316457653318 0.122549434799252 0.208024790158637
0.210315181111361 0.122554821120591 0.209579137406239
0.210024718869581 0.123780415753364 0.212305791348378
0.209800348592566 0.124727137797431 0.228230091276303
0.211606349094245 0.117106785809247 0.238792333225506
0.211785099453579 0.116352555312153 0.249447071891553
0.20989634578799 0.124322081199531 0.258033656193589
0.210504271675392 0.121756960514117 0.27030253351666
0.209866899585142 0.124446328357943 0.279872055159377
0.210642696097766 0.121172883809116 0.27966840117362
0.210329861269402 0.122492878739397 0.291387086572302
0.21082747566531 0.120393213292082 0.312195383587212
0.210686148445892 0.120989538241314 0.317511352594323
0.211370262195561 0.118102945702946 0.325913316694555
0.210174112575375 0.123150054564697 0.329967763180548
0.210108710858601 0.123426014677655 0.338073078659842
0.211714798684665 0.116649186793517 0.351728511873775
0.209764566195919 0.124878120290059 0.351170675952614
0.211803440505603 0.116275165924867 0.376236823481425
0.210376368038309 0.122296645156636 0.376167338232262
0.209985132078604 0.123947450746455 0.389969475310908
0.210932611079267 0.119949598320748 0.394541087967031
0.209959829446566 0.124054214261848 0.40769092446798
0.210490665145049 0.121814372763146 0.408835884178244
0.21066704927363 0.121070126488758 0.428990119426359
0.209763481514026 0.124882697064991 0.435512491309804
0.211253482174276 0.11859569466207 0.445263907485599
0.210909319528746 0.120047876152431 0.453175577099419
0.210185076034848 0.123103794654959 0.456873068234303
0.210011451224033 0.123836398090596 0.467818219594475
0.210470430671514 0.121899751372115 0.48040451567152
0.210517347829597 0.121701786167484 0.493837421146298
0.210783616534068 0.120578275266118 0.500582908335365
0.210140417467287 0.123292229820831 0.514227112786935
0.209745004431588 0.124960660427546 0.520415002137158
0.211304281731389 0.118381347819038 0.525384146154244
0.210801940253963 0.120500959011114 0.53771071554226
0.211267964200691 0.118534588289907 0.546991500005113
0.210968798222223 0.119796908016114 0.559762572503168
0.210302554507481 0.122608098606336 0.564459230155091
0.21066105580795 0.121095415694418 0.578034585225345
0.210026957443111 0.123770970175559 0.577850386539924
0.210694901265286 0.12095260604522 0.596215909524857
0.211812027510822 0.116238933375523 0.598703074574124
0.2112867531497 0.118455309017942 0.605320019816146
0.210879868976211 0.12017214166418 0.61674321242616
0.209717050758128 0.125078609913679 0.63044411231651
0.210021697936438 0.123793162468472 0.638108954377267
0.210808820341329 0.120471928738207 0.655517770277518
0.210552423192996 0.121553786975368 0.656447688299119
0.209703039153564 0.125137731358331 0.666728462475027
0.211151035836762 0.1190279631753 0.670469480085974
0.210357330066212 0.122376975172263 0.692572577869076
0.210689873081088 0.120973822281548 0.689854248902824
0.209845949143107 0.124534727969385 0.701447861020089
0.211745630895623 0.116519091425409 0.706444812578676
0.211452907143481 0.117754228417094 0.716581955520034
0.211515586868317 0.117489753647942 0.730677092132671
0.210393464534729 0.122224507125469 0.74372848273044
0.210983533857811 0.119734731549471 0.747840571242056
0.211398031597269 0.117985773744623 0.761498200207106
0.210870664293815 0.120210980479416 0.769559692757479
0.210828415518172 0.120389247617864 0.771800743957442
0.211470644492602 0.117679386331772 0.78714459440806
0.210725398146234 0.120823925589622 0.79579056775299
0.211259304198052 0.11857112884915 0.808685402386648
0.209618919917182 0.125492669349547 0.81249474839321
0.21004236284913 0.123705967637476 0.823561681872658
0.211052647679313 0.119443108348589 0.826370259668801
0.209887439896358 0.124359659278248 0.844393063657087
0.210249145844249 0.122833454475652 0.85764861236317
0.211832451444718 0.116152755345599 0.865414234553657
0.210916553826246 0.120017351303028 0.87207996818939
0.194804963457039 0.120266712729492 0.872003847556387
0.194103322638025 0.121094465556913 0.872003847556387
0.182893188691327 0.126465999093635 0.872003847556387
-0.437488194056426 0.150118854881807 0.412486831525414
-0.439396417188392 0.147025202234049 0.434711248495539
-0.441052340651326 0.144340583271112 0.435327541085243
-0.440240921115111 0.145656074187558 0.449400119383854
-0.435942292758604 0.152625103529077 0.460320057424798
-0.440513900543529 0.145213514029177 0.475483319841806
-0.436828918642536 0.151187686453763 0.4912167806096
-0.43947200502191 0.146902657602144 0.497125032497548
-0.43793432137115 0.149395583622113 0.516314487238638
-0.435610540030043 0.153162948233882 0.523873005921596
-0.43866210197462 0.148215689953917 0.537774466117182
-0.440204881821989 0.14571450186969 0.550207631571944
-0.437277556573815 0.150460344928166 0.554572422125521
-0.435698059675821 0.15302105948966 0.569643449780509
-0.441656472525093 0.143361151600063 0.580480545496743
-0.435146165652687 0.153915802026497 0.594043743546452
-0.437709913573769 0.149759398400854 0.605285710181601
-0.440970773843788 0.144472821145123 0.618812453370511
-0.43511928532235 0.153959380999905 0.628553957669116
-0.43594555212167 0.152619819379122 0.64035907638984
-0.439485410201131 0.146880924835416 0.651574442397755
-0.439933424586248 0.146154594216354 0.656211118943614
-0.437762050762376 0.149674872462101 0.673289885730135
-0.437946507125152 0.149375827813947 0.683830699862542
-0.437678817685387 0.149809811728214 0.699368383234812
-0.436770361897799 0.151282619915875 0.702601350501757
-0.436942360633199 0.151003771842886 0.719450459331766
-0.438558280364324 0.148384007795896 0.729962064549776
-0.440014265594861 0.146023533023272 0.737998181325218
-0.439484973500796 0.146881632823452 0.749381997519626
-0.437126659541913 0.150704982462667 0.769212993545246
-0.43832337859949 0.14876483562183 0.77828649622075
-0.438078007008686 0.14916263735626 0.78534508634009
-0.44047570699918 0.145275434230029 0.796650103630549
-0.436838428399135 0.151172269030512 0.815024563026343
-0.44038228845516 0.145426886395773 0.824156227051536
-0.439364476300406 0.147076985493059 0.829820947848117
-0.440501421400903 0.145233745485333 0.84080766509714
-0.441148659462848 0.144184429128915 0.853902661157024
-0.43872207216003 0.148118464991191 0.866687327860391
-0.451355099739987 0.150529332245306 0.872003847556387
-0.462826156910943 0.153024343428509 0.872003847556387
0.207857015926001 0.131610569254029 0.196449369057318
0.209272663802361 0.12695368415577 0.207978021642027
0.206021580808452 0.135014653199772 0.218040542922985
0.209186790589886 0.127316022983919 0.229310023075816
0.208586540023257 0.129848757938625 0.237524155596432
0.209425808283864 0.126307496708417 0.246723748991071
0.206093139877275 0.134881936398714 0.257127102976645
0.208231748052583 0.130915573498604 0.262619700687687
0.206522336678719 0.134085927906017 0.266955103685037
0.208709246334104 0.129331003220974 0.283126788175625
0.208429134530726 0.130549491290125 0.291613707868949
0.208413671709668 0.130578169362377 0.30109830460971
0.208812032670537 0.128897300094944 0.3082947695025
0.207688327872012 0.131923426020759 0.321285667914131
0.209523669704971 0.125894574079545 0.325057197628992
0.206835191153768 0.133505693341644 0.340937629730147
0.209046496411238 0.127907989056023 0.353531270921508
0.208892532012241 0.128557636114768 0.355554294263787
0.208413671709668 0.130578169362377 0.36010602497526
0.208551290582027 0.129997491645684 0.37492594019974
0.208474387031833 0.130465563881821 0.386491093249443
0.208489970135636 0.130256230989961 0.39245835257344
0.209198533270874 0.127266475177963 0.405219157339481
0.207302471947706 0.132639052492511 0.411438539497877
0.206465020625504 0.134192228943147 0.420296995295028
0.208998808471958 0.12810920654326 0.431272894661084
0.207464203995063 0.132339096661517 0.439319622659323
0.208226764709768 0.130924815839622 0.448015981163292
0.206196560341893 0.134690127960539 0.460909595807707
0.206007113424783 0.135041485087216 0.470684952329635
0.209233179077928 0.127120288482878 0.481784225583507
0.208502000221342 0.130414351167082 0.4916921944157
0.209499527508995 0.125996441178102 0.49602565139755
0.208278703795528 0.130828487178205 0.509318707264777
0.207834580604707 0.131652178851829 0.517384060182205
0.209047075717677 0.127905544694034 0.525027564852413
0.208761941813158 0.129108656605787 0.535547012641393
0.2081599183498 0.131048792230082 0.543400271257484
0.208637149934858 0.129635211297784 0.553723668707685
0.207492771540751 0.132286113953103 0.559274872300227
0.206824710201524 0.13352513180663 0.569772978438797
0.206273120056511 0.134548136727545 0.579050593925624
0.208639177391292 0.129626656520722 0.590476158798247
0.207803968187427 0.131708954074886 0.599693882575581
0.208945422063619 0.128334468508888 0.607386164916968
0.208505062615083 0.130192548833918 0.618792420087022
0.207579914853194 0.132124493883818 0.62566491808924
0.208008677062388 0.131329291406267 0.636168160779658
0.206535603876803 0.134061321938979 0.647395738441014
0.209158100628531 0.127437079209459 0.647454245187644
0.206767411166368 0.133631401281274 0.662006376727212
0.206370872528043 0.134366840414851 0.666862865201365
0.208483015582261 0.130285575469429 0.688086669403183
0.207149559492644 0.132922651094501 0.692156213521466
0.208413671709668 0.130578169362377 0.708127054900156
0.206442273204532 0.134234417375633 0.715148936195259
0.209268226249662 0.126972408244441 0.724229935278465
0.207427440469291 0.132407280018516 0.72842850815454
0.208809626135672 0.128907454379354 0.735661418330315
0.207350631456837 0.132549733610956 0.744902649111735
0.206803406707943 0.133564642263739 0.753503498746495
0.20606710124219 0.134930228871062 0.76218771223213
0.207410781943216 0.132438175701305 0.775703749347467
0.207150000721105 0.132921832771528 0.783917567652341
0.206678749738561 0.133795836918424 0.792382774884996
0.208273795850041 0.130837589683806 0.802663144476824
0.208839390911751 0.128781863013037 0.808975903079834
0.208733522766056 0.129228569718704 0.821721691353757
0.207500014480098 0.132272680858511 0.833190201677572
0.209401645357782 0.126409451276889 0.844783730488978
0.207371149508489 0.13251167987124 0.848348542300953
0.206636458579425 0.133874272083189 0.855974130643284
0.207873018140536 0.131580890797363 0.867655176061576
0.199337257718042 0.12794275295788 0.872003847556387
0.189918010547756 0.127386582512568 0.872003847556387
-0.428018846319829 0.165470766409933 0.419815391908746
-0.434498497442396 0.154965815748726 0.428672224015318
-0.433264603409609 0.156966231464078 0.438411427835985
-0.42779094224135 0.165840249435273 0.453650652586932
-0.433643776372924 0.156351508048211 0.460542261641925
-0.431062394203575 0.160536500698864 0.466823679944343
-0.431333534711173 0.160096921838723 0.485196323931068
-0.429926597147383 0.162377879472311 0.497429821124904
-0.429238190411861 0.163493939373487 0.513244166021453
-0.432647185987258 0.157967201954075 0.517902065862564
-0.429569775339021 0.162956366711945 0.529437338046369
-0.431274380373206 0.160192824131913 0.545599611784996
-0.432223292905457 0.158654426594063 0.550635866688565
-0.434256056726293 0.155358865885648 0.564157526089912
-0.431089779902696 0.160492102410647 0.568893404282256
-0.43070452082242 0.161116692771072 0.58757331036094
-0.428969552281398 0.163929461325649 0.605212035160988
-0.431150533716172 0.160393607013136 0.610711595970912
-0.433608343421349 0.156408952716303 0.628467144053566
-0.431344150448824 0.160079711375049 0.630036633383141
-0.432036414663646 0.158957397644933 0.645149939306567
-0.43105676247962 0.160545630971646 0.653563354025848
-0.434178157179206 0.155485158317631 0.66900002912051
-0.432237869097486 0.158630795356022 0.682244900161437
-0.433023243752948 0.157357528964032 0.691829853712114
-0.43388565646474 0.15595936680752 0.702830221051044
-0.428965217934235 0.163936488263093 0.714585591560716
-0.434304997329408 0.155279522320488 0.717439639597063
-0.431389086597497 0.160006859918113 0.73090969929338
-0.433859904035599 0.156001117203091 0.745775259319117
-0.434635410128735 0.154743849937962 0.747731218556636
-0.430616355532007 0.161259628248354 0.776227371254542
-0.434790504575439 0.154492407463724 0.780239669913397
-0.434561047574036 0.154864408121323 0.79313062792068
-0.428391682569186 0.164866316211902 0.803625961609167
-0.427735541358513 0.165930066545759 0.814292437017666
-0.43300069107139 0.157394091859559 0.827920219195791
-0.428028383073161 0.165455305218995 0.836672763325277
-0.434454380093228 0.15503733975018 0.84222602946675
-0.430581113632429 0.16131676317881 0.868669985419616
-0.437306724535786 0.159328686918933 0.872003847556387
-0.438975462666985 0.156527642573085 0.872003847556387
-0.45899206031181 0.160464509257982 0.872003847556387
0.200990212156235 0.144346065185071 0.198287517998383
0.205468152074896 0.136041068053123 0.203787811750626
0.205617920942695 0.135763299695324 0.216754962048918
0.204305450689118 0.138197468507258 0.215973499670597
0.203493513456352 0.13970332533248 0.235355750552541
0.202978847000672 0.140657849849551 0.242388872965991
0.200720732006311 0.1448458556943 0.248395540036327
0.201844084950256 0.142762432703573 0.259994787523709
0.20569748225521 0.135615741558267 0.275149249187852
0.201803382534242 0.142837921310923 0.279952873665341
0.204108541201654 0.138562666066484 0.287605251483437
0.205197574409174 0.136542894066557 0.295309742121305
0.202300506356053 0.141915932184371 0.310132899759608
0.204499143872805 0.137838236055681 0.320586680574792
0.201221058529254 0.143917926688203 0.323946015919173
0.202183790240112 0.142132399360291 0.325095840648008
0.204153409491639 0.138479451234126 0.342262422037721
0.203575723867628 0.13955085405277 0.353664240494658
0.201472278414932 0.143452002520406 0.36004100632592
0.205017319525011 0.136877203218353 0.368893748167097
0.201345461271484 0.143687203535103 0.381145715566083
0.204428944749358 0.137968430638343 0.385787425542526
0.204726572207456 0.137416436812881 0.405981128764575
0.201013601678243 0.144302685881929 0.410473863678634
0.201194512762464 0.143967159710767 0.415828801751949
0.204559706321704 0.137725914101044 0.424340657019264
0.204057555080423 0.138657227315246 0.435591197417569
0.205081455852156 0.13675825298171 0.439977368453037
0.202868479702005 0.14086254221156 0.452891436140099
0.201863429520964 0.142726555356587 0.46180412364677
0.202052108871984 0.142376621793933 0.473173913786897
0.201000866275798 0.144326305555862 0.482176384263323
0.202455166008404 0.141629093148443 0.495690216991016
0.205542546981996 0.135903091773557 0.507876766559666
0.205342784758343 0.136273580150944 0.516627116160666
0.201845084028584 0.142760579766105 0.516404643231116
0.204861406477879 0.137166366858954 0.528433450966996
0.201268026520365 0.143830817651782 0.529028530846638
0.202134238892847 0.142224299610049 0.545888516503867
0.201259782644788 0.143846107129592 0.561681124867791
0.205251944364123 0.136442057001275 0.571241145030862
0.204214697485413 0.138365783649976 0.581299599753072
0.205957159567154 0.13513413185155 0.586114242605912
0.202853335161961 0.14089062998494 0.588463336180277
0.202219654677751 0.14206588349426 0.603371882460736
0.201718856538216 0.142994687182578 0.616019137688503
0.205694154798791 0.135621912814808 0.623304357317822
0.203721137090449 0.139281163878179 0.637371110294938
0.201836826544376 0.14277589448312 0.63407550599848
0.205058412350968 0.136800990538435 0.643885560737253
0.201292003493366 0.143786348834508 0.654334661247255
0.204243483546968 0.138312395671799 0.670363412904145
0.205157852668592 0.136616563867316 0.678619342830834
0.205310380063054 0.136333679416751 0.689945205524145
0.202010817933218 0.142453201903147 0.690473925005988
0.205595084658235 0.135805652938197 0.701154171712546
0.204113930635001 0.138552670570941 0.715099389318879
0.204086333113678 0.138603854226729 0.725740356575958
0.205493350474643 0.13599433392059 0.733398687443677
0.202801468358715 0.14098682458782 0.741771386590804
0.203875918235908 0.138994099515442 0.751422708042173
0.202713312513523 0.14115032254777 0.764800854425156
0.202158844699764 0.142178664527937 0.776134828535117
0.200998344003941 0.144330983479397 0.782458044461207
0.205378578695705 0.136207195038028 0.793725189472528
0.205381521414046 0.136201737334748 0.802204227717504
0.20345551813465 0.139773793235912 0.814712836200329
0.205209202311961 0.136521328413368 0.818080820867024
0.205200871203813 0.13653677967679 0.827159070525164
0.203145539011463 0.140348695038034 0.835156476644567
0.202684642097099 0.14120349604507 0.845898365862491
0.204631557580915 0.137592655390006 0.857773671033421
0.205206738424591 0.136525898054299 0.869481924027317
0.199281250515373 0.138851800484235 0.872003847556387
0.182307427777878 0.143923017084712 0.872003847556387
0.179429028336101 0.13773394809343 0.872003847556387
-0.426979649944204 0.167155534068985 0.429357398321456
-0.422379006680399 0.17461419651576 0.445835315509114
-0.426428523446816 0.168049032276471 0.451804326562411
-0.424990751106101 0.170379979917874 0.46246627822751
-0.421816571032455 0.175526029362929 0.478595560260134
-0.42658861533915 0.167789487835203 0.492551244095338
-0.426067357451223 0.16863456240648 0.490628058910861
-0.422320548554883 0.174708970094256 0.512759193771458
-0.42608290015303 0.168609364241867 0.519263312391521
-0.426033362918713 0.168689675078445 0.530988791472228
-0.422877012618247 0.173806818509272 0.549803217701894
-0.421186250472484 0.176547918698942 0.557319617150489
-0.424029833208141 0.171937840814487 0.570977931130354
-0.424451002744747 0.171255031644925 0.579386201700894
-0.421101148390462 0.176685888036474 0.587144303679363
-0.422888868717695 0.173787597144203 0.60638247123665
-0.426621241543767 0.167736593526035 0.609304480275961
-0.421430342975723 0.176152190648961 0.632240258133374
-0.425339645974911 0.169814344004232 0.633941199092403
-0.42287769618107 0.173805710302426 0.648198209621077
-0.424860893070466 0.170590508576208 0.65634982941755
-0.423982623395573 0.172014378384546 0.676844104395989
-0.422193532340399 0.174914891530626 0.689815392803347
-0.425545159421753 0.16948116115558 0.685966364517904
-0.424309992249755 0.171483640911779 0.704968858913475
-0.42577801982723 0.169103642825625 0.719111035585426
-0.423784451704011 0.172335658620616 0.727555356963089
-0.425521768168546 0.169519083561616 0.746593483143213
-0.421024477183391 0.176810189057035 0.753447830915676
-0.425502643702094 0.169550088560605 0.764939305516245
-0.426682868494553 0.167636682579418 0.776755921223309
-0.423127688863652 0.173400416753975 0.782796667780258
-0.427014157924381 0.167099588984548 0.795962107482938
-0.423728539033467 0.172426305452411 0.805205572704934
-0.422782388603165 0.173960225010794 0.82728894251263
-0.421563200781477 0.175936798698377 0.828848793116081
-0.427768370644575 0.165876842996557 0.840795596938977
-0.42663438139373 0.167715290916844 0.848207593999086
-0.42680283071947 0.173184766272849 0.872003847556387
-0.427841944180292 0.177150621739253 0.872003847556387
-0.450392856991334 0.168797607347681 0.872003847556387
0.200419916873898 0.145403761529866 0.192252234235765
0.198598116174409 0.148782558445203 0.192931052588091
0.196930196522697 0.15187596036113 0.207007140618003
0.196662818429351 0.152371852297762 0.209371735987741
0.198621460150391 0.148739263613852 0.230684673564818
0.199236596420069 0.147598403073463 0.239566101503429
0.198814768796604 0.148380744343486 0.245840679111593
0.200102140201912 0.145993125031248 0.255460155106278
0.198398398478961 0.149152964238497 0.256692363426758
0.199734079411869 0.146675747813423 0.275249129281041
0.199153964660498 0.147751655805459 0.284996888903581
0.197498557464676 0.150821851534575 0.286298994127065
0.19966257589612 0.14680836158315 0.297199475860306
0.200237072356282 0.145742873537167 0.302971997131755
0.197752408068153 0.150351048314317 0.322268072853453
0.200037946954977 0.146112180833999 0.329730925837665
0.195775330267091 0.154017829415832 0.343195832393911
0.196086589934203 0.153440552656963 0.343786096735571
0.195696879190429 0.154163328457469 0.354002621523604
