ply
format ascii 1.0
element vertex 856
property float x
property float y
property float z
end_header
0.251893806862642 0.274731690646923 0.636658716893432
0.259684716082067 0.273169137941343 0.640770592583442
0.272695331719527 0.269163230330046 0.644187627537491
0.273065160253706 0.275244318730689 0.659587950260062
0.274002264325606 0.2764135965672 0.663435239425279
0.285573309030096 0.272816418368204 0.666388950268285
0.293477664234823 0.274226177271756 0.677959307033183
0.295040573345324 0.276209508865609 0.684457860591162
0.297817853460124 0.278715562436668 0.693490242639546
0.305593533107554 0.279109924528985 0.702420635787027
0.3149280064693 0.274982277836403 0.701775448606746
0.321586949101621 0.28091950719808 0.703082431365766
0.346669323942205 0.27533183453988 0.703082431365766
-0.0202809414191784 0.260369012345178 0.0135696854477225
-0.0178824723502383 0.262209422391608 0.0114488963645648
-0.0281645227179976 0.254319727652667 0.0341405136103188
-0.0300943708100406 0.252838903128943 0.0567268492562958
-0.0286961450778035 0.253911799468575 0.0545094502907754
-0.0173084165828866 0.262649910874502 0.0560241253142375
-0.0204734442121592 0.260221299756862 0.0719983169799963
-0.0173833925661834 0.262592379779068 0.0777181190728918
-0.0169372709424319 0.262934700940893 0.0878420940496457
-0.0178169545323356 0.262259695981478 0.0930881804256646
-0.0255921633566398 0.256293568413417 0.116810017460404
-0.0278871481443693 0.254532564648791 0.130773401374628
-0.0256589509274445 0.256242320507877 0.131941430020299
-0.0200623295605192 0.260536759124219 0.139071380699067
-0.0241141608966794 0.257427679589244 0.154686095224243
-0.022505949629924 0.258661703496597 0.155339824385492
-0.0301614583754207 0.252787425029469 0.177223303646061
-0.0281250082927164 0.2543500481376 0.192667368278247
-0.0254443475304529 0.256406991486101 0.191354668302081
-0.0172692248327837 0.262679983762062 0.2015186969781
-0.0219724379674291 0.259071081393631 0.216742752236702
-0.0207876051620251 0.259980235581461 0.214658665164123
-0.0177966640294168 0.262275265431968 0.234766830147563
-0.0219665757959387 0.259075579596024 0.234316176540095
-0.028437017054476 0.254110635394216 0.262557024207222
-0.0221988401977055 0.258897356852201 0.262660491054981
-0.0293445768459307 0.253414240273029 0.271356614578168
-0.0213354708148517 0.25955984348026 0.281773832718492
-0.0269904288091608 0.25522064159534 0.292275159716011
-0.0209510843572926 0.259854793582959 0.298790382072991
-0.0298538849336389 0.253023434432134 0.314816834641671
-0.0253676163045284 0.256465869426574 0.327178507835532
-0.0226635883734237 0.258540743034359 0.323839789567391
-0.0272592429562251 0.255014373245547 0.347054033917314
-0.0189434614629857 0.261395296811445 0.345381068654588
-0.0223924546095222 0.258748791288753 0.356748271285876
-0.0161687278668897 0.263524424784182 0.367082088995655
-0.0219619706851635 0.259079113221805 0.377157578243196
-0.0268664840988523 0.255315747716576 0.387958622764003
-0.0271855585482882 0.25507091328035 0.403528179538456
-0.0163548293932861 0.263381624060473 0.407423592346074
-0.0287826429682206 0.253845427302855 0.429675892806663
-0.0247446951297018 0.256943853655402 0.432423676388595
-0.0229368107721409 0.258331092114103 0.443072000213149
-0.022292195762541 0.258825722607825 0.444317169599159
-0.0169249506044121 0.262944154668757 0.460788701070693
-0.0219123451281523 0.259117192250992 0.463920873100388
-0.0188961679394528 0.261431586408409 0.47530729616215
-0.0300554079805516 0.252868800359538 0.499650137832303
-0.0224681407279429 0.258690715287474 0.503582722853001
-0.0163921488945019 0.263352987800013 0.508526688266921
-0.020176029324783 0.260449514226572 0.523770485007018
-0.025469796563901 0.256387463755918 0.535286094919339
-0.0221106054027267 0.258965061791668 0.533715120855109
-0.0162678455088297 0.263448369142536 0.5453547877347
-0.0171565474740254 0.262766444140371 0.548398416921293
-0.0176583058977958 0.262381431360366 0.566137341992908
-0.0288607610526646 0.253785485188412 0.584941856538934
-0.021429955443137 0.259487342875028 0.585549248779937
-0.026348187104702 0.255713450987977 0.602785348135333
-0.0189985128140871 0.26135305442402 0.606754948705697
-0.0233568931731029 0.25800875155067 0.621252701422151
-0.026890920908593 0.255296996692962 0.627703286856167
-0.018896324212321 0.261431466496019 0.629118715438445
-0.022211516944297 0.258887629642423 0.646001862428932
-0.0222497040492754 0.25885832764618 0.661803693724215
-0.025419244211088 0.256426253940538 0.675719487550435
-0.0221914989008561 0.258902990027401 0.676360747378812
-0.0251866457857718 0.256604732989644 0.689168577368269
-0.0255211261732088 0.256348077161414 0.695506832000555
-0.0182974871078677 0.26189097036767 0.70224645156253
-0.00392029753017766 0.255520619432837 0.703082431365766
0.115132373075157 0.271655468525638 0.628007419924402
0.121270928188416 0.266563336925057 0.628007419924402
0.127173021171907 0.269620960035719 0.628007419924402
0.151324464058212 0.278193791480751 0.628007419924402
0.158791942631052 0.269339814549839 0.628007419924402
0.173646090772562 0.270164402825147 0.628007419924402
0.182307172088986 0.275291362483908 0.628007419924402
0.205799880295227 0.278125638935869 0.628007419924402
0.215274489238859 0.273397988573037 0.628007419924402
0.221009973571148 0.277706387602677 0.630196116636302
0.236335315583978 0.280032517460389 0.641711058570624
0.241947009266617 0.280583786528846 0.645130914100609
0.245797213368588 0.282475086646544 0.651488326942
0.253533586843932 0.283796385120596 0.660728777990832
0.252690789490093 0.284996484054313 0.66283097666369
0.27146512050359 0.278745088524474 0.666598594672547
0.266489354409707 0.285933386683379 0.67926431277955
0.28119412605482 0.283941928469487 0.689391064712707
0.286771269285463 0.280135741329738 0.685695401178444
0.290710088357521 0.280602719603059 0.690879231617287
0.287620749788783 0.286758590680452 0.702924806134064
0.310080424646808 0.289886194061009 0.703082431365766
0.322632662238559 0.283873964925825 0.703082431365766
-0.0125880114022568 0.266272005163795 0.0220257087866144
-0.00513762758211142 0.271988885739794 0.0176687817589943
-0.0042763689175413 0.27264975275675 0.0207567223458201
-0.00337344710266068 0.273342589033343 0.0291994908054211
-0.00218943069959617 0.274251116773623 0.0473153427618077
-0.014741461750493 0.26461960459432 0.06130187418994
-0.0141208668774914 0.265095803788976 0.0733902470050469
-0.00854067804597075 0.269377633277421 0.077319620081234
-0.000982323724013562 0.275177362533366 0.0735815001128768
-0.0106464584581427 0.267761811136404 0.107852811273652
-0.00264710174852894 0.273899933426161 0.103900147466822
-0.00265435250865379 0.273894369722234 0.11372955909786
-0.00677357562939215 0.270733578652184 0.126035801288713
-0.00206709938363771 0.274344984893834 0.138110777083516
-0.013913385850834 0.265255009580224 0.148001169821394
-0.00992753852934912 0.268313457799963 0.152173210908697
-0.010315147062455 0.26801603531174 0.165886262282472
-0.00645522970947344 0.270977854068051 0.170266788828696
-0.0137685369444206 0.265366156055294 0.200412851197544
-0.00664220028533078 0.270834386499237 0.196228753441033
-0.0040854095487998 0.272796281033993 0.202649462535226
-0.0159576343275571 0.263686402553899 0.227810224886624
-0.00743237934753386 0.270228060779473 0.225495449066179
-0.00767880313127364 0.27003897315973 0.23061522837997
-0.00299540965867128 0.273632667366582 0.245404239270433
-0.00518913818000182 0.271949360267866 0.2533968907338
-0.0133638674908167 0.265676669848255 0.273015693887256
-0.00230534736560094 0.274162170787441 0.26857532257525
-0.00561577067911916 0.271621993637344 0.285503776073406
-0.0084664016114489 0.2694346275902 0.299524644989106
-0.00923188549552478 0.268847251147086 0.312528301178724
-0.00699792335783444 0.270561430585458 0.320315608580518
-0.00138664169785205 0.274867118440314 0.322500504801009
-0.00345726209670841 0.273278275526413 0.330046152736801
-0.0120281897725312 0.266701571408738 0.344441962385316
-0.00670568966032147 0.270785669388357 0.352905152482827
-0.00207152568519487 0.274341588473192 0.355868337063756
-0.0142027592446119 0.265032965565575 0.385337599440896
-0.0153444576223145 0.264156909588232 0.396914011480139
-0.00658836367368038 0.270875696784298 0.39360902114866
-0.00793114574594111 0.269845343861278 0.404681877355448
-0.0158112613290801 0.263798718505942 0.426695606744677
-0.013456399967818 0.265605667181388 0.436399038896073
-0.00810704713825834 0.26971036997573 0.438983578177018
-0.00933068316106245 0.268771441031969 0.452198943219553
-0.0122633203889132 0.266521149341088 0.460592993264922
-0.00440620713356216 0.272550124389526 0.456604932974666
-0.0105460843090968 0.267838830929862 0.475970898223204
-0.0135319878778727 0.265547666538038 0.492094316679837
-0.00659196425623877 0.270872933960129 0.497294947906328
-0.00906118411993588 0.26897823491946 0.51128994796009
-0.00840702740262404 0.269480187023021 0.517613553078268
-0.00315669292126361 0.273508910366486 0.519668767301109
-0.0114280982306592 0.267162037844074 0.5349330343015
-0.0161027299397826 0.263575066774802 0.559637915048762
-0.00622942751938782 0.271151118182448 0.553525936215144
-0.0039147150724808 0.272927259512371 0.567143801076855
-0.00641419892000877 0.271009338100145 0.57361769463739
-0.0128860464494771 0.266043314828699 0.589544187063756
-0.00604289032835092 0.271294253203393 0.596587068978009
-0.0019304754884823 0.274449820095789 0.597782203490511
-0.0108078584719756 0.26763796454993 0.617160149835116
-0.0108077818138227 0.267638023371799 0.625095924726017
-0.0143121879785855 0.264948997944736 0.643571285022219
-0.0090618374509397 0.268977733600949 0.644788538781403
-0.012713183528029 0.266175957213547 0.66217416158434
-0.00373177852878084 0.273067631659439 0.661693756186458
-0.0156349414885557 0.263934013478093 0.680485563782913
-0.0138895429365198 0.265273304891849 0.695634408367176
-0.00612813522161991 0.2712288424962 0.694990658770922
-0.00960828570552773 0.26855842910767 0.70286465588074
0.0102702968449621 0.26998916239062 0.703082431365766
0.0131773208480224 0.272957737075257 0.703082431365767
0.117360955456089 0.281153260986136 0.641985530910784
0.134463266656343 0.281907676781067 0.638016712775314
0.160923473882907 0.284739486084186 0.636288992586979
0.158422821216059 0.286317418431904 0.641344697664324
0.183350234180834 0.28388866554911 0.633441585593261
0.192331737788187 0.286224902136694 0.642769316689241
0.184534586134682 0.290580654791661 0.651594868198904
0.200340168827844 0.289990471126411 0.655546493998264
0.218114691238416 0.285681553230167 0.650327205517986
0.220345084704007 0.288143715597628 0.657632615017984
0.225227449324854 0.291808606764631 0.669051904396681
0.230413922124005 0.294677619744382 0.678467516501868
0.232942157455158 0.295992909218224 0.682836602107162
0.244330139568717 0.296877718421537 0.689156574348948
0.249347884676057 0.295496707672074 0.687246817957472
0.262439691485093 0.292512707788951 0.691373300651334
0.268383334140855 0.297215998009467 0.703082431365766
0.277725283821204 0.294401207845416 0.703082431365766
0.00777052567562071 0.281893660099421 0.0200069978126115
0.0121052477606275 0.284291871646307 0.027462844834304
-0.00115285931928294 0.275046505968704 0.0513223823040721
0.00870737022252703 0.282612526203803 0.0480129663238008
0.0010540434324 0.276739922009916 0.0612566228913477
0.00396603799769769 0.278974374028717 0.0787200764491311
0.00324561036910396 0.278421570466411 0.0825023451476284
-0.000114915206822948 0.275842948498209 0.101843755204339
0.00179975893712572 0.277312129642046 0.108977065063837
0.00645952244092267 0.280887691936109 0.114918745226807
0.0128930688412444 0.284618197822622 0.11558954355355
0.00584190494818704 0.280413777365685 0.14360495206432
0.0138333631724234 0.285007680487219 0.137838985736998
0.0143939756487037 0.28523989377813 0.148423667875264
0.00588794860827018 0.280449107908692 0.17159663444648
0.00143195017174353 0.277029900049953 0.181926148530709
0.00180901412894486 0.277319231400508 0.188954107581131
0.0101123135525205 0.283466371268392 0.187340082190919
0.0063407525520568 0.280796556595023 0.203357448469108
0.00297132346118838 0.278211102719518 0.221831323084626
-0.00062611375067944 0.275450692059292 0.226731190226397
0.00263912232118589 0.277956195819357 0.231934711442477
0.00155857324339553 0.277127061350133 0.245909024922494
0.00607329537316708 0.280591329483532 0.25747491674601
0.000459894128274425 0.276284015213971 0.273493094729053
0.000512064165452097 0.276324046691462 0.278620148043343
0.00430538408007803 0.279234763435992 0.284099763628173
0.0147875169451191 0.285402903920459 0.280650221267734
0.00456647977824564 0.279435109211641 0.305238648711668
-0.000438993237689709 0.275594274678914 0.32238440627239
0.0065600192247338 0.280964805830532 0.32525518746035
0.00740105170937913 0.281610152753768 0.341480069774956
0.00646816581622514 0.280894324231246 0.34998024511477
0.010089259357749 0.283456821908248 0.352826321837259
0.00434548081683024 0.279265530744232 0.363740405027613
0.0159085698738393 0.285867259247673 0.361319182515278
0.00774175853689306 0.281871586297508 0.384470933866081
0.0133696531729934 0.284815605516447 0.385059732822575
-0.00123951611010918 0.274980011874412 0.413933907385975
0.00691436363984932 0.28123670386329 0.413792966271421
0.00640691429148511 0.280847324283258 0.421750555973494
-0.000305857764172461 0.275696433120801 0.441202456619676
0.0161191252501007 0.285954474140151 0.441992064569978
0.00605807196318262 0.280579648150203 0.452077845463882
0.00560671633253239 0.280233310793628 0.463738816028307
0.00290108038827757 0.278157203313955 0.483937209690226
0.00874383424518388 0.282640506032478 0.487856921899605
-0.00135028864891297 0.274895013115861 0.496252705549461
0.00253599110500746 0.27787706045388 0.509608806008984
0.00382356152782529 0.278865047988232 0.509620363541317
0.00189459154005509 0.277384897257614 0.523477349247227
0.00197905991783324 0.277449712123514 0.542125448641339
0.000680283744511297 0.27645312611438 0.554640631873604
0.00426231714965085 0.279201717017986 0.55970489701059
0.00145670561562945 0.277048895570146 0.571276641529372
-0.000207952938823013 0.275771558135545 0.574885915209387
0.000653630097134908 0.27643267405142 0.591356341882375
0.0169373107656189 0.286293377677216 0.588412929380171
0.00495748493861712 0.279735138023633 0.602806906905868
0.00397272279683842 0.278979503455507 0.622824057088276
0.00523253985557849 0.279946195084595 0.631278194161679
6.38562913357106e-005 0.275980124693427 0.641228519857676
0.0140308394450567 0.28508947783759 0.638745405936086
0.00601068168157881 0.280543284308159 0.65657627817428
0.00541486441705497 0.280086097641187 0.666779642804155
0.00420669412806717 0.279159035972372 0.671466017909012
-0.00172515312337107 0.274607369487775 0.693684071835833
0.00178371033316232 0.277299815115106 0.702326881625038
0.0077957479506961 0.281913013831785 0.701440861189968
0.0267820790366465 0.281074112062066 0.703082431365766
0.0397930802917821 0.288128726374869 0.703082431365767
0.0455681835320275 0.288615713412803 0.703082431365767
0.108119269401578 0.290788855703969 0.670754096655554
0.119392403218389 0.293336971681563 0.673574624255369
0.133258946389109 0.295075023196298 0.673342632701057
0.176164023170779 0.293218851977104 0.655667192855061
0.17825725946944 0.292106955180958 0.653450181491693
0.175453546731126 0.297502394533315 0.666774574444119
0.187043517652141 0.297389369497682 0.670519859907616
0.211038134373879 0.294368449630155 0.670885770290466
0.206010341188732 0.299638884524557 0.683102580880281
0.209343678902801 0.302377705191704 0.691526318153036
0.228793448704725 0.297995496071295 0.686697402571076
0.226812497683417 0.303690443199746 0.701102911628338
0.253302915155155 0.298389798375444 0.696542367201809
0.252683053843109 0.299110893404841 0.697991719132523
0.27084321619541 0.300496020675358 0.703082431365766
0.0232557088838496 0.28891054387026 0.00241889557417265
0.0407162991098788 0.29614295714892 0.0151293843839242
0.0390727390958494 0.295462172300535 0.0260477555003541
0.0199322402505119 0.287533918088209 0.0555096304102448
0.0427107855544578 0.296969100484234 0.0352707897037507
0.0285388162368689 0.291098878587353 0.0588738078798966
0.0366538843466977 0.294460249858025 0.058172075555209
0.0376842801183222 0.294887053761244 0.0723426983010667
0.0242964101070824 0.289341616431301 0.0997246161988205
0.0347819930290448 0.293684887086965 0.100367875649246
0.0198157340498911 0.287485659639812 0.130593152541518
0.0274802518320579 0.290660406854235 0.122929614657088
0.0248474725506401 0.289569873969137 0.13896961042892
0.0375803266981999 0.294843994844775 0.137479321074438
0.0393864390856437 0.295592111090824 0.14646672031171
0.0340611419705588 0.293386300802089 0.15305760372432
0.0340224807325572 0.293370286792971 0.171303733729938
0.0430687708259043 0.297117382838797 0.161780730300542
0.0366705296744999 0.294467144578551 0.181614453673096
0.0426443866645412 0.296941597163504 0.189380085802079
0.029290539018089 0.291410252358479 0.215134192205537
0.0439004055034898 0.297461857201192 0.208062755616766
0.0469233772314809 0.298714013089597 0.215718337804434
0.034009237269858 0.293364801171108 0.2472885592758
0.0196683475803445 0.287424610165215 0.261985493881635
0.030829137564698 0.292047560743532 0.262196918513656
0.043404920549066 0.297256620613118 0.261676509723963
0.0262099984267692 0.290134250666114 0.281350926782698
0.0426675334370284 0.296951184870593 0.288364837253664
0.0450840170400129 0.297952125152202 0.292019077675763
0.0484548630779862 0.299348375297802 0.296871377011134
0.0248649274289679 0.28957710401647 0.32046974819225
0.0393687292016456 0.295584775416684 0.324500396732713
0.0478334070149906 0.29909095976809 0.336168495084085
0.037427522780846 0.294780701389823 0.350561339346719
0.0363903868416349 0.294351105617777 0.356882651386301
0.0304113394736781 0.291874503107898 0.36753277210361
0.0261945465889529 0.290127850305327 0.389244045362334
0.0395753395419538 0.295670356221766 0.387229954646589
0.0319504549083036 0.292512025594978 0.399262404042788
0.0216146732281122 0.288230804645315 0.42790636811644
0.0363470378522018 0.294333149878439 0.416558149742768
0.0307311245545417 0.292006962425437 0.432259357619541
0.0333837273954658 0.293105706497737 0.445137165647351
0.0320319699873853 0.292545790246272 0.453743996450089
0.0221446771063258 0.288450339439782 0.46990214484567
0.0274102677484871 0.29063141849767 0.470121771284724
0.0346510088493494 0.293630631663279 0.481378474870071
0.0454648517750569 0.29810987206448 0.486591990356675
0.0502051381850796 0.300073362985044 0.489484547234408
0.0252617522958806 0.289741474258232 0.524421242702949
0.0284447161260257 0.291059901045221 0.522265200073827
0.0218721210717261 0.288337443033744 0.544127351866558
0.018641230689631 0.286999164418939 0.552380490385306
0.0453046837623177 0.298043528301344 0.545104706241483
0.0182862912767777 0.286852143700315 0.574783800483742
0.0205713335414093 0.287798639196921 0.588558325841037
0.0429801171774763 0.297080661295264 0.574960792835718
0.0188522144139877 0.287086556739008 0.603341736968448
0.0374199137521321 0.294777549626933 0.600798804511283
0.0485766684774119 0.299398828746214 0.601832727274363
0.0298527249198518 0.291643117383564 0.631985003831872
0.0401979551860333 0.295928252065689 0.626062516342745
0.0372073467212924 0.294689501479846 0.642448501817527
0.0182297668172816 0.286828730502586 0.667267746181593
0.0288840777329822 0.291241890581609 0.673687747040457
0.0308226390242625 0.292044868959948 0.673955297509505
0.0310856302506252 0.292153803492693 0.688634804237111
0.034235510485124 0.293458526605673 0.698967960470439
0.0341189143138355 0.292926032492096 0.703082431365766
0.0384118681697449 0.294764300180833 0.703082431365766
0.0641220410276095 0.292221150830673 0.703082431365766
0.104226382135447 0.297187078260214 0.689073906889178
0.0877199725770427 0.299866028656983 0.703082431365766
0.112807349998738 0.303423850168709 0.702612341903695
0.126774335000445 0.302051739210948 0.694100497215345
0.162559420056029 0.301980673427718 0.681423093543403
0.142022846148592 0.306148163602991 0.699638061218968
0.161609460279635 0.309907549119916 0.702768161112266
0.177633706866953 0.309308603601043 0.698832793733568
0.185224482268675 0.309716730961589 0.702563892303475
0.209221360345489 0.310408635194217 0.703082431365766
0.21880209920385 0.315815922449931 0.703082431365766
0.24346325691268 0.310635721821425 0.703082431365766
0.0654148996105692 0.306373452447941 2.96106489604796e-005
0.0771357086284859 0.311228370505147 0.00406082909714183
0.0560568085974357 0.302497204232379 0.0321370619773668
0.078391915834458 0.311748708567011 0.0224292730452088
0.0678408651582441 0.307378320279637 0.041067043611459
0.0677647517739426 0.307346793083582 0.0546039592592088
0.0598452677242017 0.304066435383182 0.0775532790952977
0.0717866247852869 0.309012707431023 0.0759019428824009
0.0563239429410125 0.302607854900464 0.0951224120466784
0.054533561170631 0.301866254489347 0.10523249680795
0.0819447752212965 0.313220351110244 0.0935090703098585
0.0664221680255671 0.306790676686383 0.11454851153547
0.078858465745281 0.311941959867598 0.124518791296041
0.0577605227791709 0.303202905752861 0.146992706465223
0.079111863556477 0.312046920677671 0.13542326922008
0.0611701137924956 0.304615204592726 0.158181058263761
0.057790239294028 0.303215214736342 0.173879354420887
0.0774597713537289 0.311362601681002 0.17315719738811
0.0646605723772708 0.306060999877441 0.196193456590315
0.0821345916808815 0.313298975662166 0.185679189845607
0.0774825578714214 0.311372040165669 0.190873286428772
0.0611077686687334 0.304589380396915 0.224955497493684
0.080989615205396 0.312824710877422 0.214011655755153
0.0521675353385496 0.300886214500774 0.248795197760229
0.0626117614769975 0.30521235461581 0.244597997835347
0.071690404115659 0.308972851524682 0.262004920205427
0.052184157898151 0.300893099790402 0.287028779915421
0.056905246724716 0.302848638811533 0.29689265431228
0.0712907055640337 0.308807290963738 0.287299946959623
0.0734247678800438 0.309691248517979 0.301461949014144
0.04930539772781 0.299700678285027 0.330352940421257
0.0584338936828853 0.303481825113687 0.326015863884384
0.0808445279507495 0.31276461376882 0.320848963002556
0.0550740599402284 0.30209013641016 0.357721134345989
0.0558376003608376 0.302406405207796 0.36705932200898
0.0764136144372797 0.310929269297838 0.349231035258953
0.0682784004375512 0.307559553326343 0.369450100500177
0.0627032452217248 0.305250248423613 0.386001579354052
0.0800612920294849 0.312440186827694 0.381052110962609
0.0632092089998207 0.30545982548257 0.405025453191033
0.0755573689601324 0.310574600808483 0.407907590633583
0.072032789610769 0.309114672240317 0.423197065911586
0.0690767820257466 0.307890253808123 0.431739762034142
0.0682550968155861 0.307549900650073 0.440982059689845
0.0827883571679255 0.313569774193511 0.439888766716561
0.0739225422109159 0.309897433396828 0.452973198015108
0.0538398023586814 0.301578890180421 0.487393228596104
0.0545959802994272 0.301892109339045 0.498132464446246
0.0497042935069448 0.299865906326718 0.512472350934965
0.0506643676390926 0.300263582053137 0.517548915745725
0.0523397454843213 0.30095754627873 0.530336787699748
0.0690342127796364 0.307872621049044 0.529131652543381
0.0482876809596559 0.299279126197003 0.553016618008941
0.0653609878339017 0.306351121458873 0.5488730336026
0.0497824990065301 0.299898300105299 0.567892014337548
0.080356372064549 0.312562412980203 0.550397727381691
0.0660445962424058 0.306634281333028 0.577223939467738
0.0614449592571957 0.304729049311761 0.59855970885354
0.0615870340178947 0.304787898604514 0.597587706986759
0.0542438012243475 0.301746231989764 0.620127489391875
0.06837250981233 0.307598534705723 0.620324499716947
0.0788741141277132 0.311948441639831 0.622517841283017
0.0565421565878017 0.302698241952459 0.641159441624017
0.0669576507973001 0.307012480912852 0.653088400180858
0.0747644106975471 0.310246146741725 0.659708987799108
0.0659982832618387 0.306615097868363 0.666941213550967
0.0597039297629971 0.304007891282773 0.682779269825816
0.0595725082246102 0.303953454699185 0.693781412485433
0.0814092517528889 0.312998530026661 0.687247921928622
0.0795307462342018 0.302404294397752 0.703082431365766
0.0836912846594519 0.310749919684478 0.703082431365766
0.108905108390695 0.311946331620808 0.703082431365766
0.111696715997778 0.306718153925116 0.703082431365766
0.124283323964066 0.314366082684592 0.703082431365766
0.143824606111927 0.31339077827839 0.703082431365766
0.153287907463138 0.311783545150029 0.703082431365766
0.169073456672992 0.320749966744115 0.703082431365766
0.183075379880151 0.320916111644184 0.703082431365766
0.203558954886733 0.316698233180144 0.703082431365766
0.219211354376881 0.317644760582381 0.703082431365766
0.228128028604706 0.318078354830979 0.703082431365766
0.0854892977101214 0.314688540397252 0.046272144847923
0.0825839125512591 0.313485090460534 0.0528617218408153
0.126356324036424 0.320876313812073 0.0268614033699241
0.141350489166107 0.322850333100633 0.062179769926521
0.083696314415773 0.313945862399625 0.125553702248512
0.0879170212939997 0.315694136431387 0.134769093435385
0.0840238009281655 0.314081511754552 0.150796205577458
0.151127562402468 0.324137509211295 0.101409850813801
0.0823722819130987 0.313397430179994 0.21987548529276
0.110009989770117 0.318724278079515 0.205538616853803
0.160802964513958 0.325411300064435 0.174180721321721
0.168179891449419 0.326382490920009 0.209303490730532
0.144570249747984 0.323274222622871 0.248521017798121
0.0859103806509912 0.314862958662244 0.350810430561896
0.0882291819056996 0.315823437590392 0.357633749057377
0.0854625053785841 0.314677442650162 0.374561752933058
0.127146711783812 0.320980370333079 0.350518881980611
0.0941278550603519 0.316633355377955 0.391057168567177
0.0927066005774574 0.316446243675575 0.424166905711662
0.0833708446618898 0.313811048413424 0.462427659667027
0.083331069478973 0.313794572993214 0.475962165453168
0.154132237434512 0.324533082183703 0.453292974171416
0.126729882439045 0.320925493708773 0.553349728901252
0.0823305972733428 0.313380163836864 0.607375288123604
0.080687017818541 0.312699370935848 0.655973833816136
0.152123588549349 0.324268638541195 0.59946817155556
0.157137850132137 0.324928778602125 0.608034329685315
0.0845963240411423 0.314318658592719 0.679548480877716
0.147692664611181 0.320034773476332 0.703082431365766
0.310066586469277 -0.294149324784943 0.0132986318500014
0.317773302420983 -0.290957098516389 0.0379829126448867
0.325298085834824 -0.287840231172456 0.0333473017319733
0.331830906715392 -0.285134248163171 0.0320541043608519
0.314258651599675 -0.292412914553581 0.0717592656828394
0.307819291652775 -0.295080184776589 0.0876664553479455
0.321216228820484 -0.289530991707464 0.0832405569841642
0.333550902858772 -0.284421802433354 0.0847482683463645
0.323950690436295 -0.288398340620406 0.103669027542307
0.333920280175011 -0.284268801339334 0.0960910001074921
0.315504889862842 -0.291896705763029 0.120427250171595
0.319788561699296 -0.290122350791614 0.141264881290581
0.322184180661772 -0.289130052927078 0.163805737524755
0.335777734621055 -0.283499418516293 0.14623616399316
0.328054867813398 -0.286698334688425 0.169859582341758
0.312988856192496 -0.292938881032674 0.229423323189138
0.327734089439108 -0.286831205441572 0.219675036770087
0.331854254671178 -0.285124577123231 0.223195470220206
0.310519137792702 -0.293961871889111 0.25613379612294
0.322999237862515 -0.288792445180421 0.261728411156567
0.314948237983229 -0.292127278521085 0.280325283764125
0.317113723665028 -0.291230304982559 0.282975325829819
0.332791682631905 -0.28473628174815 0.281280044173123
0.322394212163027 -0.289043055030733 0.30353629183636
0.321786847608608 -0.289294633666478 0.31205216270186
0.323662781350316 -0.288517596468549 0.323691550182272
0.328634620562677 -0.28645819323685 0.322968164571721
0.32879451879852 -0.286391961218965 0.34455218628561
0.319868488723845 -0.290089243934046 0.360754541701348
0.31630621169216 -0.291564787393499 0.376843629016736
0.324922242357335 -0.287995910638162 0.374763744728675
0.30567427412795 -0.2959686801269 0.408445908917137
0.308206045706343 -0.294919986002298 0.416842951986542
0.307411668355409 -0.295249027874698 0.427356463381224
0.321875300242123 -0.289257995386048 0.419709276416101
0.331725514465807 -0.285177903062318 0.433757189216035
0.330324508537213 -0.285758218718907 0.43722038256614
0.319041335993388 -0.290431861813155 0.463449467938069
0.327847502190234 -0.28678422834191 0.471640786279831
0.323074142790857 -0.288761418543213 0.48195689491207
0.313912126786132 -0.292556449831049 0.499037840519426
0.333191322196494 -0.284570745620436 0.492075231219409
0.316957316570058 -0.291295090922547 0.511873131486636
0.315174033656414 -0.292033750890927 0.528581904161488
0.333280325911842 -0.284533879074437 0.516811207082668
0.327268154526106 -0.28702420200172 0.532648661217408
0.336207048061019 -0.28332159106695 0.546343317512551
0.306885387728817 -0.295467020447846 0.583078503790085
0.304500685995567 -0.296454796247973 0.591238507277449
0.316985475474814 -0.291283427122295 0.602003211945295
0.327867843459221 -0.286775802712419 0.600788453736535
0.31930073415199 -0.290324415577807 0.623353807356441
0.307785563922214 -0.295094155260015 0.645769660478402
0.331441523139371 -0.285295536121324 0.640216853697651
0.323799307756843 -0.288461045379343 0.654807756827112
0.329451977521538 -0.28611963289919 0.660355692187482
0.32813755886786 -0.28666408293218 0.668795321597774
0.324425103834211 -0.288201832156818 0.678233767946755
0.335371612361982 -0.283667639863982 0.678601254665661
0.32554612837709 -0.287737488587404 0.702195314548296
0.332708342484078 -0.276115264060242 0.703082431365766
0.337693367345818 -0.277079825087759 0.703082431365766
0.353709671452772 -0.264088680302712 0.703082431365766
0.37043594916588 -0.25312997663541 0.703082431365766
0.37815956613026 -0.24877468808777 0.703082431365766
0.397416243976011 -0.235186669296986 0.703082431365766
0.282976023992406 -0.305370603175179 0.00765292025968986
0.291262336529711 -0.301938300140165 0.00898506108347541
0.293397409555225 -0.30105392393634 0.012786271979615
0.295277572159243 -0.300275135086289 0.023895857229664
0.286317168914702 -0.30398665563451 0.0448999876460171
0.296954927369726 -0.29958035180919 0.0438662145894351
0.294269131595658 -0.300692844844573 0.0499634233299375
0.278292943093133 -0.307310398797348 0.0743708510736416
0.271590299568865 -0.310086724648852 0.0936745057376868
0.268973309704967 -0.311170717343072 0.109707759621576
0.289770684199133 -0.302556162765836 0.0978224951397805
0.280192425467295 -0.306523607436482 0.115802314516693
0.287981003313946 -0.303297472860801 0.12943130866415
0.295054994493435 -0.300367329774148 0.126659288466982
0.302379496715376 -0.297333421616188 0.12235640696901
0.306336305756856 -0.295694457647487 0.138009234337599
0.293343408015905 -0.301076292106315 0.158677925840806
0.304657505838258 -0.296389839342281 0.154896992270932
0.296178619650785 -0.299901908994951 0.177915486146814
0.290846817340124 -0.302110413823918 0.189699346579569
0.285930254903796 -0.304146920665299 0.197892096995149
0.298017900465168 -0.29914005393662 0.197378859632516
0.274942139220851 -0.3086983472061 0.232920611111929
0.286540374781045 -0.303894200737469 0.226193889071349
0.303138409875599 -0.29701906949256 0.225608247795362
0.292332778128796 -0.301494908712096 0.245857938174592
0.29506243582077 -0.300364247475444 0.255510857585229
0.302456088926889 -0.297301696083408 0.254022626282092
0.292024480177586 -0.301622609904739 0.277467149753568
0.268388026465379 -0.311413149598739 0.304436005862437
0.267268531168612 -0.311876859733673 0.318312097261608
0.302196708797683 -0.297409134850735 0.297502605776979
0.280602828134657 -0.306353613085626 0.321442397941808
0.31057236828218 -0.293939823098437 0.307796100134902
0.292751187837011 -0.301321597736324 0.32756167892171
0.287427374432049 -0.303526793452204 0.348849697493432
0.278049819976031 -0.307411103689778 0.369815578186127
0.30772142586288 -0.295120722114056 0.354417076660192
0.289797967250747 -0.302544861755834 0.382913090529405
0.298366246154058 -0.298995764427888 0.373374620694772
0.279445925205187 -0.306832817969362 0.404617604254942
0.285403526062507 -0.304365098895054 0.41253324662244
0.276802878772924 -0.307927603647587 0.432777738929603
0.295607602717583 -0.300138431953027 0.422312023873417
0.295306502860464 -0.300263151597475 0.430240437623458
0.311489491554808 -0.293559938200547 0.432421099997046
0.298564573914807 -0.29891361437959 0.444706159428027
0.292384868227609 -0.301473332286702 0.465448379314504
0.289751951032332 -0.302563922297591 0.477010126946148
0.301466055949912 -0.297711781169668 0.479762459360684
0.290184741909909 -0.302384654446427 0.488621592377835
0.300353106516007 -0.298172779919427 0.499203155176288
0.293430525665952 -0.301040206794144 0.504899516673882
0.284990457978173 -0.304536197297769 0.525523928415818
0.279409874891332 -0.306847750498289 0.549704879125325
0.280482915599262 -0.306403282484086 0.554026364242579
0.302524234263702 -0.297273469360687 0.547029339202453
0.314127771444963 -0.292467126888708 0.551383610194537
0.280395900355624 -0.306439325378133 0.584197278687667
0.2875766140423 -0.303464976381594 0.595610093067718
0.284293724675364 -0.304824793681149 0.597776583840651
0.274592795479627 -0.308843050121645 0.624488751488092
0.30871994664091 -0.294707121265485 0.600954098953288
0.290221441132886 -0.302369453130542 0.631502700886928
0.284693118966387 -0.304659359149073 0.638898324601865
0.292119280992684 -0.301583342121401 0.641741128257728
0.313203150736139 -0.292850117326354 0.634540536993953
0.274102078490992 -0.309046311753625 0.682517516138366
0.291994920164193 -0.30163485406319 0.668075705502905
0.272979330111092 -0.308446873393434 0.703082431365766
0.282423323812675 -0.305599539085549 0.70278609406199
0.292278376991026 -0.298533120787954 0.703082431365767
0.300842358824514 -0.293168949257947 0.703082431365766
0.31214165653037 -0.28854964612437 0.703082431365766
0.330022018477038 -0.27145319998595 0.703082431365766
0.33874527483612 -0.268522794330482 0.703082431365766
0.351470007932769 -0.257154366954726 0.703082431365766
0.362648193234688 -0.249014381116425 0.703082431365766
0.372016687909901 -0.241685888783972 0.703082431365766
0.383907789525465 -0.23369348728016 0.703082431365766
0.391258624507906 -0.221785468696404 0.703008309233602
0.40738002563183 -0.217611725374018 0.703082431365766
0.412100051390816 -0.211543549156047 0.703082431365766
0.43093090233434 -0.194884100816795 0.703082431365766
0.252247120718969 -0.316580017093744 0.0367988329663661
0.262636369724465 -0.31379556382694 0.0320168569105262
0.256244413174921 -0.316053763558331 0.0526653080018507
0.258494858891658 -0.315511033782604 0.0622335186490764
0.261247713219437 -0.3143707641848 0.070501789486634
0.25617912531605 -0.316062358868013 0.0884516239552453
0.262312895152147 -0.313929551381877 0.0849748597394803
0.264967922163047 -0.312829803185496 0.0940765262447038
0.252047056764067 -0.316606356013084 0.112665081521146
0.255471490573351 -0.316155520749269 0.116444785137822
0.258164874013834 -0.315647717994377 0.130891747112963
0.257622647511014 -0.315872315565723 0.134434461086203
0.251179686046263 -0.316720547534417 0.154953713860025
0.251749015198308 -0.316645593929601 0.168045726798276
0.252173085799278 -0.31658976397583 0.174483758476354
0.254944106092001 -0.316224952233428 0.181729708618584
0.256846417969573 -0.315974508123555 0.188180560831101
0.250988081845956 -0.316745772705936 0.208636433646362
0.268653301484236 -0.31130326908817 0.200642834835966
0.257425831092765 -0.315898226938752 0.217341840059493
0.262209153177266 -0.31397252271486 0.221526198300896
0.245079392263958 -0.317523666446875 0.247771016170783
0.263422062560192 -0.313470119198523 0.241735109839694
0.252675138674189 -0.316523667460927 0.256804288441506
0.248406085482729 -0.317085698975917 0.275308306016632
0.264511485438654 -0.313018865467104 0.267685818013056
0.260496915353805 -0.314681754843346 0.291399262616212
0.253291246844013 -0.316442555281586 0.297441340621047
0.2662092659798 -0.312315621741028 0.292715300088531
0.254351609380017 -0.316302955905373 0.324201343200974
0.258738037572261 -0.315410305875018 0.333319797436919
0.255171383797908 -0.316195030555799 0.33838020933633
0.256405854999851 -0.316032509338864 0.345731640936193
0.252771708449507 -0.316510953808815 0.35138769621446
0.257338985289564 -0.315909660405648 0.361919772896265
0.249119890651634 -0.316991724742639 0.389635841872785
0.253692167712802 -0.316389773047875 0.383948928378203
0.254841659073696 -0.316238439639258 0.399891805218614
0.263413350425587 -0.313473727882833 0.404897131923109
0.248591194886435 -0.317061328860592 0.422722882929559
0.276514330618321 -0.308047124206621 0.408682164618133
0.250676454345726 -0.316786799244658 0.449612134694755
0.25345300095822 -0.316421259948455 0.452341866513564
0.250861799216361 -0.316762398129524 0.461919317782448
0.255771977624891 -0.316115960878441 0.471607378204989
0.254551496873837 -0.316276640217575 0.486721642989971
0.258650640346342 -0.315446506991308 0.478988907128597
0.261934193489705 -0.314086414746554 0.486842677205509
0.250689096294028 -0.31678513490059 0.51191031511038
0.253709946026854 -0.316387432488427 0.512842875161574
0.245770868985177 -0.317432631809503 0.536909097280614
0.252417409234651 -0.316557598185344 0.531104469657034
0.262581414042709 -0.313818327215653 0.54377318001914
0.257001992644632 -0.315954026329022 0.548444143695797
0.256601319120276 -0.316006775999221 0.56443785920065
0.266501965687665 -0.312194381552328 0.571622973045487
0.249744325554364 -0.316909516328114 0.586936670426552
0.253968019351972 -0.316353456490615 0.598631136906055
0.258641188345469 -0.315450422138261 0.598099282579147
0.259620735084634 -0.31504468059392 0.613565346546275
0.258760395918183 -0.315401044744905 0.622085637127429
0.258013882225163 -0.315710260841051 0.636533960698617
0.251289037649102 -0.316706151122788 0.647518953153314
0.258622169848062 -0.315458299857823 0.65060706213577
0.24795627177291 -0.317144918074263 0.668448955308019
0.255186019151428 -0.316193103774955 0.665034299939477
0.25343878311093 -0.316423131763562 0.684101930816133
0.250062246023008 -0.316867661304383 0.697495880470505
0.256623683354128 -0.315201403907648 0.703082431365766
0.270742997018607 -0.300861285677392 0.703082431365766
0.278363104964605 -0.299570901347877 0.703082431365766
0.291271668284121 -0.291288780714888 0.703082431365766
0.330362577893344 -0.253017188786178 0.670138320943934
0.337027419576258 -0.250354249604226 0.675337911761252
0.340958506508825 -0.249927893090626 0.680832143992563
0.33535537734739 -0.25945529279902 0.69192205230843
0.352165596451988 -0.247881289207431 0.694732583473063
0.371256856383428 -0.227663414797141 0.682920027917519
0.389813226443777 -0.21078925605666 0.68031038287512
0.392368126608041 -0.205358274231785 0.676889971773592
0.397686823833563 -0.206669495598201 0.690306622832198
0.405086083364382 -0.202882362095895 0.699838084516968
0.410708178311017 -0.191330034037416 0.692960266115206
0.417540492027195 -0.189222102728027 0.703082431365766
0.435712161140334 -0.177999619720155 0.703082431365766
0.4446445092988 -0.170393628182481 0.703082431365766
0.235268372297004 -0.318815311729404 0.0521346574737737
0.234819398715881 -0.318874420222709 0.0590652021405894
0.230653976345214 -0.319422808481314 0.0804496726959349
0.236785086191446 -0.318615632557075 0.0784941138096541
0.239692452175954 -0.318232870563814 0.0866622446487064
0.233793257844393 -0.319009514231318 0.106790273152924
0.242155365987186 -0.317908621809223 0.0984034566942352
0.236942562784163 -0.318594900370333 0.114304254442384
0.240014805319528 -0.318190431967357 0.120498118934378
0.229640476043544 -0.319556238327335 0.140277013170568
0.237048239636825 -0.318580987748742 0.153773579125361
0.229565516187552 -0.319566106979595 0.161745414014948
0.243233662902086 -0.317766661327236 0.160711403261836
0.239766757880314 -0.31822308803225 0.173067650803948
0.233529226617068 -0.319044274601836 0.194794821425156
0.244936659932168 -0.317542457514841 0.186154351586455
0.235491594772198 -0.318785923933027 0.206282117913192
0.232574322617572 -0.319169990098326 0.221609024418957
0.227412897789868 -0.319849504568002 0.239136220268157
0.230147686090698 -0.319489462857825 0.232005725571377
0.232620877786475 -0.319163860994064 0.251872792535345
0.24545684415095 -0.317473973963233 0.243359210023152
0.239406286788844 -0.31827054495175 0.259127833455655
0.237770869896089 -0.318485851670278 0.263227247630537
0.23210627343578 -0.319231609942102 0.285873597335236
0.240695392598074 -0.31810083095231 0.287642465870544
0.22367891750612 -0.3203410923983 0.308128214339764
0.237279714557088 -0.318550513497361 0.320792668178412
0.235807587447207 -0.318744322708142 0.326805927602567
0.242853026876315 -0.3178167730107 0.32626132398338
0.234425602955533 -0.318926264418099 0.344491297555616
0.229467019252231 -0.319579074347135 0.354943805933067
0.235674691381126 -0.318761818807162 0.35955155399858
0.239413629607936 -0.318269578251277 0.372653796832789
0.229982831177578 -0.319511166418877 0.382742154719745
0.240940227611699 -0.31806859781127 0.389980411108153
0.24294554576454 -0.317804592667991 0.398093991503543
0.234401419766778 -0.318929448195298 0.410683991177612
0.236669811004834 -0.318630808823302 0.425156507486758
0.244610020495749 -0.317585460412456 0.424989173918428
0.245018910477996 -0.317531629025055 0.436950684029959
0.244935789323821 -0.317542572132604 0.4427463310756
0.238880444318263 -0.31833977342634 0.458525227401826
0.238059757093219 -0.318447818949255 0.464523264083077
0.240007966741959 -0.318191332283174 0.475017246768475
0.235789445997245 -0.31874671107534 0.487364128341646
0.238240019473673 -0.318424086956647 0.505453420135638
0.243520150320989 -0.317728944543009 0.502437407053506
0.232689586414196 -0.319154815331619 0.523252989345344
0.238043455213907 -0.318449965132381 0.524514171424176
0.23442117347721 -0.318926847569983 0.540673999522305
0.232623507460585 -0.3191635147909 0.55380903358481
0.234660342291645 -0.318895360398218 0.551208960464431
0.239108210640211 -0.318309787421189 0.565724189643657
0.234967851890161 -0.318854875991541 0.571855688997749
0.228566849885891 -0.319697583892465 0.597567196207675
0.24840554720367 -0.317085769841699 0.590112956067903
0.23892155493489 -0.318334361110983 0.605751860667741
0.235506529683042 -0.318783957714713 0.616011875861191
0.238530884998653 -0.318385793783821 0.622569248810013
0.233030835935568 -0.319109888979829 0.64786581290341
0.234307942923138 -0.31894175465523 0.643813722320209
0.23266852006674 -0.319157588768876 0.66195954884737
0.244187222200576 -0.317641122863992 0.662859208354921
0.235697877202077 -0.318758766335925 0.678330722993453
0.245596814105987 -0.317455546569065 0.678721412824944
0.235927689849508 -0.318728510926913 0.695392844618302
0.235075795784832 -0.317392907462771 0.703082431365767
0.246775106777838 -0.310660160448345 0.703082431365766
0.320015268258802 -0.248888352905081 0.644537600898659
0.269574876325189 -0.294305162206732 0.703082431365766
0.328809905240157 -0.245850727558278 0.65240906007784
0.34261396165494 -0.233218741731627 0.648082185384018
0.345659093921133 -0.239276114829857 0.665888058752986
0.349163690330964 -0.237532758518001 0.667894383910946
0.377613372673165 -0.207352254792303 0.650181189921157
0.380893954876774 -0.208598171689504 0.658163929003702
0.384844940299702 -0.207858221094343 0.665000469038936
0.388729478745205 -0.207664531449939 0.67292533786181
0.397236564804716 -0.196419843725967 0.672668099808959
0.401882018609125 -0.192708022390915 0.676480593702238
0.411162828841425 -0.180178640297207 0.675773527485621
0.410738551526651 -0.189767974517137 0.690482124543404
0.425836321902148 -0.171547207831092 0.692850484555948
0.42999444643259 -0.171318409143379 0.701298555021613
0.436038621309003 -0.165789203554009 0.703082431365766
0.45279231873019 -0.153347958763193 0.703082431365766
0.454484153046242 -0.145172004254276 0.703082431365766
0.21332078363434 -0.321704766592865 0.0718951609565714
0.218059391898389 -0.321080916979814 0.0817563618725791
0.21115331151755 -0.321990119710491 0.0867037896037904
0.219343436951725 -0.320911869241527 0.0832218196318226
0.223382913131092 -0.32038006211357 0.097017435674122
0.219864085367976 -0.320843324577163 0.114876801595112
0.214710089480771 -0.321521861008269 0.122356399215923
0.212413233042316 -0.321824247894991 0.139592990286096
0.209640258341703 -0.322189316940074 0.144905904979312
0.208692713243082 -0.322314063618884 0.161955244032657
0.218038297526419 -0.321083694106569 0.158310306008176
0.22320380044978 -0.320403642745413 0.16944900527813
0.206520887399985 -0.322599989915453 0.185424988163366
0.204973091601198 -0.322803761098118 0.19815321858342
0.212447068142116 -0.321819793419596 0.199925779906982
0.221760336181537 -0.320593678421506 0.204970035575424
0.228364118082525 -0.319724274040718 0.2129056768807
0.218321889730876 -0.321046358484556 0.229520366565191
0.21646487647818 -0.321290838917327 0.237236673676097
0.209026399711849 -0.32227013296186 0.255969628833295
0.226631141713725 -0.319952424707931 0.253663786400501
0.220381852149045 -0.320775159287268 0.270894034160474
0.22473326112614 -0.320202285427409 0.277015788473709
0.222278630160025 -0.320525443724753 0.288146577679517
0.228868289571616 -0.319657898604967 0.289306192328014
0.206928316084693 -0.322546350911522 0.31741992091425
0.210949196101599 -0.322016992014797 0.321876376437195
0.222360380146102 -0.320514681134908 0.325348822830392
0.215456576081113 -0.321423584182918 0.338621272255425
0.222774433457816 -0.320460169982287 0.337549076806495
0.205875473552122 -0.322684960260501 0.362675689647243
0.21830732812053 -0.321048275556927 0.371645348027798
0.207620750751523 -0.322455190158218 0.379333092930777
0.224039541601636 -0.320293615335435 0.384960685528561
0.216164187421905 -0.321330425382582 0.400238615930372
0.22367562971708 -0.320341525243938 0.40176886022028
0.212249382913109 -0.321845819173731 0.417195055772692
0.217046173460386 -0.321214309717779 0.42594573270995
0.225758323622942 -0.320067333389522 0.427148423794187
0.21987598963091 -0.320841757351216 0.442109830286138
0.216771224298329 -0.321250507461673 0.452029039115781
0.212094393882649 -0.32186622386669 0.468592858374152
0.222321295331689 -0.320519826748344 0.465433004506607
0.220428701226191 -0.320768991489252 0.485690982677991
0.217042018438148 -0.321214856736834 0.501048950238552
0.219735174516042 -0.320860296012786 0.493912043210013
0.22381115918072 -0.320323682451553 0.506412615468595
0.21936894515442 -0.320908511022934 0.516448322603241
0.205681781855847 -0.322710460256078 0.536274916639003
0.217706320907984 -0.321127399657527 0.536756233068472
0.210332307786303 -0.322098206902238 0.552504596994015
0.212238183985616 -0.321847293540507 0.570586206412416
