ply
format ascii 1.0
element vertex 848
property float x
property float y
property float z
end_header
0.215174907877122 -0.036970789701205 0.487900844797475
0.220041268128077 -0.0353657222497533 0.496045839189591
0.219268357486086 -0.0356206507076482 0.515974594457872
0.220545845452692 -0.0351992979410885 0.516357888937948
0.222683839275337 -0.0344941252618855 0.524924848395613
0.219217878991611 -0.0356372999864329 0.533767632561085
0.223990278304179 -0.0334840376623882 0.553302336922031
0.223990278304179 -0.0328410183438104 0.558111148651507
0.219551987426924 -0.0355271012861467 0.56006395631615
0.22404471066958 -0.0340452702104976 0.575461264821029
0.220976421144552 -0.0350572815278445 0.580032910364196
0.215776894654942 -0.036772236915662 0.5943853569237
0.216849984593705 -0.0364183005763104 0.599599314321997
0.220280897160813 -0.0352866856102462 0.61743946689035
0.219838282405474 -0.0354326728575288 0.624202698901049
0.222793531477322 -0.0344579455764519 0.633355490971674
0.223990278304179 -0.0337592860089604 0.64560973740155
0.2215268761087 -0.0348757254364583 0.652368110547603
0.223990278304179 -0.0337361058026482 0.65682905438707
0.219672978311241 -0.0354871949659566 0.67084005687347
0.219199722247563 -0.0356432886098373 0.679317085902286
0.221039724421406 -0.0350364022620261 0.68559503010816
0.218783808985042 -0.0357804689265168 0.693652496055789
0.223990278304179 -0.0315215901051275 0.706157937173462
0.221020844501294 -0.0350426294099754 0.714083168907143
0.221089215231146 -0.0350200787504566 0.720571750824308
0.223893036253588 -0.035956124154671 0.743905601080235
0.223497778243166 -0.0363267539748388 0.745456693989838
0.220264002462219 -0.0374018896755729 0.756628600699255
0.223636387638328 -0.0374018896755726 0.761943786059008
0.217701912363452 -0.0321822463834782 0.76953864729302
0.213171228261532 -0.0273749098827152 0.771712550415479
0.204753546368077 -0.0237949016360349 0.779516997727611
0.204884779872054 -0.0227980842084757 0.787193592632366
0.202028648898076 -0.0186994534160462 0.79827867245613
0.20127724523987 -0.0073107652038027 0.800118425935516
0.197761045921672 -0.0161122448307633 0.801641504853701
0.196097079171592 -0.00761815857522067 0.803123141915621
0.18277891911142 0.00843288421715392 0.805576967409949
0.163978764626612 0.0255260996349079 0.799069057340498
0.0821137278760817 0.117032754976406 0.717399323923565
0.0754306680997035 0.119632312487404 0.717399323923565
0.0655619857226222 0.136433532091936 0.717399323923565
0.0656717635712276 0.14099776947057 0.717399323923565
0.0457862405108159 0.150105374215793 0.717399323923565
0.0390407955235359 0.157993068995599 0.717399323923564
0.0338678933625109 0.16479225803503 0.717399323923565
0.0260395417959369 0.183651243757023 0.717399323923565
0.0172907677282845 0.189316700120154 0.717399323923565
0.013192658545454 0.203288987650143 0.717399323923565
-0.00745032130082679 0.213401819820538 0.717399323923565
-0.0106388046259932 0.221406289856658 0.717399323923565
-0.023225837091688 0.240105800359426 0.717399323923565
-0.02849229616608 0.243094396664605 0.717399323923565
-0.0454296758270435 0.255925865665656 0.717399323923565
-0.0477289309785661 0.264512556756233 0.717399323923565
-0.0658963143817744 0.276539345832926 0.717399323923565
-0.076979729329183 0.290476526127186 0.717399323923565
-0.0897903117310616 0.301625918347281 0.717545823728634
-0.0771798166161151 0.299965715169586 0.736847746152018
-0.0788931847245771 0.300191284360351 0.742500426269008
-0.0841363012295347 0.300881553743371 0.750275120430962
-0.0927751185390341 0.302018875618369 0.755769286974254
-0.0850123331375681 0.300996885532032 0.780727364688189
-0.0854075226814268 0.301048913222501 0.792833233822824
-0.0835059861435013 0.301016066286895 0.79489915825515
-0.095350802737964 0.310077904068824 0.801473961371509
-0.0983926696521552 0.316708603131611 0.804389443013177
-0.105147003912995 0.32662900320501 0.805654455195799
0.203999651586096 -0.0295213010268343 0.153275294390224
0.205646397200204 -0.0307398223905511 0.168480762317615
0.206032577885772 -0.0352827176423433 0.1811474374348
0.20683920263753 -0.037425354621482 0.188174956918726
0.207150116868772 -0.0374018896755726 0.205217790948579
0.218141290990439 -0.0374018896755726 0.219951379835735
0.213526914490399 -0.0374018896755726 0.227285381058485
0.212440509801056 -0.0374018896755726 0.22627800045327
0.211650134208704 -0.0374018896755726 0.242847904819812
0.21408789161878 -0.0374018896755726 0.249691394326648
0.206136115837814 -0.0374018896755726 0.259926362752505
0.212844573285804 -0.0374018896755726 0.27677142816526
0.211041270973066 -0.0374018896755726 0.273655722175379
0.203801927622202 -0.0374018896755726 0.284812581711781
0.210435910046827 -0.0374018896755726 0.302181222212214
0.210994639974985 -0.0374018896755726 0.309600981662544
0.205459777601912 -0.0374018896755726 0.314817682554696
0.209634148983533 -0.0374018896755726 0.324165821829624
0.21057010157841 -0.0374018896755726 0.34289456982599
0.211543838696305 -0.0374018896755726 0.348311919316199
0.216809985636362 -0.0364314933982992 0.361169627691753
0.212230572277675 -0.0374018896755726 0.366610936794277
0.20996494903116 -0.0374018896755726 0.376094345292448
0.209252038788746 -0.0374018896755726 0.382985017418572
0.205499920467869 -0.0374018896755726 0.384506390669898
0.20736559466799 -0.0374018896755726 0.401721940547904
0.209652143057936 -0.0374018896755726 0.407636367747236
0.210235513365092 -0.0374018896755726 0.421237866166748
0.21087985735498 -0.0374018896755726 0.429208843736582
0.212962615922015 -0.0374018896755726 0.440840051168353
0.203339211887897 -0.0374018896755726 0.447743938604196
0.212545844545953 -0.0374018896755726 0.458133332392582
0.214090910741001 -0.0373283235521589 0.463808502265404
0.204352527303917 -0.0374018896755726 0.471074721005828
0.207678565437565 -0.0374018896755726 0.4819594661201
0.207424199019046 -0.0374018896755726 0.494924773488242
0.208638967588475 -0.0374018896755726 0.497658506370171
0.212890023679656 -0.0374018896755726 0.520113777483622
0.214950315861303 -0.0370448666942467 0.525648966532904
0.205918014580469 -0.0374018896755726 0.536680251815811
0.211134004739335 -0.0374018896755726 0.535624069592826
0.207031537225031 -0.0374018896755726 0.556689027052098
0.210260502111381 -0.0374018896755726 0.562018335793007
0.202848616841521 -0.038264277921825 0.565514205949819
0.217835467138553 -0.0360932597089805 0.587185488753669
0.20769961838716 -0.0374018896755726 0.582235616073795
0.205537268477902 -0.0374018896755726 0.593954591928742
0.204652125174799 -0.0374018896755726 0.606868029285721
0.208152293599525 -0.0374018896755723 0.622182114411007
0.206953418933494 -0.0374018896755726 0.629962016420562
0.209800056987438 -0.0374018896755729 0.63616182810135
0.211484358050863 -0.0374018896755723 0.641970423738946
0.204883725148081 -0.0374018896755726 0.646862522513524
0.214924927285594 -0.0370532405865203 0.666955751617245
0.215130942117189 -0.0369852908903091 0.672719966796673
0.208815617005099 -0.0374018896755726 0.676944119276454
0.211764940523749 -0.0374018896755726 0.688804049025071
0.213120634109934 -0.0374018896755726 0.700358775474793
0.209674016781574 -0.0374018896755726 0.710548216207397
0.214134456706692 -0.0373139608234319 0.726655654427108
0.215307034680441 -0.0369272104303465 0.73173024443356
0.205408485205741 -0.0374018896755726 0.738009362947024
0.207422296822364 -0.0374018896755729 0.746957341926053
0.212295361875332 -0.0367307101538539 0.759205399798497
0.203732146578521 -0.031553203288297 0.768946463488458
0.203676808309998 -0.0319735391690128 0.764750676689413
0.20376315061198 -0.0313177042736327 0.777921071208793
0.204323102493762 -0.0270644474646558 0.784246561318687
0.199927983841386 -0.026255922167414 0.79918257781018
0.194244798023094 -0.0257558644947645 0.80290878510428
0.192304383621888 -0.0136137446670462 0.804352101369519
0.182703376622412 -0.0117451622837607 0.805604471032606
0.178989622122905 0.00208844165737961 0.804932915309875
0.0895013177623752 0.0898863873414382 0.717399323923565
0.0849363369418829 0.102129517981332 0.717399323923565
0.0682812212028731 0.110919948489209 0.717399323923565
0.0692184007433088 0.119317869146848 0.717399323923565
0.0567673616030998 0.130954012686849 0.717399323923565
0.0455434857542198 0.145424503394107 0.717399323923565
0.035648644438295 0.152657454170545 0.717399323923565
0.0194524759589571 0.171107870190737 0.717399323923565
0.0144877691285157 0.178407767332979 0.717399323923565
0.00782670547069867 0.186765124285725 0.717399323923565
-0.00561114251933182 0.197874338517619 0.717399323923565
-0.0103346752812507 0.20858076300973 0.717399323923565
-0.019669553184637 0.213526715835557 0.717399323923565
-0.030695651606031 0.220905058877038 0.717399323923565
-0.0414498389235236 0.240590339390187 0.717399323923565
-0.0576572418011596 0.258944542154563 0.717399323923565
-0.0599008857010768 0.259644187770514 0.717399323923565
-0.0751133927614431 0.276237090278139 0.717399323923565
-0.0827945870222942 0.283652745741858 0.717399323923565
-0.0945640301768718 0.291667169215918 0.717399323923565
-0.109013240566019 0.300465405664054 0.717399323923565
-0.109022727502184 0.304157913918189 0.728897294793734
-0.105176247375201 0.303651515202552 0.742537385422696
-0.110521002673648 0.304355165586586 0.751433730959193
-0.0970936040766451 0.30258741502519 0.771336018473071
-0.0967468429841186 0.302541763061294 0.776190719353134
-0.102005084370202 0.303933517161498 0.795434234179716
-0.105775885407664 0.308279945802588 0.799221750411337
-0.114678669679156 0.309357663119827 0.799144623935521
-0.117025691786492 0.313566747885003 0.801848735005151
-0.124974896738033 0.33301492030949 0.805366430794278
-0.143835322399237 0.345953695009298 0.801460392016094
0.202120614394265 -0.0437940055046462 0.159974744711909
0.203135056140643 -0.0360885554374706 0.166180367424963
0.202254013440955 -0.0427807391471152 0.189055557020168
0.201874273787845 -0.0456651481789883 0.195063007943439
0.201820438207559 -0.046074070009357 0.211034551426504
0.203810127407657 -0.0374018896755726 0.207348052236636
0.201388935033042 -0.0493516620218485 0.223360082636024
0.201618794948998 -0.0476057026198787 0.232491873080575
0.202484225107757 -0.041032107932204 0.24570837125801
0.202691652983396 -0.0394565367927295 0.248690598680028
0.202028677266062 -0.044492337324306 0.256516696122516
0.202336674518394 -0.042152865928199 0.27315045416052
0.202351486684135 -0.0420403563593513 0.276094652392347
0.202326874489907 -0.0422273045348841 0.282747354466784
0.201216114784313 -0.0506643621368964 0.296314670522449
0.2022781377602 -0.042597496749991 0.308971413049945
0.204068819552474 -0.0374018896755726 0.307671918641618
0.202376861277383 -0.0418476171883286 0.32433289539175
0.202427160912512 -0.0414655535279304 0.336215316371419
0.205440581501231 -0.0374018896755726 0.342024760044495
0.202736244196766 -0.0391178329003841 0.342489371161851
0.202031494935597 -0.0444709349993426 0.368317809402413
0.202405706008022 -0.0416285197069478 0.372469890563918
0.202049113637812 -0.0443371076695343 0.382444067550526
0.20327918368455 -0.0374018896755723 0.39033215501573
0.205320032573851 -0.0374018896755726 0.399424559851633
0.203059621359621 -0.0374018896755726 0.402436414592684
0.201650168999663 -0.0473673930455023 0.425940626255945
0.202774816970129 -0.0388248435984699 0.419760244954433
0.202779787228711 -0.0387870907364079 0.437591539894724
0.202512225903205 -0.040819420775021 0.448150674943562
0.20243197790086 -0.0414289648688709 0.460791618365921
0.202853613442325 -0.0382263249707214 0.464596168503188
0.202154734669617 -0.0435348362828082 0.478650064151396
0.201500908414849 -0.0485011397464713 0.483589676981203
0.20152208042769 -0.0483403223428626 0.492973262546633
0.201966568916332 -0.0449640970772048 0.509856324878275
0.202929576521348 -0.037649328100809 0.506839913981293
0.204081787996261 -0.0374018896755726 0.520926281427305
0.202889042131887 -0.0379572173562667 0.523197229735753
0.202181973231621 -0.0433279388634451 0.534356381449303
0.201539033543123 -0.0482115506465897 0.551414694953306
0.202677655994367 -0.0395628544797124 0.557746355875406
0.20187458849051 -0.0456627577749305 0.576883599380643
0.202419565861131 -0.0415232436706855 0.579538626861883
0.202133763832994 -0.0436941256013386 0.586391154739725
0.202059836857994 -0.0442556567257356 0.595274466899305
0.201941467982429 -0.045154757599123 0.603326107963565
0.201565381660807 -0.0480114168233267 0.618611628714342
0.202210702827173 -0.0431097159198758 0.623911772399306
0.202834504430172 -0.0383714723283677 0.629892774860662
0.202625610461666 -0.0399581795487674 0.641345230723148
0.202665789857138 -0.0396529867403691 0.645086489996978
0.201985463414116 -0.0448205791179495 0.663966252163306
0.202134676664645 -0.0436871919565714 0.668174328863549
0.202621009695025 -0.039993125840909 0.672854711665011
0.201697627577146 -0.0470069093603996 0.699437747360445
0.201950987061277 -0.0450824530168184 0.698199542684082
0.201491471869785 -0.0485728174224522 0.715062859969833
0.202415191949459 -0.0415564668282608 0.723609854343523
0.201799033376475 -0.0462366558430989 0.725419772786402
0.201740039228182 -0.0466847608876233 0.73604127154786
0.202330674490219 -0.0421984406668849 0.74913080521938
0.202028028065171 -0.0444972684946437 0.758946884798682
0.202105974144149 -0.0439052092446685 0.775478327758751
0.201531738095117 -0.0482669650757864 0.778954795111997
0.202016175720865 -0.0445872959876525 0.785415743553749
0.202283409210164 -0.0375084419792337 0.795395626249273
0.199888629781998 -0.0366256769236233 0.798098835013154
0.191262553271289 -0.0285458632747054 0.803955342595981
0.184524958787041 -0.0246303787349893 0.805516404711218
0.179249757810253 -0.0173863814172564 0.805397661050501
0.0890468882896364 0.0803054107972521 0.717399323923565
0.0880386974216454 0.0819390643868954 0.717399323923565
0.0781976842188307 0.0950568939216064 0.717399323923565
0.0604463045671924 0.106435935609814 0.717399323923564
0.0639635788737368 0.111083878855723 0.717399323923565
0.0425750108432919 0.127367486066719 0.717399323923565
0.0413409001144833 0.134991067700173 0.717399323923565
0.0224101507811314 0.14628163676267 0.717399323923565
0.0149104264244407 0.162830587971478 0.717399323923565
0.0113617745870767 0.170286842267423 0.717399323923565
0.00360852839174478 0.176651284063397 0.717399323923565
-0.0156783354116146 0.196566424359788 0.717399323923565
-0.024933984091149 0.206380148762968 0.717399323923565
-0.0341305569415758 0.214954317945645 0.717399323923565
-0.0408090714236904 0.219116978062725 0.717399323923564
-0.0529880118795507 0.236450846602171 0.717399323923565
-0.0555172285686309 0.242131837161503 0.717399323923565
-0.0724360049298995 0.254651107379007 0.717399323923565
-0.0807548947279459 0.270747032110122 0.717399323923565
-0.0877700447805243 0.277193139369304 0.717399323923565
-0.101873514161142 0.290050093696398 0.717399323923565
-0.112692006216516 0.300902506955652 0.717399323923565
-0.111365133165288 0.3044662974741 0.723855699391891
-0.124706716306701 0.306222750216436 0.724429069150738
-0.114897890597235 0.304931393813387 0.749539412935791
-0.123404146649171 0.306051263667743 0.75207887552788
-0.123294385734818 0.306036813369231 0.762865649052793
-0.12367089160024 0.306086381306771 0.772219460947244
-0.120297144069518 0.305642219018122 0.787597527395018
-0.117020698739021 0.305495054958182 0.794973195528496
-0.124322258559488 0.32120314244317 0.804640713986084
-0.140438361093586 0.326446544452558 0.805366430794278
-0.145528295258326 0.328515339381524 0.80547313316923
0.200998348172006 -0.0523184637779429 0.16714459985029
0.200571550068225 -0.0555603172300401 0.177863348140387
0.201121853190648 -0.0513803500246492 0.195473480318717
0.200204228004583 -0.0583504053056424 0.207547238993195
0.200881724772046 -0.0532043064478306 0.207735600197524
0.199977912633608 -0.0600694412154965 0.224770902541391
0.201089375343076 -0.0516270437689126 0.223002059949496
0.200458044729093 -0.0564224758765646 0.240390178295396
0.200785612966644 -0.0539343480889937 0.24892987982879
0.200185766915755 -0.0584906311970337 0.256924104309662
0.201513972682779 -0.0484019067796148 0.259926171464045
0.200525409061683 -0.0559107929702425 0.282523997148158
0.201604264891419 -0.0477160693644903 0.276704697157528
0.200021527486753 -0.0597381535153497 0.299471623100942
0.200631155544938 -0.0551075686851581 0.306346789710343
0.199999902075565 -0.0599024148213155 0.311934681662054
0.200337009382602 -0.0573418306074604 0.319348582602039
0.201403242216913 -0.0492429881711196 0.326812323663654
0.201216696425375 -0.050659944134406 0.33773600439548
0.199917328098557 -0.0605296264467806 0.357062120344231
0.201071867584771 -0.0517600283960665 0.353644670048808
0.200855669364688 -0.0534022169154249 0.361670565209617
0.200738278291802 -0.0542938906400925 0.373550717732356
0.201507470262704 -0.0484512975636451 0.384373110722495
0.200672040174888 -0.0547970190890649 0.395963467039709
0.200951282159019 -0.0526759656396534 0.402756288836731
0.200385467282442 -0.0569737563154605 0.413098573552315
0.200116019097729 -0.0590204184726589 0.430620047221321
0.20068078339893 -0.0547306077090847 0.432847356499623
0.200546987645239 -0.0557468873554548 0.449637770644017
0.200362661420704 -0.0571469840335444 0.45861697147725
0.200000414472877 -0.059898522777326 0.463875294809633
0.200790972856661 -0.0538936356823527 0.475557638904444
0.199950062643507 -0.0602809828923447 0.482388469876374
0.200629860423434 -0.0551174061096405 0.496044593126495
0.199946922896965 -0.0603048316350584 0.500465720592556
0.200938751545664 -0.0527711450975846 0.511361452537993
0.201118848715141 -0.0514031712818387 0.515406077875756
0.200615159374747 -0.0552290716606688 0.52532258205966
0.200665280002425 -0.0548483676968529 0.533084631863764
0.201222421467315 -0.0506164581235498 0.547387171303173
0.200101713592882 -0.0591290795699312 0.557179749045766
0.201462359186768 -0.0487939502042146 0.560074996875031
0.200851876564378 -0.0534310260939815 0.569170697622785
0.201455919599675 -0.0488428637243603 0.578454835053293
0.200434156296933 -0.0566039265333947 0.590999217247481
0.201169118676924 -0.0510213330128752 0.607066061329456
0.200835653406001 -0.0535542532159379 0.612814721122977
0.199862407798924 -0.0609467875385917 0.623929926867626
0.200258394260621 -0.0579389717435695 0.629516409903922
0.200392855174362 -0.0569176397050261 0.640890898215748
0.201231865292911 -0.050544725146436 0.649849146285237
0.20029616587739 -0.0576520678301572 0.656798146628512
0.20042239450212 -0.0566932662347145 0.675673840604959
0.199909787558192 -0.0605869025372723 0.685995256056542
0.200526609277118 -0.0559016764289179 0.691877716049336
0.20010445655305 -0.0591082447189527 0.699699009263003
0.200620369695668 -0.0551894953441061 0.707967433613564
0.200981904099497 -0.0524433689093342 0.717588608158616
0.200049168469042 -0.0595281994104441 0.73286295459838
0.200756977025885 -0.0541518596537821 0.740982503251085
0.200673981377621 -0.0547822741904223 0.743404874060025
0.200960558350492 -0.0526055059701226 0.752427923704829
0.200221641488948 -0.0582181367601554 0.7645798892505
0.200390557497816 -0.0569350922910948 0.778179315693028
0.200888169640965 -0.0531553528082287 0.784583281635337
0.20077754053935 -0.0539956642618067 0.791196241857934
0.199439010287951 -0.0499369218723292 0.796736826845666
0.195045735038492 -0.0531872354751809 0.800275168160093
0.186029118106753 -0.034543470828131 0.805170375928827
0.173563465630711 -0.0258321862381485 0.804404458335186
0.163471221253527 -0.0185345390696152 0.797915561492758
0.0882860038089235 0.0722209755740897 0.717399323923565
0.0763770098881469 0.0785957442122536 0.717399323923565
0.0680372647727318 0.0840130891200626 0.717399323923565
0.0540096804693007 0.0990811115337318 0.717399323923565
0.0547375565074841 0.110078066194886 0.717399323923565
0.0336777140481389 0.121173777125609 0.717399323923565
0.0301168672935211 0.130394604438693 0.717399323923564
0.0206869997155289 0.139314462251146 0.717399323923565
0.00621271883803531 0.155006709278656 0.717399323923565
0.00186020843713592 0.16291118622282 0.717399323923565
-0.00963181420665386 0.165623035182138 0.717399323923565
-0.0238597187466528 0.188823931959297 0.717399323923565
-0.0305026686017909 0.186630117668337 0.717399323923565
-0.0308152687794236 0.198420127293039 0.717399323923565
-0.0435886877029848 0.212720018427954 0.717399323923565
-0.0522754599080126 0.224724885190708 0.717399323923565
-0.0649614569188617 0.227391576905431 0.717399323923565
-0.0851358580471259 0.252673629465525 0.717399323923565
-0.0912080073254243 0.263738077871398 0.717399323923565
-0.102337370166898 0.265447309226608 0.717399323923565
-0.11720681252121 0.284655165150336 0.717399323923565
-0.123703872510867 0.287780605988699 0.717399323923565
-0.132536843307408 0.302723200402008 0.717399323923565
-0.139568719287798 0.308179370028049 0.723562077047386
-0.136843791556952 0.307820626486539 0.736110144591611
-0.134321798220203 0.307488599764858 0.746516143615058
-0.136505452104935 0.30777608325265 0.759001920831739
-0.141566362979922 0.30844236480941 0.768458828991908
-0.139971770793805 0.308232432765474 0.776920126990277
-0.133479885235816 0.307377759817714 0.791422555002976
-0.14028453381906 0.315108215914016 0.800951685576116
-0.142275148899043 0.318846962613328 0.802933079326484
-0.148902629049942 0.329438382551499 0.805566821444892
0.198787395684844 -0.0691123152253424 0.181125638545145
0.199655019431591 -0.0625220585826868 0.191655225267035
0.198970541617785 -0.067721183751973 0.20289067853425
0.199238657365483 -0.0656846424587125 0.214606284042244
0.199543624596131 -0.0633681863622664 0.214880023411547
0.19955555430573 -0.0632775712215255 0.222279859083772
0.199689470293669 -0.0622603783053778 0.232635110134084
0.198669183017073 -0.0700102295827373 0.246597155826145
0.199350283321324 -0.0648367591455427 0.245697587099198
0.198872567827676 -0.0684653685711319 0.260414525256225
0.198313654534 -0.0727107365202313 0.273773092278952
0.198980493900995 -0.0676455886558508 0.292278469970209
0.198997688050163 -0.0675149861265899 0.299803547719802
0.198990567753573 -0.0675690701487072 0.299215125382354
0.199757352202498 -0.0617447640172058 0.312015019733904
0.198499085755581 -0.0713022465562779 0.324115809687347
0.199276859171434 -0.0653944709340473 0.323586688565466
0.199767361266131 -0.0616687376309518 0.333613769325408
0.199038186332445 -0.0672073711323972 0.344284035002816
0.199164955617846 -0.0662444628114398 0.364280482163933
0.199846527883684 -0.0610674074700809 0.36298681419133
0.199619936597456 -0.0627885391643531 0.380039322649278
0.199364021689029 -0.064732405882549 0.386786884621731
0.198696123791203 -0.0698055940868431 0.395445678098248
0.199409672366373 -0.0643856545623691 0.401059621031947
0.199994258491225 -0.0599452821002796 0.412718152005216
0.199273754234044 -0.0654180552749983 0.424141418220484
0.19865577445978 -0.0701120776869421 0.434787341126066
0.19911013971473 -0.0666608309329755 0.450048965050039
0.199574008412842 -0.0631373983615243 0.454000396922308
0.199549361599207 -0.063324609497563 0.456275898974443
0.199270020312749 -0.0654464172230303 0.466467973097537
0.19948582568761 -0.0638072126593826 0.479581986622538
0.199405963609875 -0.0644138253647891 0.491231845331474
0.199171396440748 -0.0661955399043963 0.497596894962247
0.199154822787668 -0.0663214292979392 0.511061101380101
0.199706084905781 -0.0621341777970915 0.516818942362696
0.199365585696217 -0.0647205260685184 0.523111710451954
0.199300245929637 -0.0652168308692443 0.536022287505117
0.1993245860688 -0.065031949157089 0.538412861245571
0.19850645293895 -0.0712462872429037 0.557622427529418
0.199010304426146 -0.0674191552368376 0.568727279095313
0.199983767123807 -0.0600249719474868 0.569897728069559
0.199484248517401 -0.0638191924564796 0.574622841382161
0.19947088934689 -0.0639206654308343 0.58618481102409
0.199203224069858 -0.0659537850596858 0.604344199885774
0.199035007092332 -0.0672315198585582 0.610588284126944
0.199098904916415 -0.0667461676984854 0.620647133039061
0.19864644370583 -0.0701829517996338 0.6310817437491
0.198781606812916 -0.0691562860730988 0.646979364428647
0.200194137838311 -0.0584270477275995 0.641562438226665
0.198756079525538 -0.0693501850711827 0.663402086355445
0.199306554647504 -0.0651689113995601 0.66282452773965
0.199421280232209 -0.0642974840677036 0.674316069538366
0.199255213472412 -0.0655588863414173 0.680445245591618
0.199294791720076 -0.0652582597039469 0.69084202322827
0.198398520629245 -0.0720661145282448 0.701333551556667
0.198858089839502 -0.0685753398093589 0.715021094654607
0.198576823235809 -0.0707117717711284 0.725950877201893
0.19929924874221 -0.065224405259743 0.735982121137193
0.199209238773025 -0.0659080988533641 0.736329804497521
0.198490359974959 -0.0713685254403257 0.74948035442504
0.198485753120857 -0.0714035179713149 0.760130559874346
0.199238189781524 -0.0656881941114957 0.773242348513434
0.198700328731056 -0.0697736543976587 0.783551851442075
0.198895933008548 -0.0682878924024318 0.78935513798988
0.197331833379226 -0.0665061160441018 0.796654457196947
0.19407460952883 -0.0667629930218017 0.799608045859693
0.188203754701129 -0.0549020997040521 0.803790824523454
0.179051940225503 -0.0498344779429964 0.805680791188427
0.0895449675253771 0.0484999006650453 0.717399323923565
0.166086275170837 -0.0236889602089627 0.800594026929051
0.0717210082515915 0.0692911295441399 0.717399323923565
0.0694511425478164 0.0724269712210115 0.717399323923564
0.0596369000205034 0.0800555083675717 0.717399323923565
0.0504093356708082 0.096386967338945 0.717399323923565
0.045909265849334 0.096059494576844 0.717399323923565
0.0330099725117858 0.109069772892306 0.717399323923565
0.020553648730517 0.130497649725296 0.717399323923565
0.0130486266880028 0.12608727095994 0.717399323923565
0.00619046202331978 0.143568797882879 0.717399323923565
-0.0062801853981971 0.151534060569156 0.717399323923565
-0.0109030611835275 0.154636179994216 0.717399323923565
-0.020725992154144 0.170929026539936 0.717399323923565
-0.0351064591296258 0.181070382517226 0.717399323923565
-0.0367669320889104 0.18677680561111 0.717399323923565
-0.0488147610967327 0.205443403442045 0.717399323923565
-0.0614201104065566 0.219161166259841 0.717399323923565
-0.077779147752649 0.231823807133208 0.717399323923565
-0.0889412295826922 0.238694679920069 0.717399323923565
-0.0981047796828761 0.252248164852857 0.717399323923565
-0.104068709801779 0.260636358013364 0.717399323923565
-0.1105951545847 0.270025211577325 0.717399323923565
-0.130667916424257 0.290207864456563 0.717399323923565
-0.14114414506342 0.302640299699783 0.717399323923565
-0.153007424686758 0.308118500683674 0.720025318462616
-0.151341955635313 0.308337763843952 0.731689180443402
-0.148046169360288 0.308771662338574 0.741968029909224
-0.151290512910878 0.308344536407109 0.754386990563508
-0.156483627144694 0.30766084994797 0.756186708342452
-0.145196925629729 0.308920337449905 0.779623546062149
-0.150641619458832 0.30842996485074 0.790927781385965
-0.146826340836902 0.309267322016489 0.795029676261561
-0.163194154683481 0.316945674531678 0.802875846575866
-0.163229163072046 0.32366998445566 0.805074560439289
-0.170768084805826 0.335026900698025 0.804787617120963
0.197587565004183 -0.0782259340525479 0.183168848308453
0.198169388357269 -0.0738065469254596 0.194263778724906
0.197051189380057 -0.0823001114054699 0.204362399544626
0.197545647980064 -0.0785443254608943 0.20993923984992
0.197646149480531 -0.0777809407753855 0.221950732537932
0.1977465325049 -0.0770184560051804 0.230376332975806
0.198331498222868 -0.0725752002471267 0.242486829963664
0.197578681395107 -0.0782934117627259 0.246437161015097
0.197307489967543 -0.0803533151639754 0.259961713790431
0.197579930563678 -0.0782839233854116 0.272123970621169
0.197295310225819 -0.0804458294872644 0.28517309794092
0.197755707707288 -0.0769487634239132 0.280082502791852
0.19798637926872 -0.0751966389624769 0.299714422101402
0.197894933499928 -0.0758912385368668 0.302731457241773
0.197984911445734 -0.0752077881849556 0.311711513633395
0.197926614850394 -0.0756505947887759 0.324073933978311
0.197520863148545 -0.0787325849468386 0.331741297020243
0.196999583920668 -0.0826920937858556 0.351737464657819
0.197700226248891 -0.0773701869397069 0.352989293132904
0.197953146800621 -0.0754490646187139 0.359633879090856
0.197483896455225 -0.0790133748596559 0.378395669349173
0.197590468280029 -0.0782038814831001 0.376480881495257
0.197709892455164 -0.077296764813658 0.399855377519662
0.197033047128906 -0.0824379154842604 0.399788927270207
0.197474513777449 -0.0790846433729579 0.40806654677052
0.197169211717221 -0.0814036427525608 0.415803102730555
0.196818805083358 -0.0840652453828528 0.436598219776206
0.198252073225458 -0.0731784929978545 0.438410319322677
0.19724288856463 -0.080844011535843 0.443417200970874
0.197480659351832 -0.0790379631010613 0.45614054605069
0.197290251677227 -0.0804842529785414 0.471217931626331
0.197710770421108 -0.0772900960002243 0.475297223232042
0.19802096580257 -0.0749339281557359 0.490314042721339
0.197636417949303 -0.077854859093739 0.494683488741304
0.198007954469262 -0.0750327590442242 0.497007199265465
0.197547227060658 -0.0785323311529769 0.513564956351662
0.197233656813617 -0.0809141336465661 0.523561962196085
0.19712466495138 -0.0817420090324033 0.537522170472038
0.197226852872729 -0.0809658147085508 0.543789590654283
0.197309086425715 -0.080341188860252 0.556514874318027
0.197925106211648 -0.0756620540377264 0.563483684082536
0.197031474080977 -0.0824498639695372 0.569932403114609
0.19683356812243 -0.0839531089681058 0.578002076402154
0.196489719819676 -0.0865648961279042 0.590674076120021
0.198081117618868 -0.0744770297497027 0.598155185827231
0.197745936389967 -0.0770229839476399 0.603750699879494
0.197754672692762 -0.0769566251397559 0.619620786933049
0.197991304392036 -0.0751592289367923 0.619095978079751
0.197921128516474 -0.0756922676322036 0.630565681493693
0.19722644982706 -0.0809688761443446 0.642413136024556
0.197064442429116 -0.0821994445035693 0.656683840599729
0.197806030990765 -0.0765665201364731 0.670010815691091
0.197390280926234 -0.0797244553989985 0.680408297400646
0.196834101034469 -0.0839490610992872 0.686653375135865
0.197735748726412 -0.0771003669349798 0.690788985593938
0.197130716224314 -0.081696045051132 0.704757097900116
0.196928552316105 -0.0832316323883539 0.710849304012832
0.197722451689439 -0.0772013679582653 0.719691490397829
0.197380568497193 -0.0797982286218373 0.728968233900195
0.197928937122161 -0.0756329553834442 0.733436234145456
0.19743794669525 -0.0793623979379689 0.747521050918803
0.197490536869629 -0.0789629359046295 0.764949490909731
0.197798403800485 -0.0766244543984149 0.772288011262196
0.197880362033741 -0.0760019198110856 0.772136072767822
0.197307777608988 -0.0803511303102852 0.788310392718293
0.195675811773241 -0.0809721421061094 0.796378629237629
0.193451249011444 -0.0764782873164158 0.799072094675625
0.185711547044513 -0.0648949811956312 0.804261735112365
0.181530634954502 -0.0623071030581168 0.805366430794278
0.17401787382322 -0.0494790867664271 0.805227544172286
0.0878591120114066 0.0344228334391076 0.717399323923565
0.082580369386702 0.0404972071696759 0.717399323923565
0.0670208136453695 0.058739098350144 0.717399323923565
0.0663532126270406 0.0631075654134672 0.717399323923565
0.0438540510102295 0.0811533929739379 0.717399323923565
0.0440735271033541 0.0772669215859074 0.717399323923565
0.0306195972059773 0.09538266340578 0.717399323923565
0.0189060914566363 0.106586166066381 0.717399323923564
0.00677523556812869 0.120089406975174 0.717399323923565
0.00764571692615011 0.126363276921474 0.717399323923565
-0.00299465496525116 0.132663995778872 0.717399323923565
-0.0135982106715467 0.151366412974773 0.717399323923565
-0.0174146411271986 0.157719845003798 0.717399323923565
-0.0259971947013899 0.166451440156246 0.717399323923565
-0.0349869682927831 0.174717470880034 0.717399323923565
-0.0564017399684316 0.181601525051044 0.717399323923565
-0.0659666589620789 0.204244868513242 0.717399323923565
-0.0692432389077843 0.201799188079134 0.717399323923565
-0.0864540698642242 0.224738804796476 0.717399323923565
-0.0936587156553932 0.227135431682888 0.717399323923565
-0.104193239570507 0.24600613587847 0.717399323923564
-0.10984991454306 0.253584209940395 0.717399323923565
-0.117759460375527 0.260392270170438 0.717399323923565
-0.131253862700048 0.274258794186265 0.717399323923565
-0.151043357128092 0.283367279496183 0.717399323923565
-0.152294872809581 0.296101852154596 0.717399323923565
-0.163952596121701 0.306677541527742 0.725677190213411
-0.168173761055214 0.306121814621517 0.73166990576558
-0.159915351854922 0.307209054818835 0.749862897918847
-0.168583900145419 0.306067818785934 0.756565180193153
-0.172495716368686 0.305552818410039 0.76867044495359
-0.163073746035111 0.306793244336649 0.775552785104204
-0.163566856245405 0.306728325145879 0.78935212547666
-0.172965866071695 0.306559553837264 0.795844021914598
-0.181603289204998 0.322126612575632 0.805278123389621
-0.180553292018427 0.321403518243313 0.805077884536568
0.194141272014906 -0.0956742333179622 0.197889631573039
0.19625269641313 -0.0883652676429843 0.205229743870142
0.19609840161654 -0.0895372529787566 0.207392736413826
0.195185854226379 -0.0931523887760092 0.223379375766358
0.196521777660819 -0.0863213926491952 0.232585241194422
0.194834872138751 -0.0939997344921116 0.245361802120633
0.19586293678934 -0.0913257859083618 0.252019991803969
0.195508989007485 -0.0923722724049891 0.253030794470078
0.195665442179636 -0.0919945610349044 0.274938792586902
0.195994800268624 -0.0903241833432741 0.274279462626718
0.196149064336937 -0.0891524314119387 0.281265907579576
0.195900897701957 -0.0910374441502343 0.289161827307835
0.196071418863043 -0.0897422073396061 0.309579390461928
0.195529506723941 -0.0923227382556517 0.322244447694722
0.196275858642537 -0.0881893330437115 0.319397213997547
0.194428892138694 -0.094979856914301 0.333621276854835
0.196288701729575 -0.0880917801125141 0.338093401285435
0.196537828352431 -0.0861994755423653 0.345624920846448
0.196717706034307 -0.0848331689004736 0.356729918943967
0.195157232589327 -0.0932214875203576 0.373473901519818
0.19607208758359 -0.0897371279027578 0.37911649749445
0.195135304191609 -0.0932744273555296 0.395767077434886
0.195924258905855 -0.0908599981896406 0.397957108675755
0.195947378225142 -0.0906843895250814 0.412012869509523
0.195238333346309 -0.0930256929729332 0.422293468383668
0.19594973948976 -0.0906664539396539 0.427597557615959
0.196290537916815 -0.0880778328857342 0.428032447780627
0.196119924008314 -0.0893737741829187 0.450914362868381
0.196201629832597 -0.0887531568320968 0.459903137207134
0.194912825038539 -0.0938115395442159 0.463142267401939
0.196177503925187 -0.08893641129253 0.473679979971018
0.19627393786916 -0.0882039227659854 0.479936030729356
0.196134447662265 -0.0892634560786912 0.492673957195674
0.196515605020821 -0.0863682785048471 0.50438006313775
0.196830739812937 -0.0839745921115641 0.503238971842503
0.194792507660076 -0.0941020113910908 0.517867745512329
0.194505863795802 -0.0947940308957915 0.536492405759482
0.195283549724284 -0.0929165309799848 0.537545240570606
0.195485932778997 -0.0924279350645003 0.547671305716329
0.196555621446436 -0.086064323575407 0.55346617727657
0.195825885846781 -0.0916072157576839 0.566919599353389
0.195080977437879 -0.0934055837411826 0.5807725269472
0.194697874518375 -0.0943304760052353 0.586956445736672
0.19618930417745 -0.0888467794778661 0.587612889625642
0.194871323077738 -0.0939117341408472 0.60095781775181
0.196670580124295 -0.0851911257252635 0.60424541019814
0.194570517464014 -0.0946379431331371 0.618283888988055
0.195580180947328 -0.0922003998582892 0.637418883966174
0.19392943069645 -0.0961856635020497 0.63964669080701
0.196409832557887 -0.087171700125191 0.649681324800518
0.196442651003034 -0.0869224192854864 0.662332665982839
0.19620873905541 -0.0886991569236727 0.672447715721837
0.196193591528103 -0.0888142138165141 0.678354090212255
0.196331166981281 -0.0877692245022219 0.687159813425675
0.194913590335736 -0.0938096919533422 0.697862758923031
0.196554487119336 -0.0860729396451415 0.704071300868624
0.196499111386406 -0.0864935600962846 0.715774514714065
0.196892806602101 -0.0835031480425092 0.71902960059978
0.194936007813308 -0.0937555713749545 0.734852511732046
0.195588584653385 -0.0921801115171507 0.747635568039191
0.196305982532304 -0.0879605193841246 0.750214971070602
0.195641217489841 -0.0920530446095528 0.768747471511736
0.194593380987505 -0.0945827457046437 0.766139520591751
0.196106406294851 -0.0894764514105527 0.780961919627904
0.195962283887823 -0.0905711697764739 0.791696445825745
0.192672273051146 -0.0921235938328706 0.797742182678146
0.190741724383877 -0.0832159794118693 0.800570760270872
0.180938869410014 -0.0741596429374345 0.80514124212316
0.167968755612343 -0.0687150089591049 0.804424837980446
0.161229481831628 -0.0605799681899039 0.800594026929051
0.0814053248170979 0.0317370651711228 0.717399323923565
0.0738666098818548 0.0385048217310629 0.717399323923565
0.060974148352204 0.0466075721803941 0.717399323923564
0.0627971236761545 0.0534581364438703 0.717399323923565
0.0399026243771977 0.0666078444898385 0.717399323923565
0.0411923942650608 0.0767870778304801 0.717399323923565
0.0315095393580614 0.085103427346172 0.717399323923565
0.0131726181298908 0.099743224061102 0.717399323923565
0.00802415806241881 0.109161341732623 0.717399323923564
0.00071473223142419 0.116192506720502 0.717399323923565
-0.0109031856337245 0.129531924276323 0.717399323923564
-0.0165804952414221 0.139634015830675 0.717399323923565
-0.0236143966911954 0.143583140729125 0.717399323923565
-0.0414894707137329 0.159315538221752 0.717399323923565
-0.0435388031805267 0.166121042555802 0.717399323923565
-0.0620034454767439 0.174778799730178 0.717399323923565
-0.0663458282520747 0.193245706785269 0.717399323923565
-0.0794913202272742 0.204928928365448 0.717399323923565
-0.0934084662542382 0.213742004836804 0.717399323923565
-0.103013197619082 0.227257852196695 0.717399323923565
-0.110192014549709 0.232547797969877 0.717399323923565
-0.127686369211967 0.252539557290045 0.717399323923565
-0.131677924639411 0.256216127004533 0.717399323923565
-0.141431817734768 0.26620666032517 0.717399323923565
-0.153289178249591 0.274021135975464 0.717399323923565
-0.161599256565623 0.282044393250683 0.717399323923565
-0.175728043027508 0.305115550099621 0.717399323923565
-0.174462317822694 0.305293910416858 0.730031696861807
-0.184220359706844 0.304009239831248 0.741489997048428
-0.176631949994025 0.305008272922657 0.746509299372654
-0.177290404394843 0.304921585756243 0.769279661585338
-0.182884379514226 0.304185124960335 0.772095404597063
-0.176064721561222 0.30508294996254 0.780218757072187
-0.186286504834374 0.304729505906358 0.795759261421722
-0.174632538624529 0.309106998527796 0.798638139877614
-0.184514872070835 0.311119724317359 0.801137305798446
-0.209371158641468 0.334341182367966 0.803315354530454
0.193296999690572 -0.097712487013705 0.19293657864513
0.194434053266104 -0.0949673968505116 0.200940157842618
0.191888841955273 -0.101112080516224 0.220029460875667
0.190829323827092 -0.103669983550859 0.219481517432434
0.190909534613453 -0.103476337582579 0.238929700969106
0.191530230217808 -0.101977845836439 0.239825502168616
0.189536491956967 -0.106791155785583 0.253167267571493
0.193921793309256 -0.0962041017857938 0.260688088995748
0.191748957695363 -0.101449790993662 0.266971174168157
0.190811343919195 -0.103713390888353 0.277356434142513
0.191765806225604 -0.101409115043448 0.285634386299723
0.19212296914395 -0.100546847481999 0.303178157154648
0.194371164030771 -0.0951192248953791 0.307846772890555
0.193014387753199 -0.0983947725857977 0.311021089478275
0.190971110243584 -0.103327680861202 0.330256307581153
0.19270166508489 -0.0991497518928939 0.34094037740262
0.191927505032896 -0.101018739589864 0.343051577908296
0.191618306175523 -0.101765211664803 0.359192664211058
0.191721967559211 -0.101514950946408 0.36056202442058
0.194957797449753 -0.0937029665391319 0.374627701106526
0.192383362064822 -0.0999182033608847 0.389934687335129
0.191573715016501 -0.101872864245677 0.396837728040059
0.193252199073352 -0.0978206452713994 0.403523109790966
0.192158337507819 -0.100461460698266 0.413322452703314
0.191892194369676 -0.101103987071905 0.418323096954875
0.193455014960244 -0.0973310044066004 0.42666025033654
0.191424821674767 -0.102232324570637 0.43991696924563
0.191815630426677 -0.101288828781482 0.455702648627448
0.192927283781192 -0.0986050601763555 0.462586173963138
0.192708267024448 -0.0991338134008736 0.470927965120917
0.190270164183904 -0.105019914344972 0.477973237957883
0.191442922646745 -0.102188624958596 0.488515981642504
0.19091992305466 -0.103451257666924 0.496946992863151
0.191371098235821 -0.102362024425559 0.505637187484727
0.192510427182258 -0.0996114410310649 0.521712398754196
0.194290409529404 -0.0953141835078032 0.525917285128006
0.19388766813063 -0.0962864872548494 0.525300262428675
0.192763177103778 -0.099001248742645 0.544665950649029
0.191997406649355 -0.100849982159375 0.546189372301936
0.191624330989236 -0.101750666477828 0.560179702608151
0.191286410815733 -0.102566477943696 0.567413368672694
0.190400229325124 -0.10470590931705 0.578864241208261
0.192260123930376 -0.100215726536465 0.586894454639359
0.1917287897799 -0.101498480648697 0.597410728165123
0.191971330365186 -0.100912935878273 0.59944661906283
0.192535436055617 -0.0995510642698231 0.615708517558823
0.190845859052277 -0.10363006398596 0.62686179613892
0.194289709572418 -0.0953158733534498 0.636798967078715
0.194332473944355 -0.0952126310267331 0.643539961961128
0.192567323729963 -0.0994740806139439 0.651790173528968
0.192476713127042 -0.0996928339604108 0.663658252162614
0.192015676871878 -0.100805873940373 0.671705182830974
0.191888665755962 -0.101112505898991 0.679070805358733
0.192947304473772 -0.0985567259488001 0.68520808307793
0.191763064727773 -0.101415733604693 0.701235686688097
0.192986142297678 -0.0984629631475925 0.714750617295616
0.190592985010264 -0.10424055592776 0.717386478738208
0.19231872254947 -0.100074256955512 0.720088901163283
0.192961529129687 -0.0985223845915694 0.73743881365192
0.191316173138 -0.102494625341633 0.752641469867671
0.192552624510088 -0.099509567669923 0.751660598858656
0.191841183257301 -0.101227138791234 0.76891963494609
0.192883257198303 -0.0987113497498693 0.780668898699091
0.190254121996949 -0.105058643610292 0.784484482493387
0.194186042051027 -0.0955661488895701 0.790962123964355
0.18564114063456 -0.100059196847061 0.800594026929051
0.183035379749451 -0.0917341542188355 0.803556856620058
0.176885260316003 -0.0910650546710919 0.805298183956277
0.165685019819098 -0.0746908123365287 0.80382570127249
0.157595018647092 -0.0633478716298475 0.797941743167509
0.0737559863573029 0.0275074718919321 0.717399323923565
0.063237456658221 0.0374336586870503 0.717399323923565
0.0597185935339017 0.0388994210684089 0.717399323923565
0.048002328249016 0.0573712732837185 0.717399323923565
0.0375405739682906 0.061281191612017 0.717399323923565
0.0254262061425174 0.0720266596630431 0.717399323923565
0.0181300087271657 0.0838089256187592 0.717399323923565
0.0135084853440781 0.0874409062305413 0.717399323923565
-0.00504495551124548 0.101270366808949 0.717399323923565
-0.014215546703832 0.115354629106774 0.717399323923565
-0.0150381685053577 0.120877920589581 0.717399323923565
-0.0202872773681638 0.130154864787135 0.717399323923565
-0.0348263246984264 0.135794909925984 0.717399323923565
-0.0439142867172998 0.144961312665652 0.717399323923565
-0.0570089059982907 0.15625216447643 0.717399323923565
-0.0641618361712575 0.17480522945845 0.717399323923565
-0.0773734459445564 0.189475016325759 0.717399323923565
-0.0901053613868283 0.188105170336598 0.717399323923565
-0.0995118816229394 0.207906911193672 0.717399323923565
-0.0992240126613942 0.215503325782408 0.717399323923565
-0.120065790351391 0.230418204756709 0.717399323923565
-0.134916847687772 0.242360685841197 0.717399323923565
-0.131048509951656 0.24448843968742 0.717399323923565
-0.150567250168362 0.263793507598533 0.717399323923565
-0.167548890346489 0.277777960972477 0.717399323923565
-0.165151310770736 0.283233555515565 0.717399323923565
-0.184861236609086 0.302515097415136 0.717399323923565
-0.194578774774976 0.302645528616479 0.722982417763537
-0.195535020667855 0.302519636456376 0.738983850109472
-0.19494147962022 0.302597777617717 0.740310677793009
-0.192876234709043 0.302869672268405 0.754311176834869
-0.18801311145204 0.303509914591265 0.763977850407191
-0.19153976615683 0.303045621691251 0.778292936780388
-0.196857562297703 0.302345520547645 0.789869839429836
-0.194160745533577 0.304089641876885 0.796199756294166
-0.205784231755803 0.308559979159929 0.801279135023801
-0.210797370198727 0.327939879205931 0.80521004245998
-0.211861283254773 0.324300683558389 0.805582050799954
0.190732743556038 -0.103903148951096 0.201303194193195
0.187662553918125 -0.111315242414003 0.211783749380096
0.188828206325883 -0.108501108562179 0.222320227582503
0.188056984670582 -0.110363002342004 0.223979310387728
0.189155504118486 -0.107710941792343 0.234605788374869
0.187851276153292 -0.110859626634341 0.245596117554163
0.187914851458411 -0.110706142270491 0.253931926762523
0.189100048437022 -0.107844823650643 0.26195161089648
0.188070157531669 -0.11033120024211 0.276595421938353
0.189541358117032 -0.106779407835956 0.282070197166477
0.189507355743317 -0.106861496827733 0.296826840049761
0.188198080871925 -0.110022365979121 0.307309432185951
0.187549648821096 -0.11158781943051 0.318612968656226
0.187583579332822 -0.111505903928923 0.317865105098596
0.189520939518975 -0.10682870269231 0.33445719048767
0.188443413458991 -0.109430080720135 0.343252505066501
0.187706656935304 -0.111208768311786 0.354819557982692
0.188837852213766 -0.10847782132883 0.364504653788931
0.188232825176941 -0.109938485806735 0.367876059276346
0.18872254280557 -0.108756202865966 0.380072799802606
0.187355349852409 -0.112056898635869 0.38657023685372
0.190083473176128 -0.105470626307921 0.393588892477323
0.189809349640976 -0.106132419064251 0.400543626212733
0.186514387461813 -0.114087161444694 0.419865498056331
0.187903185815266 -0.110734305624384 0.424140250989674
0.188549643386839 -0.109173618987594 0.430894265210033
0.18876785896969 -0.108646799967956 0.438201387150674
0.189890656196029 -0.105936127676333 0.446947939563227
0.189418179570261 -0.107076787154164 0.45612092626347
0.187405291106088 -0.111936329783917 0.471864006260003
0.18984431388521 -0.106048007911625 0.482635840283747
0.189865391579912 -0.10599712185521 0.485154028265047
0.189038865692856 -0.107992531861393 0.500132944072601
0.189373491541725 -0.107184673598733 0.513554610279308
0.186076015365777 -0.115145485304308 0.524668230141934
0.188343080710377 -0.10967230540259 0.527478609294204
0.18589078139638 -0.115592679665438 0.542631079837936
