ply
format ascii 1.0
element vertex 852
property float x
property float y
property float z
end_header
0.119569488471243 -0.293689231874041 0.746917168543292
0.121690965743528 -0.293322150361762 0.766024314532887
0.117207217935895 -0.297002032183902 0.769652125085746
0.108266782130918 -0.287160580939072 0.775645644410666
0.106320346025654 -0.284255472517605 0.775645644410666
0.0972704864810606 -0.284335867729825 0.775645644410666
-0.392926809279418 0.165443586505529 0.247900945713521
-0.391832351108357 0.167475409634919 0.255655579503612
-0.395159153583364 0.16415151800866 0.268612234166218
-0.392003640512602 0.169147934496542 0.279934581984202
-0.394740669355836 0.166437953150548 0.290910016377072
-0.391531248306 0.171657182522415 0.304186189642853
-0.397718341085454 0.164220804273796 0.312213620862023
-0.395297798639735 0.168377849185362 0.325053101438666
-0.393810342184756 0.17085191983153 0.331912294534063
-0.393564969126847 0.172017760377904 0.342747876791962
-0.39243972904787 0.175089464994712 0.363306555903995
-0.395879641936143 0.170974922275397 0.368025171491117
-0.396782730449908 0.171076342686553 0.384397036292024
-0.401154415997361 0.166417513396205 0.39769666962687
-0.39850662374143 0.170300723783607 0.403236233498162
-0.396794652265007 0.173398730876678 0.414338948649127
-0.399387295329613 0.171148776589429 0.428796104547986
-0.397159419476033 0.175113538271006 0.442388700391345
-0.39559994753444 0.177709009449099 0.449600703551127
-0.39902769970906 0.173989532224966 0.459175973002776
-0.395316281539591 0.179095213410736 0.462619363143085
-0.398299351745326 0.176294883011829 0.476544238306242
-0.39906036806704 0.175878278683785 0.483910485374836
-0.398252700363253 0.177896856597223 0.496282153884245
-0.402668700654573 0.173668422698503 0.515833514437418
-0.398028002341774 0.180386737768868 0.524419860957305
-0.400905818867523 0.177264679249904 0.532467616318774
-0.398916674021947 0.180447294281288 0.540027756255375
-0.402691415170737 0.176763117326876 0.555846525867789
-0.399590417893458 0.181872240774996 0.569522210924291
-0.399838650024241 0.181771729175044 0.572378064435735
-0.400507951577436 0.18230800208067 0.59041709147801
-0.401047187677393 0.182684079349267 0.604233632531095
-0.404435726862224 0.178341686331166 0.605176707830086
-0.405488051147764 0.177971287896518 0.617996781819385
-0.406762902302952 0.177187850720832 0.629241127129546
-0.405806854331749 0.179884981457758 0.647826516718868
-0.4050329283803 0.18122483382466 0.652068881733407
-0.406159822021201 0.181386823671515 0.672951874135429
-0.406447817723504 0.181923358679763 0.684630085249373
-0.405782005405021 0.183076011416821 0.68827944306249
-0.404152252564652 0.185947116258237 0.697848478130664
-0.409119583703899 0.180825535966182 0.715163241279005
-0.410345706442509 0.179591022000458 0.719817325497785
-0.405962592810665 0.18651547610237 0.735342912611526
-0.406174325041607 0.187273597016738 0.74858611160731
-0.405806085923582 0.188166475922184 0.753875169742767
-0.408607071481794 0.185587975407365 0.767601952585189
-0.409141239649902 0.185417367790171 0.774332489170636
-0.422011247478256 0.200927844242402 0.775645644410666
0.0915790391858368 -0.282401787145101 0.250360890240196
0.0877011346904162 -0.28620866907708 0.262958617109735
0.0929441860944747 -0.282888470961064 0.273611592789507
0.0948652961848204 -0.28262408545335 0.291945060935176
0.0916409168768201 -0.285333467864667 0.295509948513056
0.0921713806881017 -0.285315690870167 0.301409200382014
0.0918203625129563 -0.285798802087711 0.304648807267417
0.093222996787851 -0.286061059743541 0.324934274424179
0.0931366365677218 -0.286727488118617 0.334029701269296
0.0974592540494656 -0.283668687378683 0.337940594145921
0.0930025707613675 -0.287886615678371 0.350037203881543
0.0957948439051587 -0.286367918754124 0.359492224044455
0.0917489693875693 -0.290062582941712 0.368436004827115
0.0951308277362687 -0.288486181051458 0.383872681472437
0.0924271590448437 -0.291140747319296 0.392662076196247
0.0930757180721301 -0.291141981552109 0.400222748905376
0.0946944222357329 -0.290009829542924 0.401888632992426
0.0991489135963903 -0.28784542955602 0.420887666532106
0.0957501795230235 -0.291043490419132 0.429830916942612
0.0945095493769729 -0.292461731342721 0.436897247884655
0.09728804236155 -0.290882283029357 0.445271336556297
0.0958414477432556 -0.292772320685957 0.457092605422096
0.097873522786783 -0.291644728174618 0.463634598816348
0.100710301491852 -0.289919657905234 0.470479586454955
0.0969631960897859 -0.293274886303121 0.477753561000995
0.102092749864278 -0.290533899626713 0.495864618934977
0.098134852223184 -0.294129008961517 0.504322716374263
0.0984853589725673 -0.294257071401898 0.51033947257335
0.102350803802992 -0.292411374603764 0.527318530553952
0.102961663910562 -0.292312069387116 0.532917138780693
0.102684159484347 -0.292927738115524 0.53902052623262
0.102289144678185 -0.294262030074173 0.554648112096049
0.104870333094887 -0.292891828798432 0.56389891377091
0.102836509075025 -0.29476006760585 0.568561044456304
0.103251679634714 -0.294946275556967 0.576210956346834
0.104109805162943 -0.295554611228938 0.595409233573103
0.104400494032545 -0.295207505666319 0.593529228636682
0.101626214022523 -0.298366552611888 0.609142880797061
0.102220078153703 -0.298819996910619 0.6229207410915
0.106345987602974 -0.296125359858153 0.630063039095738
0.106340397849127 -0.296688827324254 0.638537362007366
0.104349271589602 -0.298698567373892 0.645840461927497
0.109761287486453 -0.295470524387967 0.659854900149286
0.107231969124092 -0.298033803014748 0.669288321003458
0.107644941368059 -0.298086291744592 0.674886160088204
0.110588411751091 -0.296290727591018 0.681903512926068
0.106681818095672 -0.300414750977395 0.698973884108679
0.112514846765261 -0.296078462467981 0.701088785760753
0.112953008055862 -0.296498724132619 0.712553126338149
0.110362412060962 -0.299138692048936 0.722436184277025
0.10971101437631 -0.300606863582599 0.73711128221609
0.11063681490002 -0.299849900063616 0.736405488727508
0.111080049221184 -0.300511442685524 0.751585425073301
0.110997779972538 -0.301092143603526 0.75942922913279
0.112202520941152 -0.301188915148992 0.774905498314547
0.104208436082133 -0.297996897422721 0.775645644410666
0.0966847838430345 -0.285996257801442 0.775645644410666
0.08274272455375 -0.284023902147852 0.775645644410666
-0.397518579542805 0.158528011942683 0.250213784176733
-0.396315535514372 0.161947735339091 0.259688843152194
-0.398835271812662 0.157628627258612 0.268564814186597
-0.396071558871598 0.164415830490967 0.287225766483455
-0.399228850367431 0.160597163389842 0.300113813917429
-0.398631201934407 0.162499205413785 0.305401099372411
-0.400520932996352 0.160190898427165 0.321956550304233
-0.39991005919976 0.162265735059542 0.326787515113374
-0.401962205115551 0.159375622650155 0.343406119436302
-0.401810270768886 0.160380626660318 0.34854418553504
-0.400430758293281 0.164045694508674 0.355242491762002
-0.399962946435731 0.166173298152467 0.374682810540455
-0.402115342963884 0.16328508318536 0.377857039901428
-0.404246597139525 0.160124597595219 0.393836496078539
-0.404525750660305 0.161598686147681 0.411129911610247
-0.404704293090684 0.1613821653866 0.412856969291279
-0.40577773500237 0.160311112307528 0.425097997626069
-0.401078644314422 0.169410255993507 0.434760196087916
-0.405969523726793 0.163555923598467 0.454949165938426
-0.407400379467144 0.161060602399008 0.462670491412894
-0.404163838398586 0.168117181329517 0.46969305955202
-0.407041341797176 0.164816868399289 0.485933187174588
-0.402331662200324 0.172363631605253 0.493497666100613
-0.40739179609396 0.165628932945195 0.499282584423006
-0.40506038546311 0.170628063760745 0.516813834727313
-0.407802268266261 0.168063022111284 0.529726533295642
-0.408136969715569 0.168681961048461 0.543239636018803
-0.410848661137741 0.163094489901357 0.546067395539677
-0.408129032188366 0.170244856015684 0.563123222261604
-0.408462650907098 0.170152020205401 0.567502521983242
-0.411317886162642 0.166034467180402 0.578856771984029
-0.412373764625186 0.165706538452264 0.596739208369195
-0.408138518249087 0.172977427187682 0.598277712937293
-0.411795625031818 0.168715684913404 0.609728394299501
-0.408892945353262 0.173875192187124 0.622367170939463
-0.411278358843227 0.171736741595101 0.634793601400137
-0.408983242120882 0.175015677824598 0.638480517837366
-0.415122505658183 0.166705898375226 0.658210696901975
-0.414245089052064 0.169039106958289 0.659941125608217
-0.412177077980987 0.174205716242774 0.681413914592517
-0.414370800947524 0.171732024818826 0.686347496057345
-0.415593520810401 0.171393481940885 0.705104575286769
-0.41349418682824 0.174829516385187 0.711386113165218
-0.412453455350583 0.177024268131785 0.722124104801286
-0.413652354274996 0.176158634406314 0.731048076946696
-0.416542497695923 0.173911845356999 0.750511190046642
-0.414031079096461 0.177936849852498 0.760142857542368
-0.416507879935934 0.175647271668991 0.772159087564952
-0.41771188098173 0.179772673562642 0.775645644410666
-0.43453177000529 0.190947660587317 0.775645644410666
0.0819280687710466 -0.289501869621208 0.245733057719913
0.0843850150764984 -0.288745788080464 0.262846029848751
0.080992679174098 -0.292047012450387 0.273427121841157
0.0802560468432317 -0.2929166272248 0.278039940699997
0.0827787334150483 -0.292104797634904 0.295072534445472
0.0813173463149356 -0.293858199892957 0.304651080834101
0.0834655021669532 -0.292915415734538 0.31534371818051
0.0850590778220568 -0.291589688293765 0.313783760389263
0.0883526476556747 -0.290125403267121 0.329892873123714
0.08648358079314 -0.292270635847222 0.340668761692993
0.0895501066226311 -0.290176193319784 0.344587613776292
0.0885658857506067 -0.291777346576145 0.357407707254423
0.0845554113242099 -0.295701214751639 0.37023672540167
0.0883733711297746 -0.293624707280023 0.383165663402139
0.087827164703457 -0.293871236671101 0.380550076374141
0.0854787045813051 -0.296604569302256 0.394663823938473
0.0862347182384197 -0.296561407263517 0.402801242258077
0.0908247127268893 -0.293669085073208 0.412344386048155
0.0907080816393584 -0.295220669045473 0.434502293606433
0.0912305195049178 -0.295127387094564 0.439163938949779
0.0923750956872692 -0.294269159369091 0.439467590771687
0.093313024652622 -0.294869013885699 0.459465355249007
0.0921387653937144 -0.29603973375896 0.463552329635422
0.0926734352810913 -0.296712129331546 0.479960028561146
0.0925810600988599 -0.296728133894606 0.479128363826841
0.0931254631055268 -0.297253788117488 0.493425388512353
0.0899485685010069 -0.300138227192217 0.500195442721519
0.0950345113388013 -0.297382424246656 0.517574817557268
0.0949401584452618 -0.297575660056906 0.519406086286182
0.0904744898945854 -0.301946636088093 0.533717639887023
0.0919879282436278 -0.301202906486927 0.540045932895639
0.0963826028480587 -0.298398290056914 0.548646916392925
0.0938800710288539 -0.301085270122884 0.560266522757776
0.0948756322096403 -0.300590180030791 0.564340642968919
0.0942749529122316 -0.301566112718503 0.572145676836879
0.0936828283923593 -0.303521069153039 0.594887255110566
0.0966701206870034 -0.301574423750763 0.600124574724281
0.099828175035032 -0.299588976300602 0.606759609996702
0.0940204623746338 -0.3047369921502 0.617240796075666
0.100480736034762 -0.300718677909761 0.631468695161206
0.098049342762451 -0.303117278563842 0.639545180464488
0.095114497744243 -0.305597501769233 0.643004108655021
0.095774145942197 -0.306074401322272 0.657902422551473
0.0961211165258582 -0.305910055040147 0.659446615816152
0.102229764872963 -0.302436942185485 0.677848035312226
0.0969955364608076 -0.306936281166491 0.685167489323277
0.0990619705041228 -0.305535303474366 0.687965896313257
0.103626409282214 -0.30297671831278 0.702269627909532
0.0996882630296177 -0.307044138571212 0.718115262062869
0.100278209304681 -0.306621542262964 0.718571204848305
0.099776392892624 -0.307698309923699 0.729054045816814
0.104076742529834 -0.305142843979347 0.740334007280658
0.102342685162215 -0.307625061491339 0.757786887322911
0.103443990620415 -0.307046537563889 0.761826251194527
0.099665363001532 -0.310038762042127 0.763232351250416
0.103395535563007 -0.307711448190528 0.771339468461459
0.0880540961547483 -0.296580576023924 0.775645644410666
0.0848918075033333 -0.287524154651506 0.775645644410666
0.0828171678885479 -0.288616609178254 0.775645644410667
-0.4053457472147 0.141517115732233 0.26539412141994
-0.403495828856067 0.148038455042525 0.281940551741458
-0.40203293972014 0.151664479671943 0.282699729059492
-0.403655819409276 0.149391879857635 0.295946415868137
-0.405331580147199 0.146906888322812 0.308510990160143
-0.406164267375892 0.14597879565371 0.317223551809064
-0.405547449379008 0.148394055316506 0.324679675625959
-0.407196050247822 0.146035160731278 0.33773154525668
-0.4037268506891 0.155929008973171 0.349956429022552
-0.405250209694114 0.154458616474158 0.367727233148095
-0.406521773132362 0.152389088959416 0.375780479271941
-0.408031780354507 0.15079917160684 0.392329495869672
-0.410673377133127 0.144627138815856 0.393982704614113
-0.407801896845545 0.153383624410227 0.408668404366762
-0.40729500034649 0.155658715128976 0.417132534509854
-0.408562947130009 0.154930123477332 0.435911153121459
-0.407859901343757 0.156858714370568 0.437773218854607
-0.411291165663891 0.149856349732113 0.448089896072815
-0.412144639994544 0.150038790849987 0.466147221342791
-0.410336181611102 0.15542431576461 0.474355220617766
-0.410624061547628 0.156251886952543 0.486613235370994
-0.409133795759257 0.160404897925335 0.491082993097443
-0.410825503493103 0.158133907314363 0.505680408917958
-0.412999231959652 0.155005449438863 0.52274326514986
-0.411641563345088 0.158480129852361 0.524329108063992
-0.415294163895416 0.151482145511394 0.538983043250567
-0.41481955656027 0.153959893357 0.549706321665878
-0.413087542765026 0.160164432135831 0.56599388723106
-0.415666667463461 0.154129916337934 0.567539987928198
-0.412436226239605 0.1635321917189 0.580447911457958
-0.415550102992524 0.158138762866531 0.597548991226246
-0.415660141150008 0.158124429778582 0.599572350038529
-0.413777291536774 0.164215790049955 0.61201701852558
-0.41620152031099 0.160770817281858 0.631400501566476
-0.414309878564572 0.165741823069704 0.634654481257326
-0.416654006936953 0.161949178393362 0.649682043194435
-0.418485977483217 0.158461483619332 0.657210174380683
-0.417145171824547 0.163330736369079 0.670351259881481
-0.41915040017276 0.160126195203973 0.683526535428936
-0.420496848047068 0.157893901533849 0.691724864758762
-0.417488537460948 0.167034018352258 0.706839623546632
-0.419250253584888 0.163391999701232 0.711759819746397
-0.419982320446701 0.162528339802882 0.719035415902696
-0.420757660521613 0.162036070697772 0.730142100046216
-0.41834841226368 0.169583244585727 0.744075972626969
-0.421428738207036 0.162871340259017 0.74991010107984
-0.419964506874236 0.168604676531741 0.767608831294166
-0.426471194951068 0.170030742433844 0.775645644410667
-0.448044599147774 0.187815331697645 0.775645644410666
-0.449198410184305 0.184031923534841 0.775645644410666
0.0726504624907584 -0.297009339949549 0.25162095006357
0.0760627006214448 -0.295487219940863 0.268233546907866
0.0754966907022616 -0.296519720599019 0.27729902944098
0.0788328965195869 -0.29401964329184 0.278206560595344
0.0725065888555668 -0.299848266043261 0.29297167346471
0.0736707149074852 -0.299378332371151 0.299387246540218
0.0786054555834083 -0.296587737128328 0.314481044808682
0.0782501268269822 -0.297155204161887 0.318948933518756
0.0783474850295097 -0.297637296131913 0.32738717625511
0.0772317529668221 -0.299245937155293 0.338791428221914
0.0796016229727175 -0.297932964328657 0.346452143485622
0.0779264361256575 -0.300401088891245 0.364376039429545
0.0776984201015789 -0.300891014431728 0.369149285399163
0.0813896491604077 -0.29859908359988 0.377339764255759
0.0793913360430097 -0.300145685270374 0.377540447482539
0.0840172099362898 -0.298416016909615 0.405120794466785
0.0816127780814805 -0.300371298532317 0.406792328149685
0.0814511479145043 -0.300992069609217 0.414320520906461
0.0826991483337655 -0.300745183684527 0.425091731805547
0.0778933732677647 -0.304799317883333 0.430646528003073
0.0821411870047963 -0.302596596034306 0.446661381116864
0.0871526646976548 -0.299457632492078 0.457368032857037
0.0830794102443207 -0.302774225356287 0.460263763086027
0.0882335163608918 -0.299481420042057 0.47029754788204
0.0838230277420518 -0.304140990506507 0.489624414434217
0.0826443189596617 -0.305204288876993 0.492031677940207
0.0849678263170945 -0.304092014067927 0.502194820675343
0.084854567310627 -0.304396401852828 0.505490737229014
0.0872520980883534 -0.30357048809053 0.52085447333628
0.0865836156145125 -0.304465882681909 0.52665048576269
0.0843076574451435 -0.306724086956833 0.53440679487412
0.0893531895554179 -0.304046320285253 0.552498877503438
0.0865490964388686 -0.306562141786444 0.558017784998545
0.0884910689592655 -0.305777902736445 0.568715500370813
0.0893284081207677 -0.30621042264261 0.585007576615727
0.0893396320416784 -0.306424984196802 0.588389768504628
0.0930490441799498 -0.304180797433543 0.597515254183377
0.0917464180670152 -0.305973055829884 0.60952886459737
0.0909427380728643 -0.307106382284684 0.617358538210875
0.0901826444964609 -0.308187149170558 0.62489853188396
0.0917884027401349 -0.307433226228015 0.632145915511344
0.0941590137153401 -0.306654691219477 0.647914629386364
0.0924922405022547 -0.308517801317709 0.656767397814657
0.0894369524224993 -0.311514440290374 0.666651975470446
0.0901243374600349 -0.311749377539838 0.678205907482846
0.093822505533431 -0.3095879410894 0.688454715509997
0.095206062358546 -0.308895368874398 0.694047929277444
0.0921375484366317 -0.311776108567591 0.702022257594688
0.096236898119635 -0.309312805005012 0.712361546229934
0.091818163944817 -0.313089237601927 0.718208610608453
0.0966540343543564 -0.30998632431539 0.727419499152871
0.0914167786307356 -0.314545818500604 0.735615398660599
0.0959305728775403 -0.312276794520295 0.753718481941144
0.0967338985556059 -0.312143326386063 0.761037497664336
0.0968452813999604 -0.312675862833439 0.770403314131027
0.0925835268909602 -0.312318072536575 0.775645644410666
0.0845000948198587 -0.300700166945454 0.775645644410666
0.0731434981537799 -0.295355982529171 0.775645644410666
0.0728213338557357 -0.291334509676535 0.775645644410666
-0.406230843768675 0.139923994185209 0.269771290096869
-0.406317240029327 0.140867527917234 0.279046771891495
-0.40722852936814 0.139606182818898 0.286604116520968
-0.410681564332865 0.1332773280937 0.302766262262128
-0.412222489542363 0.131298423922225 0.316784542317249
-0.409541123888109 0.138874405866861 0.325661345117598
-0.409861906671862 0.138714273982578 0.330607029926984
-0.410299017208195 0.138797410243328 0.33977222874094
-0.410662023064525 0.139434058760393 0.351953336533498
-0.411153309138683 0.139650603866417 0.363245570043388
-0.412544167764641 0.13902833870559 0.385269177961219
-0.411191420205876 0.142397855639906 0.386104013858691
-0.414071184211797 0.136527313621053 0.394813606106623
-0.411486314336349 0.144912404078569 0.412079952915989
-0.415868988339259 0.135616520441377 0.42242389964241
-0.414049771889585 0.140858951122618 0.429270770624916
-0.415271752225662 0.139766471420306 0.444226357727894
-0.412822940068337 0.146196024103858 0.448393452505492
-0.41692098448658 0.13886502891849 0.469024220927939
-0.415767867942728 0.142982726305823 0.479762662369025
-0.415383280186534 0.143881730934049 0.479525385043232
-0.416375368821897 0.143149390085524 0.492912113481346
-0.41598547246222 0.145130853125161 0.501286361120602
-0.416421884628012 0.14654559761593 0.521158558204588
-0.41771649701287 0.145631806372405 0.538964448420051
-0.41545918469163 0.151116826696743 0.539249338085358
-0.418590783142235 0.145705932743922 0.556554256103361
-0.417099676322623 0.149670226442145 0.559488333539373
-0.418824011196202 0.148031131763468 0.579807201989401
-0.421870117275526 0.140752882582188 0.580416662488881
-0.421105957889469 0.145512890662988 0.603886198472808
-0.419987914087998 0.14881216735823 0.608717351338864
-0.420879141158299 0.147356268323026 0.614318432794756
-0.418629296120262 0.154118661971783 0.625032395290102
-0.422024062509338 0.14780309103461 0.640168951893941
-0.419912430865523 0.154161130724089 0.650313902298884
-0.422094884873617 0.150624958584129 0.664263907623631
-0.424248470136999 0.146458584233584 0.672579146106584
-0.42367562800233 0.148905999401568 0.681148884031435
-0.423730435794076 0.151389473342952 0.702208218500487
-0.424404319202336 0.150396610342665 0.707312740055382
-0.427299894254153 0.144909475938249 0.719416398536422
-0.42416150621163 0.153888895731573 0.7307091650752
-0.424556267465816 0.154561003370881 0.743792961314821
-0.425224135624206 0.154347043123651 0.755051393425342
-0.42746822039012 0.149630693101856 0.760697852748272
-0.426893412338286 0.156767064568789 0.775645644410666
-0.442148191924415 0.165725333104311 0.775645644410666
-0.44713134118547 0.171604318702254 0.775645644410666
0.0663536831074894 -0.302163124196938 0.256502293274538
0.0688128971435533 -0.300447064204022 0.259093204476492
0.0700457340294421 -0.299958161113679 0.266020321888056
0.0679168181531514 -0.302765042434907 0.283801734403312
0.0659258117600801 -0.30473185988083 0.290455738024166
0.0661958213509478 -0.304935603064794 0.296683346673306
0.0687763012574388 -0.303649815706896 0.307205198493951
0.0728570658362528 -0.300906861453233 0.313090270403422
0.0665356339512418 -0.306501305420164 0.324363113415351
0.0736604364782055 -0.302125974807401 0.340908122968459
0.0698330184675735 -0.305701334792785 0.350584242353237
0.0710325933334343 -0.305520292684004 0.361790182005171
0.0721395673929464 -0.30483968918141 0.364348453402245
0.0694129636480083 -0.30805642431071 0.381390785592797
0.0713310956633132 -0.306712440722228 0.383328360049904
0.0760837390728308 -0.304133126354722 0.399506536822524
0.0787058144089635 -0.302758200227182 0.40916119968068
0.0731702939122903 -0.307836477261355 0.421750767253768
0.0755659857128241 -0.306200065975151 0.424810063324057
0.0743351364394672 -0.308089704417206 0.439134143157261
0.0782826677088515 -0.305494990193096 0.445716441820084
0.0719633120870614 -0.310397926871909 0.446533666249171
0.0758642903070477 -0.308679894318711 0.465860681281688
0.0813261342135587 -0.304773620073608 0.470175994423661
0.0742994306088124 -0.310796381910775 0.479738507299433
0.076570503613613 -0.309593333851161 0.487916236364208
0.0800357149327301 -0.308030861448514 0.504533309424428
0.0757827639393032 -0.311625729453666 0.509556630939758
0.0813993067816051 -0.308352239366017 0.525260724740728
0.0757563603252905 -0.3126371816732 0.524578103047497
0.076973190340843 -0.312680251033715 0.539381099136165
0.0801430198569395 -0.311315242113192 0.555555784655535
0.0779176426549527 -0.313490022314193 0.562636001858051
0.0763714642838313 -0.31465355858038 0.562289133295192
0.0799804496084814 -0.313055790419781 0.580043220878032
0.0777496907419365 -0.315288283961542 0.58793549892376
0.0817232191374585 -0.312822652711563 0.596776360048196
0.0813093994764234 -0.314059093906558 0.610702343785918
0.0853723259003046 -0.310968114826798 0.611105678039271
0.0824468440819314 -0.313922852561428 0.621864736247221
0.0820061891132148 -0.314759932854643 0.629426360166071
0.0843906459680156 -0.313770180499299 0.642155095350163
0.0838131801316991 -0.314583873794222 0.647771343102593
0.0814158926314882 -0.317671620637143 0.666688418548482
0.0844038547331792 -0.316118432257012 0.677896351375181
0.0873582579782662 -0.314475462554858 0.687353402671797
0.0831048550179198 -0.31813765339928 0.693391743068725
0.0873259866972758 -0.315671470637527 0.705103576935669
0.0852497345846197 -0.31767352174115 0.711300239067391
0.084297313272697 -0.318637184713017 0.714828985809045
0.0860801256840586 -0.317837119908465 0.723436020314359
0.0851761592216669 -0.319374878066604 0.736228626886635
0.087232257261052 -0.318649994136822 0.749153010209682
0.0872957282977198 -0.319083899914583 0.756466925963589
0.0911837506262848 -0.316837950253446 0.767642718489617
0.0917565565291313 -0.316634472027953 0.775645644410667
0.0780484411235879 -0.311443509611653 0.775645644410667
0.071086075662159 -0.305603346607989 0.775645644410666
-0.411573823838446 0.126469956818997 0.26530353442799
-0.412464149540176 0.124497450132854 0.266727968089479
-0.411577170886886 0.127513643895588 0.273771152602412
-0.413214333252313 0.126399954345217 0.296625651561932
-0.414729657422365 0.124616294680006 0.311718221381942
-0.414970164000907 0.125336349811967 0.322189870584407
-0.412996854275248 0.130204019831069 0.323024573523583
-0.412393836154629 0.132807079812841 0.332260869441045
-0.415296326792854 0.128095449565112 0.350742406590521
-0.413874397873778 0.133189601606004 0.364117372499304
-0.41595864432686 0.129153744754714 0.372135686163749
-0.417264763961627 0.127218428395593 0.381941095710079
-0.41507487997864 0.133266176657292 0.388066989280779
-0.414960050287054 0.135354621996088 0.40264885727912
-0.415941890386052 0.133676617987934 0.408223002456529
-0.420207621347194 0.125443857249504 0.424853028585706
-0.41908045576463 0.129520174349127 0.435762718554906
-0.419718361788549 0.129205195686321 0.445625509169638
-0.418577416845847 0.133342648959602 0.456759575039722
-0.419770903668605 0.131716289592977 0.466863166408908
-0.418061407902746 0.137083728475826 0.476849040832722
-0.41743601100675 0.14020994131789 0.489862195418204
-0.420683772825515 0.133087517344135 0.495645654379018
-0.422003984585376 0.13162660991045 0.509544357917221
-0.42256458843109 0.131739180331157 0.521346799420958
-0.421801569294252 0.136007207629249 0.540877636544981
-0.423436002051379 0.133663903145359 0.553779641731292
-0.424692840777627 0.131294283385929 0.559130695277062
-0.423557038190431 0.135827934826166 0.573554440564287
-0.42595597474927 0.130148812810784 0.57445954205758
-0.42480317564229 0.134700096648798 0.588694890871549
-0.425153214252953 0.135736145284796 0.603839469956072
-0.425587624839986 0.135776212197519 0.61260544664584
-0.423224499357238 0.143061229097514 0.625325197313528
-0.425721989618185 0.137552418094132 0.629516981577615
-0.426521583896488 0.137362776588374 0.643531489629809
-0.423833297370908 0.144928532366474 0.652191445901989
-0.425576488538111 0.142640518168361 0.667652463165585
-0.427873018682496 0.137853794808552 0.673751710138161
-0.428141317306489 0.138642431384556 0.685315676940956
-0.427245663865073 0.142808312999527 0.701446213545354
-0.42781743974876 0.141791004082803 0.704369315947586
-0.428873866749411 0.141618700132769 0.723515325015824
-0.42985561142401 0.140042777279581 0.729909455087404
-0.431589313539086 0.137238039142112 0.741025974165283
-0.429872237198364 0.142871591515718 0.753006947644645
-0.430383619590706 0.143879492609454 0.771060867236379
-0.431996564233171 0.14026279375171 0.773293318173687
-0.441467409743805 0.1512274576974 0.775645644410666
0.0607526901065908 -0.306548330915012 0.25782704304194
0.0579762533489618 -0.308363400552002 0.262997580410918
0.0581438004355952 -0.308836711451679 0.272575521406548
0.0630341412284079 -0.306341558322654 0.281223968853027
0.0662651399985579 -0.304414333561071 0.289589623083018
0.061752558932429 -0.30810006780371 0.292970830407975
0.0643703832651088 -0.307033765791201 0.307253244283171
0.0651701480920695 -0.306872134954392 0.314104047015299
0.0650335130681769 -0.3076039019176 0.323605041332011
0.0650574938255976 -0.308522699736475 0.33780825015187
0.0649395365062665 -0.308578183340919 0.337277398839337
0.0681476342378955 -0.307209495132572 0.353841338615793
0.065593960905475 -0.309984870890198 0.366205863061841
0.0651795584106877 -0.311203333977421 0.379852611692317
0.0650840479894228 -0.311350836602096 0.380977335304672
0.0700113657159963 -0.308433710751077 0.3940672476299
0.0674894080821648 -0.310856427430414 0.401456054742855
0.0672497039617992 -0.311655522133342 0.410778827379917
0.066483218256124 -0.313263461803367 0.42623376896001
0.0672971193953497 -0.312531739704871 0.424609251725919
0.0707882802743297 -0.311030166356312 0.442451009749017
0.0684110081203332 -0.313769445779845 0.456319831127853
0.06617606148276 -0.315743807033605 0.460251426729231
0.0672452628113801 -0.3157725022212 0.473119837293604
0.0668095743920028 -0.316573590375709 0.480193756952136
0.0686218218689462 -0.315844345654924 0.490216361470495
0.069769690602203 -0.315321175540542 0.495636085339251
0.0720090446299405 -0.314035014399215 0.502185385372149
0.0730007604886816 -0.314570781930112 0.52183739177198
0.0725385702922133 -0.316012726838876 0.538315283768504
0.0694376316552589 -0.318336892520549 0.537477696246118
0.0717069312259541 -0.317275786051073 0.54778592104777
0.0694794570286465 -0.319342597073319 0.553205484460749
0.0751525771100748 -0.315860075866277 0.566399646499216
0.0742055767807284 -0.317163372564051 0.575138567231688
0.0714200728469838 -0.320034693156514 0.586261218106849
0.0721556034091886 -0.320417128524101 0.600610352750696
0.0772113103571201 -0.316696951723608 0.603023076181102
0.075063070781405 -0.318904086368822 0.611490642179573
0.0758849426493827 -0.318560814683896 0.615845764233792
0.0740073067177101 -0.32105257021505 0.63177354508729
0.0735159635048134 -0.322219321323069 0.643741872123182
0.0785837810500666 -0.318882287370637 0.652101940650056
0.0799677297026778 -0.318819336470658 0.667241594705694
0.0758508163600237 -0.32228366672027 0.671868577809967
0.0797960920218606 -0.320055808505633 0.683984333406417
0.0752447158169701 -0.32370468691056 0.686355850911042
0.0823726521615437 -0.319335853633286 0.703035769863675
0.0764400856063956 -0.324215416137095 0.707996655211002
0.0815278762673163 -0.321200215977057 0.721466364457858
0.0773627473584595 -0.324562313960083 0.723983332453761
0.0805449077287674 -0.32261251293571 0.731438912055841
0.0806405413796639 -0.323428697960446 0.744920266110111
0.0786446440130379 -0.325637950117808 0.755191481109881
0.0809200086472329 -0.324706987984705 0.767542567156127
0.0787539760735893 -0.318554898835358 0.775645644410666
0.0766968914866914 -0.315089984860202 0.775645644410666
0.0639050590559244 -0.31100834013645 0.775645644410666
0.0527083302041663 -0.305841628103781 0.775645644410666
-0.419103000642188 0.109876632903627 0.278053793998278
-0.418169558778751 0.11305353016356 0.285487697194463
-0.4184084596224 0.113766265238828 0.295869203948822
-0.417946224241842 0.117044337371456 0.313276236551053
-0.420851847358474 0.110937128870341 0.320583073097122
-0.418947716620305 0.115938628238667 0.323839810099633
-0.418251144099989 0.120422073809485 0.346396433484182
-0.418752257447241 0.120150471074889 0.353949671554114
-0.419230771931506 0.120341513060042 0.364788348877218
-0.420539513110681 0.118264059155493 0.373500384550109
-0.423709095711497 0.11224086027301 0.386614007613707
-0.421437924189485 0.119036374448171 0.397180106988911
-0.422426906913547 0.117601182771078 0.404847924077399
-0.423117766760592 0.117949688640867 0.421081561038631
-0.423898906386475 0.116885192581083 0.427694057124038
-0.422271787732697 0.122014046124149 0.437360237315236
-0.424556047760793 0.1175971485068 0.446198406571693
-0.424124893335904 0.12124978988361 0.467225142050089
-0.421634275409826 0.126935333770433 0.464589780789132
-0.424542605456744 0.121919826688261 0.480738349930354
-0.424460067120204 0.124031860618764 0.496137755679149
-0.426264358151591 0.121583960782054 0.511499123459111
-0.426586819959766 0.121979321784256 0.520949629963518
-0.427364619205485 0.120806207767631 0.526622734493528
-0.427440150225787 0.122808651635152 0.54421215636975
-0.428716900024015 0.120259339494428 0.548503535078651
-0.42772354567779 0.123630362392157 0.556335827193266
-0.426429271609844 0.129218875913289 0.576171979455763
-0.425825168615569 0.130789172279078 0.57707256896297
-0.429551958137656 0.124093278899514 0.595600562816237
-0.431069355946186 0.121108242290476 0.601061336670921
-0.431508957673761 0.122075538506995 0.617393190622613
-0.428755016764337 0.128702230297621 0.617216798989849
-0.431919390579715 0.12377478858428 0.639050953371741
-0.428182228828326 0.133085663688479 0.641374173934994
-0.433314791919362 0.122645367662519 0.65707982289041
-0.432064425901054 0.127424855522416 0.671256051619205
-0.433287966426568 0.125210125087747 0.677206896028171
-0.433882663883067 0.124817968792527 0.685608519839607
-0.433208545416298 0.128796608332736 0.704537455188426
-0.433699753266516 0.128598243156361 0.712487789723452
-0.437038440186035 0.122388451457663 0.727385972244467
-0.434481593253948 0.129871539849918 0.737935106617653
-0.433274443947448 0.133390123220616 0.74279996802549
-0.436136973694563 0.127760216513245 0.753111904998541
-0.435460445250174 0.131006326020387 0.766096512795271
-0.437554041939278 0.140365854447402 0.775645644410666
-0.45371877761153 0.146548677642681 0.775645644410666
-0.465503518472395 0.148820636936428 0.775645644410666
0.0540854556767965 -0.309233561328747 0.249912049532857
0.0520853068478543 -0.310038988370664 0.249505048724154
0.0491933174124603 -0.311625091243421 0.256356155613223
0.0572161842986133 -0.309367960327051 0.275170136795894
0.0526081886028715 -0.31156088856613 0.280186388351661
0.0468458918194325 -0.314439166082521 0.288859762239599
0.0548952457774512 -0.312145049202898 0.307214628373788
0.0515031661227932 -0.313924998525732 0.313831053165233
0.0526043899815733 -0.314260290691058 0.32779853479774
0.0556639832761144 -0.313261047741665 0.332529733532912
0.053682943459522 -0.314837345474009 0.345866996269829
0.0546928534988939 -0.31489826428883 0.354324729059257
0.0524766327159634 -0.315940583283881 0.356518949910938
0.056089677471966 -0.31537112231982 0.37288090547393
0.0598446533832311 -0.314549949015052 0.385838102289813
0.0620488461704808 -0.314197116297426 0.395724229801234
0.0591931478748411 -0.315907392704996 0.405032085626124
0.0567147168400286 -0.317411306229401 0.413455872337466
0.0561926285411985 -0.31801707022534 0.420330033500483
0.0606517943866165 -0.316953845791434 0.434163185172837
0.061628094976263 -0.316959065968667 0.441392239608972
0.0609419535641794 -0.317593180680399 0.447567486518946
0.0566698013719505 -0.319916356989145 0.457337472217485
0.0659538362454152 -0.316799464383176 0.473665653744172
0.0639581470684978 -0.317908496003633 0.475181171521703
0.0576299399258966 -0.321066002518529 0.484645565261082
0.0658517843192988 -0.318637523327042 0.501890097270081
0.0624324804468712 -0.320032918328194 0.501520770210525
0.0641972898905238 -0.31994662038802 0.512898820371011
0.0630752367198211 -0.321380013644179 0.529993400794593
0.0666813387245023 -0.320481883128314 0.540504137907041
0.0605969330910551 -0.323112641392811 0.542454540897415
0.061001643589265 -0.323721317433872 0.556155155128791
0.0683834834831917 -0.321111742473356 0.567271941304742
0.0622343909667189 -0.324120945961685 0.572219525325428
0.0648541588633656 -0.323778595870871 0.585328579910457
0.0640048676401792 -0.324448717000349 0.590946626148232
0.0662091568490972 -0.324049118223361 0.600008116094429
0.067861777048209 -0.323927074675785 0.609935193418066
0.0696981489541742 -0.323946662056778 0.625523016450673
0.0629269740861301 -0.32701929974967 0.628433506185281
0.0637614302685894 -0.326984675640136 0.633922468580219
0.067377856053628 -0.326623237311185 0.65398039027918
0.0695384782696961 -0.326328207904456 0.664568140720781
0.0656116333016228 -0.328500605353757 0.67420138856973
0.0741805045015248 -0.323905852947662 0.677029005168541
0.0742922600190656 -0.324995987500636 0.694849530557391
0.0722355002189596 -0.326632648795207 0.695735398280773
0.0739032262926374 -0.32620311208149 0.708619453133373
0.072574989233211 -0.327665381123526 0.715334264390954
0.0746525594961946 -0.32722091617847 0.732758081651998
0.0774871228307975 -0.325416313169846 0.738371991950449
0.0694390859414205 -0.330937321181693 0.745184675852183
0.0715999992449178 -0.330629826956424 0.755554571075526
0.0752971697426868 -0.329067219123163 0.768234771290244
0.075545408409483 -0.329275721897041 0.774281341437504
0.0633763976358722 -0.319182638046713 0.775645644410666
0.0560464995611283 -0.31110824341331 0.775645644410666
0.0488294923734863 -0.313919529747174 0.775645644410667
-0.422051542104997 0.103117048965691 0.280942637432256
-0.422116134992909 0.104856864837379 0.296205083314146
-0.424411885257448 0.0997406980421133 0.299636873984387
-0.424640549986082 0.101405425324556 0.317483769068333
-0.42271650782364 0.105889435699543 0.316187274530385
-0.423895969663492 0.105674488995527 0.337381335152946
-0.426240446130184 0.101417282583558 0.348675548054356
-0.426761522665918 0.101036533928918 0.35573808290758
-0.425613558645391 0.104544335228789 0.361666491995261
-0.427335685201809 0.101910185270098 0.37393140225667
-0.425672699212074 0.108764179813227 0.396789292044134
-0.427776126179651 0.104210977619418 0.40101533959793
-0.427523721005493 0.105973832045872 0.410301945049002
-0.425250030593821 0.112559119049879 0.419126579651063
-0.424993493561406 0.11411755588191 0.426687141933368
-0.427234178213315 0.110983272068347 0.445004485682403
-0.430267438815607 0.104837523438332 0.454481862539026
-0.427890150756679 0.11227918329015 0.468187451059027
-0.427285197966274 0.114762394126019 0.476421256887331
-0.429167609246079 0.111018367307914 0.482866087710276
-0.429725349521716 0.111088787002771 0.494273522566286
-0.429973271046646 0.112194980619121 0.507998033358431
-0.433185204813169 0.105746241641813 0.518508855620685
-0.433803412230448 0.106363195072555 0.535491616345927
-0.431576942776195 0.112733616945902 0.543504213246763
-0.430668967315939 0.115164481897548 0.545426902330319
-0.431960146281114 0.113784148196355 0.559409997776053
-0.431034020977685 0.117024292585154 0.567495301863569
-0.434156355927583 0.111086299455309 0.580376576181647
-0.433275604263142 0.115131174270196 0.595822543532437
-0.433903064922261 0.114169604967325 0.600276711885559
-0.43547139851586 0.113183657611211 0.622821855817373
-0.43588270436126 0.112402388830804 0.624526311345742
-0.436730646514377 0.112313917955789 0.640295040068356
-0.434939928689082 0.117940603407129 0.650789399219895
-0.434652259820707 0.119802900116564 0.660191197731334
-0.435714682734824 0.119357469602782 0.677254846368498
-0.435691003817374 0.119245182061404 0.675890602380725
-0.435738717348765 0.120668561960356 0.688277396192328
-0.437721021510155 0.117651491067725 0.702516400889554
-0.437440413986548 0.120097415454306 0.716754143204867
-0.436461350750624 0.123455474928882 0.724759837401796
-0.438245077035169 0.120198290916363 0.733206077432475
-0.441919070621388 0.114098807776627 0.75550951186292
-0.437561971418784 0.124454391498908 0.754194130386876
-0.438876264264073 0.123751333795254 0.774079122262296
-0.454085366782092 0.132489170703978 0.775645644410666
-0.460740130023646 0.137108048106068 0.775645644410666
0.0443136545020107 -0.312922931926607 0.243589680141333
0.0429909427444153 -0.313824898282647 0.249838618917699
0.0465400384948111 -0.313179200390254 0.264387642351891
0.0463936205671274 -0.313761179384572 0.273588253908904
0.0406931669769977 -0.316570050661917 0.281488808712012
0.0424679197994097 -0.315980044943747 0.284049950177635
0.0435182402782617 -0.316777310244753 0.305798369412537
0.0481964438450654 -0.315310975880783 0.314118511498213
0.0492081716190022 -0.31549106289387 0.32469265085143
0.0474375229818635 -0.316345959333323 0.326836388155199
0.04723400500607 -0.317659067602706 0.348522792521724
0.0460239409475895 -0.318073603030716 0.346992868115587
0.0478817131101298 -0.31797016146634 0.358747935733955
0.042688636053684 -0.320552323959282 0.366356471837251
0.0494826196861378 -0.318547206471053 0.380634716612029
0.0481266940462701 -0.319274121231417 0.383551489393276
0.049762171841807 -0.319515916548644 0.399774397819984
0.0521064069363063 -0.319297266410539 0.413052356175503
0.0460312263949441 -0.321727519863078 0.411531622923037
0.0493153088513656 -0.320935418009514 0.421559569004169
0.0521936833621672 -0.32102568038939 0.444193966628535
0.0564289490406522 -0.319643185132947 0.450755775207345
0.0567411558140194 -0.319894481268028 0.457473015849457
0.0477729548841077 -0.323833954976294 0.461439003939701
0.050603523923564 -0.323390436883327 0.474303606163372
0.0582539442478631 -0.321132440289544 0.490379660463728
0.0564405054901323 -0.322037851776499 0.493102100315767
0.0531908147274205 -0.324263001099935 0.508616445156482
0.0578586269328945 -0.32290145617605 0.518709982252964
0.0500314349526235 -0.326285670815765 0.521217553925035
0.0529518619626697 -0.325467727834128 0.528131062937937
0.0580958815874642 -0.324299776384638 0.54512235884099
0.0542683500865726 -0.326052475769169 0.548074639261975
0.0578956315963419 -0.325056911914676 0.557020667409685
0.0613527433725866 -0.324492033848955 0.572323606237189
0.058402443763927 -0.326678607835351 0.589345762545067
0.0601401698349492 -0.325864873668186 0.587687800549946
0.0575673531298809 -0.327415625880456 0.596248235795142
0.0555718944967538 -0.328761484930224 0.605413238650478
0.0604772705759801 -0.327445744683867 0.6180517846218
0.0632235620050577 -0.327270866758999 0.635041350761234
0.0609359258347917 -0.32833268824471 0.637057698927672
0.0563669486799293 -0.33072952407787 0.64595780946299
0.0576647751952571 -0.331065657818948 0.661377343099791
0.0638340708832938 -0.328740615839646 0.665442880285061
0.0644645110206649 -0.329229882979786 0.678686250823653
0.0574914968660671 -0.332585601638748 0.686935104715306
0.0586086685863777 -0.332664377631997 0.696492088259306
0.0628380075591007 -0.331639345410882 0.709319193957632
0.0571063840861125 -0.334355455966845 0.715354820516161
0.0600931287562509 -0.333262761516922 0.717904221066743
0.0615213845001349 -0.333436855644129 0.731417487934316
0.066727590421709 -0.332096208648323 0.745815590054897
0.0639810060461441 -0.334039285966803 0.760029632797924
0.0654410647911028 -0.333994519624749 0.769912865332296
0.0631530227930173 -0.334674829929357 0.765193215063115
0.055927015075436 -0.32602340987216 0.775645644410667
0.0454806329079133 -0.321450591646376 0.775645644410666
0.0457823409284098 -0.317920266336864 0.775645644410666
-0.427455711197221 0.0912458774329919 0.290407588041147
-0.42914087689594 0.0876692750454573 0.29436657116394
-0.429016949345444 0.0898354389139571 0.309397308862817
-0.427690256324157 0.0941334399949709 0.318213635156607
-0.42661025435422 0.0973808511186319 0.323366624870906
-0.428556094026861 0.0946043445618971 0.338833635277304
-0.428874199376296 0.0951209846054333 0.349175866467669
-0.428384219795545 0.0973677759233226 0.357740967519245
-0.428350274635352 0.099201720349875 0.371845996984684
-0.429205113510122 0.098151700430051 0.380007490767724
-0.430441566265064 0.0960155805708538 0.38684218480992
-0.432016443833462 0.0950873437819819 0.40997913930905
-0.43342931510637 0.0926398656315259 0.417736087390083
-0.432031856324031 0.0959474346494681 0.417203162258263
-0.430124494480654 0.10300237932351 0.436929068903652
-0.432978362387701 0.0969179685755463 0.443413508557149
-0.432027445831912 0.100989153744824 0.45770753937493
-0.433894750466924 0.0978262180186363 0.46853702509507
-0.432545387454988 0.102760039731863 0.482031620686925
-0.43538038516607 0.0970032605401375 0.490787001563036
-0.434458770345019 0.0999587101775579 0.496667940005673
-0.433481909297769 0.104189327563701 0.511741265888065
-0.435622061335316 0.0998711463423897 0.518573236347417
-0.437149466373915 0.0980691902509515 0.533753313789682
-0.435501604738004 0.103584616338226 0.546128559656885
-0.436252863388242 0.10362452957888 0.561051703985288
-0.43825491330105 0.0996495478592274 0.567962504130248
-0.437310623586891 0.103222923349119 0.578377548477592
-0.438427127001311 0.101961748255563 0.589924897040407
-0.437542611173481 0.104752842396683 0.595203707887941
-0.438388412947268 0.104257755370293 0.607657231401512
-0.440306781746195 0.102149733348672 0.627972170968
-0.44164686271224 0.0987790582831562 0.626881817407548
-0.440605579903399 0.103948648490092 0.648262537378142
-0.439602504599904 0.106051882009512 0.645699112085352
-0.442437272566777 0.101342652083409 0.662883684834445
-0.439795784948862 0.108205221207829 0.666791999117765
-0.443271709079022 0.101502564398214 0.680389606388382
-0.442826974901879 0.105001080197095 0.699911558335093
-0.44340905685922 0.10477692359769 0.709420521091315
-0.443667629451727 0.105927472711295 0.72370915019181
-0.445786405160839 0.101403386700946 0.728467932846863
-0.442802132718381 0.110222480324087 0.741465399915967
-0.442506119312715 0.112700137610969 0.755659183092406
-0.445738634601437 0.105496670693608 0.760493839258504
-0.44407163596421 0.110246631496076 0.76633448681706
-0.465738803094275 0.118694873069662 0.775645644410666
-0.469636870874553 0.133832980897409 0.775645644410666
0.0339117274109769 -0.316991681897198 0.239356389658862
0.0320421947632623 -0.317875811258843 0.241293179643668
0.03270360037189 -0.318738210928397 0.261348075791254
0.036763550121912 -0.317637795385555 0.271606527762762
0.0307878972945013 -0.320622570512023 0.280599735871397
0.0359142636854966 -0.319440298884617 0.2972092564701
0.0286036705305667 -0.32243188801177 0.296564074331258
0.039846010280141 -0.318455753744248 0.308575439132879
0.0355615311635689 -0.320876348197526 0.319974579550415
0.035189644339702 -0.32117569815175 0.322539046266373
0.0380064381671601 -0.320911511683426 0.338467851360227
0.0408174062009625 -0.319962897619943 0.342275071034566
0.033275072919065 -0.323499989734927 0.34956304007101
0.034409956553968 -0.323788199168758 0.362945649363998
0.0369041197739388 -0.323710626598491 0.379809390580419
0.039727003080724 -0.322934250744102 0.38674342816318
0.0442688096166028 -0.32136192568061 0.39219592635449
0.0399668439903983 -0.32394505764111 0.406335751437127
0.0403275886828493 -0.324103171781177 0.411763306954497
0.0450194837048888 -0.322892633071305 0.424697899755465
0.0432184036656884 -0.323980083963854 0.430723373841333
0.0397316464989431 -0.325944759382452 0.439907794979325
0.0378967059894256 -0.326870557368949 0.4428328407736
0.0426811637928519 -0.32588347483344 0.460387709881318
0.0413806513750037 -0.326968235335372 0.470024939442707
0.0419859593682904 -0.327417416160935 0.482377133493327
0.0407356294389528 -0.328036385511765 0.484160774049187
0.0500860951360986 -0.325254352797785 0.503416098005311
0.0447373624284619 -0.327948347099707 0.511860407887846
0.0438585334481881 -0.328501396768608 0.51519641327682
0.0433156245464861 -0.329561020692273 0.529928237875663
0.0498047120528885 -0.327367971098888 0.538660952847138
0.043672017778417 -0.330737135483414 0.553289985660283
0.0432781456782066 -0.331123231382041 0.557224656449766
0.0431406103607636 -0.331931525101237 0.570484276328728
0.0520585810101489 -0.328453731793346 0.574298980027957
0.0475736145212212 -0.331319099716523 0.592082027831422
0.0450345877353513 -0.332726845301824 0.598365646413142
0.0478074656445587 -0.331611777379999 0.598956789540882
0.0494883726335706 -0.331806280271706 0.614677161367993
0.0496806909185262 -0.332128861911274 0.621776065774243
0.047707766774514 -0.333180891645444 0.625920205602168
