ply
format ascii 1.0
element vertex 846
property float x
property float y
property float z
end_header
-0.00367933175727706 -0.281024597938218 0.418081129784007
-0.00426467967093364 -0.281415714909874 0.42299507157174
-0.000377224282507623 -0.278818200263464 0.434797528767213
0.0022745021637449 -0.277046373298472 0.440701975201903
0.00127181786287429 -0.277716345528891 0.446629308932012
0.00070800038262696 -0.278093076324877 0.458321426964264
0.000543643563959725 -0.278202896040107 0.468027642328218
-0.000723436227787146 -0.279049531689491 0.473904022845811
0.00267465684368271 -0.276778998489474 0.488346985001591
-0.00271890129099596 -0.280382858817442 0.496614829599176
-9.94618197149619e-005 -0.27863260531941 0.505106240617744
-0.00436797947839944 -0.281484737634523 0.511477724972723
0.00297374412505473 -0.276579154757188 0.523616772094976
-0.00119373250846348 -0.279363773617732 0.529857148566428
0.00189447968884052 -0.277300296198132 0.542061496161183
-0.00129166701183249 -0.279429211360799 0.550537745328386
-0.00124953529466781 -0.279401059847411 0.567348196760672
-0.00239259568556205 -0.280164828382458 0.56561295850278
-0.00212025594097126 -0.279982856782866 0.572832855994701
-0.00144431764437385 -0.279531209252528 0.589285522673779
0.0046104888623946 -0.27548551688797 0.591052143291956
-0.00224422192101633 -0.280065688202561 0.611498075934446
0.00225891696435536 -0.277056786995772 0.615523124908473
-0.00302967947039926 -0.280590514158051 0.624120431732448
-0.00428007923310309 -0.281426004568348 0.635482792200956
-0.00186122141709163 -0.279809775447526 0.640997156751413
-0.000830767224680072 -0.279121247968802 0.645990550457581
-0.00404229937452857 -0.281267125146322 0.660817069026502
0.00307664348422027 -0.276510399603538 0.665822463923558
-0.00354831143741636 -0.280937052959354 0.680395303326966
0.00452941225956138 -0.275539690542019 0.681089054652942
-0.0025952036993294 -0.280300206729129 0.702839944232612
0.00120360804545829 -0.277761921871784 0.706709066245318
0.00364171023981653 -0.276132834068451 0.707620520938219
-0.00296830582928524 -0.280549505602127 0.729291669142205
0.00329094473842835 -0.276367208083397 0.736289165510607
0.00398736746654337 -0.275901873293509 0.740209640418069
-0.000196047221239856 -0.278697141621443 0.756421902690192
0.00285486941523176 -0.27665858429888 0.760346305137187
0.00228226419980783 -0.277041186871788 0.767581370491957
-0.00315059211764822 -0.280671305405996 0.779872010184587
-0.00383108407337235 -0.281125995594087 0.787682792993037
0.00103039457603836 -0.277877659411851 0.795203711276429
-0.00212690747265994 -0.27998730119425 0.803897845813828
-0.00427445434380656 -0.28142224613748 0.81517495540638
-0.00346921171355091 -0.280884200213601 0.830341816299446
0.00334413273984281 -0.276331668997058 0.827040074761151
-0.00174798689932599 -0.27973411456168 0.849439127616475
-0.00336254067788918 -0.280812924906287 0.844839929469677
0.00094687699649212 -0.275147421158898 0.858990540388188
-0.00399989038963304 -0.271560543511544 0.865145181765991
-0.000194325995173641 -0.26837808050724 0.865554170262484
-0.00247591001998986 -0.253315121523024 0.867834329399218
0.00111689651455395 0.234092678043796 0.498318884894279
-0.00114986848660511 0.235607281994753 0.515641797640772
0.0035823181465526 0.23244533597583 0.522604514871759
-0.00503326197549876 0.238202082566667 0.532792063733539
1.86333203452813e-005 0.234826514048979 0.536767681977115
-0.00253356091494031 0.236531835716818 0.546613709595357
-0.00165657108298536 0.235945849845432 0.556135886505063
0.00111652694853395 0.234092924979916 0.582410849397929
-0.00157951849134434 0.235894364949702 0.586686985865299
-0.00485950462985691 0.238085981620127 0.593614855550729
-0.000373827110466112 0.235088747725076 0.601639961593224
-0.0029615122476598 0.23681778365541 0.62050283445971
-0.00370536545980135 0.23731481048151 0.626631985255559
-0.00440023827950643 0.237779109655708 0.63761105554585
-0.00485665758203615 0.238084079283592 0.653701862393234
0.00313989078643911 0.232740956486689 0.658761391449193
-0.00319114741348183 0.236971220967727 0.667407037927997
-0.000750737159230529 0.235340590968077 0.685197064034114
-0.00297100125980673 0.236824124010622 0.688027080642941
-0.00230254726318214 0.236377477329645 0.703763433734104
0.00121438781455533 0.234027536439752 0.71650244746203
0.000407388454187588 0.234566756173164 0.725602110812636
0.0036039560299736 0.232430878004358 0.739546285896105
0.00466516926463844 0.231721797990678 0.748866472972926
-0.00400729470768132 0.237516553155107 0.758855591073269
-0.00372572170040362 0.237328412086629 0.770215271712197
-0.00474879697225623 0.238012009128264 0.776995428037915
0.000438627446510923 0.234545882945823 0.797518651480314
0.00421006868669289 0.232025886474966 0.798898433148825
0.00503206987923143 0.231476642837768 0.813735673692815
-0.000247466392782144 0.235004316192847 0.825693504847864
0.00199737857375203 0.233504358740768 0.839970683568461
0.00222156789736044 0.233354560223884 0.843005453185509
0.00516383517731384 0.232070016782883 0.854482310815942
-0.00394361161471228 0.243468940900127 0.862607630591897
-0.00327968770407933 0.248886003916737 0.866265528699864
0.0108677086053508 -0.27130457632296 0.264305412474576
0.00584678008184454 -0.274659453504887 0.273808462215169
0.01302882360673 -0.269860565444952 0.279614494948553
0.0074678989215801 -0.273576256526647 0.294171679044024
0.0127718779437317 -0.270032251048073 0.300149896910449
0.00898242620348263 -0.272564281750334 0.304289219057573
0.00743277929839001 -0.273599722708634 0.318552698081287
0.0113575386835404 -0.270977282328504 0.321842530983535
0.00515684109446107 -0.275120455997724 0.33957833219427
0.0135701156746964 -0.269498885648261 0.345882872029818
0.0125377832199959 -0.270188668141724 0.352857600073425
0.00448383250189331 -0.275570145962414 0.369812924828667
0.0134705547459214 -0.26956541013404 0.365104024733514
0.00653463964306108 -0.274199840440193 0.386682547225937
0.00986040271729989 -0.271977636599206 0.387928836721078
0.0136366403124638 -0.26945443530641 0.39529694104977
0.00686274400601087 -0.273980608113862 0.415885084425654
0.00776800620262268 -0.27337573125237 0.411474306153675
0.0118474728985702 -0.270649918752035 0.424654212792346
0.0101698154407478 -0.271770893627098 0.433928663651113
0.00665123837607142 -0.274121931657587 0.447488749776393
0.0052370505719203 -0.275066861738327 0.458815646551603
0.00779244858305691 -0.273359399375904 0.460637073792563
0.00621531282651758 -0.274413207797523 0.474505401522901
0.0113779290420101 -0.270963657926555 0.483723941046873
0.012839396756482 -0.269987136419736 0.48124517072989
0.0109044487808153 -0.271280027322561 0.504612764758539
0.00910435049899755 -0.272482814540627 0.506210294402259
0.0111139703437508 -0.271140029490025 0.510488724687929
0.0124021247169447 -0.270279312255514 0.527204535557888
0.00856238356775766 -0.27284494526654 0.538267724523884
0.0111561615032966 -0.271111838258507 0.543325242481136
0.00470398976218564 -0.275423041584103 0.562389837343099
0.0126540975891421 -0.270110949364977 0.560062789539125
0.00596750254535691 -0.274578789333651 0.574291059376688
0.0117701830549854 -0.270701562174447 0.578289406786847
0.00897459458799743 -0.272569514668501 0.594627377035317
0.00671254305228255 -0.274080969182538 0.604895078944336
0.00578558367033827 -0.274700343639772 0.611368353240206
0.00887178418024517 -0.272638210386717 0.614608682314217
0.00782891947796645 -0.27333503030302 0.625253927036774
0.0107195335451826 -0.271403583732837 0.630937513227231
0.00877699079564341 -0.272701549301324 0.64162030023315
0.00780892089771026 -0.273348392927136 0.659761746809616
0.00946330931130627 -0.27224296593035 0.667564120970679
0.0127121383833643 -0.270072167746149 0.669937451796085
0.0136541339965857 -0.269442746400381 0.679111033025142
0.0119080209402018 -0.270609461844049 0.686346612275683
0.0066362827488716 -0.274131924688199 0.706980380795307
0.0129808184016103 -0.269892641497521 0.702194213576463
0.0109760768794 -0.271232166957213 0.719227117487499
0.006590889825063 -0.2741622552702 0.729634837688699
0.010205122760208 -0.271747302030473 0.735574371163859
0.00818155373172223 -0.273099407627662 0.750665356880495
0.00649069246538253 -0.274229205005515 0.75077428242621
0.00658441111743472 -0.274166584204239 0.766937388977402
0.00560795876720388 -0.27481902880561 0.771708691977928
0.0122656194231362 -0.2703705221768 0.778049991235956
0.0109187862676934 -0.271270447320109 0.783835444556441
0.0101860242425473 -0.271760063251989 0.805051350130305
0.00617814087712191 -0.274438045300039 0.809711096751693
0.00917596276696135 -0.272434964752961 0.815022651277786
0.0136996988342864 -0.269412300949189 0.821243439568402
0.0112407930655 -0.271055289256549 0.834921665572022
0.00952934233915806 -0.272198844071742 0.844533294379302
0.00685926222350562 -0.273982934566554 0.848675668304658
0.00522291388866286 -0.267034695516165 0.86409875470618
0.00661517454238577 -0.263909384126112 0.865502210303402
0.00556381177867833 -0.257155195072981 0.867929935617715
0.00679342660253191 0.230002193141986 0.511470413335748
0.00731097987600939 0.229548311102801 0.508699118365596
0.0153035520714366 0.222539013408641 0.527276052440171
0.0160529719013572 0.221881789856901 0.536133275311704
0.0125027117049339 0.224995284486664 0.547715640213815
0.0113019565730092 0.226048318475179 0.556656358221966
0.00657751903800257 0.23019153899426 0.567153725565852
0.00863408052083787 0.228387982979116 0.581922391419083
0.00692935806457236 0.229882984449196 0.5925566150261
0.0109155124658373 0.226387220861432 0.606416246161973
0.0113406647467522 0.226014372317882 0.61394552127508
0.00651669269994141 0.23024488226107 0.617713820097523
0.00773643008656431 0.229175201281969 0.638035047342113
0.0116035137986502 0.225783859886048 0.648749976485177
0.00788233795252592 0.229047243517756 0.649219296158196
0.0159060307900128 0.222010653752996 0.667131976024034
0.0111126182725504 0.226214363708225 0.67585807918371
0.013212342876168 0.224372954652086 0.69290505206224
0.00847319343740698 0.228529077164484 0.704731904002985
0.0156505265899332 0.222234724922662 0.710518355359169
0.0116979044344407 0.225701081520132 0.72148589904441
0.0076329436414965 0.229265956458532 0.730232731541306
0.0120478833899219 0.225394158213633 0.745631227429612
0.00679102430946641 0.230004299896461 0.74492692726419
0.0161664995189462 0.221782228808375 0.764769265106076
0.0157509330238916 0.222146670843347 0.780692064158868
0.00650761447231211 0.230252843653026 0.781798110148356
0.0156256899596811 0.222256506062813 0.79610059445936
0.0058210164903109 0.230854973922779 0.807480261359674
0.0108968874343385 0.226403554575678 0.81296889922598
0.0121491024866896 0.225305391448161 0.828907319391322
0.0119432024534519 0.22548596093104 0.83446951608942
0.0134975647141202 0.22494920676361 0.854898932284091
0.00904886286356535 0.232205334923437 0.86020313002572
0.00915358888362492 0.234210279010041 0.862262004535721
0.0108912127778502 0.249054866991056 0.868346778498147
0.0229011699486554 -0.263264074513137 0.254511779558614
0.0171845032126211 -0.267083829106258 0.273265837287629
0.0183931995178228 -0.266276204055391 0.273430198546264
0.0148178618684541 -0.268665168296047 0.283056304932045
0.0139073706763409 -0.269273539060632 0.295251750032024
0.0139345851208008 -0.2692553549502 0.306424078841725
0.0204248673046482 -0.264918687040885 0.303939675938344
0.0163781798566538 -0.267622597147971 0.317371282358222
0.0154847055005203 -0.268219597626269 0.330829814558337
0.0175247402381496 -0.266856489993971 0.338566811389616
0.0222534367099786 -0.263696876026291 0.351792368817325
0.0199018980623538 -0.265268123916875 0.363136862779369
0.0158156687197325 -0.267998455073253 0.369021573793775
0.0161132928139098 -0.267799589011395 0.37520114019823
0.0140687680701488 -0.269165696769873 0.381021097340184
0.0226017583596591 -0.26346413494085 0.392376644353039
0.0206889872645262 -0.264742207725847 0.401409450814334
0.0201207947474857 -0.265121861827959 0.407114096525558
0.0216734783786325 -0.264084391794179 0.415405381334222
0.0164773454628635 -0.267556336808286 0.43449200281913
0.0211738359035835 -0.264418242222604 0.43309111045182
0.0166048928724103 -0.267471112353904 0.443109283084006
0.0203850715060677 -0.264945277743376 0.456032057077554
0.0152295146730761 -0.268390110685759 0.470634505096408
0.022352961390276 -0.26363037576097 0.479577421795908
0.0220774712369906 -0.263814452396352 0.478212322853143
0.0172649255562767 -0.267030092614216 0.49289219488599
0.018995758644883 -0.265873586918606 0.502033942388965
0.0150294050254367 -0.268523819677554 0.509987316699543
0.0139707264092401 -0.269231206113318 0.517252673263297
0.0221793002298167 -0.263746412438626 0.529139860605965
0.015162122387569 -0.268435140771296 0.534787720516309
0.0155282719419792 -0.268190487460755 0.548481618044803
0.0223779313429293 -0.263613691372017 0.555900234012049
0.0228018069029633 -0.263330466777666 0.568765498458375
0.0221128694268598 -0.263790800082061 0.579764785613286
0.0162354153539244 -0.267717989338948 0.581785544044767
0.0212966567316838 -0.264336175968976 0.592772266594696
0.0170973688524447 -0.267142050424357 0.609024175870992
0.0227519703895403 -0.263363766471324 0.612758429835172
0.019453745812664 -0.265567569676653 0.614491202197627
0.0215576101805837 -0.26416181244893 0.625962476223968
0.01497795494601 -0.268558197521546 0.641238251170529
0.0173940752584684 -0.266943797542118 0.643545276507519
0.0184348001121141 -0.266248407426961 0.657735060911657
0.016324384698015 -0.267658541923798 0.667994727107242
0.016199142523931 -0.267742226069087 0.682420105932947
0.0150751271578261 -0.268493269125411 0.684926013470951
0.0160835923035304 -0.267819434257965 0.695593782830765
0.0162649719238192 -0.267698240270334 0.702525607600134
0.0177661535982614 -0.266695182743836 0.715255819854434
0.0155329578621709 -0.268187356428985 0.722372183372837
0.0158680509834872 -0.267963454363607 0.73173505441775
0.0214574663825258 -0.264228726395512 0.741520845204291
0.0140911425936948 -0.269150746591206 0.749618454749537
0.0208673942702016 -0.2646229999758 0.756063907057389
0.01953759318704 -0.265511544652249 0.77083077879145
0.0199061320735036 -0.265265294841072 0.773044221548867
0.0143690597024496 -0.268965048316024 0.790712908610269
0.0139424826489548 -0.269250077990595 0.794126584365272
0.0169083359389901 -0.267268358178991 0.806765132618249
0.0195478268480048 -0.265504706738606 0.813120310573421
0.0135898438112911 -0.269485703728823 0.82442167850389
0.0170972581668329 -0.267142124382119 0.831354346269753
0.0156050808685135 -0.268139165376844 0.837121426256403
0.0143663742371571 -0.268966842686565 0.850177052371461
0.0204966311258783 -0.264097679081743 0.854941112420253
0.0227113923468307 -0.257503990909612 0.862490296698692
0.0197168183796459 -0.250071684768696 0.867461277663893
0.0196018605918791 -0.240675936413298 0.86816196501022
0.0175630464899993 -0.23079167045796 0.864873963131831
0.0188958146287834 0.219388683696958 0.53461249374467
0.0179889896518833 0.220183947857753 0.541547712299309
0.0210571076385555 0.217493280597757 0.55792515091775
0.0178129094885184 0.220338366016625 0.562994163064505
0.0203304753676502 0.218130519996592 0.569497787225412
0.0171622723921235 0.220908959436113 0.578834961234174
0.0243953341201006 0.214565734545303 0.60151320749809
0.0263201567091263 0.212877710439291 0.615086745576306
0.0259006328071704 0.213245623026969 0.621529147635466
0.0251687288487976 0.213887485571633 0.624162116574755
0.0190659569538846 0.219239472882485 0.641114206553712
0.0238738477846905 0.21502306578723 0.64695651469268
0.0220634257519573 0.21661076329802 0.66336670446878
0.0166209383258835 0.221383696670821 0.667641186481345
0.0242811513855511 0.214665870115983 0.681906421220781
0.0215249551309863 0.217082989358625 0.698665173873459
0.0171152672913 0.220950181803176 0.701051136172131
0.0203207203349262 0.218139074930687 0.71603017594881
0.0223424627450194 0.216366054422801 0.723200788304107
0.022489149749251 0.216237413372663 0.734622954694192
0.0212668272460597 0.217309361438148 0.751290402623203
0.0166891535153544 0.221323873555237 0.749407430054576
0.0250129332175687 0.214024114673258 0.768249260949312
0.0234138931457867 0.215426435179592 0.781705986635077
0.0177691662758561 0.220376727784545 0.783467868035269
0.0211122538340634 0.217444918682273 0.804856164096651
0.0196603099569321 0.218718239288104 0.80432075569083
0.0227158436770455 0.216038608133683 0.824484611560279
0.0219418527452115 0.216717379963472 0.829374507508267
0.0197045502838224 0.218679441562706 0.846728186176467
0.026668849666734 0.216670126282354 0.860121733906177
0.0166499523630957 0.227274213604884 0.861906617507813
0.0184956181305106 0.231533393691396 0.865775618501624
0.0297916683588407 -0.25819174750333 0.246549472317508
0.0313931114845489 -0.256787319575262 0.258590147071804
0.0260350870452495 -0.261170058056182 0.264327568783599
0.0265086949772791 -0.260853603353251 0.279570199046379
0.0318210511974855 -0.256412026519437 0.288590267786958
0.0234518865030639 -0.262896097475932 0.29619203249769
0.0252325183299778 -0.261706317327189 0.305429108703065
0.0286230897530282 -0.259216563435784 0.310665719660113
0.0249902693369034 -0.261868182929419 0.327282468805829
0.0235115332461671 -0.262856242796369 0.327528389443968
0.0241020492290799 -0.262461672631237 0.34013949587503
0.0313925757005671 -0.256787789445204 0.347182134872342
0.0250466426507908 -0.261830515485331 0.365156059754657
0.0308244259802045 -0.257286043377418 0.363936553672974
0.0304752563727921 -0.257592256904711 0.378424915839686
0.0292779582558903 -0.258642259172419 0.390224107955013
0.0264904448627795 -0.2608657976899 0.39085511762923
0.0313523967906611 -0.2568230254035 0.402547848999621
0.0308958377979248 -0.257223416894098 0.406076184106468
0.0250990483719974 -0.261795499101915 0.428337311591536
0.0240858143061559 -0.262472520459923 0.436888282550068
0.0269169822332844 -0.260580794530654 0.445564345183842
0.0249743544827745 -0.261878816894974 0.455155395299588
0.0252481798991187 -0.261695852601253 0.467288461411513
0.0272662920740823 -0.260347393157017 0.477299029027981
0.0266868244203288 -0.260734581064621 0.482973846994848
0.0262327247941287 -0.261038000734335 0.494561011543342
0.0298753921873143 -0.258118323676367 0.499312556857267
0.0290606516794603 -0.258832831925202 0.506314858219861
0.0261643785368884 -0.261083668243405 0.516311754283927
0.0313721128839436 -0.256805734853749 0.524609311650798
0.031606162900696 -0.256600478497895 0.532812278873368
0.0243420166789872 -0.262301331507413 0.54385516858545
0.0240384536401651 -0.262504165845215 0.55351855779117
0.027653661005274 -0.260066729630113 0.559687300191378
0.0258804360898887 -0.261273392520889 0.573278471542215
0.02772157723453 -0.260007168695601 0.575730225742886
0.0255656960992495 -0.261483695059132 0.591001488994605
0.0231089851388427 -0.263125216842418 0.604209557141493
0.0256957153213885 -0.26139681899238 0.611114586604429
0.0303553039548625 -0.257697452351915 0.610750095037562
0.0294418536649875 -0.258498526756248 0.622789746520262
0.0286175007230109 -0.259221464883561 0.640153122430434
0.0234200523411806 -0.262917368382858 0.643005806828305
0.0237416471123175 -0.262702485626718 0.648272688940428
0.0260265253855071 -0.261175778774328 0.662432361241268
0.0297726714703108 -0.258208407327441 0.670932098892114
0.0280157632256901 -0.259749174505611 0.680369761588163
0.0279551986110543 -0.259802288247137 0.688236689162987
0.02483973715356 -0.261968765318648 0.69992282917369
0.0296329880758044 -0.258330906376694 0.70872125590255
0.029589893848561 -0.258368698999678 0.717243682930992
0.0289616648718824 -0.258919641025595 0.724806105719983
0.0262568762152906 -0.261021863270638 0.736222932603286
0.0266152915149086 -0.260782377823931 0.740577615050155
0.0289091100174638 -0.258965730395935 0.747533422464321
0.029705645963721 -0.258267187119141 0.760551709183722
0.025440197103233 -0.261567550807351 0.771970214883595
0.0312617924188472 -0.256902483305025 0.778584322262622
0.0295760838062446 -0.258380810081743 0.78831648311476
0.0286443478049961 -0.259197920624559 0.799795712670334
0.0260079994265575 -0.261188157424345 0.806852051577443
0.0235205761027745 -0.262850200552759 0.820483809336806
0.0229617959841526 -0.263223565491316 0.836333875986384
0.0271863788121433 -0.260400789491531 0.84195067486633
0.0312971684539801 -0.25687145935486 0.839457442585348
0.0233260105787966 -0.261011988554234 0.857345358035695
0.0256716141054868 -0.257588834592146 0.860237494465143
0.0267365932418932 -0.251007021230005 0.864659919330666
0.0281613478936551 -0.243680126934471 0.867148770724169
0.0261176759470818 -0.224174867963304 0.865385856140025
0.0290214430451881 0.210508745902761 0.535360061023622
0.0359634025113666 0.203912981843194 0.555857129700182
0.0298952009636513 0.209742480773914 0.56618349766122
0.0327038434010664 0.207279367463339 0.568408525726905
0.0373761235316263 0.202302082258228 0.588457523179804
0.0363200535389144 0.203506299289446 0.591306712171826
0.0322657895038551 0.207663530420716 0.60723908789358
0.0322979204122957 0.207635352370279 0.619863727652675
0.0335652246368822 0.206523956393865 0.624222365781381
0.03247893427558 0.207476607472703 0.634177818347974
0.0308051444192163 0.20894448178073 0.654541763571741
0.0303004355040274 0.209387099620014 0.659288780297134
0.0314533993012188 0.208375977507194 0.665679609565114
0.0365671795109333 0.20322450612572 0.681076514922479
0.0370738792600186 0.20264672579698 0.691936220192091
0.0337161549072868 0.206391594099167 0.700671256553679
0.0300994808151294 0.209563332152304 0.704313900691801
0.035379218014127 0.204579116593546 0.725320839995476
0.0361543282112116 0.203695272807774 0.735023320898836
0.0272855890632018 0.212031048988154 0.743547489016998
0.0361745535615673 0.203672210215778 0.759228613663599
0.0322560154197011 0.207672102062466 0.762854798515061
0.0329235309317893 0.207086706669682 0.780838656073469
0.0280629597422809 0.211349313199582 0.779303544418001
0.0336719275445827 0.206430380455279 0.792309563952558
0.0321238403297401 0.207788016505356 0.813473098088934
0.0363013850107348 0.203527586665979 0.824122319547705
0.0288641703056558 0.210646670393601 0.83343934571351
0.0354424484499789 0.204507016099952 0.83816619477542
0.0267589103280171 0.213157564290824 0.853973204187814
0.0298734414483234 0.212591203121935 0.858533095449883
0.0279362203337339 0.218062127357853 0.862579924444986
0.0275485829709493 0.232902469239181 0.868082175494324
0.0368274809155775 -0.252021505493044 0.241422536346908
0.0361731927946231 -0.252595300775136 0.254966394739422
0.0413277335941716 -0.248074889816396 0.253751384677432
0.038109615840428 -0.250897103341569 0.269456287097428
0.0340817477247686 -0.254429448875041 0.276409916585908
0.0330435568258023 -0.255339917857527 0.292128353213572
0.0354128361354382 -0.253262115668721 0.305001844740091
0.0361200340243301 -0.252641919765485 0.306705166579431
0.0367717862307379 -0.252070348420762 0.321618129913883
0.0320141336988881 -0.256242697710292 0.336284492154305
0.0392525489034292 -0.24989477794654 0.327347415256601
0.0364740693677878 -0.252331439102205 0.345822568140788
0.0345839625410656 -0.253989018301782 0.351962944054362
0.0347807485303069 -0.253816441620971 0.364839973360512
0.0403446155263017 -0.248937061222261 0.364080317259898
0.039753698068789 -0.249455281924071 0.377586832770343
0.0341445855837985 -0.254374341551687 0.394975211794628
0.0407746738814435 -0.248559910167089 0.395596958747813
0.0352934537378544 -0.253366811221497 0.411440448857014
0.0326822451289242 -0.255656779711493 0.419689733959372
0.0377135658611468 -0.251244429851567 0.428701076805039
0.0356162164830477 -0.253083755890832 0.433952860281191
0.0377986923198861 -0.251169775950875 0.443382548205214
0.0327780836505733 -0.25557273158376 0.456751318948264
0.0413150894692309 -0.248085978416365 0.453021581602017
0.0382454533053493 -0.25077797708204 0.473150932184149
0.0383955476374985 -0.250646347885516 0.479587304682579
0.0320283378639501 -0.256230240991856 0.494436988882917
0.0394476254299949 -0.24972370042426 0.498558872909941
0.0337960376762021 -0.254680009862874 0.510520321435453
0.039261058995233 -0.249887314796331 0.517863951609705
0.0389415013440077 -0.250167559335024 0.528342152176137
0.035779905510987 -0.25294020446608 0.529318622854911
0.0323628568781782 -0.255936875689954 0.547546799457463
0.0368452045041371 -0.252005962323037 0.558076366456839
0.0372437702633699 -0.251656429533234 0.557552807664799
0.0321446947854064 -0.256128198710432 0.572205538266233
0.0378250677635969 -0.251146645307539 0.58316236040952
0.0344742353266881 -0.254085246486141 0.586813610150205
0.0403268867639997 -0.248952608929518 0.598283627848985
0.0399127717364983 -0.249315778061608 0.60462126971941
0.0363191823808818 -0.252467271344146 0.614989159049387
0.032945161906177 -0.255426207886117 0.63335250369918
0.0385568872652799 -0.250504856829404 0.631218767263447
0.0328275611568846 -0.255529340975277 0.650593359794653
0.0348404444662474 -0.253764089690215 0.657212061999185
0.0346000681643698 -0.253974894049222 0.662262815917492
0.0407654444158584 -0.248568004191172 0.667582971362987
0.0403449685392879 -0.248936751638181 0.681379156345312
0.0386463106341717 -0.250426434639644 0.687857157165527
0.0412458906527451 -0.24814666414969 0.69510034925378
0.0385097874337996 -0.250546162273024 0.708558816777337
0.0342688955837168 -0.254265324607644 0.717250099200748
0.0336334103965322 -0.254822630159385 0.730272523811826
0.035409436671679 -0.253265096918425 0.743425895090409
0.0401107559132259 -0.249142150598573 0.742327344409232
0.035241559683785 -0.253412321085486 0.753527002826829
0.0319791532394093 -0.256273374749919 0.772802045509579
0.0396499989547555 -0.249546223606312 0.776673349973703
0.0320295979305206 -0.256229135943132 0.789175139896273
0.0406259603379647 -0.248690328444447 0.787400581664594
0.0367516566194812 -0.252088001616043 0.802226366992414
0.0408417004828754 -0.248501129415238 0.80799793622165
0.033008607090382 -0.255370567952879 0.821391452610222
0.0340302597954036 -0.254474602577222 0.836392782124563
0.0392509679425008 -0.249896164412063 0.833938795752249
0.0406213233993054 -0.248694394930513 0.848975144147328
0.0375291131569803 -0.251229353891847 0.851181538863058
0.0380022862790767 -0.248333638741062 0.858220137715248
0.0413614105563928 -0.240182856631343 0.863502787919188
0.0357757573081617 -0.232335006938806 0.868033250616296
0.0392513644188402 0.20016377984494 0.551125487012226
0.0384632766164482 0.201062421753416 0.552249460311126
0.0391984652149288 0.200224099826313 0.574635299739859
0.043359940845583 0.195478846326061 0.577920099826815
0.0392572835004824 0.200157030425895 0.591869643601552
0.0463016910634698 0.192124423098045 0.606016177890724
0.0388576877793139 0.200612682017506 0.603852021327811
0.039442364691939 0.199945985775022 0.615258152188882
0.0452915741175658 0.19327624072204 0.636844279011288
0.0409480375493614 0.198229094933636 0.648052078326126
0.0383232897228886 0.201222046212529 0.656718032120698
0.04153610398597 0.197558533679801 0.66362645057286
0.0377282581074021 0.201900549730691 0.673918467654329
0.0397020629083939 0.199649856714079 0.693155600333435
0.043689919088614 0.195102578253935 0.706486529222476
0.0389014191197218 0.200562815980899 0.704793386089471
0.0436291402847228 0.195171883197062 0.726203985598358
0.0420275670818327 0.196998127424215 0.728193606198669
0.0418341331832476 0.197218696512153 0.73876398825629
0.0383734208477634 0.201164882620357 0.747833072691784
0.0376140444267399 0.20203078547302 0.759209999884997
0.0409532920494824 0.198223103324577 0.766300662780789
0.0387352366235151 0.200752310799995 0.773314945080837
0.0391093491535516 0.200325717218726 0.793600006771805
0.0451813727513886 0.193401901296556 0.811314080115815
0.0380322848123651 0.201553873716235 0.810026292431554
0.0477194619751016 0.190507765215583 0.827812954882115
0.0449857853835056 0.193624925945605 0.844596051541381
0.0457193809894992 0.192788420478298 0.848989379149631
0.0472621295806719 0.194273701913339 0.858561591276329
0.0412727456816198 0.207251279806932 0.863719275769778
0.0413612413788842 0.216885217564386 0.867541009476218
0.0422021527967678 0.225828845256546 0.868119585486711
0.0427156331455101 -0.246857734576874 0.238243848678393
0.0471944463068983 -0.242929920852195 0.244819544485653
0.041810961862692 -0.247651109998651 0.256168441982469
0.0447401811963808 -0.245082253588063 0.264446854422789
0.0459037582614103 -0.244061823889154 0.269707703399645
0.0418087564047184 -0.247653044133385 0.28101958964132
0.0455176975788129 -0.244400390021079 0.293199727014782
0.0487817815737274 -0.241537865184307 0.297298342837285
0.0459040572246594 -0.244061561705421 0.301937269999764
0.045004153310102 -0.244850756257443 0.318294445755871
0.0489181534182939 -0.241418270286408 0.318922745354169
0.0444040854689487 -0.245377001630333 0.335681365197534
0.0432498026232912 -0.246389280517611 0.344863227090576
0.0431592399533931 -0.246468701847537 0.358048769099864
0.0499350330033092 -0.240526490824651 0.362454976540527
0.0482886378851574 -0.241970340592056 0.367420675114666
0.0476013384911886 -0.242573085983597 0.380597779173257
0.0422838440211451 -0.247236403475919 0.399393387615284
0.0503634684132735 -0.2401507630542 0.393737118972374
0.0485900645563019 -0.241705996496144 0.398720766575955
0.050195925840635 -0.240297693946953 0.42055072970363
0.0486234939198079 -0.241676679731176 0.418446896185752
0.0500131762876687 -0.240457961003526 0.434136060448961
0.0436553315539199 -0.246033641190387 0.448954318995882
0.0471995737059614 -0.2429254242439 0.458412444932916
0.0451191409214775 -0.244749914828731 0.465571327879399
0.0473099620654513 -0.242828616250839 0.471770546633908
0.041983301319422 -0.247499972351454 0.489278625729321
0.0485675781337747 -0.241725716559438 0.488490347118391
0.0437548127192079 -0.245946398549919 0.506333226032814
0.0429650312708234 -0.24663901829106 0.51269872872545
0.0497953487481593 -0.240648990628668 0.518284237293098
0.0489594096434819 -0.241382089547966 0.52637821080952
0.0500559362563243 -0.240420461517458 0.533940147926577
0.0462815225305336 -0.243730533516573 0.549483087264291
0.0418770570286332 -0.247593146093803 0.560710909050866
0.0423707046947175 -0.247160228709636 0.566552543170587
0.0461950718886537 -0.243806348694713 0.577358025362982
0.044120430720844 -0.245625760168037 0.583904109605985
0.0417423909485222 -0.247711245076424 0.590037155215355
0.0468904064792084 -0.243196556624891 0.597746949921301
0.049385138935207 -0.241008734979516 0.610388964136667
0.045662925164592 -0.244273028846573 0.613653545632579
0.046577533638529 -0.243470938742077 0.625360861352026
0.0433121495951573 -0.246334603690746 0.643677660149974
0.0504427470300679 -0.240081237573253 0.644361420140852
0.0452683146316216 -0.244619092996037 0.656298894790647
0.0489108276074083 -0.241424694850126 0.667763567228382
0.0480724023038649 -0.242159974107311 0.672439767141872
0.0466062162758815 -0.243445784744222 0.682197910097149
0.0436204413963916 -0.246064239037329 0.699053082866729
0.0438339488486669 -0.24587699802701 0.708106891276922
0.0492911446387692 -0.241091165765148 0.713286114639972
0.0501167721176174 -0.240367109898998 0.719087107806439
0.0465077128277849 -0.243532169949726 0.728242791935572
0.047514461758029 -0.24264927483376 0.74085717115245
0.0482207988748731 -0.242029833807348 0.747162558784828
0.0443649922151843 -0.245411285493747 0.766341421107351
0.0420877778478673 -0.247408348895072 0.775755971671568
0.0419769366241612 -0.247505554039391 0.779558432716983
0.0474518609111483 -0.242704174303037 0.782113213796399
0.0494940627860891 -0.240913211326034 0.79046847944157
0.0479356762777227 -0.242279879614117 0.800181645116913
0.0502572028415413 -0.240243955459435 0.81316073140456
0.042273538403769 -0.247245441259794 0.818424423138653
0.0417244165295758 -0.247727008218775 0.841767649690858
0.0459205555592859 -0.244047093054275 0.835685734205647
0.0453895849567839 -0.24451274177521 0.842886036894154
0.0507006521808207 -0.237430561189742 0.857796146985661
0.0437343095737824 -0.235507040342364 0.865002981070562
0.0470987085725267 -0.222756030979355 0.867998434942152
0.0507663591128054 -0.216531497509387 0.868219788630012
0.0538349995284647 0.183534331136755 0.575520276953219
0.0572816022862262 0.17960423391841 0.583891235404733
0.0525229586826013 0.185030426985651 0.591580091482395
0.0524442279411388 0.185120202190329 0.601956217889847
0.0487918140555024 0.189284982021674 0.609721719499041
0.0559496754830545 0.181123005355703 0.627387812952932
0.0537116494033667 0.183674984997267 0.628085116842009
0.0483310746978168 0.189810354568291 0.637409632244975
0.0576224197065838 0.179215606133356 0.652550680164758
0.0533079511852394 0.184135314590093 0.660248361378821
0.056107460565226 0.180943085952128 0.676267087940364
0.0531511288281835 0.18431413621607 0.682150312438699
0.0523483376752553 0.185229544082534 0.693037051057876
0.0486539028341779 0.189442239630224 0.701495255207443
0.0508420210892285 0.186947168955711 0.714115733532151
0.0573530345637181 0.179522781016871 0.732785803760437
0.0538140601263215 0.183558207948764 0.741536474270022
0.0573821435108205 0.179489588624224 0.751496943148161
0.0494549939941986 0.18852877023415 0.750089811593612
0.0563766697501375 0.180636111710205 0.770422301373484
0.0490610008983965 0.188978033255939 0.779334330014688
0.0521724777753579 0.185430073865623 0.787693630506505
0.0572952241676974 0.179588701139544 0.809630355049033
0.0487248011833428 0.189361395557256 0.818224822297098
0.0485038345073934 0.189613359760714 0.81739809809979
0.0546791213870713 0.182571794632951 0.834731911326288
0.0539544260629387 0.183398151273881 0.841279318246048
0.0485353710860943 0.189577399184767 0.849220057709612
0.048064293769803 0.194522269434237 0.859893188455926
0.047974440930431 0.197942413850053 0.86275011472302
0.0496809315545627 0.216078320053008 0.868366878758204
0.0586523399987992 -0.232881617768924 0.227689997812428
0.0598537762580144 -0.231813499539755 0.237415820629256
0.0558256813365067 -0.23536053088467 0.241735243090159
0.0557371055838942 -0.235438209734902 0.253191871851146
0.0552559890707187 -0.235860137592915 0.266740539846055
0.0585047218184729 -0.233011075438581 0.269990531955608
0.0570769091335545 -0.234263233556816 0.283470638571465
0.0588483914571713 -0.232709685254397 0.294424799545925
0.0566167013326735 -0.234666824966275 0.292270852552635
0.0584207448413728 -0.23308472127093 0.306310956846812
0.0578313233042554 -0.233601630085764 0.317703597610479
0.0557773824569415 -0.235402887865237 0.327864796094168
0.0517695230475633 -0.238917686234245 0.338422557644152
0.0582389267613008 -0.2332441714477 0.34226396446269
0.0557593301168385 -0.235418719342609 0.355674657695551
0.058609112297915 -0.232919527445149 0.361569697664109
0.0534116964600804 -0.237477538803316 0.372113554571372
0.0527572805262293 -0.23805144617431 0.38922351765165
0.0589444730445185 -0.232625423963767 0.392791245581173
0.0573449049765297 -0.234028207510347 0.391898166321722
0.0522419884556076 -0.238503345191813 0.410922288016045
0.0584058706554758 -0.233097765581869 0.412436089242459
0.0599891754625303 -0.231659106337395 0.418210407264668
0.0561106872660951 -0.235110587392607 0.437767770940139
0.0565243351253707 -0.234747827956055 0.445906457823851
0.0525263359927066 -0.238253979094467 0.461337621908813
0.0531850699499429 -0.237676284918597 0.462417582598702
0.0533504624758087 -0.237531239566257 0.473079987365121
0.058213124185416 -0.233266799699436 0.479571919258185
0.0592740795567255 -0.232336366810511 0.488245185112683
0.0523293024898045 -0.238426772838933 0.506770441556301
0.0581752492242285 -0.233300015148934 0.509697810898848
0.0512594388299199 -0.239365018087263 0.530406979029613
0.0590968345847777 -0.232491806479094 0.530573437879519
0.0519231899598055 -0.238782923969068 0.545631093258996
0.0524796218949847 -0.238294946258658 0.55235435998256
0.0549624064998113 -0.236117602597545 0.554670367238717
0.0508474801899442 -0.239726296118248 0.571657221766459
0.0559362765461349 -0.235263541488906 0.576618562365904
0.0539592131755257 -0.236997379530775 0.587478640839322
0.0574139801673858 -0.23396763019379 0.591258728560291
0.0542671465883832 -0.23672732917553 0.605381176433117
0.0577424957522763 -0.233679529758114 0.614752807734928
0.0544032204007159 -0.236607995644885 0.629776905935919
0.0574894832469711 -0.23390141577011 0.626353209227074
0.0575579597936795 -0.23384136345038 0.643098465286433
0.0563688107105819 -0.234884219207246 0.652564260982601
0.0527179656504115 -0.238085924395048 0.659583385743706
0.0510798905571401 -0.239522477696462 0.670273234683677
0.0551756450914141 -0.235930597371708 0.675144097083555
0.055316970064485 -0.235806658696692 0.688730731903319
0.0544231589748225 -0.236590509984688 0.696077293870521
0.0549194219548833 -0.23615529903172 0.706523464599243
0.056900516770993 -0.234417925507035 0.713736715004537
0.0567392266374013 -0.234559373157907 0.723538445648593
0.0544125692461409 -0.236599796927491 0.738009720054017
0.0527767332066161 -0.238034386631469 0.75239755818642
0.0532442043248305 -0.237624425463666 0.756423624004796
0.0556640043767552 -0.23550231777298 0.763416374544938
0.0548610465014743 -0.236206492930376 0.774009137172797
0.0580031346688793 -0.233450955562914 0.775717869790043
0.0516800074857492 -0.238996189275028 0.788140539962464
0.051222815959472 -0.239397135482653 0.802975759848129
0.0566277378959419 -0.234657146160056 0.803487531182638
0.0526186819331733 -0.238172993878224 0.81336957360107
0.0580050454557304 -0.233449279847819 0.821993917253722
0.058226942927452 -0.233254680987922 0.839066939987606
0.0516370793615663 -0.239033836229537 0.84528708571951
0.0526126733815902 -0.236675720816762 0.856119110061799
0.055796955477334 -0.230642958460588 0.860754632760721
0.0563428798750233 -0.22150095723141 0.866091838954105
0.0559512221517918 -0.221734587938285 0.866150127805018
0.0571576734749753 -0.197656605487716 0.867075804884772
0.0594807897294236 0.176987386360329 0.587950150998141
0.0664222789778616 0.166598713549637 0.608387777595082
0.0604796745462692 0.175492449587198 0.610298896145097
0.0651388055380556 0.168519567295878 0.628111192073703
0.0597564898287085 0.176574772002972 0.63306987930516
0.0600708858840946 0.176104245054722 0.644465864265819
0.0597418808990662 0.176596635811261 0.651841294603361
0.0646683969216566 0.169223583541988 0.667622489581482
0.0615719057033397 0.173857810143365 0.66455805283138
0.065806374555356 0.167520479657609 0.680601321750307
0.0611291859040917 0.174520387146165 0.692032517468974
0.0684465130843553 0.163569233120874 0.711004593900687
0.0668922002554661 0.165895426657574 0.726517817243483
0.0591912106333548 0.177420772104253 0.721382951730246
0.0675897303422419 0.164851499110073 0.743298584711619
0.068449426970561 0.163564872181986 0.752490497932906
0.0614815936817728 0.173992971635279 0.758882483551352
0.0620060873137757 0.173208011443142 0.770004859268968
0.0628343668971132 0.171968403445622 0.775637874372155
0.0613625245161811 0.17417117123466 0.783277890258286
0.0683938107504475 0.163648107737506 0.808395089722034
0.0600376748951276 0.176153948812193 0.807500539751971
0.0668155875553984 0.166010085665989 0.829751549232554
0.0620786493535383 0.173099414676283 0.829133935303356
0.0665673980041912 0.166381527578559 0.84435553198208
0.06541386047467 0.171487508862658 0.85792864379609
0.0677021594306123 0.169548146731114 0.859627536018526
0.0642131192316434 0.187145921286767 0.866401010113881
0.0636268411204825 0.189372843041801 0.866827537850487
0.0674763635196406 -0.223121604622058 0.214912224759003
0.065649022331802 -0.225205287896297 0.227306412985906
0.0606213583567848 -0.230938239904906 0.238572014983196
0.0617763915416054 -0.229621176980686 0.251683662537735
0.0629196427040174 -0.22831754887816 0.25342678389013
0.0649028002338175 -0.226056191118303 0.260869119572693
0.0676167423681829 -0.222961533223947 0.262367817091012
0.0654669185791965 -0.225412937428855 0.285232095901506
0.0693134078348379 -0.221026857051607 0.282582395537027
0.0609776953937295 -0.230531915388819 0.304428085190809
0.0624714976278241 -0.228828560399112 0.315317849389568
0.063816978419406 -0.22729433360015 0.322493014695863
0.0635239995007327 -0.227628412028747 0.322840843666778
0.0612214399171374 -0.230253978028247 0.339883090949755
0.0651916585273345 -0.225726811362168 0.340421695327769
0.0673413359421854 -0.223275574064972 0.356138632480114
0.0672973169285357 -0.223325768130043 0.358641376135128
0.0642756597296691 -0.226771307806849 0.373740307642773
0.0646008776054602 -0.22640046789322 0.37856910529807
0.0608018084484462 -0.230732476011259 0.39240952121366
0.0668950249990199 -0.223784494158041 0.393518338298405
0.0674568366405347 -0.223143870760238 0.413774367043919
0.0610940235885857 -0.230399268505162 0.422232486458072
0.0672277081802366 -0.223405141695055 0.423875863149745
0.0617777060313899 -0.229619678092358 0.446234314332519
0.069562278181769 -0.220743074809513 0.442223712699764
0.0600359363878053 -0.231605785721336 0.461854852829243
0.0601564259237553 -0.23146839373759 0.470945471377939
0.0649104112478677 -0.226047512420103 0.480942971433264
0.0680846122833397 -0.222428029834859 0.481117885264529
0.0604310566296088 -0.231155237435861 0.496223737152104
0.0635110744062905 -0.227643150274285 0.505370598301638
0.0637789884897882 -0.22733765281249 0.509516582249159
0.0608665316936977 -0.230658673294787 0.52582356829973
0.0635621358678088 -0.227584925836489 0.534567837680731
0.068985165043525 -0.221401146220318 0.533788884926741
0.0641853550603666 -0.226874280546841 0.554344271474124
0.064762356815604 -0.226216336144014 0.56255065556009
0.0673279645493965 -0.223290821216239 0.559198094229711
0.0656845842604509 -0.225164737288442 0.580227420083457
0.0687497206991069 -0.221669619040688 0.589486972476579
0.0678771611758582 -0.222664582486196 0.58529761420321
0.0627535546100424 -0.228506936052142 0.605368921028527
0.0664380479347327 -0.224305576631255 0.620791901576596
0.0672385064116267 -0.223392828672019 0.616693004171229
0.065280973074964 -0.225624967639561 0.637167281434992
0.063035504927684 -0.228185433332811 0.647557266710934
0.0602056585747622 -0.23141225465851 0.650746556681673
0.0605302750091194 -0.231042100557396 0.664215565682505
0.0632706743351052 -0.227917274017999 0.668412329128632
0.0637399558470396 -0.22738216101128 0.679887733490082
0.0639529987406811 -0.227139232149866 0.691847853469734
0.0680834534352038 -0.222429351247901 0.69123960763229
0.0620149039845282 -0.229349205664479 0.70408353720376
0.0637769804229736 -0.227339942573847 0.723102445093131
0.0680548941019175 -0.222461916926105 0.724299601813841
0.063950988566288 -0.227141524314455 0.736970508040248
0.0666139183983739 -0.224105034802525 0.740835839036329
0.063792023920453 -0.227322788752604 0.753355274094325
0.0626605814586512 -0.22861295161278 0.763886261009157
0.0646133323746313 -0.226386265950869 0.77362641773529
0.061988637698019 -0.22937915662396 0.782767281204426
0.0667063306329633 -0.223999658844916 0.795474284151864
0.0655090415498485 -0.225364905386458 0.794710115212136
0.0623070121545994 -0.229016120134368 0.812320855429367
0.0671858876307104 -0.22345282889225 0.809458183670258
0.0613247567059535 -0.230136167809643 0.83681938889458
0.0662866881942931 -0.224478169336791 0.834892939304957
0.0677711059468323 -0.222785515297396 0.845961866857988
0.0605733951382993 -0.229020101289257 0.856533083131095
0.0672081489190615 -0.220100400360869 0.858693348788512
0.064398980481783 -0.216269194846385 0.864210602447156
0.0691192052148815 -0.208979150581344 0.86517782284524
0.0694667139388176 -0.195949495219768 0.86815527056477
0.0697535503847111 -0.179431605528052 0.866282894141512
0.0764197531882529 0.151636436034265 0.622877161418105
0.0777962759577188 0.149576324125042 0.64008971231151
0.0726873825538319 0.157222323434143 0.637895240317232
0.074745500386041 0.154142132426214 0.659026870507029
0.0756171010433481 0.152837689859746 0.661583304625631
0.0720917206033979 0.158113794541763 0.67433530157895
0.0705908167370454 0.160360055917353 0.683673407829036
0.0685104702288447 0.163473514489867 0.686011920782747
0.0704777494742478 0.160529273034425 0.699568751596816
0.0690627319005482 0.162646996489497 0.71248804772329
0.0784953690838501 0.148530057323834 0.731845767315378
0.0743696520142343 0.154704629265349 0.736271333085413
0.0766501094192164 0.15129168357154 0.748948243452096
0.0739942816757094 0.155266410677119 0.75646737510144
0.0712079953113345 0.159436382906478 0.764823304820239
0.072261952787292 0.157859024074356 0.784859929536198
0.0691577265203223 0.16250482699412 0.780146023300994
0.0684821419111696 0.163515910813347 0.795846861242511
0.0741122104835101 0.15508991774378 0.806678190083306
0.0782157830103944 0.148948487452529 0.82757099022767
0.0764371810560734 0.151610353386855 0.843352051996671
0.0770006399819686 0.150767077511334 0.843945074374643
0.0733440255625322 0.157808584102429 0.855494946367389
0.0769436501558537 0.157594882793329 0.860989900868051
0.0774703787465162 0.165425981087145 0.865520023614768
0.0698704285962781 0.186769029708462 0.867860985226823
0.0701458524093467 -0.220077635938342 0.215731921020662
0.0771368441344974 -0.21210593769995 0.21142596144355
0.0773088475524895 -0.211909805391672 0.215947420660459
0.0749739765668205 -0.214572215483844 0.23580940147473
0.0759142931580507 -0.213499989910057 0.239466277448661
0.0778338839526994 -0.21131111611965 0.247962440608954
0.0734774362437456 -0.216278692665646 0.263637649863178
0.0717574395076814 -0.218239973051889 0.278133603676556
0.0780526322589407 -0.211061681482038 0.274076777677573
0.0733365138987037 -0.216439383802739 0.293107313278439
0.0694815030723781 -0.220835181169033 0.30755286497458
0.0733977775154152 -0.216369526036543 0.314141863192671
0.0702698466060735 -0.219936247654894 0.316679677032261
0.0716867845819412 -0.218320539553638 0.327155557778677
0.0790248362928506 -0.209953095248615 0.32919420703187
0.0748578068001408 -0.214704681714789 0.351144502424606
0.0732875439632248 -0.216495223312173 0.355941853264799
0.0712920754136379 -0.218770619099624 0.372436216682751
0.0774768196756962 -0.211718269894091 0.371705352000044
0.0708038486451425 -0.21932733503112 0.378280872415573
0.0759503019206616 -0.21345892978572 0.392317356879954
0.0757111001624544 -0.213731687115365 0.394982979339548
0.0761319795425881 -0.213251766162073 0.408880443312378
0.075484509116578 -0.213990064683565 0.419985317985245
0.0705212694076402 -0.219649554896107 0.431824513845196
0.0761002138798832 -0.213287987958262 0.443333853745553
0.0698884195998364 -0.220371181797751 0.452137407164869
0.0742703844962109 -0.215374508476074 0.457840230358438
0.0766447324367108 -0.212667083544283 0.462109569677485
0.0761154995292401 -0.213270558015724 0.465372100693768
0.0777516217640102 -0.211404918168121 0.481477051777795
0.0759406655871264 -0.213469917918175 0.497437800404576
0.0771943214269581 -0.212040397409091 0.499017445232569
0.0737403509435427 -0.215978895908388 0.510355276804161
