ply
format ascii 1.0
element vertex 855
property float x
property float y
property float z
end_header
-0.39145230339838 0.222907060116948 0.911929354867124
-0.393928645805108 0.221964568021971 0.921661570004567
-0.395058197817346 0.225036551713584 0.929284241677275
-0.392989659239274 0.223203410082884 0.948591160435902
-0.393796774834659 0.223542452798997 0.946473096021606
-0.390038204382247 0.22277823105735 0.952338425520998
-0.385347364174344 0.217473592458888 0.958969475018566
-0.379505354939604 0.211523523054817 0.963057260463605
-0.373434851110754 0.206149764262509 0.964576990894188
-0.375050340532587 0.197523171619171 0.964172900961428
0.0641007075341792 -0.274795991801715 0.475103381183979
0.0679975709781203 -0.273646723029826 0.487658701232694
0.0640102944530307 -0.275786144483924 0.48760398672326
0.0670490587728841 -0.275782502470317 0.507416800573494
0.0670060299981007 -0.276196121447204 0.512271845763602
0.0636946552049475 -0.278925299141474 0.530599531410548
0.061504329707179 -0.279924372844471 0.530382498916396
0.0662547069962628 -0.277783141365948 0.541521679995087
0.0690035143670716 -0.276266607851188 0.552750235350283
0.0616426932321114 -0.279939111289555 0.562891021256652
0.0642064577190748 -0.278783145249798 0.568756804328068
0.0610125155954999 -0.280285195288738 0.587305393119098
0.0585751375304989 -0.281419408616549 0.596435163532448
0.065860255621136 -0.277616174782587 0.612972114389305
0.0666491021021332 -0.276105735326434 0.628243574869837
0.0675254820664544 -0.275594232884713 0.62822670009037
0.0658164326823882 -0.275206443085871 0.646746314195861
0.0610967046168847 -0.276081331724564 0.66513962254934
0.0642259775866254 -0.274654621432663 0.665120090431927
0.0579128888782398 -0.276852690010205 0.674727442123166
0.0585404272048361 -0.274508830843404 0.693995847516855
0.0554168551096164 -0.274122213330587 0.706471362256974
0.061892263967818 -0.270778479934521 0.709146449851329
0.0555238253367933 -0.271011718206659 0.727549498669103
0.0622220035313774 -0.266959052700194 0.733741869170622
0.0560643899142298 -0.267377642224082 0.750869935439462
0.0552183295999183 -0.266500335407803 0.759567967435457
0.0509322226962634 -0.264613349101647 0.77814180907977
0.0543536830130962 -0.260431587822425 0.790008997969131
0.0516036790569728 -0.259522372147265 0.799810599406287
0.0477765311397542 -0.257556291394657 0.816624944347506
0.0443018428264654 -0.256109767239473 0.830357782094898
0.0494561219209937 -0.252802158338378 0.834684536413868
0.0458239050733282 -0.250866723035071 0.848192674976081
0.0403783675367854 -0.24959484844093 0.860778401975871
0.0316607281537868 -0.247040420448748 0.882662907564929
0.0365165161882732 -0.244470779289614 0.883847489265525
0.0346631408575657 -0.24019777232228 0.900995067293725
0.0285295849203699 -0.239000273792158 0.914383475606307
0.0288417433903229 -0.232596905832073 0.930441850018004
0.026603235490362 -0.2341546112209 0.941275047707335
0.0279336063172541 -0.234949772263855 0.945837361881806
0.033327082432949 -0.239428529257404 0.9557201857167
0.0380617553505249 -0.245276713908474 0.960914428458771
0.0426316691836738 -0.261696379025268 0.96397888474399
-0.420159994808925 0.265072482668556 0.473639817500527
-0.419887717499243 0.264910376941127 0.492217558995229
-0.418696199607303 0.266788083097787 0.491047464561479
-0.420837508981328 0.262947371124476 0.501521457983718
-0.41651267269051 0.269159311092303 0.513392937399658
-0.419278295501232 0.265183564927206 0.515157463915881
-0.420852251053895 0.262117986186953 0.525081866595495
-0.418935121091105 0.265305793734071 0.529001660108634
-0.420464294284233 0.261796275153844 0.541482835012705
-0.41643736770554 0.267416399233021 0.549013288381344
-0.419615780564765 0.262081158853371 0.553052859797558
-0.418046313002648 0.26306838334194 0.569960279780647
-0.417626587613829 0.262732180676701 0.580341148517335
-0.416924897711861 0.263578082421948 0.583951296685766
-0.419199708683371 0.25883161253417 0.591811814636522
-0.417434905816673 0.260828380942791 0.602167865775544
-0.416338785540694 0.26284581702388 0.601012629998356
-0.413529828336229 0.265878975547838 0.612349904171411
-0.414647003838761 0.262462866500686 0.624776711175889
-0.416902600722863 0.257553613509281 0.630631879464389
-0.414057361678078 0.260782328730389 0.640577686995989
-0.41440794496821 0.258879289168893 0.648154031928802
-0.413719335740964 0.259869952258495 0.649337554031302
-0.416099057699363 0.254022697615401 0.659420231477808
-0.412599635766982 0.25811049506146 0.670970209183711
-0.413694996895642 0.255180674171763 0.67700517446988
-0.410979689381515 0.258651837622074 0.684216862031235
-0.412625876990774 0.254616498941364 0.690401552965906
-0.412653103953332 0.252426940715748 0.699328035580389
-0.408969223748338 0.257349951052976 0.705409353964006
-0.408216065109087 0.256226114507606 0.715528919796206
-0.408481412897102 0.254184212877902 0.722121204067634
-0.406362182022717 0.256162936315833 0.729175160806604
-0.408564654409961 0.25092221228837 0.735111770300919
-0.405218596755165 0.255385756655313 0.740668795165447
-0.406680224785657 0.250768624496115 0.749355225195958
-0.403552015535281 0.253550032024212 0.760348428822276
-0.403651169790592 0.250878478880762 0.769453459725743
-0.401849813621775 0.252273564170313 0.775028124150291
-0.406028319831735 0.243441427463519 0.780172369852759
-0.401452762763476 0.247268171583297 0.793417806824485
-0.399556446672298 0.249082920811142 0.798168355361769
-0.401555069042298 0.2431408038133 0.806176889119225
-0.401437992676001 0.241475427501709 0.812211332439578
-0.397822645036034 0.244339246992303 0.82319348190587
-0.398424107498442 0.241261932739299 0.829767426653428
-0.399692747114067 0.238150788372968 0.832716945456583
-0.396609265302415 0.242135283084746 0.837102793770496
-0.395596397384731 0.239876290865683 0.848371999761453
-0.393847862165437 0.239943361417949 0.856168580656569
-0.39546188521238 0.236377685071986 0.858193233170269
-0.393744139613324 0.236492426103708 0.865723954756479
-0.390296161691184 0.235869361257253 0.883086128244913
-0.389277240501604 0.235973720715986 0.887457620897059
-0.391789726928229 0.231260181326625 0.888406418813174
-0.386279662080784 0.235814422371314 0.901545455982167
-0.387316197567629 0.233391252686569 0.903196450811508
-0.386393806500562 0.231596845532887 0.918113264279704
-0.386399067157549 0.231943646852583 0.918482285416955
-0.389830657582528 0.235007367829997 0.93447661582501
-0.390468445965931 0.232343020747025 0.941049074370495
-0.384653509913325 0.230559414121021 0.953385817705982
-0.385363511395513 0.227821996737246 0.95440558476977
-0.382744708388297 0.225292804419171 0.957921337146224
-0.372839538269874 0.221230468958988 0.963233415308661
-0.375516050003452 0.216401271749507 0.963251774676875
-0.36543281973143 0.205814070202481 0.96337225741184
0.073279519760621 -0.269030495164388 0.468588414393364
0.0736895206738149 -0.269949788262388 0.483076736206839
0.0688732562294708 -0.273758406500451 0.495458459743853
0.0740323191407311 -0.270807624900842 0.496305480923006
0.0682516933356464 -0.27557436500576 0.513610171858442
0.0745969017741981 -0.272937055977318 0.530225254108958
0.0692578235355313 -0.276077117300644 0.536634587756639
0.0743219948945048 -0.273146916251227 0.549634936048095
0.0709127621337321 -0.275150575760787 0.55317090984872
0.0766313397748507 -0.271828803523898 0.562733779347539
0.071214300521556 -0.275029255724748 0.574994607447897
0.0720724004446243 -0.274552543154689 0.585036919506715
0.0755118415442757 -0.272582407082512 0.601775923922445
0.0716373692277409 -0.274177407407107 0.61502807592676
0.0793169181960058 -0.269460513333702 0.618012249843144
0.0734655611837122 -0.271924389713606 0.630819956556299
0.0706756890355325 -0.272718103594196 0.642011549346295
0.0712003371781563 -0.271178792157639 0.65845724258606
0.0699213090953868 -0.271379355433204 0.665767564985437
0.0706410237828059 -0.269883438696581 0.680111042009952
0.072180682462844 -0.267179119049963 0.694245817552338
0.0708486065797058 -0.266512343059229 0.703691713458364
0.066713621568637 -0.267180669040066 0.71512892302233
0.0692518260133326 -0.265150330754465 0.7186902724298
0.0691329690122882 -0.261648323996282 0.742018447919129
0.0629665357148215 -0.264465012748777 0.747186763308131
0.0626417881501909 -0.262182330790643 0.763216868948277
0.0628441827575736 -0.260110465290414 0.771610433741711
0.0558732380142957 -0.25908186974083 0.792981062221379
0.0539822112412384 -0.258346926200177 0.800218024195521
0.0583562334922702 -0.252558076915447 0.815344443593335
0.053866658759014 -0.253631249330449 0.821813741779651
0.0500427052514761 -0.250184385962935 0.844028789223733
0.0448542215321207 -0.250589007480295 0.850605435384037
0.0505457337966843 -0.245729317589563 0.858078374514846
0.0435333724476222 -0.243422553246516 0.876631663017153
0.042966248859737 -0.240735184821784 0.886501099341611
0.0380495774123813 -0.237217618899444 0.905801151672364
0.0426779005758361 -0.234504631352284 0.907813675395658
0.0315067500636784 -0.230928137429425 0.935121664096996
0.0345626476686117 -0.230569356228382 0.941428490643
0.0346905169520408 -0.232470951993444 0.947805099007542
0.0441577319806275 -0.233088684175069 0.954059808227554
0.0453512286915957 -0.242322904169699 0.961129309348081
0.056213836906102 -0.250276833568397 0.96448196372912
-0.417775690625694 0.268398724025275 0.479486394738263
-0.4143642265524 0.273013217473212 0.483157471395843
-0.414449879165343 0.272546219398804 0.495123130798686
-0.41329607662499 0.273770429069732 0.507918908954816
-0.412776466093622 0.27424392126255 0.516353905083411
-0.415782376586912 0.270044143378228 0.517715651160707
-0.411770209212995 0.275278524373002 0.528648547044171
-0.413391593384583 0.272671739325823 0.537118250861812
-0.415661526229244 0.268609420884682 0.547649172012867
-0.416442932919096 0.267031816196008 0.55332368082792
-0.413293319382549 0.270910343926507 0.558818897389859
-0.412832001833458 0.271252047153085 0.562212846910188
-0.41366145184146 0.269188430235663 0.572685426123237
-0.412464135055118 0.269774435519154 0.584935132501425
-0.411493955506547 0.270314001374102 0.594120701099146
-0.411389325150465 0.269531968253648 0.604720978620922
-0.412624518061144 0.268022155219463 0.602437349189077
-0.409010256738164 0.271457680698804 0.616983203842905
-0.410342208219123 0.268732491350122 0.623024384394592
-0.409633119334574 0.26874280638966 0.629677058502657
-0.410828649025863 0.266323817638839 0.63491396155183
-0.40998399912597 0.26621363428474 0.643677515243918
-0.406545638664292 0.26965374139623 0.652710688783591
-0.408444657117032 0.266046316239793 0.659419336370724
-0.408986865622937 0.264078509863368 0.667759756835098
-0.406651728767326 0.266575098690663 0.672796587163295
-0.407845729672426 0.263654764895591 0.681482705093072
-0.407231909782702 0.263217261984741 0.689806034710478
-0.405884125003297 0.263880403125032 0.695674494341261
-0.402842917222672 0.266102604429941 0.705373054257664
-0.403313612591163 0.263964107571016 0.712632256335592
-0.40330243747085 0.261634778286164 0.724078534868084
-0.403229286404432 0.260746139445393 0.728910694155316
-0.401995012391263 0.260019540969915 0.740796384068547
-0.401959275132756 0.259581388485169 0.743176696015723
-0.400051188961595 0.260133671025867 0.75337171327123
-0.400888033865406 0.257434364331687 0.760894842029205
-0.39906533551785 0.257610970405564 0.770680569109499
-0.397549311917345 0.257529825485194 0.778927678447001
-0.399163688776488 0.254976266736384 0.780135978731622
-0.398075376318027 0.254580328561221 0.787334264974284
-0.398943058390338 0.249333203618759 0.80079261102533
-0.393234992000121 0.255639632354946 0.808676596054295
-0.393571949812095 0.254171922865052 0.812466073200764
-0.395728154484601 0.248932327829672 0.820078909542524
-0.392971614886928 0.251440947932992 0.82594511691628
-0.39215787204048 0.250082189621286 0.835348976730294
-0.390665148398358 0.249524662492783 0.844468338773185
-0.391380390015957 0.246926769899533 0.849040523483909
-0.393177603815449 0.241361418042408 0.855492734557254
-0.390745604825503 0.243374735377935 0.861283556721787
-0.387249654812466 0.244087108394077 0.875349778439122
-0.38816578871122 0.241180370563151 0.878822477820083
-0.383744719588884 0.244818298131901 0.888513080790581
-0.383299644304952 0.242045018580011 0.89873584658758
-0.382853948412619 0.240787446436031 0.904077930173822
-0.382523000832257 0.240345689620826 0.906749656133266
-0.380806871721265 0.241220042728932 0.918105252012193
-0.383997807469859 0.244315278841428 0.931223693682803
-0.384318247767678 0.243606961929999 0.939839508945032
-0.38322573649945 0.239941343559904 0.94871203241114
-0.383251531080137 0.234041889195088 0.952673094596821
-0.380914641148791 0.235962216157382 0.954113123923364
-0.375035583636074 0.229621551949001 0.960780097497414
-0.370850212353844 0.226752352875136 0.963034952417517
-0.368710411392594 0.219457625869232 0.964087112636008
0.0861942280730707 -0.260683146615596 0.458701958574895
0.083523554395923 -0.26318647177467 0.470459805122275
0.0875030621488656 -0.261562634980044 0.479265908171703
0.0762115429530469 -0.268999133975647 0.489638225717955
0.0838153541510927 -0.265586499020186 0.502591026650817
0.0837356724611276 -0.266026993326578 0.507513937880127
0.0886073700529582 -0.264157764698929 0.519777508042179
0.0780192682675916 -0.270943923932057 0.533901388988177
0.0840198172967448 -0.267444275507365 0.538357445853029
0.0806698319815283 -0.269441645506795 0.553130568020954
0.0854591078153373 -0.266657847181208 0.560413447267048
0.0863008519474251 -0.266212725272753 0.579176258570832
0.0819469947826627 -0.268758554179506 0.578543391147543
0.084439931165662 -0.267358132733265 0.601586046486535
0.0851999665549955 -0.266922872832856 0.605322085991925
0.0789081702002934 -0.269318333624289 0.62310121835839
0.0825064056019531 -0.26712773351664 0.624239350728998
0.0841149082321588 -0.265021208121909 0.639791649576845
0.0797780415986188 -0.266303029162257 0.656548593834776
0.0841620408078902 -0.262808686275096 0.668949904970079
0.077633125611058 -0.266281293035845 0.673586509328662
0.0860476327657844 -0.26052824737828 0.68465953531921
0.077091659031213 -0.262951097644705 0.703093782760318
0.0712627086279392 -0.264596305193821 0.71462408048708
0.0777159656370338 -0.25898165869967 0.726634953899697
0.0781226711374818 -0.257495577973969 0.734787250781369
0.075296355914729 -0.257605394207394 0.744871173921393
0.0710845565414681 -0.256260750557965 0.767435232499631
0.0740407070693974 -0.253087219866818 0.773639370819433
0.0693829990667607 -0.251965771761043 0.790167691233361
0.0649966519735958 -0.252602930451061 0.798457415117443
0.0667202409980627 -0.24964312419968 0.806841935451919
0.0653324838355545 -0.24783132918088 0.818115740074068
0.0673448401879811 -0.244818239073221 0.826003236872811
0.0626401106866879 -0.243490378102003 0.842703940855438
0.0570659765913877 -0.240636780729319 0.862138753732536
0.0544714406087534 -0.238400485951531 0.874070890847816
0.0531888079141083 -0.234668764610664 0.888316250296876
0.0525079232397164 -0.230886394596977 0.901603593173788
0.0439958613131636 -0.230777042475117 0.917186371740589
0.0496264830758595 -0.225693681336797 0.920388848315916
0.0464031712252387 -0.22382474950774 0.930572423867703
0.0457894136151089 -0.22487629180203 0.941627062330331
0.0425805200318785 -0.231644747710818 0.951335938503199
0.0533310147781894 -0.235105472391738 0.959559075906996
0.0629199917905753 -0.24703393948166 0.964594387190013
0.0650437566260342 -0.250686472089051 0.963904529863525
-0.408609267790391 0.281179277283798 0.47624474129371
-0.408463695931983 0.280889186851839 0.493124403788175
-0.410566116550036 0.277924692213288 0.495005673983103
-0.409260658065452 0.27950348720933 0.50283271671631
-0.409670003669197 0.278584717213137 0.514928420982065
-0.410817262877942 0.276778025976349 0.522445464829891
-0.407754571870952 0.28080772367611 0.529622576323945
-0.41107487912011 0.276184907120771 0.530569494684163
-0.407202854059357 0.28046898081595 0.545900208544962
-0.406157224781231 0.281590786448101 0.549620956147559
-0.409125051948996 0.276765114034452 0.557835672811
-0.410333135666892 0.273965930775729 0.570727690975168
-0.407995483160217 0.27693894308606 0.57372708853075
-0.407674395074369 0.276342665392203 0.585629102907143
-0.40724373948809 0.276620698543536 0.589265911863513
-0.406719374257434 0.276610975516472 0.597677085795562
-0.406174374481685 0.276461562666199 0.608012510474035
-0.406161904991484 0.274702917144482 0.621757173698138
-0.407437804605104 0.272142423273596 0.627201489009955
-0.406948830021482 0.272348680349194 0.630424712613174
-0.405062851660801 0.273720427447957 0.63890907389792
-0.40202110885541 0.277128152838107 0.64440349955739
-0.403331393643073 0.27355264078549 0.656475684968727
-0.400738319952763 0.275766325619344 0.665896363516448
-0.401671820563494 0.273608378769795 0.671829337828902
-0.402566917971316 0.271625221215046 0.676928955363807
-0.400249402600225 0.272982081231325 0.68931219372967
-0.401665324361301 0.26957482417838 0.696378989566166
-0.401959464944752 0.268443272478392 0.699915523683854
-0.401009355936639 0.267910463093628 0.708935401391112
-0.398295421057429 0.270006044754437 0.717041009386704
-0.400041614300154 0.265970610958615 0.724942980026948
-0.395073190329307 0.27097175806929 0.734096191223647
-0.397481085413525 0.265556551459134 0.744263161949122
-0.395894395347454 0.266390322439114 0.750912723504923
-0.39775691945496 0.264163249003333 0.749201129119481
-0.39224313648026 0.268202658816467 0.766329006861676
-0.396556660740776 0.26081689402367 0.771687322228622
-0.393474505132915 0.263199510462796 0.778813274197373
-0.393016568398723 0.261045491262607 0.789363143480869
-0.394628619145714 0.258026045543908 0.792346685545462
-0.392344288964539 0.258535885238797 0.802381262098153
-0.388492088807293 0.261157928483996 0.812634186155185
-0.392515520272069 0.255198956902092 0.814112412958867
-0.39152912849719 0.25483628090126 0.820651024879149
-0.387603831039398 0.256717676485988 0.834089626815899
-0.388371245225505 0.253741549017004 0.841254832246448
-0.385662087045175 0.255337122555819 0.847896181423508
-0.384779139869556 0.254884969592963 0.853058341709994
-0.381934132887928 0.256414749822468 0.860482294708681
-0.385992543503789 0.24909907123968 0.865720869940069
-0.384117345138689 0.250984816454642 0.867908577196835
-0.384479937472993 0.246503909483809 0.880178008019955
-0.381620258515583 0.249598013842642 0.882841011896438
-0.377343081396634 0.2523115512581 0.892726625537771
-0.379151551398712 0.245535599050913 0.905902533113278
-0.379156367155931 0.244577312843409 0.908836837886993
-0.378297400035513 0.245885257149558 0.919553400717398
-0.383033962540214 0.245949267006984 0.933221191229895
-0.379358064609722 0.251308936881673 0.935033967094432
-0.378615577642588 0.24672142826803 0.948692457800275
-0.380682860537856 0.242194346942755 0.950013006538839
-0.372843008813916 0.241561266977853 0.957888000296503
-0.36798895746605 0.234151714083576 0.962776549160825
-0.365809681634194 0.229321563705622 0.963624416622683
-0.353156313981736 0.220021117161063 0.96269682563983
0.0863759982149702 -0.260710541023548 0.460373632866721
0.0901575103196183 -0.258669738523579 0.46252025740565
0.0896808792213011 -0.260318781043211 0.479645612497344
0.0869892493573807 -0.262365533312625 0.485543624506612
0.0888808454713743 -0.262485735898881 0.500879182951692
0.0928254967842712 -0.261581994781197 0.518430665650228
0.0885576421757038 -0.264090534172908 0.518573553361867
0.0947796630220368 -0.261057859651047 0.526170392201065
0.0894506851359923 -0.264262329529039 0.536629389225345
0.090521401761288 -0.263687597216389 0.557119047848972
0.0935713101160497 -0.261897909564806 0.555061127438309
0.0938550849763362 -0.261767712922773 0.569253730979887
0.0938822459225946 -0.261793990095581 0.585953028637571
0.0896127921692304 -0.264310740395008 0.593361345139588
0.0955362199180398 -0.260566801619732 0.610056628196088
0.0934190198791715 -0.261908828424165 0.608678612058919
0.0945381677626518 -0.259621862873063 0.630459858360178
0.0872440783354386 -0.263051436477292 0.64164534560392
0.0873945450185774 -0.262723469801413 0.64484721829613
0.0893776582729421 -0.260487220076944 0.659205678949796
0.0878363921553549 -0.260956484579355 0.66497775912097
0.089070659605431 -0.258920931218704 0.682505018536032
0.0888629726153592 -0.256025282868557 0.703344985698654
0.0919803953954179 -0.254769977385748 0.699630504700414
0.0891283732557793 -0.253132914837201 0.721222702773288
0.0856043478169947 -0.254149847081954 0.728048054324225
0.0823634924446325 -0.253917445259178 0.741951462238406
0.0841590058224563 -0.250642568888425 0.756480031242678
0.0791074891948572 -0.252144506177194 0.764951912594106
0.0803389489456547 -0.247290917565042 0.782710873254488
0.0787561465210597 -0.247015221750659 0.787874717641599
0.0767832565414119 -0.245519108102585 0.799263151677252
0.0748483576578892 -0.243552274178614 0.812578665772234
0.0768472022886076 -0.238288840810797 0.830169408704849
0.074232885173688 -0.236763583375471 0.842525648588936
0.0613737575651643 -0.238364801675313 0.861349001856035
0.0597903203923111 -0.234598519218383 0.876263569278118
0.0642855614418873 -0.230227926988073 0.881795072235576
0.0636417397008214 -0.227772674106648 0.890795627470716
0.059455232647408 -0.224763119927341 0.908145723437739
0.060481358955679 -0.221559013029406 0.916420923948344
0.0526235424299688 -0.219802391429391 0.938308000950221
0.0542486228989716 -0.220405938542411 0.943105909063191
0.0594619947893701 -0.224277980533619 0.954227750856904
0.068098645821463 -0.228624917492405 0.9607400287172
0.0620164356343758 -0.231275999436727 0.960243795885126
0.0721557041641134 -0.238331031752688 0.964049632014293
-0.406068594991535 0.284450619364263 0.484654367182107
-0.405856865468254 0.284572438935494 0.490533552563522
-0.407943062131028 0.281606315670021 0.493241784496732
-0.403876309869952 0.286839386045178 0.506813808299908
-0.403388779655657 0.287323169114343 0.513370822881256
-0.406419903471288 0.2828431761683 0.52315663096206
-0.401624478067175 0.289288463067025 0.529732180263763
-0.401892633695511 0.288120600370186 0.542441914527331
-0.405266551933963 0.282765280416743 0.550286361892833
-0.400515245586296 0.289295162260409 0.550810568392095
-0.402440632848948 0.285432704280237 0.564509359269084
-0.404096738705893 0.282585613791945 0.570857726467748
-0.405412534503959 0.280101433883178 0.578442114278859
-0.402020332215382 0.284583885553613 0.580870085764514
-0.401989520845864 0.284133123406786 0.586513160356689
-0.401209582784571 0.284109754315879 0.599125766601118
-0.400556980886339 0.283622076966126 0.613795935909671
-0.397660448073539 0.287137179175015 0.617177889653684
-0.399816079586215 0.282775114361754 0.626623461563719
-0.400623340529178 0.281159140255109 0.630040337811827
-0.402093690988268 0.27726431972287 0.642782419600374
-0.400339119291386 0.279510317710969 0.644031326284533
-0.399085533176404 0.279987766654825 0.652646401557514
-0.398914188595778 0.278738454464805 0.66283008243716
-0.394751093224019 0.283128335784167 0.672228037161719
-0.398518730217859 0.277326747100157 0.67625130585047
-0.400256607570477 0.273848133322298 0.683605351280304
-0.395166351177827 0.279440911546383 0.692124047712265
-0.396606286204368 0.275850220327634 0.699924056396398
-0.393751733438935 0.277897787612618 0.709214063678475
-0.394099279537066 0.274613326562346 0.722899363912835
-0.39284954158963 0.275951516744279 0.724810121714028
-0.390130736405433 0.27702147456442 0.737955286064353
-0.392033223107868 0.27414964135628 0.739121143276339
-0.392392872164965 0.272206948483782 0.746174743274093
-0.39416454591634 0.268583326740553 0.751894279138267
-0.387844996412498 0.274503379073166 0.765519999736508
-0.390143770301115 0.269729482495375 0.771546272843118
-0.39192902187689 0.265646797659879 0.777646314197066
-0.385568548521842 0.273028974706928 0.783022280784616
-0.389334322256679 0.26505070722376 0.793491600054713
-0.387270873876937 0.265747911670683 0.801660283181661
-0.387200262824334 0.263840949889945 0.809246629416505
-0.386916212931273 0.261590141643942 0.819252061993375
-0.383853532020141 0.266153599723147 0.818023044347295
-0.383218390374238 0.262591235899481 0.834830615215316
-0.379983070711372 0.264708493476478 0.843234816962833
-0.383127361683194 0.260137620832951 0.843910822917498
-0.379291070881014 0.263587344276861 0.849644950235761
-0.381264387561989 0.257217099327004 0.860866388543161
-0.379067309404514 0.25677934473096 0.87159217418795
-0.377955816743195 0.257740496099141 0.873371751879353
-0.375127844155772 0.260303457178836 0.877537219010078
-0.377085283016432 0.255020515449745 0.885473738313497
-0.373954298897046 0.255971599522709 0.895902489635659
-0.374178523810988 0.252978376327519 0.904175157639342
-0.37326895178455 0.251159853925413 0.913664111030303
-0.376697497978811 0.24969264080921 0.92148865240264
-0.373123044015655 0.25913055815326 0.929658006674268
-0.377612567380232 0.253449931366437 0.938661491334822
-0.374175232546462 0.255077406997839 0.945216665864315
-0.373826833290565 0.248557504994418 0.95249038103625
-0.36948744225878 0.251831487614119 0.954655611444834
-0.363988343400344 0.24512041994045 0.9611140390617
-0.359574571007078 0.239518852808591 0.963479978098252
0.0984319975461278 -0.252854488204493 0.450348041469038
0.0971340296407775 -0.25365449335697 0.450855096889413
0.0984457898206196 -0.254166618380524 0.466848868666262
0.0991321271190381 -0.254415245315709 0.474975551803726
0.0972574530559417 -0.256334862943381 0.48525891201132
0.0976379967380891 -0.256682100224005 0.49238184115529
0.104307561428918 -0.253703615101769 0.50392885183261
0.103890271634732 -0.254781064615329 0.51434397949445
0.103746347237329 -0.255353566800285 0.520447017207811
0.10335158846862 -0.256110872479049 0.529467248222791
0.098991853838148 -0.258714753973687 0.550461916593362
0.10530205685955 -0.255048987240309 0.560881552804238
0.100902609745341 -0.257651274270965 0.572043268670077
0.101619304659174 -0.257249551958047 0.579018356666692
0.103045203118373 -0.256460943044855 0.597107835398955
0.104195400477089 -0.255804727904738 0.603745515096575
0.104721312594839 -0.254805442355835 0.615223745570628
0.100970278243979 -0.256175284070195 0.626231775520982
0.104098989158383 -0.253760381437744 0.634029364201524
0.105793967505756 -0.252151593452184 0.642264102925922
0.0992199547601024 -0.254636008943311 0.660440324538669
0.0972946584866452 -0.25504316119498 0.670039866011978
0.0979117452994509 -0.254088150343544 0.677966247208619
0.0986646780336771 -0.251638624468748 0.694538428743997
0.09171659299169 -0.252812036369409 0.713427287232133
0.0930909231971848 -0.25155219375043 0.716403942587338
0.0931880205895019 -0.248731297256728 0.734458028542795
0.0952215152373027 -0.245949461215488 0.744856739196151
0.0970873333931323 -0.244462386742461 0.74743929935791
0.0892215935637315 -0.244266131194534 0.773376422139312
0.0867108821650596 -0.243693076374051 0.782150762631069
0.0894719646624833 -0.238446150120716 0.797754278527594
0.0866041828669684 -0.238505504226016 0.804708974296647
0.0810385313387175 -0.239640015148542 0.813826497430514
0.0820689147582391 -0.236207360133102 0.825985503920434
0.0839957431605406 -0.232803589282396 0.835766699108078
0.0785184116809984 -0.229959307718916 0.856181904166498
0.0780843636129772 -0.227667227711863 0.864273772927413
0.0742422547321147 -0.225558165015592 0.878121480704447
0.0692022130278988 -0.220204426915879 0.904509105219294
0.0662780719922272 -0.217036814120999 0.918444844061479
0.070480247182543 -0.215994185799255 0.915513580184918
0.0662187295345439 -0.211935989335633 0.933464189592749
0.0669479664556416 -0.214930678849176 0.948425234584039
0.0692341163578632 -0.213485750765473 0.948299881317102
0.0683783391926832 -0.220374912153776 0.95576252516051
0.0751074767860339 -0.230743771917975 0.963081990982626
0.0820723775429698 -0.233898467503127 0.9642757898266
-0.399296171705327 0.293916167913272 0.481473001290941
-0.401793910227552 0.290224896567885 0.489523772251948
-0.401841838372102 0.289958734951311 0.496385740720631
-0.398402096682846 0.294388783492942 0.507734358036426
-0.400182346153337 0.29183748372251 0.510737957121439
-0.400733511799631 0.290868079723059 0.517832449527525
-0.39957111653687 0.292202381130932 0.527256149330536
-0.397028134375182 0.294842775265209 0.542558549638912
-0.396252269000725 0.295229539877509 0.550415985535603
-0.397640435498091 0.293453781635979 0.548752616583635
-0.399882982517882 0.289036183504198 0.563780356424561
-0.400211218657529 0.287987933495022 0.570573686596895
-0.399224797648767 0.288448378251681 0.580921244097792
-0.397658622794842 0.289764418007355 0.590660044788794
-0.396575731191578 0.290538601307926 0.598946364997667
-0.39765694380994 0.288396912734425 0.606326799334491
-0.397224851212187 0.288746120062327 0.609172334044566
-0.393815643855137 0.292716489672775 0.615409124528055
-0.397122396799578 0.285792480627225 0.631492052981808
-0.396549784969174 0.286832363727855 0.629797117399858
-0.392717134348587 0.290253859522614 0.642696324037825
-0.395614984871576 0.285030648068882 0.651004148131709
-0.394741396175546 0.28482720504264 0.66068101262424
-0.393654847943235 0.285176090352157 0.668593081445773
-0.39055241940962 0.288921911591993 0.672346611057257
-0.390301738232629 0.288120852738532 0.680211547212316
-0.391492022426752 0.285541690642035 0.686595535346501
-0.391743562816017 0.283326380132413 0.696281211960041
-0.390376308205349 0.282525368992256 0.709428568713599
-0.388898290094242 0.284396321972639 0.710280868464479
-0.391294580774067 0.280559088581361 0.712823254812368
-0.388060315480767 0.282597216174999 0.724724678816838
-0.386515464945589 0.281519910368487 0.740420624104406
-0.387572226419062 0.280074781341067 0.740335643796021
-0.38421543112903 0.283069292853157 0.748396226737028
-0.387226129332203 0.278095934441284 0.752333750091964
-0.388579853099982 0.273135576528205 0.766847440182475
-0.383728427588232 0.276821030430203 0.77830944214473
-0.384917672823289 0.274666404579929 0.780234645357656
-0.383384622595907 0.274374786718695 0.789367424135524
-0.382961701243295 0.273825663305746 0.793660486424111
-0.382743436637172 0.271395909127659 0.803998560914957
-0.379245879668078 0.274006409400848 0.812437756516949
-0.380801360094259 0.270616256189378 0.817120451048604
-0.376374666030515 0.273695276710669 0.828652891344636
-0.380944833060351 0.267950186907327 0.826458247499974
-0.374979258154995 0.271412345692633 0.843917275899879
-0.375743275628863 0.269301774635037 0.847164752312478
-0.375383651038048 0.26899720959021 0.849638561703683
-0.374517147001502 0.267003695794781 0.859483305860108
-0.37566421461019 0.26360150023676 0.86507882271901
-0.374941491048762 0.261099691911207 0.875877302925864
-0.369604018103735 0.266949680010643 0.880616522086995
-0.370697802778992 0.262361748757141 0.890095614327322
-0.369357507757208 0.26146771052972 0.89857203973822
-0.368668460718821 0.262018837697898 0.899813142098301
-0.368054672560464 0.260415635977804 0.907375908015892
-0.371352083980677 0.261583876143505 0.929673608558517
-0.37114497753387 0.262481829716007 0.933743374585583
-0.371832163938271 0.26204977248837 0.937198491852911
-0.367904473402191 0.261975054109248 0.948351885930292
-0.369081295496155 0.256576437389836 0.951340094034953
-0.36182982928939 0.249404077502023 0.960633106473203
-0.359447455476735 0.245383807237888 0.962842562647758
-0.351192321332337 0.24217600086279 0.964482059019692
-0.346695070064202 0.23018240622128 0.962783984514797
0.110922471444396 -0.245312278482667 0.453737285418267
0.105276667651492 -0.250162875191404 0.466761130024742
0.109332287453781 -0.247873888161378 0.470118276851306
0.110784725858112 -0.247688446115563 0.480351627707545
0.109959827100532 -0.249210311044286 0.491106932147782
0.114859031542124 -0.246374818867043 0.49977806028997
0.112576623821377 -0.249565370581296 0.51760404730397
0.114183179029674 -0.248720091944005 0.521436245358569
0.111752087232389 -0.250990576975447 0.53600841675613
0.114020202254279 -0.249375579841173 0.551182244666068
0.113607807636662 -0.249694556839234 0.557811077094495
0.111152445954207 -0.251517687380406 0.569104563640873
0.111530107970835 -0.251257766882441 0.574962997625453
0.108785471551025 -0.253079800945706 0.588185522452817
0.113168449932764 -0.25013157618926 0.600887016137877
0.10918914520694 -0.252210904316977 0.614962507325619
0.110959545976813 -0.250192711059788 0.625466274925567
0.107515301207282 -0.251738104168649 0.634341701835181
0.110326823333267 -0.249115524740863 0.644686205317748
0.109902688192557 -0.248646968710892 0.654404165789263
0.111847821919624 -0.24593798692235 0.670498586570957
0.110075136032099 -0.246554418447378 0.678962631017201
0.102949661981716 -0.248958383602603 0.695669134459283
0.106139011146857 -0.2462881209407 0.70092180578664
0.102517248824452 -0.245424703947395 0.720402490752831
0.102207879537034 -0.243884360121155 0.731645808139726
0.100632280698189 -0.242711759241229 0.745326245313677
0.105757190182216 -0.238824487463739 0.748416787598128
0.0974298158243383 -0.240509085889913 0.76888386914318
0.0969389013221202 -0.238233569581395 0.779895490273029
0.101602909420314 -0.234297800062557 0.783796546800249
0.0922714977250206 -0.236548874170724 0.798868347393672
0.0927522332850606 -0.231698843467278 0.818499373795649
0.0975256068088646 -0.228480997245426 0.819152891205532
0.0914944384620022 -0.227100426345825 0.841138296026318
0.0917594472138715 -0.2226289466138 0.854591842132374
0.0894801471001093 -0.219281801918821 0.869495197493859
0.0888375824642198 -0.216862189737694 0.878086261647073
0.0798421378849359 -0.218045681316205 0.891584444855061
0.0810097740567157 -0.214526188306509 0.900598864314842
0.0723442720888349 -0.214596395850357 0.916459712081043
0.0704618057352375 -0.209778029117478 0.930279024643633
0.0762346305842514 -0.208005712086994 0.944537253007943
0.0755704499497439 -0.21303103579516 0.952099455374667
0.0793824585083601 -0.212554116642194 0.954147769833554
0.0846029694544354 -0.220279264024628 0.961456806453118
0.0953460656181152 -0.229688609675661 0.964444159786008
-0.39300014620981 0.302596186312572 0.482625386931524
-0.394476593208493 0.300371845840746 0.488839597725599
-0.396097503094375 0.297683665917798 0.504116071701351
-0.395765638660603 0.298067093583622 0.50672124662137
-0.396037718554093 0.297577483070112 0.510603521611526
-0.396493954302854 0.296667591585489 0.520165913075979
-0.394261952939845 0.299427502491852 0.531468117521545
-0.394051824696235 0.299508089809172 0.536312114705532
-0.395548852625956 0.29688132185609 0.542658631829257
-0.393756225189297 0.298424961237571 0.553378801240273
-0.394215056543446 0.29663982210555 0.566532803072647
-0.392319852045116 0.298791948159041 0.571917353252305
-0.389758567928256 0.301856484513096 0.577409765956765
-0.392784303013007 0.297034742004314 0.584662934538303
-0.391467235312415 0.297727264763429 0.597589889174412
-0.393522473128541 0.294315145671266 0.604082793887647
-0.390461537581693 0.297878521541428 0.611778757947322
-0.389958507814542 0.296995707306147 0.622664233598075
-0.389351053349064 0.296371379868156 0.632701185662978
-0.387268118243272 0.298252247734502 0.639565033629385
-0.388096839169965 0.296681131824043 0.642471109613903
-0.390578990715978 0.292565222336418 0.647134315916342
-0.388874187835863 0.293639577352873 0.655938268024604
-0.385002296536667 0.297204263619871 0.668228542368062
-0.390443166144936 0.289226989313932 0.671292423563041
-0.386793420974422 0.292737052746786 0.681850604491142
-0.387712940413149 0.291338383220998 0.682714327749498
-0.38487915105129 0.292418184391443 0.6982748873137
-0.382589174321961 0.293155974182043 0.710144389290865
-0.385206242803956 0.288773290101433 0.71385785641455
-0.382244322446333 0.291596522757535 0.720086775383188
-0.382148568632593 0.290619295294715 0.725504090124374
-0.383878678860525 0.286632843224537 0.733275609916249
-0.384761006701247 0.283619979916414 0.742022104101034
-0.383344356332165 0.283259075946186 0.753354765279597
-0.381284149087549 0.285083864023336 0.758365689462946
-0.381985304275234 0.283157151091767 0.76303406832259
-0.38034079905344 0.283570392661113 0.770510176544848
-0.37593403645635 0.286148717113646 0.783833014920679
-0.376035380574164 0.283309659598389 0.794046097739537
-0.376499264265797 0.283821825540561 0.789678357412295
-0.374020737640661 0.283158697391485 0.805168889289479
-0.376023645970263 0.279623543775772 0.808056947878719
-0.372579040265582 0.281352514058315 0.819554795652936
-0.375165936042674 0.276189235710889 0.825545597136307
-0.372445463932648 0.276538128014834 0.838473500554887
-0.371582478332849 0.27617752814145 0.843719609748012
-0.372335003417781 0.273710343766041 0.848115739519199
-0.373607476774307 0.269805141133433 0.854727102375323
-0.366899432408754 0.276474963157872 0.862787261058095
-0.370205150702338 0.268837573702204 0.872229921601351
-0.36901663388558 0.269660695862467 0.874763808264385
-0.366953670804485 0.268912347559149 0.885874970376977
-0.365303797316399 0.269556040159797 0.890930952936581
-0.3619408526955 0.270191967795782 0.903321368553495
-0.364920122682431 0.266305467632546 0.90259134906891
-0.361559604499258 0.268234515226307 0.910984101004995
-0.366028511786785 0.268536849616926 0.926912503440576
-0.368699740131704 0.266233304680783 0.936188698405015
-0.366400237873506 0.269481561407371 0.937584961158131
-0.362445657069249 0.268666391271504 0.949036382051254
-0.360438782425549 0.264995680466069 0.95414750769612
-0.358183569072274 0.260677637687423 0.958322815576557
-0.351943999232796 0.260254712516234 0.961683466508304
-0.346962122732062 0.249025963904227 0.964370525886181
-0.334834760034995 0.232711189203717 0.958002331633233
0.119316202028902 -0.23914190129526 0.453244503068325
0.116952746913266 -0.241913270252643 0.465475872663415
0.117644695534272 -0.242324811606253 0.476197530518888
0.115477239645922 -0.244640344387777 0.484771268753582
0.117779572104073 -0.243318467011263 0.488970549576633
0.119667370656611 -0.243033983161791 0.501763041186513
0.122105499671097 -0.242256755629256 0.51349183963073
0.120279648072229 -0.244380666115295 0.522741371104719
0.1213541775542 -0.243975682539985 0.534366498300944
0.118547861064843 -0.246057385272355 0.546527435063952
0.123388050660155 -0.242548482940694 0.555757615830216
0.123386834938875 -0.242600464618544 0.57469107045726
0.118220859246713 -0.246382112251623 0.578389615860734
0.1208691823982 -0.244474712660242 0.588074182261204
0.12267935340315 -0.243186952826906 0.600614603602714
0.126170312628765 -0.240603688596423 0.606531223763467
0.118835418853025 -0.244784066989009 0.621201647440549
0.119398413377408 -0.242701706293301 0.642072224419934
0.123063152150505 -0.240066389521925 0.64156897414241
0.116796564993258 -0.243719446208484 0.653084479630721
0.118948243684135 -0.240724777422712 0.670863324608239
0.12165052487748 -0.238238648078575 0.677271903610583
0.112517874731429 -0.243030188448818 0.692543653268766
0.116337566730732 -0.238092684374852 0.705676685791517
0.115421610349225 -0.237075888392927 0.715978538549791
0.113969473727652 -0.236239901103437 0.727567900066916
0.112950471497922 -0.236395774723256 0.731162307211672
0.111042216477493 -0.233915819948168 0.754834810350835
0.11252879738332 -0.232610129427266 0.756181519595777
0.11444385190533 -0.228412034449943 0.769766895486057
0.107166430312499 -0.228822586260865 0.78947896937588
0.106000395970304 -0.227508936059709 0.798183608758232
0.108437647429309 -0.222048150230034 0.812985141499078
0.104764658686207 -0.221902642667277 0.824352187545421
0.103780491100391 -0.218085505489306 0.842002720676659
0.098991583728339 -0.22095287301256 0.843873358839835
0.0910561352358701 -0.220775796058804 0.861630163351111
0.0948396557332689 -0.210983912779136 0.882535857108091
0.0891658929543242 -0.21419927584673 0.885292845070754
0.0864023800095822 -0.20721840134024 0.912054192974919
0.0832138769631622 -0.209092864207717 0.913402759272189
0.0754134842147753 -0.20643633540044 0.934639894914669
0.0818899161430177 -0.202372985074831 0.933236518008115
0.0870170560932288 -0.202079065685106 0.94822614422184
0.094529868812713 -0.210992175786679 0.960157734351587
0.0913951171149255 -0.215984221138053 0.961540826496222
0.104420153474137 -0.218572317950066 0.964166037613988
-0.391364413471714 0.304803778508622 0.484556279710592
-0.389211551666654 0.307501464600881 0.49423415170251
-0.389356814323346 0.306996473749972 0.504671505424764
-0.390400654853145 0.305357000043799 0.511361387922317
-0.386877050843504 0.310024875202833 0.514552678429197
-0.388062500281936 0.308254286875832 0.522991120129832
-0.388226781519331 0.307681470769943 0.534853677848912
-0.387907026182546 0.307096380086362 0.546788328713416
-0.388474442179172 0.306086580596813 0.549356015585202
-0.388993312270505 0.304493179977728 0.559366771519069
-0.386926980911165 0.307212208213503 0.560976352788401
-0.386503935007422 0.307141249390903 0.568484137565515
-0.386082495301239 0.30675638356119 0.579556657674111
-0.389682079197377 0.300975027545964 0.588701712776115
-0.388996823950992 0.30129368510183 0.595903857940184
-0.385546280333097 0.30498569968822 0.608295532361562
-0.388066583414803 0.301241475759842 0.61122538948421
-0.386539873837628 0.302309903630275 0.618670965050279
-0.384606090006996 0.302690387787104 0.63439975314021
-0.387490056218759 0.2987807262629 0.633840081131168
-0.384815964574918 0.300616410787313 0.646618628238026
-0.381623752512665 0.304126775906007 0.652836567120014
-0.385391971083463 0.297195289127568 0.664595263580698
-0.381855360114933 0.30154559308338 0.66832424857968
-0.380575695845395 0.302303442635457 0.675265561042281
-0.382501142559508 0.297778604117372 0.688008831993862
-0.382470466230359 0.296895473713722 0.692691759133167
-0.380624546534627 0.297740348809099 0.70103846947142
-0.38136427964317 0.295375841955873 0.707583336891768
-0.381633781309378 0.293489050514909 0.714973085636339
-0.377295596299425 0.298141431303034 0.721570931633295
-0.375826529197725 0.298027144019198 0.732053843892516
-0.378123653897808 0.29403031904893 0.736045252335242
-0.378917597564043 0.291156346585404 0.744710864515157
-0.375102255302026 0.294785065262268 0.752773463405645
-0.37591165585235 0.292152762150704 0.760154923549661
-0.375418322570874 0.291408942741234 0.766627713397781
-0.374963109958571 0.291332745206177 0.769300201776595
-0.37338437005662 0.290039073773628 0.782464353580622
-0.371178413582537 0.290447007099894 0.792474100068097
-0.372349501783955 0.287751773494395 0.796540224371664
-0.369102812044244 0.291063457739677 0.801012031367891
-0.371624303825984 0.285838013099642 0.807580636463639
-0.367582960637364 0.288713022346355 0.817866878665899
-0.368993095094943 0.285735043096278 0.821751016632435
-0.367603310284397 0.284915210036518 0.832132384253212
-0.37016637382429 0.280260607692938 0.83632301905999
-0.367608563164602 0.279957952325849 0.849021336782712
-0.363954562879503 0.282511339093795 0.856741379483918
-0.365059732839224 0.280283756333587 0.858893799039808
-0.363324689706409 0.279391845203498 0.869048243680004
-0.361603778960064 0.279231040087333 0.876888028273924
-0.361722672210555 0.275883975789757 0.886701258418656
-0.359090953394274 0.27540348472028 0.89941363968497
-0.360151183993815 0.273165267810394 0.901790627064767
-0.360397912871316 0.271411853986279 0.906144333130643
-0.357808599706952 0.272075502608646 0.915147817978987
-0.362029974750422 0.274742904626203 0.93138726643822
-0.359752568100346 0.278185423638983 0.933322097616879
-0.361972284220167 0.272347881349931 0.944416928243449
-0.356390326520264 0.273107429668182 0.952158946889391
-0.354502772159593 0.274812524790652 0.952878069388207
-0.355806515472994 0.265767429339005 0.95765501805422
-0.344154350463108 0.261125601411795 0.96345023498756
-0.344096628971619 0.263190703811426 0.963227805470704
-0.337013852110217 0.254440698459469 0.964000734148029
0.123241457597995 -0.236221348468758 0.452604371979689
0.127769333779809 -0.233089097791421 0.454634026298907
0.128663754271669 -0.233426583688944 0.466218448982906
0.12308216681134 -0.238866294297535 0.482178245346475
0.125147571969481 -0.238707117180409 0.497952826380061
0.130255900502316 -0.235560680593092 0.504772980462741
0.133268607955375 -0.234372028969772 0.516596211805574
0.127059086259292 -0.239586776345355 0.52456309092647
0.133732869446705 -0.234939399969473 0.534874621806802
0.133155445307227 -0.235396107512865 0.547892986457202
0.131768743270506 -0.236426902482715 0.55469910232348
0.126126921836853 -0.240582283974107 0.568150804216027
0.135657546154329 -0.233636158872898 0.572657291497913
0.130090471008091 -0.237730724275054 0.583795212612918
0.129554620476847 -0.238158375224595 0.597293897789733
0.129397669297144 -0.238281843254441 0.600583862081547
0.134378914620614 -0.233139268183205 0.624904550229375
0.13072254350133 -0.234666308297411 0.639171098099269
0.12873620729067 -0.236446153643363 0.635054899495834
0.134396520658544 -0.231177867754221 0.649236989515516
0.12884703166588 -0.234088004273244 0.66349185529935
0.130260955592841 -0.231854174800933 0.678495902859089
0.125067270010486 -0.233933912454906 0.692140217732646
0.120391349000609 -0.23648400424188 0.697419618835574
0.124268707044947 -0.231918670045914 0.708020654172538
0.119841078667169 -0.232279777212991 0.725571005921516
0.119217863572163 -0.231770180368145 0.731466596433102
0.123601823660007 -0.225637601100559 0.749385903302852
0.116178095876355 -0.227387108256319 0.768796942603436
0.122614222809934 -0.221009103920218 0.775547670522634
0.114362695437417 -0.223476029128349 0.789851207223749
0.116287798447598 -0.220685276628281 0.795420805714188
0.110943820873104 -0.222314574283074 0.80455709947911
0.108552294715253 -0.216686067142095 0.834207794688024
0.113255823698603 -0.21257557692657 0.836927600181978
0.103260122166339 -0.217230423143302 0.845675588231474
0.106658934778869 -0.209839566977948 0.860275998770785
0.101371419894315 -0.20611527157012 0.88283270622394
0.101637366068964 -0.205545434838961 0.883949939898095
0.100553267802229 -0.200800277076873 0.90041581923934
0.0938307050288844 -0.202605464102695 0.909643888545464
0.0961888955621018 -0.192330266658686 0.929592434224384
0.0884743669726698 -0.197140751283427 0.937424175351911
0.0885511016028629 -0.2004816048495 0.947235541916372
0.0940085819355407 -0.204476393645018 0.956426222876946
0.0953434372618149 -0.203842596935004 0.956803776352213
0.112599330353215 -0.217193442345758 0.964431549202638
-0.384852658716071 0.313003773751327 0.486958181799895
-0.383818149571237 0.314051913415516 0.491353017154022
-0.38058274586625 0.317286952655792 0.506774935681646
-0.386797865353707 0.310329484483219 0.5061360423038
-0.381567585598127 0.315782579098096 0.52235181876792
-0.386860970382908 0.309751058927792 0.525938067925424
-0.385611435129721 0.310597040954257 0.539291043755528
-0.387046331972449 0.308905685344509 0.539718868023183
-0.384060194266219 0.311138858021362 0.554866592325324
-0.381084630048933 0.314478800301693 0.554851929794795
