ply
format ascii 1.0
element vertex 836
property float x
property float y
property float z
end_header
-0.0829660214181729 -0.333531407861144 0.603068664391481
-0.0774220804042951 -0.332217510515213 0.617912654680084
-0.0725672192584911 -0.331066923025488 0.631198690649364
-0.0819890131776862 -0.33329985984667 0.640666533902224
-0.0817833582402152 -0.333251120245032 0.657609563315991
-0.0821112242473354 -0.333328823502606 0.669347396408627
-0.0754017892766371 -0.331738707594331 0.686977852594837
-0.0759456140464162 -0.331867592429122 0.681980989051933
-0.0777271673182192 -0.332289815196211 0.702804608442522
-0.0834008785109645 -0.333634467684229 0.707723230081349
-0.0751272002642374 -0.331673630824266 0.719239718800809
-0.0823981487610128 -0.333396823749372 0.735670160876441
-0.0767935713483728 -0.332068555759308 0.75246687407799
-0.0774765338641707 -0.332230415821425 0.761139982290896
-0.0807539368346216 -0.333007150468069 0.765521361774564
-0.082739852765202 -0.333477806570632 0.778549513162583
-0.0789478397960196 -0.332579110902067 0.789711411938812
-0.0731311194354643 -0.331200565671404 0.802845622257789
-0.0791898776797938 -0.332636473152552 0.810709592393358
-0.0761698147328888 -0.331920727317494 0.821660512628819
-0.0800104222623046 -0.332830939750677 0.836397815412686
-0.0730609488852427 -0.331183935462051 0.84770999484043
-0.0744120708478102 -0.331504147303448 0.862892465239318
-0.0823376089091677 -0.337765731759597 0.872003847556387
-0.0730204258915809 -0.342482681460597 0.872003847556387
-0.0487492992419933 0.354237401737167 0.338840847618048
-0.0533721103176564 0.355621415630276 0.357424166701138
-0.0499280020666951 0.354590291149807 0.358380444535585
-0.0501584001914323 0.354659269570157 0.370628126444854
-0.050272669774297 0.354693480505378 0.373581179716527
-0.050007544705237 0.354614105256642 0.389591404823684
-0.0508862903260848 0.354877191099402 0.400156127489662
-0.0535786795063592 0.355683259954514 0.412126357564215
-0.0568991060470212 0.356677355622303 0.421279540070337
-0.0569999440722148 0.356707545311118 0.419730105114875
-0.0498049164886906 0.354553440811947 0.434546277012776
-0.0486131743720541 0.354196647592533 0.443608674592735
-0.0528491911144868 0.35546485992633 0.45827002643059
-0.0504817692643741 0.354756082371336 0.456282480154148
-0.0567206532460008 0.356623929005503 0.467904414893723
-0.0518473673311158 0.355164925965816 0.483170260971311
-0.0563512433836982 0.356513332147161 0.492639015833223
-0.0546983207947723 0.356018467055367 0.501338132054675
-0.0535724958833707 0.355681408652354 0.507159219144194
-0.0528856582370437 0.355475777743094 0.507517797361414
-0.0518763011703371 0.355173588408387 0.520075141979103
-0.0522906466028734 0.355297638434614 0.529110695287164
-0.0549709498915562 0.356100088919518 0.546677055359099
-0.0554571088091695 0.356245639037233 0.545333186143066
-0.0525837907202631 0.35538540224856 0.557863622458821
-0.0506080425371343 0.354793887066568 0.563152854160895
-0.0518870289611726 0.355176800179606 0.570652314223221
-0.0563312243447283 0.356507338688288 0.59005152977481
-0.0567893966690812 0.35664450995745 0.593858595727869
-0.0552513704238753 0.356184043445517 0.601568520749758
-0.0515515126618054 0.35507635064531 0.610250275861974
-0.05564122818943 0.356300762159528 0.620233912932629
-0.0550435049862992 0.356121811039997 0.62783638843453
-0.0524344252271789 0.355340684021015 0.63287029369923
-0.0557253885127028 0.356325958745491 0.640137629538672
-0.0518409562587884 0.355163006568067 0.65646188320137
-0.0569305452875627 0.35668676815182 0.661867432772879
-0.0487019881247423 0.354223237359151 0.672819459673288
-0.0505329180819057 0.35477139571054 0.683566362182639
-0.0511618749106449 0.354959697800956 0.694898401223355
-0.0541999455726949 0.355869259523402 0.698979536318725
-0.0530321560266548 0.355519637414799 0.708755884622256
-0.0488821509923665 0.354277175949271 0.722386366104976
-0.0555883361246993 0.356284926913132 0.724418955529224
-0.0501345103969958 0.354652117253772 0.731816886991182
-0.0521278769989132 0.355248907177903 0.745830398153138
-0.0490867807300188 0.35433843962525 0.749390799648745
-0.056823094378219 0.356654598645231 0.761219808265196
-0.0552400421615401 0.356180651900373 0.776914232680818
-0.050139928254888 0.354653739295096 0.778614749518646
-0.0522098740619495 0.355273456109836 0.785286997077202
-0.055256667898657 0.356185629445589 0.793011358155597
-0.0509766565847501 0.354904245667589 0.798900810124485
-0.0521165464555774 0.355245514949854 0.819148431698817
-0.054870206759177 0.356069927640468 0.827929297183503
-0.0492760918440255 0.354395117090026 0.831558924573696
-0.0501842682679212 0.354667014160336 0.835795487522153
-0.0517083203658317 0.355123296981071 0.844862737859636
-0.0484915757919686 0.35416024244392 0.856723332530415
-0.0516957546121147 0.355119534945929 0.869970837285908
-0.0486895585824677 0.347885867988387 0.872003847556387
-0.0531556308106973 0.343792110159335 0.872003847556387
-0.0562672215030361 0.329710508034755 0.872003847556387
-0.0693330374868884 -0.330300431672976 0.356990991617952
-0.067777825139328 -0.329931851024173 0.376609803783439
-0.0616251796115897 -0.32847369253924 0.379338946300034
-0.0666029811449912 -0.329653416531061 0.398444804537086
-0.0654113442385582 -0.329371002168289 0.40175849010776
-0.0678245621801249 -0.329942927562273 0.41940647264042
-0.0721390635649996 -0.330965451413882 0.426330528587218
-0.0637664129000926 -0.328981158388487 0.434053100658251
-0.0665047556188136 -0.329630137376787 0.456655010165669
-0.0621747713662896 -0.328603944132113 0.455027940250755
-0.0689061286701071 -0.330199255567401 0.464332107673786
-0.0689824280344913 -0.330217338287277 0.478796158531656
-0.0641286778466256 -0.329067014091242 0.496860933458844
-0.0664059699428695 -0.329606725468703 0.498763551499159
-0.0616891770866624 -0.328488859748349 0.5084278612055
-0.0619264822513153 -0.328545100358636 0.519227108870876
-0.0656441300237577 -0.329426171699239 0.535058759451862
-0.0683424570056603 -0.330065667078267 0.544495859498189
-0.0620597951246786 -0.328576695108661 0.563696765875247
-0.062102411170778 -0.328586794983412 0.570704691903167
-0.0682281023241312 -0.330038565362686 0.577043897769746
-0.0671954668490588 -0.329793833860923 0.587720190233004
-0.0622592298267133 -0.328623960533209 0.598376132355362
-0.0699828928821476 -0.330454445447101 0.614104099045814
-0.0690176260408561 -0.330225680108921 0.62699138141085
-0.0657975495780453 -0.329462531672169 0.643169544659047
-0.0635546422870475 -0.328930969390133 0.649919671969097
-0.0710853732930988 -0.330715729988597 0.653132336124468
-0.0623800554731509 -0.328652595848011 0.665140046088808
-0.065761689085465 -0.329454032843284 0.674063419420815
-0.0691815534053151 -0.330264530401258 0.687485615324187
-0.0634704684192896 -0.328911020436641 0.704599067669856
-0.067711746083906 -0.329916190486783 0.716216795551714
-0.0663418865532101 -0.329591537898096 0.725798001989956
-0.0611931042922523 -0.328371291988098 0.740606936644066
-0.0707443747057657 -0.330634914349011 0.750415251346719
-0.065721432354163 -0.329444492119044 0.760809779055584
-0.0617779068246815 -0.32850988842939 0.775832841143479
-0.068028099410558 -0.329991165273712 0.78060458462786
-0.0634783366538461 -0.328912885184566 0.791207685535503
-0.0644574492566405 -0.329144931926579 0.801078534730864
-0.0609776515167537 -0.328320230328316 0.812318119362536
-0.0717799651429641 -0.33088034616791 0.822725678522058
-0.0637093608310208 -0.328967637219712 0.83379217184433
-0.0643399308339878 -0.329117080413867 0.846855808376939
-0.0651689213714979 -0.329313548677925 0.862112561907831
-0.0721735377404935 -0.330973621689787 0.859466810795086
-0.0619478467564413 -0.346596781460184 0.872003847556387
-0.0629224288946609 -0.355136817175691 0.872003847556387
-0.0483414967228088 0.354115310580302 0.341256707122112
-0.0435646379393919 0.352685176661034 0.348889812598264
-0.0412943503268302 0.352005479925496 0.358725314072703
-0.0402978180001471 0.351707130163309 0.370747348402107
-0.0473240190601434 0.353810690037085 0.377893308733095
-0.0473861635191511 0.353829295338759 0.38501419609751
-0.0469889594263402 0.353710377222952 0.401478763361539
-0.046132638866897 0.35345400517317 0.40484215535345
-0.0445217294117444 0.352971718307022 0.411869389628725
-0.0398228528427652 0.35156493132243 0.425141286085289
-0.0397225219314808 0.351534893457405 0.429123194537834
-0.0448704114646185 0.353076109509163 0.435367348278389
-0.0468860964290484 0.353679581281909 0.44972601111372
-0.0413254767682381 0.352014798806724 0.457057790603109
-0.0423747129802131 0.352328927476652 0.466677506481936
-0.0464974442365849 0.353563223501945 0.47427221282
-0.0429764829813016 0.352509090158693 0.483821857459498
-0.0471676552020399 0.35376387658344 0.490110001631238
-0.0399554819654797 0.351604638882497 0.50351274751864
-0.0421420110887349 0.352259259336317 0.511626104557573
-0.0479724475045675 0.354004821694443 0.522219300318451
-0.0426544331589336 0.352412672325229 0.52675244024618
-0.0413764132030695 0.352030048561109 0.536158853267975
-0.0469919352205685 0.353711268139861 0.542187010958968
-0.0427148644803446 0.352430764734164 0.562932729257844
-0.0414511532971066 0.352052424844029 0.559029629403314
-0.043232290891594 0.352585675962443 0.570143987951713
-0.0421184619856857 0.352252209018825 0.579683721082238
-0.0477787381763927 0.35394682745738 0.590695351337398
-0.0447364037194905 0.353035989206168 0.598016303407645
-0.0453755395908691 0.353227338779208 0.606639421432791
-0.0411190300451698 0.35195299114722 0.613936547712067
-0.0443238821646356 0.352912485226927 0.625203160357097
-0.044990184465086 0.353111968101252 0.633913453242241
-0.0402398821060944 0.351689784855234 0.639590123956754
-0.041215585087103 0.351981898562491 0.648696758514914
-0.0460494156788516 0.353429089154193 0.663214582453153
-0.0454198792504581 0.353240613538631 0.670258403925514
-0.0421091963206483 0.35224943499044 0.680026538182119
-0.0398974878467935 0.35158727614267 0.684621834221314
-0.0414691754585182 0.352057820461841 0.700166911050455
-0.0406620537502315 0.351816177954843 0.704551078813552
-0.0441744505041983 0.352867747189674 0.715806107722251
-0.0430510784779419 0.352531423150897 0.716837953610049
-0.0455320592302717 0.353274198871894 0.732609771671557
-0.0409332293102781 0.351897364647622 0.746429424614013
-0.0420256638905604 0.352224426388125 0.752848915065824
-0.0479250741833548 0.35399063869331 0.760032245651641
-0.0483479441093805 0.354117240850097 0.764969664179449
-0.0408166891637147 0.351862473933009 0.77385284050748
-0.0458669744110317 0.353374468438528 0.78661544018791
-0.0461305929329567 0.353453392645218 0.797533575319381
-0.0430985316741391 0.352545630065637 0.807255457476037
-0.0468400544082914 0.35366579685608 0.818363381988823
-0.0452871795569553 0.353200884850521 0.825207146345324
-0.045634233247577 0.353304788540638 0.834618855179215
-0.0418991294343808 0.352186543497728 0.838657255204015
-0.0403091878004674 0.351710534144425 0.846659532223988
-0.0445498637362773 0.352980141384537 0.861049274336265
-0.0482989208907119 0.354102563889561 0.863073577419921
-0.0467583350186971 0.351272832928177 0.872003847556387
-0.0413181212549022 0.345859281564112 0.872003847556387
-0.0438156984835536 0.329681281311523 0.872003847556387
-0.050304536863544 -0.325790734256735 0.359960737918431
-0.0515138584587877 -0.326077339837565 0.374546510256374
-0.0549034330054774 -0.326880658810402 0.378582157714171
-0.0505504586432748 -0.325849016978879 0.391017816274399
-0.0505310193723311 -0.325844409930133 0.397420403126509
-0.0528539553668185 -0.326394938774197 0.419084630663209
-0.0564305772955216 -0.327242587413993 0.427835055178791
-0.0608617017431214 -0.328292750580704 0.437584034665482
-0.0561375253290914 -0.327173134979354 0.452000550776199
-0.0552405540844901 -0.326960555492178 0.4601997543599
-0.0505816679336061 -0.32585641348682 0.469786752530413
-0.0585613218915528 -0.327747567474671 0.486148395219246
-0.0570447865230822 -0.327388153153585 0.493070922279064
-0.0604033113841511 -0.328184113444317 0.496652915808621
-0.0512767178309688 -0.326021138222014 0.510462165067904
-0.0537945577553528 -0.326617858711255 0.533250932548027
-0.0565802769917837 -0.32727806579176 0.539109813754484
-0.058482530414284 -0.327728894131537 0.541343253313258
-0.0514711927201188 -0.326067228185825 0.558419839006168
-0.0606301052484603 -0.328237862908036 0.573582644909248
-0.0564575313456402 -0.327248975442802 0.578454292047693
-0.0584498181971718 -0.32772114143447 0.596142485860195
-0.0572802999206296 -0.327443969120457 0.611231296985452
-0.0541900945055544 -0.326711599731408 0.610909882136067
-0.0515588351122957 -0.326087999169171 0.627266920404359
-0.0531234951864394 -0.326458818900759 0.639807089431925
-0.0564176879663851 -0.327239532681755 0.644039894971119
-0.0573575419174557 -0.327462275241385 0.661085865939211
-0.0530447838465887 -0.326440164549952 0.671440094285466
-0.0544657121356618 -0.326776920280776 0.685594334464193
-0.0528226378982095 -0.326387516628329 0.695244553260032
-0.0505195356398719 -0.325841688320079 0.71129563858665
-0.0609206332722147 -0.328306717175853 0.713473476459599
-0.0605539088194689 -0.328219804583538 0.728440533414567
-0.0602412080113879 -0.328145695432526 0.732888006814671
-0.0570135270574651 -0.327380744754252 0.744820238135552
-0.0550536562739515 -0.326916261273208 0.763228294532123
-0.0536717496801104 -0.32658875356679 0.771251424834207
-0.0511545710131127 -0.325992189793559 0.783138405598899
-0.0546089319071113 -0.326810862935851 0.793441992403705
-0.0609481020272367 -0.328313227188176 0.802547540275377
-0.0569617368834049 -0.327368470638767 0.814804626638116
-0.0537086845128868 -0.326597507011069 0.833515167491419
-0.0586381916070291 -0.32776578536604 0.836286964776232
-0.0578783884048152 -0.327585714292354 0.85461933729594
-0.0549751410027475 -0.326897653390081 0.853860086165119
-0.056247131493744 -0.328335929006006 0.872003847556387
-0.0514789900920643 -0.350792460989316 0.872003847556388
-0.0348106889208576 0.350064349882063 0.337485520484047
-0.0355456288261799 0.350284382027639 0.348303950779242
-0.0330465807169023 0.349536197157832 0.354441787648436
-0.0320300770794587 0.349231868226021 0.366117696783661
-0.0362326968891496 0.350490081920863 0.37908923843409
-0.0356874183810413 0.350326832110632 0.37901155191493
-0.0319724261155417 0.349214608222593 0.399495084062843
-0.0391096903132082 0.351351419060562 0.408260345628157
-0.0315857861791295 0.349098852887826 0.414140821037486
-0.0383028803868791 0.351109869897323 0.418279331189962
-0.0390721735776442 0.35134018700232 0.426851340111269
-0.0356751210345315 0.350323150433372 0.438154904823209
-0.0341224564098885 0.349858301367149 0.453202384055094
-0.0353102174816571 0.350213902709734 0.460413405851831
-0.0383210938394876 0.351115322785412 0.467164539499011
-0.0311293796855106 0.348962210287094 0.474594277409567
-0.0332467536518371 0.349596126520818 0.481709743804425
-0.039282039304339 0.351403018270282 0.49833614927838
-0.0352137776036052 0.350185029773139 0.502114879010295
-0.0388609355839386 0.351276944894162 0.504433257304792
-0.0314658922772177 0.349062958099302 0.513734217419641
-0.0392129564339828 0.351382335691915 0.530024942322846
-0.0397510019632212 0.351543420035489 0.542766168490627
-0.0388670042618733 0.351278761783158 0.545107991290128
-0.0318474799890222 0.349177200858942 0.551888432038227
-0.0343059365767274 0.349913233116653 0.563434910392483
-0.03708632540932 0.350745648006549 0.574766169679162
-0.0325963201418629 0.349401394571012 0.57595239015927
-0.0355990420408998 0.350300373300057 0.587546597750842
-0.0317297662007912 0.349141958770167 0.598052126430897
-0.036980267217382 0.350713895462757 0.603798973776309
-0.0378972946398828 0.350988442415321 0.615317664570541
-0.0362529481028362 0.350496144890047 0.626296200288966
-0.0368908277969559 0.350687118378763 0.628643135932988
-0.0389939456260856 0.351316766496914 0.641582828960936
-0.0367204279126837 0.350636102708133 0.652242805495849
-0.0310131377103951 0.348927408841418 0.661869455984408
-0.0335179292043449 0.349677313211341 0.665881200165058
-0.0324661164491741 0.349362413155448 0.674731827322584
-0.0312600999537649 0.349001346359153 0.685785206291382
-0.0380701160866874 0.351040183072572 0.694408690129443
-0.0378426746129699 0.350972089837885 0.707564495978724
-0.0331399815836742 0.349564160251092 0.705120870764846
-0.0353252003486232 0.350218388399437 0.725705670699623
-0.0362229905094507 0.350487175947823 0.730559554091398
-0.0338919164454411 0.349789280481698 0.738742796393783
-0.0357261417127083 0.350338425409198 0.752977228920772
-0.0375604651857295 0.350887599738316 0.759107080522157
-0.031898718244011 0.349192540974643 0.759557689066907
-0.0390998364238189 0.3513484689249 0.775779418388882
-0.0308798766229527 0.34888751207873 0.788398009535711
-0.0361638723076465 0.350469476671064 0.790195267011968
-0.0331398116431461 0.349564109372948 0.802372315518051
-0.0363083559244511 0.350512733323717 0.815359568539929
-0.0376355705540017 0.350910085379939 0.821596691015504
-0.0329986298596704 0.349521841249379 0.819917211515696
-0.0346579362915889 0.350018617586787 0.843504214122705
-0.034824122817622 0.350068371828765 0.847437444584592
-0.0309988388603458 0.348923127938131 0.856795366742454
-0.0318231848763783 0.349169927195173 0.857224083886043
-0.035902501690814 0.344810407764367 0.872003847556387
-0.0395183838562157 0.332505398605808 0.872003847556387
-0.0388378553477225 0.332500296288373 0.872003847556387
-0.0398904701535921 -0.323322631768575 0.365277743663921
-0.0412582098793604 -0.32364678196987 0.367402783930286
-0.038840980855365 -0.323073905961415 0.383871868066002
-0.0409889766233065 -0.323582974497951 0.392655209705168
-0.0449717066783826 -0.324526869542258 0.409642899443159
-0.0442184540640975 -0.324348350938208 0.420373826963091
-0.0407882603966614 -0.323535405355924 0.429238384927681
-0.0412647136927203 -0.323648323354075 0.443386423686012
-0.0405959539787656 -0.323489829313277 0.452780313764545
-0.0459855676932145 -0.32476715155341 0.454656512426856
-0.0464674179235273 -0.324881348608747 0.479611686833352
-0.0495145192088344 -0.325603502448683 0.486053186778838
-0.0426179248707684 -0.323969030333256 0.497699531788842
-0.0448841679731138 -0.324506123132396 0.506518065183707
-0.0422379233723489 -0.323878971121051 0.51968452761524
-0.0452488925874263 -0.324592561769016 0.533852578067403
-0.0494688527707492 -0.325592679640206 0.534916775811312
-0.0466656164525327 -0.324928321064005 0.54671769765883
-0.0492139716376247 -0.325532273578255 0.569720505095489
-0.0467961261180942 -0.324959251462214 0.57748926833934
-0.0396949195908694 -0.323276286873362 0.585572138902557
-0.0397065932151833 -0.323279053487214 0.599826211483913
-0.0449466905942342 -0.324520940805554 0.611671430718303
-0.0452104673482127 -0.324583455102893 0.614794578946605
-0.0498953024318913 -0.325693746927277 0.635811835504726
-0.0418119169683456 -0.32377800888459 0.634893735022695
-0.0391738783175053 -0.323152801658696 0.651856728489729
-0.0427679606822395 -0.324004588369316 0.662611380365229
-0.0398339152168639 -0.323309228418669 0.666053041693665
-0.0487386020557847 -0.325419612417115 0.688064871313353
-0.0481835553451226 -0.325288068016087 0.68703681585507
-0.0414531432249646 -0.323692980586482 0.702958751029935
-0.0388888208351813 -0.323085243892745 0.714958607358075
-0.0415902056557016 -0.323725463970328 0.725961896379939
-0.048124471607646 -0.325274065348009 0.737563434215153
-0.0490307434152407 -0.32548884904064 0.751267393320214
-0.0453446898812843 -0.324615265439533 0.761436954406901
-0.0480465457845446 -0.325255597162309 0.775509427031955
-0.0464465725979881 -0.32487640832929 0.783768421363503
-0.0494027294050386 -0.325577008601411 0.793649118382187
-0.0465135830473186 -0.324892289604236 0.805716975526772
-0.0485752821492799 -0.325380906090486 0.820079521167695
-0.0493330284963484 -0.325560489695688 0.829814014740613
-0.0462218035377553 -0.324823138738047 0.836388989328061
-0.0391431181806817 -0.323145511598785 0.854470361328051
-0.0399294672138991 -0.323331873954578 0.866604308938069
-0.0474130592816885 -0.325105462766453 0.87052728589212
-0.0427701576107685 -0.335406890216961 0.872003847556387
-0.022882284862065 0.346493129542365 0.338220038903691
-0.0249348066347775 0.347107629811324 0.352250666772381
-0.0244889572495122 0.346974147881533 0.349397281996805
-0.0246533234039214 0.347023357126197 0.361828040553114
-0.030347934251075 0.348728254946877 0.379046555664582
-0.0274977368941185 0.347874940226555 0.388262051729942
-0.0258627317945355 0.347385439415016 0.391583610654708
-0.0220744425162844 0.346251271285192 0.398627691391336
-0.0231429771457104 0.3465711776686 0.409180956208281
-0.029866124123813 0.348584006804554 0.423818542973355
-0.0240614853548162 0.346846167950818 0.427286755491343
-0.0294841137734629 0.34846963751203 0.442365325053304
-0.0226991037587563 0.346438287328875 0.444349701871176
-0.0306542664531351 0.348819967114348 0.45402502613376
-0.0238010488569467 0.34676819640376 0.461118732433459
-0.0245358777589441 0.346988195316278 0.470942568834373
-0.0245371492222228 0.346988575977052 0.477047278952008
-0.0284104547961588 0.348148196960658 0.490511300951468
-0.0306014247743372 0.348804146952893 0.501201189812541
-0.026745112078024 0.347649613431943 0.499460820448028
-0.0259443461161085 0.34740987375877 0.510310326363502
-0.0280449614174321 0.348038772650273 0.520427452107441
-0.0281552832182385 0.348071801667148 0.541387894342737
-0.0221173301451333 0.34626411132412 0.540303662747762
-0.0262394052544252 0.34749821090689 0.547005501907864
-0.0221065211258902 0.346260875234096 0.553815447958668
-0.0295340037547328 0.348484573970837 0.568230951560578
-0.0230846384947707 0.346553711779969 0.574410681082794
-0.0260503506602319 0.347441610241053 0.585104065843164
-0.0281350998833496 0.348065759020058 0.602820146354489
-0.0235447910705971 0.346691475912544 0.602154441537369
-0.0259434101693118 0.347409593547585 0.611168262949219
-0.0310293368047113 0.348932258654923 0.617090225169243
-0.0257109262397724 0.347339990662427 0.63219293077822
-0.0235513575834729 0.346693441847318 0.641456750705408
-0.0234259056900326 0.346655883063151 0.643691741775699
-0.0229008428688975 0.346498685585833 0.653658020607577
-0.0252509975215003 0.347202293550105 0.662580331605122
-0.0235199566871199 0.346684040797589 0.671804626489662
-0.0259810150092552 0.347420851983216 0.677790165437276
-0.0301966032195775 0.348682948260832 0.692374474031285
-0.0228788662595492 0.346492106053994 0.700905988476006
-0.0251890482040817 0.347183746671469 0.708753968322715
-0.0280993059784374 0.348055042756538 0.720851266672808
-0.0227748183339903 0.346460955359716 0.729467580328334
-0.0259198592777056 0.34740254269462 0.735704696131342
-0.026543973944324 0.347589395100084 0.745144173124474
-0.0238415547527854 0.346780323380544 0.754483268652401
-0.0267737729940924 0.347658194164614 0.763827807822374
-0.0289413151753737 0.348307130156956 0.775309927473347
-0.0296751193704325 0.348526822284573 0.782874354104752
-0.0274396054930881 0.347857536386048 0.793653686060807
-0.0224780042597484 0.346372092804942 0.791595478352323
-0.0250499036958196 0.347142088483533 0.803513131720414
-0.0305234074309676 0.34878078950104 0.816001826958127
-0.0272399163488498 0.347797751864162 0.824562599748153
-0.0234061169227455 0.346649958544842 0.834867107038423
-0.0297728793095645 0.348556090431536 0.842607570952362
-0.0279749175418547 0.34801780235853 0.851475154172576
-0.0247863613594142 0.347063187085869 0.862192222484766
-0.0279269885353851 0.348003452991933 0.869507032414709
-0.0258609687248505 0.334996458915891 0.872003847556387
-0.0285397940718525 0.32757232802235 0.872003847556387
-0.0227211394055216 0.32017897344728 0.872003847556387
-0.0325054379106003 -0.321572401338742 0.370503425798058
-0.0332428128920352 -0.32174715699156 0.386280665925788
-0.0324913753438169 -0.32156906855271 0.399139821238283
-0.0330880043261588 -0.321710467827061 0.415261415295016
-0.0365254908450303 -0.322525141793201 0.415792191210319
-0.0282677084347447 -0.320568072198665 0.435183883892604
-0.0281228733452502 -0.320533746718071 0.444858611605492
-0.0308983352498626 -0.321191522841785 0.449532887938826
-0.0340958127082358 -0.321949315382456 0.464413471081965
-0.0333086145308381 -0.321762751782046 0.479148090914308
-0.0351403114417331 -0.322196858440785 0.478793532523987
-0.0317659248035404 -0.321397138956583 0.492142439243995
-0.0377654163298888 -0.322819000403823 0.507777612146873
-0.0333656455745863 -0.321776267967884 0.521302975733041
-0.0377024878772275 -0.32280408654981 0.527146195452207
-0.0383667928731889 -0.322961524835841 0.537463983417556
-0.0316859224739258 -0.321378178645084 0.549024562240895
-0.0387880016370023 -0.323061350046007 0.57161919778907
-0.0368032265841217 -0.322590964328027 0.56721520343871
-0.0327697795828553 -0.321635049520013 0.589934841741318
-0.03231352336894 -0.321526918169584 0.595138046796438
-0.0309969582182551 -0.321214896188669 0.609312947448212
-0.0318643373251651 -0.321420462428214 0.623644060034694
-0.0349010089482126 -0.322140144469564 0.62837743541948
-0.0278555017642472 -0.32047038045754 0.641583237058863
-0.0388733544434642 -0.323081578404426 0.652176917338319
-0.0314286104720955 -0.32131719647456 0.659850348481756
-0.0304431917394721 -0.321083655198745 0.67250863176951
-0.0314468864589664 -0.321321527828481 0.685510656470892
-0.0386880523540042 -0.323037662366552 0.694459134858572
-0.029248487296053 -0.320800513838934 0.710765028773854
-0.030688997291974 -0.321141910375386 0.72374115207867
-0.0301374231621869 -0.32101118896558 0.734311572864676
-0.0281561322199479 -0.320541628971343 0.741173544891752
-0.036550759036365 -0.322531130278549 0.757469665749693
-0.0295070360868275 -0.320861789124718 0.762778225460986
-0.0331010099767323 -0.32171355012713 0.780644511099828
-0.0293877806520215 -0.32083352594535 0.783657088609066
-0.0296535136319523 -0.320896503862356 0.796899618978984
-0.0329816935831711 -0.32168527250072 0.808395066956209
-0.0339243732581665 -0.321908684748423 0.818401968960201
-0.0330058270261981 -0.321690992054133 0.825488427626803
-0.029955311401022 -0.320968029025917 0.842503443593484
-0.0277245379979245 -0.320439342438817 0.856251816686785
-0.0328788145494133 -0.321660890479146 0.861430147879085
-0.0322556391836408 -0.32478304496617 0.872003847556387
-0.0343331844194459 -0.339726002720395 0.872003847556387
-0.0145547373656397 0.343999962237463 0.333068175960532
-0.0192077005100579 0.345393003296377 0.349650298317788
-0.0191272244045093 0.345368909720776 0.348143103318238
-0.0141254225275799 0.343871430551728 0.364706951645169
-0.0155471692798269 0.344297084385593 0.370455356849154
-0.0169093615525263 0.344704908326404 0.379402891191001
-0.0157056053984594 0.344344518249051 0.391642248240057
-0.0174135390419695 0.344855852987253 0.397207876286814
-0.0163089354595916 0.344525147994259 0.403214525756063
-0.0144069789432473 0.343955725147505 0.414614463281306
-0.0132595470677576 0.343612197879987 0.422632366025495
-0.0208039480559032 0.345870900563675 0.438753673375486
-0.0167602519116926 0.344660266697938 0.439577004456944
-0.0159269861648894 0.34441079698106 0.448417283155909
-0.017692037725643 0.344939232134942 0.457335104105333
-0.0138765079629042 0.343796908532534 0.468302721736884
-0.0205262014233889 0.345787746571035 0.477458282843706
-0.0209503157094662 0.345914721274216 0.492711445073929
-0.0145338233407641 0.343993700830602 0.498715346202238
-0.0148710168479246 0.344094652500687 0.50376651979598
-0.0150496319056717 0.344148127695194 0.514685509507131
-0.015275814058449 0.344215843904378 0.521724124205077
-0.0182478093083669 0.345105623445185 0.538200514778065
-0.0144017383123239 0.343954156165799 0.537413584732704
-0.0190237521121024 0.345337931364122 0.549204161737248
-0.0185057427611322 0.34518284561072 0.552243483430571
-0.0172506953854077 0.344807099560086 0.566138756212302
-0.0136956276962481 0.343742755161794 0.575297540660794
-0.0217799548687289 0.346163105234515 0.584536141624431
-0.01760554307219 0.344913336678671 0.589380037433467
-0.0133952709033271 0.343652831959766 0.594369004192677
-0.0186191006864058 0.345216783606651 0.608578513708897
-0.017913447008166 0.345005519404324 0.62425519305293
-0.0180694229316813 0.34505221671503 0.628182461030424
-0.0147441251977805 0.344056662670723 0.636613415739835
-0.0207009963232625 0.345840078056338 0.647392867410214
-0.0213939246480385 0.346047532441284 0.655830715278677
-0.0163050528345308 0.344523985583134 0.661235052459698
-0.015931839651934 0.344412250056556 0.669795703978883
-0.0151905959671587 0.344190330635426 0.685529350716208
-0.0220695689267667 0.346249812191257 0.69223493783032
-0.015013638467456 0.34413735169381 0.699264476713237
-0.0205067877610663 0.345781934354629 0.714398333875948
-0.019565482960723 0.345500119047881 0.713742820776822
-0.0213477161730538 0.346033698181066 0.722098094917593
-0.0188386484187998 0.345282513550372 0.734495841292638
-0.0209814023074547 0.345924028226804 0.744585604852303
-0.0219818835233985 0.346223560238819 0.753388355779707
-0.0150173888887798 0.34413847452473 0.759919273894791
-0.0145353741653414 0.34399416512878 0.769802548759426
-0.0164756071127203 0.34457504747744 0.775121409330948
-0.021150239382938 0.345974576011326 0.788181900724215
-0.0211469903357003 0.345973603285761 0.792701455862362
-0.0178034025137185 0.344972573409629 0.805011167395054
-0.0183154687989275 0.345125879880805 0.813517145722324
-0.0182668278794707 0.345111317376043 0.821787930825044
-0.0141446850557147 0.343877197520379 0.836576576547089
-0.0191808931685538 0.34538497750158 0.847948495605008
-0.0169119072899176 0.344705670489482 0.844861381810994
-0.0200639066338091 0.345649341085493 0.862463680317428
-0.0190330663847941 0.345340719945053 0.8641599186417
-0.0181263121233255 0.335381545512268 0.872003847556387
-0.0203616566950968 0.326909009546329 0.872003847556387
-0.0148527877956857 0.316617720578151 0.872003847556387
-0.0201156670529489 -0.318636062909848 0.381336080524982
-0.021849854096353 -0.319047060023268 0.386321041912516
-0.0222661216405411 -0.319145714179244 0.405340478711485
-0.0216147234619033 -0.318991334770099 0.41491198096154
-0.0170995692715204 -0.317921256807083 0.423253845411611
-0.0178641729124485 -0.318102465570305 0.433452582561442
-0.0247592363361522 -0.319736574863633 0.44211190807588
-0.0272844328038415 -0.320335038831512 0.459375139542032
-0.0187277305636285 -0.318307126136337 0.471067713808741
-0.0271616214735088 -0.3203059329156 0.481982040531842
-0.0245541601206269 -0.319687972417355 0.487431393498104
-0.02645073867497 -0.320137455830448 0.505444930668937
-0.0255744705182675 -0.319929782912837 0.508130920927238
-0.0214821209195572 -0.318959908366389 0.520473586731775
-0.0233583778864247 -0.31940457562437 0.532791309144518
-0.022929138255296 -0.319302847122805 0.545888229449043
-0.0252566171263015 -0.31985445261494 0.55583954098933
-0.0226614257737432 -0.319239400069868 0.561384623210257
-0.0272546729679229 -0.320327985839907 0.57882882534148
-0.0235053525514632 -0.319439408177932 0.585249184433285
-0.0207653777375026 -0.31879004238797 0.597557515381001
-0.0182118426424909 -0.318184862250649 0.616704648952879
-0.0172666641499353 -0.317960857790699 0.626318565770646
-0.0257127554577882 -0.319962556027588 0.632302385661467
-0.0193055922587034 -0.318444077620051 0.637122298310848
-0.0273839573515846 -0.32035862584999 0.654786118157043
-0.0274582455342059 -0.320376231925837 0.665615316260506
-0.0224186478402963 -0.319181862429837 0.673241463853822
-0.0240635058713742 -0.31957168883601 0.680411904910065
-0.0267204309431813 -0.320201372086869 0.705837684481367
-0.0246473733662466 -0.319710063676213 0.707217053442732
-0.0275000220154209 -0.320386132826235 0.723461923835839
-0.0203671791600373 -0.318695670522762 0.731125932858816
-0.0276429136608932 -0.32041999771644 0.743340220605754
-0.0167873333093347 -0.317847257823148 0.754492939866129
-0.0220502809124514 -0.319094560575866 0.764333120736056
-0.0193211760324665 -0.318447770927562 0.784753567242891
-0.0217265337152512 -0.319017833463855 0.790749614050398
-0.0275698063501509 -0.320402671503678 0.80019004511154
-0.022513158411055 -0.319204261150851 0.81390413525788
-0.0209642276375076 -0.318837169216196 0.82151372160037
-0.0175996773651539 -0.318039780921112 0.827986082438095
-0.0266461584007682 -0.320183769717704 0.842339216913127
-0.0211408347619027 -0.318879024573501 0.851811749441229
-0.01992192056966 -0.318590145576034 0.864963348547949
-0.0226141923975949 -0.322811114304659 0.872003847556387
-0.0205395963232903 -0.346519918023269 0.872003847556387
-0.00575509375192211 0.341365455047691 0.330711237554735
-0.0101749609368914 0.342688709987072 0.345303439524157
-0.00634320057092844 0.34154152713777 0.357168640550269
-0.00651940658748487 0.341594281094394 0.355841838557769
-0.00594712361551567 0.341422946473309 0.366845134821105
-0.0108043450913214 0.342877140013646 0.379030100508906
-0.00518296906293469 0.341194167814622 0.388082806556913
-0.0100547080899852 0.342652707734745 0.395643446060524
-0.00633970568898811 0.34154048081226 0.402093255381267
-0.00748205053896918 0.341882485085681 0.408406216958629
-0.00937347355855753 0.342448754330521 0.419923340643265
-0.00969413679180791 0.342544757035924 0.434560571432226
-0.00534001545743293 0.341241185611432 0.439729520528433
-0.0114218499358652 0.343062013518083 0.451206816761228
-0.0133150907607134 0.343628826991899 0.455404228402649
-0.0113988022947604 0.34305511333225 0.464609428523032
-0.0117827051735848 0.343170049224979 0.472586193991193
-0.0109522779077066 0.342921429315062 0.483683183439377
-0.00482635145426706 0.341087400802766 0.497771034903927
-0.0131013786710897 0.343564844169256 0.497105025663935
-0.00567701088120503 0.34134207797774 0.511231040680335
-0.0125869944965091 0.343410843749952 0.526369537813527
-0.00704962022559415 0.341753020664203 0.533162212077819
-0.0117227599405115 0.34315210234503 0.541656216163952
-0.0118403457209356 0.343187306109813 0.541201709181261
-0.00544581086846176 0.341272859481788 0.557121857983802
-0.00802855798124359 0.342046102823983 0.555754304905392
-0.0059327621170531 0.341418646813843 0.57414217853102
-0.00950581033582463 0.342488374365887 0.58112163357073
-0.0115064551205219 0.34308734329018 0.585210849255573
-0.0127306804286421 0.343453861585434 0.601705411583453
-0.0125012767970365 0.343385180904334 0.608240823280442
-0.00712722514088057 0.341776254640062 0.619479605824165
-0.00841671467978136 0.34216231225904 0.626995392571648
-0.00640642516082413 0.341560455817608 0.633481339983002
-0.0117047188573104 0.343146701062264 0.641544103925614
-0.00839885984421847 0.34215696673657 0.647461197679848
-0.0124319534142716 0.343364426319453 0.66547964213893
-0.0133171394261409 0.343629440337625 0.676649791460978
-0.0078088611312746 0.341980328236258 0.674354731780586
-0.0124720000426152 0.343376415797087 0.684584400369451
-0.0124971483568872 0.343383944899135 0.698180340160644
-0.00962194416641473 0.342523143434397 0.707607340613802
-0.00539411256175442 0.341257381632151 0.707316199486848
-0.00944537331578426 0.342470280250851 0.720381128274773
-0.00768912643330957 0.341944481111476 0.728908298493862
-0.00589872764498164 0.341408457303301 0.740202813383525
-0.0130721636065324 0.34355609753121 0.74408173363765
-0.010446524032642 0.342770012703367 0.75824979327875
-0.00708724216488156 0.341764284219172 0.764667224551636
-0.00957481520283169 0.342509033590992 0.775663679858687
-0.00980617327196302 0.34257829940712 0.785841905876521
-0.0108330239064364 0.342885726105075 0.792950677579147
-0.0097128313735012 0.342550353968259 0.809436830737934
-0.0113647217220571 0.343044910019734 0.813292554937878
-0.00788215503051444 0.342002271545896 0.824979313534204
-0.00987005598974932 0.342597425122513 0.822132070423645
-0.00704950215445271 0.341752985315127 0.838619875585585
-0.0131008831752492 0.343564695823776 0.85088024594362
-0.0102597275325991 0.342714088083691 0.85416387813509
-0.00836051783834798 0.342145487602349 0.86375292837083
-0.0121141220563605 0.339397729624434 0.872003847556387
-0.00897168153267397 0.327099608378336 0.872003847556387
-0.00497985634734479 0.315776730513998 0.872003847556387
-0.00843971992782899 0.313424604207495 0.872200485508463
-0.0102134332517591 -0.315132562687883 0.395247361274006
-0.0135548848808255 -0.316934227324047 0.39972917911419
-0.0131288816396816 -0.316704532251466 0.414380724527244
-0.0136769436072031 -0.317000039705987 0.420679937840708
-0.0138156311154137 -0.317074818097764 0.438031838822558
-0.0110321018723146 -0.315573977517761 0.451895388398447
-0.0144793049234556 -0.317300262037488 0.463979978504538
-0.00951061314264411 -0.314753611777697 0.465477783408994
-0.0139633809014255 -0.317154482744753 0.48125420390473
-0.0125996287057847 -0.31641916636848 0.491515445629881
-0.0114415575292844 -0.315794750361164 0.497338088462557
-0.00690687302607817 -0.313349711015235 0.518387073014796
-0.00543236792005189 -0.312554678197085 0.527255519681562
-0.0164415670484917 -0.31776531225928 0.535794709005747
-0.0110035631313159 -0.315558589822195 0.553404834598159
-0.015006365348177 -0.317425173772921 0.558635999666556
-0.011187331761913 -0.315657675333445 0.563205796490866
-0.00649257873243194 -0.313126329245668 0.576238928380694
-0.0162137815912526 -0.317711327791018 0.59709571641606
-0.00803820781484902 -0.313959711131011 0.604681569340784
-0.00751317129927772 -0.313676618682636 0.611148473372771
-0.00673430209385558 -0.31325666314852 0.62490796369127
-0.0125203597215499 -0.316376425625385 0.638352968159154
-0.0115132392064432 -0.31583340013292 0.647319562486028
-0.0153323486243098 -0.317502430828914 0.655394279046903
-0.0146843038886876 -0.317348846175677 0.663822777889898
-0.00609742452301084 -0.312913267545551 0.675474229486807
-0.015284684866691 -0.317491134661716 0.691010060504179
-0.0147880678337039 -0.317373437918558 0.699594925986667
-0.00965674578775211 -0.314832404484612 0.706851690632687
-0.0139049200323088 -0.317122961450363 0.714333638075101
-0.0151033129379922 -0.317448150060121 0.727654093844066
-0.0089219615910912 -0.314436218979241 0.742928161285184
-0.0146645893875036 -0.317344173898192 0.760280964717314
-0.0163066649549437 -0.31773334086885 0.767089579355771
-0.00736935615591099 -0.313599075540699 0.777063990654159
-0.0124379908975941 -0.316332013491464 0.791051584970184
-0.0102366290053817 -0.315145069518342 0.799255527721442
-0.0119911918566033 -0.316091105610402 0.812871487464318
-0.00556675356104695 -0.312627137081386 0.821759342258316
-0.0128454264529418 -0.31655169712393 0.831568246387291
-0.0144526702322932 -0.31729394969579 0.837378973896217
-0.00680022915229899 -0.313292210109228 0.855235689927212
-0.0165606613842586 -0.31779353725866 0.860542465151471
-0.0163038432137689 -0.335346615565418 0.872003847556387
-0.00221691571598499 0.340306167207914 0.326949209733246
-0.000992220230228825 0.339939508147146 0.343819332129963
0.00214261219728097 0.339000977118896 0.352141839090574
0.000915570848416403 0.339368338502793 0.350665526041397
0.00107878254527704 0.339319474888799 0.369794459086527
-0.00205178066853952 0.340256727765947 0.375940136434444
-0.00167750355859307 0.34014467371235 0.380260173297821
-0.00205367135951229 0.340257293816026 0.395327816457132
0.00145026264658254 0.339208258225862 0.401724352950826
0.00447524268928864 0.338302615676997 0.404598375379149
0.0022172912358868 0.338978619115235 0.423215582006724
0.0023121511267106 0.338950219207766 0.426874313377002
-0.00282406891778709 0.340487941555338 0.436262652736277
0.0021707183859658 0.338992562464915 0.446864667979039
-0.00237313620661482 0.340352937739066 0.451822573041967
-0.000677207290505132 0.339845197071493 0.46658947248688
0.000190135492579064 0.33958552510086 0.471138375809727
0.00112540697930933 0.339305516095457 0.479948333584646
-0.000698412227592371 0.339851545573962 0.486608983240949
-0.00113101756076475 0.339981062394257 0.502295469224451
-0.0030919982508749 0.340568156366909 0.511347581592978
-0.0021423430923039 0.340283841063599 0.519093203194368
-0.00150164799980728 0.340092024678558 0.533419454636063
-0.00200918846054012 0.340243976172458 0.53141846837464
-0.00388461844831613 0.340805457296422 0.542785768374491
0.00416353009795132 0.33839593866814 0.552022195116574
0.00192945125897554 0.339064794933481 0.556704723944893
-0.00303586851048886 0.340551351799464 0.574848634905202
0.00300042464998422 0.338744158414262 0.574508185092785
-0.00334911381723679 0.340645133667118 0.584688535164693
0.00290541296359816 0.338772603767493 0.59764667658893
0.00450401505751964 0.338294001576893 0.604364151513865
-0.00404533922809312 0.340853575159879 0.62270564903959
0.000298591643220698 0.339553054637149 0.621143584225587
0.00130608981655701 0.339251421832702 0.628336981821069
0.000571290485936352 0.339471411891906 0.633911341831695
-0.0028273424258806 0.340488921604189 0.653706604355909
-0.000239682035590295 0.339714207285954 0.659626388084727
0.000940991136756505 0.339360727974988 0.661209675242878
0.00239534779767997 0.338925311127682 0.677197522566083
0.00337579136663676 0.338631778145556 0.680731467460497
-0.00255562908776238 0.340407573907139 0.695548006719844
0.00129911051613888 0.339253511351089 0.710937943037047
-0.00238678649238389 0.340357024470027 0.717220829457784
0.00053087276943747 0.33948351246886 0.720834928445935
0.00284050982586657 0.338792034984312 0.729011457566996
-0.00298831970775064 0.340537116261278 0.738388860243342
0.0010472688848988 0.339328909698716 0.749138455132191
-0.00363164577041025 0.340729720327062 0.756744398785442
-0.00171047853157921 0.340154546021642 0.761870452234689
0.00392808888344555 0.338466426928757 0.777431453150055
0.00122939985231623 0.33927438188325 0.784185617987839
0.000636473891024034 0.33945189676642 0.793531009251373
0.00283709137585112 0.338793058427026 0.796419792719691
-0.0044329488150569 0.340969620796328 0.814805182852548
0.000780608653850375 0.33940874455644 0.819361294425017
-0.000602536343956035 0.339822841490495 0.829236889112614
-0.00387561673515082 0.340802762292045 0.841712379523737
-0.00118138171887567 0.339996140815893 0.845314483724869
-0.000741773961534391 0.339864527554239 0.855662220475768
0.000465113811796094 0.33950319990784 0.870099693817166
-0.00222280389749926 0.33931102792899 0.872003847556387
-0.00171222671328082 0.325412223941312 0.872003847556387
-9.27132945110624e-005 0.316424683474058 0.872003847556387
-0.00272611483956522 -0.311095503858241 0.385894344675151
0.0037706206071544 -0.307592553702373 0.390911559188452
0.000160411111548099 -0.309539128873713 0.405068568824891
0.00487983895161002 -0.306994478468362 0.423311013005767
-0.00405438645901235 -0.311811689597146 0.425099180845372
0.00238689029370472 -0.308338642004249 0.443902327746382
0.000292611940517499 -0.309467848009925 0.452338771803808
0.00538371167171338 -0.306722797246632 0.465552835722999
0.00400914089389008 -0.307463946853218 0.483028003073831
-0.00276679164447316 -0.31111743623047 0.482346857779616
-0.000642631606890262 -0.309972118432669 0.495517743992112
0.00106385286236 -0.309052005541114 0.511717155369488
0.000230590924524399 -0.309501288886412 0.521401738668087
0.000152325497105171 -0.309543488525512 0.529170214450381
-0.00428159011366606 -0.311934194674352 0.541239307909169
0.00546123184711163 -0.306680999437144 0.548577222187319
0.00321279361974845 -0.307893326320946 0.557748840221608
-0.00544980747678623 -0.312564081365565 0.573705901393302
0.00549434361737968 -0.306663146027263 0.582603368926482
0.00536886447224039 -0.306730802651829 0.591378284785318
-0.000876767976325499 -0.310098361534074 0.608238881867616
0.00187516297355303 -0.308614558318002 0.618788204830635
-0.00334500738849518 -0.311429202185427 0.625429073754288
0.00287735478183493 -0.308074190316285 0.638392624217471
-0.00364499052335584 -0.311590948954652 0.645997968639557
-0.00140419089922295 -0.310382740700368 0.662224798679594
0.00213357193001259 -0.308475227772417 0.673922133433432
-0.00443982177729682 -0.312019511005195 0.682820884004415
0.00275786268589615 -0.308138618806489 0.690846155523653
-0.00142695397095346 -0.310395014234718 0.705913725533222
0.00375667667155783 -0.307600072080144 0.717136468674637
-0.00396294021356212 -0.311762383042741 0.723716027355061
-0.00497974819104914 -0.312310631881322 0.740834200854315
-0.0028306502187783 -0.311151867893057 0.753488251756315
0.00466914764386715 -0.307108080315836 0.765894112992639
0.00169789208372978 -0.308710140337038 0.766242876912691
0.00167743402881625 -0.308721171038108 0.786056258444752
0.00251278402239213 -0.308270761841951 0.795661408799244
0.00140904872798067 -0.308865880690995 0.798607702274867
-0.00415539591458875 -0.311866152502563 0.808442962569907
-0.00264326553711834 -0.311050832656943 0.829288184371319
-0.00469183845983293 -0.312155394924836 0.833663119546237
-0.00226098994987206 -0.310844714932294 0.841369422567786
-0.00433287962518213 -0.311961849271623 0.855364884203802
-0.00303741850251213 -0.311263354500088 0.866931906675926
0.00180357485362116 -0.320891517237684 0.872003847556387
-0.00557448743868331 -0.340134186992484 0.872003847556387
0.00859312845420035 0.337069770333418 0.32584862764104
0.00684990644156517 0.33759166998382 0.341183547425003
0.00824725773174144 0.337173319857132 0.344135059283115
0.0124841725916022 0.335904838637807 0.352899616862553
0.0100137105240565 0.336644465191417 0.36509544921328
0.00651360140872886 0.337692355655406 0.376534070746807
0.0075908981462986 0.337369826002475 0.380098461013143
0.00642006471353421 0.33772035941406 0.395134890613839
0.00992981513507849 0.336669582459247 0.396666164756871
0.00902691101716394 0.336939901064719 0.411059288935929
0.00667460485627415 0.337644153164629 0.417519257589705
0.0065934207328169 0.337668458712254 0.425683780092872
0.0124027794626183 0.335929206759167 0.43465736711155
0.00631944636334086 0.337750483334828 0.44229358364388
0.0114649238582022 0.336209989418245 0.451806380269654
0.00905148269321536 0.336932544601201 0.453542618612086
0.00742444838243269 0.337419659054686 0.470923295904294
0.00980675980313413 0.3367064237418 0.474520874144648
0.00456086999030775 0.338276979895586 0.487177444416074
0.00629031689996875 0.337759204344912 0.501420794799574
0.00832415900447051 0.337150296543371 0.509652869042992
0.00626932555826944 0.337765488899498 0.516283424843457
0.00651420622982024 0.337692174579265 0.523669093906522
0.0129708532671063 0.335759132312071 0.529579097315543
0.00907622280142689 0.336925137711125 0.540357058719255
0.00554592437571515 0.337982066490613 0.543558828851747
0.0115928956371796 0.336171676210734 0.559605258240011
0.0113420709672113 0.336246770092419 0.563630606683698
0.00593411186566571 0.337865847836978 0.577383313764264
0.0115305160378372 0.336190351910588 0.587204706925596
0.00513259274376194 0.33810581299717 0.595364650624626
0.00688286329120869 0.337581803100438 0.601168224857512
0.00539052695246112 0.338028590605316 0.614575815128393
0.00910194225404191 0.336917437617143 0.621383931167978
