ply
format ascii 1.0
element vertex 867
property float x
property float y
property float z
end_header
0.300686893834253 -0.0396158458936729 0.197659751907554
0.305244783231097 -0.0336758887851032 0.19469083951216
0.308353139265668 -0.0279931479765021 0.203407261713552
0.301254787365649 -0.0388757526344854 0.223060605099245
0.312374475842392 -0.0182847826741078 0.219380174547964
0.31356953295863 -0.015399659576277 0.219411079965636
0.311073042211286 -0.0214267213968546 0.238208081180723
0.303652644740708 -0.0357508040628537 0.263941217761529
0.306502429947662 -0.0320368916740048 0.268086599776214
0.304376424931837 -0.0348075553534151 0.276885979098186
0.30831478063171 -0.0280857539108376 0.283636150261114
0.309436528005437 -0.0253776161876304 0.287501583507797
0.30949817468516 -0.0252287879373678 0.29607457267981
0.306884309649026 -0.0315392163578137 0.320421159157186
0.304236546476547 -0.0349898485054638 0.32802013084146
0.308454432898588 -0.027748603514126 0.335694210116425
0.302873828685441 -0.0367657769068542 0.358153395580241
0.303719246837673 -0.0356640065202056 0.367727268925156
0.310481124278085 -0.0228557376989993 0.366571339973657
0.312247243737672 -0.0185919481468924 0.365463136169768
0.306436456860692 -0.0321228694748687 0.388413713881481
0.303191647050321 -0.0363515879497873 0.404693300434565
0.306239207033289 -0.0323799304547286 0.410139124787061
0.306596141453112 -0.0319147644623756 0.416269316937994
0.306884309649026 -0.0315392163578137 0.422386778584731
0.312461115116992 -0.0180756169623345 0.427953950413053
0.304156844028682 -0.035093718757798 0.448651276379895
0.311560817156846 -0.020249128507896 0.451046824319528
0.312718699707543 -0.017453752750368 0.453822818029697
0.3047797067399 -0.0342819882687431 0.484927753445786
0.307803710550897 -0.0293195862312602 0.488201309016924
0.311890420366575 -0.0194533959687674 0.485097262574766
0.311456324510881 -0.0205013960709534 0.501652664065346
0.304260633339549 -0.0349584578944471 0.522487152318571
0.302242143818039 -0.0375890046536933 0.53012702460494
0.30528150466312 -0.0336280324831628 0.538899695417454
0.308372143940358 -0.0279472666331172 0.542355273730427
0.310171008355899 -0.0236044237642481 0.543566587852182
0.307378555306331 -0.0303460017888048 0.565757827376686
0.30074772130503 -0.0395365739903905 0.585105249701154
0.31295010606728 -0.0168950883782728 0.57692048872456
0.302324863825953 -0.0374812018405372 0.596435349235221
0.306624761140432 -0.031877466559697 0.599018280155614
0.313236693211606 -0.0162032058076381 0.602085657536115
0.311816464064407 -0.0196319422764838 0.612386917529122
0.301357672673947 -0.0387416698902193 0.644903377735396
0.30842276604886 -0.0278250540522164 0.641819241255139
0.300937695233774 -0.0392889951462737 0.662087173248351
0.305048113603061 -0.0339321936344268 0.665845890801869
0.306566294617967 -0.0319536616152353 0.678656247994281
0.31195911412408 -0.0192875545677477 0.673276037396035
0.30297965077567 -0.0366278668738612 0.698521062711336
0.307978325242869 -0.0288980290737109 0.701355716714424
0.301895978509603 -0.0380401360668434 0.71590947621908
0.303857162548118 -0.0354842712670397 0.721575976960926
0.311827968819023 -0.0196041673418583 0.724067174878169
0.311185592951242 -0.0211549998739954 0.739125610016549
0.302560535257386 -0.03717406885144 0.756756380774275
0.312755711195573 -0.0173643991140017 0.749352281491573
0.304011514963241 -0.0352831152832925 0.777231376454046
0.30624339708025 -0.032374469879216 0.779273876343458
0.301609317293669 -0.0384137202368586 0.797024854719948
0.308731945151233 -0.0270786296700656 0.797886436625635
0.310666999408457 -0.0224069954383465 0.803258095959101
0.310969387893279 -0.021676965057184 0.815501397455908
0.307711766693684 -0.0295415583383213 0.83430424736391
0.302041978617101 -0.0378498650223146 0.848642595739826
0.303370111270142 -0.035829533449347 0.859990357613004
0.311124943860188 -0.021301419732164 0.856489857487477
0.31106484430656 -0.018672060702269 0.863631979068818
0.304311477507752 -0.0192053005848209 0.870585841660337
0.306381656462668 -0.0106486896526384 0.871154817364307
0.311618117208397 0.0124179611121516 0.872128143781618
0.312301673143199 0.027212191858118 0.871609442772485
0.318422683216281 0.0361112819424198 0.872041611932705
0.317140320269799 0.0473390655622193 0.870102067076592
0.324408008601487 0.166096249953676 0.805519651468205
0.323817643769038 0.0832940186278005 0.868993309569213
0.324006168307068 0.169148530022669 0.820638544850864
0.32449454636128 0.165438930408819 0.835084166955975
0.325512025886091 0.157710406123627 0.855286532892661
0.330078786461753 0.148938833380563 0.867521784390067
0.323822059548689 0.175873166857341 0.862739463398076
0.328321348615593 0.184439506458033 0.870070341283023
0.325184926398746 0.193953669360037 0.868624805501105
0.336628270464948 0.210574249390393 0.871424337531063
0.327602043642536 0.22174993270733 0.871860277103384
0.329336233487877 0.235206882142721 0.872172906803945
0.318173265311208 -0.00428526649314643 0.0154815860256633
0.318321760866084 -0.00392676651061128 0.0288345546237047
0.317382199751288 -0.00619506769663058 0.0484728869065956
0.322572038465173 0.00633431131295873 0.0415082469922533
0.32466341727545 0.0113833464007897 0.0462720039927847
0.319434259581412 -0.00124095702394596 0.0751314126283534
0.31270949769175 -0.0174759683816954 0.105130828338597
0.319067309352399 -0.00212685324354345 0.0926555819018258
0.327379548108013 0.0179406662939416 0.0802733085368649
0.317245165342466 -0.00652589802492277 0.113549559142394
0.326999706380832 0.0170236472446276 0.107563922894449
0.316649253760762 -0.00796455584744543 0.136624272095233
0.321221552843753 0.00307395060993618 0.135333048285985
0.321647773655676 0.00410293867464813 0.145799042830558
0.313991168702042 -0.0143817408461492 0.172882943235639
0.314639971176563 -0.012815393112861 0.182965889637549
0.315073854586747 -0.0117679058995041 0.197465060587919
0.325136303151344 0.0125249938958264 0.183224652462063
0.323316138328086 0.00813072729376422 0.188038122334726
0.314009874498479 -0.014336581058697 0.226836636396866
0.321700479169011 0.00423018103975154 0.214051722404451
0.317121407589243 -0.00682467567120159 0.236070670784535
0.326741650327671 0.0164006448212321 0.224745210391228
0.321482091329853 0.0037029461566002 0.253883563329121
0.317627976346933 -0.00560171050611159 0.269874500460558
0.316252586338827 -0.00892219571723239 0.276027536654338
0.315502084047064 -0.0107340685286004 0.290699946927893
0.31737119109035 -0.00622164495517283 0.294951571001559
0.315101322168258 -0.0117015932916964 0.3074186082531
0.318763319452234 -0.00286074978334741 0.313822672557472
0.318211558406126 -0.0041928187840501 0.319004948475298
0.324643759603907 0.011335888583546 0.323407860659003
0.322955734143246 0.00726063462278563 0.335793474464101
0.314986146742527 -0.0119796513665476 0.357455790113919
0.317167981706252 -0.00671223580626335 0.35736236679835
0.325992709502438 0.0145925417235403 0.352640271513111
0.319830974321478 -0.000283202918084773 0.376116734380533
0.32182253318129 0.00452484549153725 0.382572355153836
0.320284715365791 0.000812224864902061 0.404294749058772
0.315555910422554 -0.0106041201628786 0.413996638821376
0.321673003945529 0.00416384998259252 0.409323500349217
0.321356542865236 0.00339984535058712 0.428831699400799
0.325757706418704 0.0140251940915902 0.427344699999022
0.320088086205123 0.000337520078458699 0.448352655539553
0.318038655377475 -0.00461024362079503 0.458763691837369
0.318218056139293 -0.00417713186851362 0.465823670157065
0.314557446983037 -0.0130146241400941 0.487124326234677
0.322683797903287 0.00660412246417603 0.487540077132272
0.327089518207817 0.0172404721753955 0.481106352393344
0.313421221580392 -0.0157577149170717 0.525203974019786
0.322393913750333 0.00590428021059854 0.517112186500072
0.3254527885671 0.0132890572788388 0.52123986754904
0.316202596104719 -0.00904288281840424 0.545841239808301
0.322261373583472 0.00558429994220351 0.544674278459405
0.318941184881356 -0.00243134465208339 0.569976941142972
0.316823761874143 -0.00754325599337729 0.578452100055039
0.322653840654835 0.00653179926867399 0.578370359026333
0.324884704176696 0.0119175802389528 0.586617967249512
0.319910557075334 -9.10731543951642e-005 0.600710929856163
0.32046229438449 0.00124093854023799 0.60724465060476
0.324049776812108 0.00990188727176771 0.607971106087876
0.313486972962425 -0.0155989770388236 0.6384198059878
0.321416184163073 0.00354383218070065 0.63640750674483
0.313415829391323 -0.0157707328130549 0.658487379428417
0.313832552390747 -0.0147646744960909 0.671053159342478
0.326252812600509 0.0152204861505191 0.656867065507315
0.326618568273527 0.0161034984568349 0.66957379897068
0.31903297512287 -0.00220974340612725 0.690262911773073
0.319464081860047 -0.00116895967440305 0.70212177319899
0.325542553233717 0.0135057683544073 0.700156652747544
0.31622793873031 -0.00898170030799591 0.720448696564065
0.326075946729591 0.014793494166228 0.720400515622975
0.315072393288034 -0.0117714337866763 0.744079253100903
0.314485729492215 -0.0131877654790955 0.762207458615408
0.316490293387147 -0.00834832013730819 0.766155238227804
0.325499131425571 0.013400938836277 0.760001149649017
0.316116159245841 -0.00925155985539477 0.787316503495234
0.323690786565726 0.00903520815019291 0.782170760476248
0.323913953670315 0.00957398120076771 0.794300760823152
0.315070187016112 -0.0117767601982731 0.815480372885764
0.32297465215344 0.00730630673957062 0.810532563062618
0.324233737119669 0.010346006741219 0.82029876072732
0.325277161868441 0.0128650569210221 0.835947152118992
0.321945705825853 0.00482221056055457 0.853600917754737
0.318527342416351 -0.00203492463803877 0.862347022657184
0.326740644930436 0.0165100317227654 0.858968095064315
0.324757492357873 0.0164574044059049 0.865563230881892
0.319982049754808 0.0184937506623593 0.87056456847668
0.324632736117753 0.0460906308403372 0.872296354665529
0.328087751017288 0.0482190298756482 0.8719269052059
0.325983949999437 0.0685897034374802 0.8713598472819
0.332311630579048 0.0878541802767419 0.872162723604407
0.33413811643702 0.0895200222866151 0.872164654485215
0.327200101973797 0.11598012936717 0.868293227949994
0.335324363839727 0.123231564099653 0.871946183198635
0.338210750583189 0.140296939278774 0.872030399652903
0.338057644055394 0.164983385967584 0.872286082862432
0.339950169964911 0.175976898195483 0.871846383366897
0.34420346359607 0.202784219087198 0.866506496853969
0.341267392882038 0.231215174631943 0.865454877915927
0.333537411657748 0.032807063990956 0.0248797115877476
0.333962180909222 0.0338325476787447 0.0270891132557648
0.338662375455498 0.045179821098154 0.0331593800240111
0.332707992903942 0.0308046699866293 0.0499131985986548
0.330790515588348 0.0261754702457807 0.065894093934296
0.327614773853096 0.0185085514779426 0.0789793106068015
0.331709133804449 0.0283932108017346 0.0799199069612941
0.339550691564764 0.0473244058968202 0.0767986764708147
0.337618214120582 0.0426589926420934 0.0830329170212933
0.338532192720423 0.0448655321735502 0.0954165883342076
0.32888663906651 0.021579105725675 0.130715881440689
0.339390754402186 0.0469382834297952 0.121510130907157
0.337620811274805 0.0426652627270439 0.127056480519774
0.332188375838076 0.0295502034189768 0.150756142106708
0.332067523478095 0.0292584400124646 0.155382117254835
0.327564709963752 0.0183876865573014 0.182220938749107
0.332137842727332 0.0294282056976686 0.186394720913428
0.33881016175928 0.0455366087970784 0.18444589261584
0.329393801952179 0.0228035052425893 0.208457330978058
0.33412559111169 0.0342270548057724 0.210003199511676
0.329753881858636 0.0236728150362964 0.233835240979215
0.328043660675303 0.0195439758608354 0.240893851693642
0.334833599496157 0.0359363382498255 0.240039392604923
0.334648437762357 0.0354893182808526 0.246281607564982
0.334281708774225 0.0346039561839897 0.258539266279842
0.339511852840558 0.0472306409220954 0.250433744873442
0.336739299693606 0.0405371055123245 0.282746406560547
0.334113081942286 0.0341968549993429 0.290332697272561
0.335527577996988 0.0376117505585272 0.290215826230234
0.337540452634576 0.0424712598079484 0.29947958913958
0.340720945920752 0.0501496498344717 0.301424655758547
0.329504767286867 0.0230713992585468 0.342154761130346
0.32929317685447 0.0225605747669856 0.346896785734212
0.34002670819397 0.0484736116989644 0.334164900699275
0.336285050923151 0.0394404519699992 0.350228412422726
0.334477647417324 0.0350769939135517 0.376965367937406
0.337833074797592 0.0431777122025522 0.370355757665919
0.334826953366703 0.0359202930739608 0.381857031088583
0.327161315998362 0.0174138073750788 0.41620811468531
0.326496239445764 0.0158081705417797 0.433895390215088
0.334885367321078 0.0360613168348438 0.417470646415922
0.340475187282823 0.049556335997712 0.413448699333326
0.326649684464256 0.016178619586502 0.456273204781299
0.334072087414286 0.0340978854538614 0.455989559332577
0.330216657785342 0.0247900549548903 0.462398562070547
0.340372954869654 0.0493095251193256 0.45867513603719
0.328324424188786 0.0202217989429075 0.492363059422438
0.329731343827301 0.023618403415379 0.502507212857459
0.34015990226377 0.0487951706287028 0.487288740208017
0.329768563736737 0.0237082602255303 0.519721068604129
0.326677936352984 0.01624682567943 0.545338832254978
0.332227319703889 0.0296442222279942 0.529348624442403
0.3294939767018 0.0230453484817331 0.552981008409635
0.340256528936584 0.0490284480526981 0.540691017351697
0.333273663465863 0.0321703195290563 0.561284752721557
0.330530783107964 0.0255484205690479 0.580776669861321
0.327053133286716 0.0171526312054074 0.598374730609472
0.337493045902278 0.0423568098318873 0.588080937744834
0.332727705408287 0.0308522601819682 0.602642166393621
0.328134305912891 0.0197628128227844 0.625781572583123
0.336416427863092 0.0397576239601883 0.613452148766825
0.335637713192393 0.0378776404409696 0.62854327036857
0.337985328890012 0.0435452860973994 0.638169316847745
0.331319021221761 0.0274513957137562 0.659409879186768
0.334720252222996 0.0356626937257028 0.661712547409408
0.339357739855636 0.0468585792637597 0.66221981735202
0.328160661125023 0.0198264399333537 0.693219537411096
0.337739097420713 0.0429508307447353 0.685678209902483
0.326241985388094 0.0151943469474643 0.726674056880541
0.326812807243669 0.0165724328128913 0.731392227013802
0.334644835629799 0.0354806219635768 0.720684268218567
0.334536220736555 0.0352184024152316 0.733537984614516
0.338212570445648 0.0440938957429502 0.735994596156619
0.33587768160449 0.0384569754359939 0.751760595487648
0.333420736946852 0.0325253863215248 0.771955268034587
0.335339332290394 0.0371572852206104 0.775518885509224
0.336323706239877 0.0395337741598984 0.78490621054592
0.333150674767596 0.0318733985456807 0.796447321414732
0.33056374930698 0.0256280080138144 0.812946167631148
0.337941501695932 0.0434394778910526 0.803912779835467
0.331010710004803 0.0267070665923443 0.835443122168283
0.336370903086929 0.0396477174281507 0.828253909535632
0.329459256355961 0.0229615261519176 0.857478022525994
0.335939106727722 0.0386052688015713 0.854941193095095
0.332350966539548 0.0315978908272817 0.862588963612443
0.338497192594826 0.0532252635351081 0.867322898738883
0.334490795671479 0.0520280405608056 0.870225596099797
0.34137231606397 0.074998141003394 0.867880111994669
0.343459242926443 0.0907700883794256 0.867866414315888
0.34664973682709 0.101834149992227 0.865606774575564
0.337617307349852 0.112494955878378 0.872104820594225
0.339959670311724 0.125233030857098 0.87201722381758
0.347255112856431 0.143439581444593 0.870443515256815
0.342100071277236 0.156254111612939 0.871905186323657
0.346563328468414 0.173123714762201 0.86842031405013
0.339946038443118 0.0482788576923823 0.0156728590772275
0.345026834911234 0.0747520635559625 0.0147996473022697
0.344698186575318 0.0722557316067871 0.0136292106758414
0.346125698340498 0.0830987599681199 0.0368325771483387
0.342284971176976 0.0539255408199431 0.0747516381041838
0.34173181049316 0.0525900927949013 0.0805199101139968
0.351715859326675 0.125560248269666 0.0589461227088847
0.341945375083775 0.0531056833260066 0.155521420810028
0.341628618222736 0.052340964616112 0.159464351191799
0.354221467518913 0.144592232000735 0.10330077997601
0.342142079784644 0.0535805704826272 0.241411094985477
0.353396713272981 0.13832760154521 0.184902953228302
0.347456042446379 0.0932037266817031 0.244848130640881
0.349920198573192 0.111920850716342 0.248519633327722
0.351597738872454 0.124663034343722 0.26404936808633
0.342284971176976 0.053925540819943 0.368883837772546
0.342284971176976 0.0539255408199431 0.38235222846909
0.342153594876811 0.053608370374309 0.40394772832007
0.354359477571876 0.145640522428124 0.340007861773145
0.346053399400474 0.0825495949970866 0.407423054484649
0.350833119769955 0.118855175651249 0.450678084843021
0.341874101284879 0.0529336131540689 0.50740781806489
0.350730458064358 0.118075382578738 0.480808687581971
0.3451899476929 0.0759910281381421 0.517152371057719
0.346777012988135 0.088045985881581 0.550120439329915
0.354359477571876 0.145640522428124 0.517750950450469
0.351264391668393 0.122131010947511 0.557081767201457
0.342239473173038 0.0538156989217737 0.622979812863584
0.341943797163056 0.0531018738884071 0.674048749537878
0.353662827276378 0.140348938080967 0.620402684990471
0.354064220076846 0.143397819095941 0.634584910103191
0.344588092152053 0.0714194814384868 0.70292266633927
0.354375724435168 0.145517115249453 0.668084690895639
0.341217885232847 0.0513493674614085 0.776931216145113
0.347095166062266 0.0904625984028889 0.839406448087921
0.354359477571876 0.145640522428124 0.812235039526214
0.345598088769682 0.0833293392667496 0.862393650083609
0.345315847762747 0.0908169380346367 0.865454877915927
0.349646809967771 0.126272881496045 0.865893936246033
0.313841821581021 0.304820177229955 0.010101711383219
0.310345178431789 0.314464984861124 0.0250978638379175
0.319411061527413 0.292578006936779 0.0560468527066213
0.314054292697674 0.305510390896031 0.0705218251272363
0.320821052534241 0.289173987525271 0.0943309246765821
0.312918245280005 0.308253051979267 0.0838434793755231
0.310568695987335 0.313925365747095 0.0902515291850502
0.32155949406535 0.287391231965847 0.119674418984266
0.312739814853656 0.308683821134498 0.114401628544414
0.313633943115102 0.306525204559215 0.119524982132379
0.318115940563226 0.295704705533433 0.143738717011118
0.315302385682353 0.302497227885318 0.149792684556583
0.310478227661883 0.314143775605366 0.152130459962322
0.315162840748888 0.302834119156249 0.180829872458178
0.312418171115003 0.309460337810606 0.175223273590103
0.310669891731524 0.31368105760902 0.18071649946294
0.316701773789165 0.299118806138829 0.211294164257183
0.312788922091325 0.308565265775309 0.210363945091676
0.310329689434839 0.314502378607627 0.223289272179607
0.307857556930746 0.320470634426993 0.222933110730027
0.314358222524681 0.304776639385662 0.244972310833644
0.317560961470298 0.297044543586414 0.263615369074529
0.311028545139105 0.312815191688246 0.261615753791138
0.317603693998209 0.296941378137977 0.279917122185902
0.315118622689897 0.302940870993967 0.284496136871221
0.307275182829532 0.321876609880519 0.281892378821694
0.316886242383154 0.298673459557388 0.315855228488665
0.310066851122789 0.315136926425289 0.311901104390865
0.311623525221386 0.311378782704263 0.336828223741586
0.31712658660562 0.298093217275872 0.350018233018999
0.308894052770053 0.317968312114395 0.339852413060634
0.316836415698636 0.29879375181492 0.378932784157427
0.317276708902746 0.297730789990136 0.396600584854514
0.31362004825438 0.306558749720418 0.40408448468456
0.311814708468485 0.310917225516216 0.407111504771121
0.319863522151823 0.291485670360887 0.424700683507125
0.31320022605589 0.307572290165799 0.432037952880292
0.311861128355372 0.310805157995732 0.445077870877277
0.31058563706009 0.313884466379489 0.452385155713742
0.311893212965333 0.31072769889522 0.46445506319111
0.313272723996955 0.307397264653235 0.472399874598649
0.312267001587863 0.309825293333247 0.472834544301322
0.319519675594962 0.292315789381837 0.506321823110977
0.31230397245714 0.309736037759225 0.507179738376901
0.317327139267001 0.297609040320797 0.523948657596148
0.31807912208003 0.29579359321491 0.53844406889461
0.319841414077796 0.291539043973042 0.550687338241843
0.312381426697132 0.309549046682574 0.557030924755494
0.314265903509609 0.304999517203914 0.564299154270594
0.316469043415283 0.299680666963829 0.57895489724542
0.308415782692603 0.31912295822185 0.576665817375457
0.313060334968483 0.30791001712627 0.593318066418185
0.312737560635039 0.308689263299657 0.604121392931094
0.313337387426024 0.307241153325786 0.613736263900988
0.312738584090197 0.308686792460335 0.622793377587027
0.31516840158173 0.302820694118185 0.640530580351912
0.308782684161486 0.318237179719618 0.634368638035553
0.308188649300038 0.31967130673865 0.644892166892804
0.313523128822804 0.306792733926585 0.66420299530523
0.307047826061012 0.322425497674575 0.658096930169164
0.307891667177148 0.320388285007512 0.673530974479678
0.307320156156133 0.321768034665491 0.689332437396052
0.309486982133853 0.316536854002779 0.692102371709839
0.319699487072894 0.291881686073143 0.721564059631058
0.310306863321997 0.314557485718826 0.723837434082533
0.314655917170284 0.304057940934802 0.736082307917401
0.309547901362335 0.316389781975169 0.737374956322371
0.318941740180152 0.293711048898447 0.760621319493421
0.311675763066534 0.311252669390036 0.751958367678752
0.312790277771606 0.308561992873587 0.775553764464499
0.315438720527653 0.302168086452769 0.788012275129208
0.319703465028235 0.29187208243941 0.801953669531022
0.321531012270966 0.28745999310013 0.822655148245318
0.316484210631742 0.299644050064151 0.832202783270356
0.318720591075705 0.294244950065711 0.838811053515456
0.315964010122814 0.300899925187959 0.854550052599942
0.318251085742043 0.291496854045141 0.864663659967827
0.312227521364683 0.299533627801433 0.868300152965163
0.296965236592097 0.333209790899229 0.864807735824127
0.289545018820861 0.331085447387925 0.871265868826279
0.275673992398518 0.363494338549349 0.858640272578006
0.269414681157443 0.360456025938707 0.87048929240812
0.264430418044204 0.377390909220487 0.862167771870629
0.322495042022312 0.285132619399899 0.0136292106758414
0.328008009237332 0.271823139180481 0.0474231806329308
0.331716721682261 0.262869515296992 0.0557326989230918
0.319099559441699 0.293330039496816 0.0390668637171268
0.325124712236836 0.278784033903427 0.0690516487840963
0.324748247840389 0.27969289935508 0.0691173343422576
0.327945227713478 0.271974707186834 0.0862822698057307
0.325752986455057 0.277267245764909 0.0909013429708108
0.322206020263796 0.285830379649131 0.096552817582726
0.335569332577431 0.253568489823325 0.131866485443774
0.327116965158149 0.273974309881115 0.125984345874448
0.333141495048474 0.25942980811297 0.15693716247224
0.3354879164656 0.253765045704703 0.16609953719479
0.328398645511912 0.270880059788435 0.1567867771008
0.328619939501658 0.270345808837119 0.171966780864059
0.331214163144936 0.264082798933686 0.186180530892146
0.334227941262997 0.256806894927081 0.204974413675729
0.330525840563113 0.265744556646011 0.1963376877778
0.319860578599036 0.291492776725949 0.189057578648677
0.330016630510923 0.266973898460105 0.227095750917001
0.335455213289688 0.253843998155521 0.238645942499872
0.321187909719286 0.288288315933681 0.220097902588166
0.334562627269435 0.255998891431201 0.263210083412913
0.329450342136158 0.268341039534677 0.260903846697964
0.329727987211125 0.267670745029166 0.272888900635664
0.3314506531861 0.263511861468943 0.282057813238623
0.325859587117133 0.277009889000768 0.273846661077152
0.330325323988463 0.266228646480013 0.296081686325361
0.330716411022542 0.265284478858272 0.319681749573573
0.318792656999221 0.294070967535773 0.295483286348235
0.327671225356747 0.272636207392576 0.321881479519956
0.330466278943166 0.265888351116684 0.345637404837219
0.326155311987859 0.276295946007129 0.340414805246437
0.32570502609614 0.277383032313863 0.339807027036747
0.325600893547456 0.277634430525179 0.357666307950306
0.331393544826055 0.263649733246288 0.385478939690912
0.328577865018506 0.270447385624973 0.387954684255759
0.331956189915816 0.262291387839784 0.40412294223824
0.327833437899053 0.272244591672954 0.400642637057835
0.328048850620092 0.271724539360314 0.416814685622294
0.327661645960017 0.272659334102081 0.419193179175963
0.321611586890172 0.28726546876166 0.418110126224035
0.336496274899965 0.251330653096726 0.465128981416459
0.328671730533168 0.270220774226437 0.447958238998503
0.321350070159641 0.287896825999294 0.448846540708921
0.328940850356271 0.269571061499598 0.474977651458453
0.325964163672554 0.276757418862363 0.478890511750519
0.324135152624606 0.281173042140049 0.485023676595248
0.328819972792654 0.26986288575307 0.496529423804632
0.329303035187528 0.268696669967892 0.516767654345821
0.33075537362892 0.265190414805527 0.534167215057615
0.333547626724822 0.258449319511823 0.545527243759318
0.330950212990515 0.264720030976279 0.55220352903007
0.320605246898343 0.289694988418292 0.533464934543303
0.322285858870923 0.285637632201003 0.55293807826341
0.328880785488784 0.269716070917309 0.577805209806494
0.328109594881962 0.271577889739473 0.586303415548876
0.335996903185387 0.252536243062726 0.610517527430641
0.331849780488336 0.262548282922771 0.615791826823745
0.32257846378534 0.2849312214482 0.600546567237782
0.3233888440362 0.282974790455894 0.608331935381149
0.333033941650229 0.259689464985695 0.636568866524636
0.32337871901105 0.282999234428931 0.636507586033596
0.328406968758056 0.270859965694712 0.655809500452655
0.325686997880737 0.277426556275994 0.655449003095639
0.329963236771325 0.267102802350389 0.676117311369988
0.328077644426221 0.271655024963047 0.681718431339903
0.3275203516051 0.27300044885001 0.691594787320436
0.324548479241157 0.280175183416681 0.691571563707463
0.324996547148101 0.279093451798874 0.710157423098749
0.329500669085855 0.268219539530166 0.726551338551766
0.332717936612169 0.260452368634356 0.741184731359275
0.327879563161693 0.27213323543832 0.741765832805985
0.331256877526469 0.26397967729448 0.760655347009709
0.321212420376268 0.288229141973172 0.746971157537702
0.324368202515433 0.280610409932905 0.764338969435649
0.334664726502856 0.255752402077169 0.795975620808469
0.320390481624096 0.290213477656106 0.778275895791276
0.322454518441548 0.285230451978175 0.795094780968011
0.33217048582649 0.261774031745875 0.811881659799837
0.328947082593384 0.269556015548237 0.822231220064882
0.321330420795497 0.287944263760703 0.817983707698121
0.329681920014547 0.267781961079925 0.842766590264634
0.329199306354561 0.268947093523249 0.855064579612362
0.329134671879041 0.268267776314863 0.861089420174825
0.32375589325097 0.278296191656987 0.864580614692139
0.319799422593604 0.280536580158962 0.868503188555734
0.313868602092703 0.29242891604114 0.869221694035548
0.300619990032959 0.303329561685423 0.872234112851219
0.291185911684973 0.318152438245365 0.872032674026363
0.282383264410933 0.323942561123174 0.871076105784534
0.277801724080811 0.337218178131436 0.872163881981699
0.26672660621785 0.348297644647556 0.871892763688795
0.262172500306406 0.361278430486035 0.87207664807059
0.244192237935357 0.373074752126234 0.870913504605432
0.238717211347543 0.384245569521656 0.871847929388768
0.223332156951941 0.411034309438036 0.868945559560034
0.210994151506555 0.42429622868038 0.865454877915927
0.340309264339897 0.242125282277657 0.055205009262867
0.343013340309778 0.231822991200242 0.0788747639682199
0.341874711231555 0.23834595916064 0.0838621081702727
0.339664549114735 0.243681762518111 0.0857229188382588
0.342305409212084 0.237306162254762 0.106784323532906
0.340474144059525 0.24172722742237 0.107721749947031
0.34335303964051 0.229242718611748 0.128885397631271
0.342689362190387 0.234283849333041 0.129719857244883
0.333647878636575 0.258207289986814 0.122699287447004
0.342671228608904 0.234421587559173 0.151218085780601
0.341101022632617 0.240213808669249 0.15687046255928
0.34161999137047 0.238960907303878 0.168892563205952
0.342625854217628 0.234766240278321 0.180847150964751
0.342353919917865 0.237189047050943 0.19424649257693
0.342284971176976 0.237355504036305 0.201304643100334
0.335465389203457 0.253819431326491 0.191784429474398
0.342583839392817 0.235085374556675 0.221244848658406
0.343057085711296 0.231490711886749 0.235334762314721
0.340715001143316 0.241145746984089 0.233463527697387
0.342520017635998 0.235570148928511 0.251987626578267
0.342885230862175 0.232796079063759 0.269676134304395
0.340792392740988 0.240958907139374 0.258027057507713
0.336211069319161 0.252019200277967 0.269794369903951
0.343733127854231 0.22635566199918 0.297261704179264
0.337059290706112 0.249971412701695 0.285285886439121
0.341436321006691 0.239404326787118 0.301186109258587
0.343086371458757 0.231268264550036 0.326833935278284
0.343150169673156 0.230783669000627 0.338937777895534
0.343201914935241 0.230390624713327 0.347948431697529
0.342284971176976 0.237355504036305 0.341492894853383
0.343530504975041 0.22789473556712 0.368083968676966
0.343378225359173 0.229051414085636 0.372814375256582
0.34314340310639 0.230835066177969 0.381136179906682
0.341372717375566 0.239557879535996 0.387469375372774
0.343583751680887 0.2274902866822 0.405512140003686
0.343011125614784 0.231839813478859 0.409490687309299
0.342498690716476 0.235732142965184 0.41950029092674
0.34178148128362 0.238571036165366 0.429152579045673
0.342642195128004 0.234642118741126 0.443000809659696
0.338392160041885 0.2467535814744 0.437164081734897
0.339610823850852 0.243811466778818 0.44950697830499
0.338772985480091 0.245834187536587 0.449666582625692
0.342703229464485 0.234178516928785 0.472327801169366
0.342560005797764 0.235266408684323 0.486132191829755
0.342284971176976 0.237355504036305 0.497323020188008
0.343116687268486 0.231037993113605 0.508504328329805
0.342599420646205 0.234967023187166 0.513563902015885
0.33797920619341 0.247750540256024 0.510488223879799
0.342540535425276 0.235414300846219 0.531087920786951
0.34277526370946 0.233631362516253 0.542680773407371
0.34231789980458 0.23710538627776 0.556157996536989
0.339399216035338 0.244322333236937 0.56203965655871
0.342348775053944 0.23687086547542 0.568053410204341
0.343326974247006 0.229440704931654 0.585620462933576
0.342284971176976 0.237355504036305 0.596016440355182
0.339440973224253 0.244221522465133 0.589117045018639
0.341653614545291 0.238879733779216 0.610169162551324
0.343181698921269 0.230544180584604 0.624389241645555
0.34291166127444 0.232595320151091 0.628227853131219
0.341088808449537 0.240243296315695 0.637476360992906
0.343703865818598 0.226577929226689 0.651949158854863
0.338656619719566 0.246115119333843 0.653928697509799
0.342574899317211 0.235153281172728 0.675007440485804
0.342766687728012 0.233696503562609 0.680208912086357
0.343644898185228 0.227025832870375 0.700207283018814
0.338644225414501 0.246145041833227 0.689064330022574
0.342477750213014 0.235891201880473 0.710204758653397
0.342694834243955 0.23424228495965 0.718509041680666
0.339058374088189 0.245145198488369 0.725018266688449
0.33945453159856 0.244188789653996 0.737580857831714
0.336040916150743 0.252429986364843 0.740899311972317
0.343950331165809 0.224705839051958 0.767884236843436
0.340857914250339 0.240800724222873 0.763379967600738
0.343339211950799 0.229347750342738 0.777556608447808
0.343394371761025 0.228928769987362 0.789069260732829
0.336438400803235 0.25147037352596 0.78817573410584
0.335234646340019 0.254376493876824 0.792415066970819
0.33706210769664 0.249964611884956 0.805323300349465
0.33701527296902 0.250077680919568 0.820420604849205
0.343269554786818 0.229876849032529 0.836806749159592
0.341484327592052 0.239288428637659 0.840331098540251
0.343462860666324 0.227596330213723 0.859452487467542
0.338569864153983 0.245121401479371 0.862167771870629
0.336232788205934 0.251245828575491 0.860753954881511
0.330087306743816 0.248411886129496 0.870561236502232
0.318798913747392 0.271053412714726 0.871298455710856
0.309475142621752 0.271163421034187 0.871652725567313
0.31158137641078 0.281241800677033 0.872011774362737
0.293055269507081 0.298162016796406 0.868939151528641
0.290690022951551 0.306636231429377 0.869757786484485
0.278020350159797 0.327564654140041 0.8705512214
0.270773075093515 0.335299397169014 0.869837331467219
0.261303637657868 0.341717523329109 0.866187328814878
0.256321654196759 0.353824835183496 0.869692207722715
0.234554644544989 0.375662154095184 0.865454877915927
0.230855347255776 0.383724671457499 0.86917557075063
0.22625635332304 0.38931861136366 0.870443515256815
0.216320129732393 0.406836309297012 0.872124394657015
0.199007799966944 0.416246615683155 0.872006462183498
0.191850356080516 0.431124566251682 0.870982779441403
0.345736725027869 0.211136830527279 0.0862856799867864
0.344734649514559 0.218748349728759 0.0940954748630704
0.344001196932469 0.224319475195656 0.0960436556709346
0.344932140392729 0.217248257578673 0.109901004402122
0.34653777535107 0.205052249240316 0.126637673323727
0.34431057077067 0.221969547591771 0.130683084778972
0.344601296979978 0.219761262791746 0.134919139315171
0.345991196033853 0.209203931337 0.153488692951448
0.345780657151604 0.210803132917732 0.16358668959046
0.345321184509842 0.214293174126086 0.169094088997634
0.344072748349096 0.223775988228544 0.178216172603544
0.345525793332509 0.212739015819814 0.190102025073874
0.345030427786549 0.21650169070284 0.202044236566939
0.345151208792458 0.215584267880465 0.2117229749384
0.344944558855798 0.217153929986747 0.214747544163113
0.343786525240424 0.225950068583396 0.224992445023741
0.344540813426068 0.220220680995107 0.238679530231807
0.344490337383112 0.220604084605987 0.242227827800786
0.344375526233858 0.221476161865121 0.251224183464226
0.345935762024778 0.209624994439416 0.276769890748639
0.343936057749519 0.224814256412455 0.268920357729832
0.345136276717537 0.215697688249955 0.29012266117353
0.344600621783711 0.219766391416566 0.284070295246313
0.344140876207772 0.223258505765812 0.303517118124978
0.34384871268383 0.22547770805438 0.310198440400535
0.343816350823486 0.225723520788191 0.318718073332979
0.34531914156437 0.214308691837553 0.338475637900194
0.345880616327457 0.210043867596646 0.34112474256837
0.346166431204801 0.207872888066582 0.359212785433954
0.34576921278956 0.210890061477795 0.364957429908164
0.345058784530956 0.216286299844887 0.375631200237497
0.344675995757498 0.219193869245184 0.380662673345676
0.344485471196041 0.220641046966447 0.389175807489772
0.344676629865532 0.219189052716479 0.401760314296668
0.343791233994347 0.225914302046416 0.407270613937553
0.344065502839958 0.223831023334378 0.410077381320413
0.345303560158032 0.214427044368824 0.431481190573454
0.34330234255023 0.229627801243751 0.434626005445961
0.345304004938955 0.2144236659223 0.454902139717376
0.34531302017389 0.21435518841447 0.462424318435948
0.344841777297849 0.217934633428246 0.469245612358287
0.345054235955266 0.216320849707387 0.471125796660858
0.345537181621446 0.212652513177281 0.488659736254209
0.3448238679018 0.218070668796947 0.501388690838107
0.343516419831052 0.228001722857503 0.496503176193747
0.344421123140727 0.221129818972241 0.508483104503805
0.345861347723679 0.210190227173039 0.532672797354452
0.346060281545223 0.208679174779882 0.545463251833589
0.345280613044002 0.214601345004597 0.546882904407189
0.343850057441323 0.225467493607125 0.548607893916911
0.345582036723466 0.212311804851634 0.570504932141897
0.34341511038463 0.22877124450182 0.563730743473184
0.344971657362601 0.216948096392247 0.590830760975323
0.345295491513475 0.214488331808905 0.594212557751686
0.34465106932819 0.21938320427312 0.599141931539654
0.344795989943189 0.218282422915718 0.611638166397783
0.345100289336643 0.215971039546394 0.631082771783702
0.344633031038932 0.219520218682931 0.63080322763697
0.344453257237907 0.22088573627143 0.639121015826099
0.34463407825591 0.219512264280262 0.649449950848098
0.345561328670222 0.212469098132233 0.667049475652099
0.344911784860637 0.217402873195281 0.672963078695307
0.343452396564208 0.228488027849941 0.669726375725336
0.344714365190206 0.218902424468887 0.686243717749481
0.344550607878679 0.22014628474141 0.698861534025891
0.34515324186953 0.215568825126931 0.714087275521055
0.343941498865943 0.224772927029997 0.715745986616304
0.344231840300093 0.222567564887455 0.727319699604394
0.34511602423817 0.215851521103398 0.746469306877146
0.343947867023349 0.224724556072189 0.746339345180885
0.345161054927779 0.215509479057608 0.758958724676782
0.346021144438485 0.208976450619351 0.769755496986341
0.345955414612426 0.209475718215966 0.779722601562414
0.344347902552063 0.221685984559723 0.782202741882192
0.344691295394005 0.219077656968258 0.800094351118599
0.343615547053949 0.2272487768465 0.803470142587282
0.34431842511133 0.221909887951401 0.813096856808578
0.344713471692312 0.218909211259191 0.825831633226353
0.344439701799682 0.220988700047075 0.835378723891926
0.344868540990408 0.217731343000419 0.848256119993794
0.344897457207062 0.217511702528846 0.849336064075577
0.34069747576722 0.221062128077445 0.867939595750314
0.340191625754989 0.224888326375895 0.867942360477749
0.330468472821578 0.229873986115719 0.872160507661935
0.331471439321101 0.244795194305601 0.870605219648167
0.325577368904115 0.251879419941799 0.871786815421166
0.31111452241215 0.258740427156816 0.870176373469335
0.295389868522801 0.288731871643866 0.867492747260521
0.20726483580484 0.395375178664541 0.77734096840604
0.210784993027839 0.392674067025404 0.790785984463581
0.225685958469284 0.381240154095242 0.807950755700152
0.212922702129993 0.391033745138873 0.816351674553754
0.224418560183581 0.38221266300438 0.83046486397805
0.209161822565903 0.393919569526938 0.823247834826179
0.237181220201209 0.370031888705151 0.862215499477745
0.218858312886785 0.386854798590037 0.860923260213351
0.215226908345516 0.391232699237552 0.864846618543556
0.1992156088772 0.403132842948344 0.864101390379016
0.199882452879851 0.41541851254002 0.871989926900294
0.19539296858118 0.414449196300252 0.87092355147095
0.183641996191298 0.436592406599609 0.871258103057045
0.346768457333813 0.203300045621167 0.0941570615246672
0.346454243141571 0.205686739364169 0.103613462531881
0.346959628197665 0.201847958745831 0.120785621709972
0.347952567449042 0.194305836343501 0.129043852542517
0.347972420960764 0.194155033950189 0.136908576022912
0.347252863261708 0.199620617302134 0.140552200339426
0.34711819974969 0.200643488227376 0.158706444396036
0.346650447325942 0.2041964206238 0.159820626272925
0.346680127532825 0.2039709770703 0.168312713444886
0.348019093589747 0.193800520136632 0.185017479554849
0.347304638306531 0.199227346792477 0.181404751929118
0.34662417557924 0.20439597435186 0.192192876361921
0.345709043202134 0.211347094868949 0.201997687640559
0.347765654280121 0.195725582815057 0.218003937427235
0.346384192769993 0.20621882476218 0.230211993085859
0.347363673213595 0.198778932154358 0.241487655108627
0.346410877911749 0.206016130986936 0.239846772681486
0.346655022189134 0.204161671087891 0.253754265717142
0.347926081757926 0.19450701514072 0.269980347328516
0.348274342465391 0.191861712439696 0.287328278397905
0.347333650712501 0.199006975690515 0.286616360530783
0.347657201390593 0.196549364296718 0.301711645965168
0.348206220394142 0.192379150942548 0.31273706616292
0.347792547779921 0.19552130640334 0.328522621151642
0.346615563797704 0.204461387326881 0.320193595308924
0.348114817239777 0.193073426828237 0.338454193541664
0.346282625007278 0.206990308513544 0.33578421968352
0.34778735958295 0.195560714671823 0.36163583931227
0.347652655380351 0.19658389467271 0.372298049280974
0.34766407199718 0.196497176858488 0.369060052007272
0.347112661117381 0.200685558316514 0.386036192157019
0.347503847749915 0.197714200843602 0.394110627489616
0.347661033517377 0.196520256403945 0.404394847327708
0.347998553109966 0.19395654057041 0.416446846238601
0.347010612402283 0.201460695263921 0.429636550992102
0.3471845455327 0.200139541973219 0.437117216879023
0.34701676482855 0.201413962946799 0.445063029659157
0.346281807391293 0.20699651892352 0.444135361196291
0.347288889791877 0.199346968637435 0.457988768943751
0.34726969386697 0.199492776162993 0.46692005069487
0.34612646829048 0.208176436537388 0.476887987028933
0.347387985606544 0.198594261195624 0.497056734940078
0.348791865558818 0.187930734274364 0.507529033320435
0.348078586582592 0.193348625991558 0.514741045994197
0.3470311148224 0.201304963921996 0.517539004401964
0.348253456349865 0.1920203582376 0.531255082142806
0.347619093396862 0.196838823246831 0.543291874466199
0.34682270525615 0.202887991741976 0.54369672253683
0.3474415209257 0.198187620074966 0.560600571586047
0.346927288948684 0.202093599729282 0.572240013391283
0.347396793413693 0.198527359258245 0.57587421744008
0.348259811603035 0.191972085297199 0.594492941448557
0.348193368966134 0.192476767229701 0.608376843144737
0.347759406333872 0.19577304067847 0.610659651106137
0.348940087458447 0.186804877170664 0.62211788761711
0.346855507059089 0.202638837312394 0.623558733733976
0.347633092608688 0.196732488676025 0.644489304525763
0.348297121925363 0.191688685262923 0.645796969679335
0.347818742364493 0.195322338779843 0.659447407398085
0.348748343486071 0.188261317237428 0.67291465814926
0.346819407835851 0.202913038135771 0.671879036841212
0.346121132342351 0.208216967087336 0.67889997969565
0.346852386989164 0.202662536596358 0.693833163822868
0.348186733731843 0.192527166837847 0.710420390306737
0.348056522589396 0.193516218658617 0.721102219174222
0.348103063015678 0.193162709024277 0.733566765134329
0.347916582153858 0.19457917179739 0.734799501478467
0.346405759731971 0.206055007422036 0.741982033137585
0.348462044620554 0.190435973022651 0.756904234597408
0.346667997285172 0.204063115448794 0.752460654076957
0.348175655319064 0.192611315737277 0.776548268220203
0.347474248199383 0.197939031751292 0.786846157235166
0.346574311659158 0.204774728427895 0.78528253947519
0.347983083684194 0.19407404252484 0.798811921969039
0.347109984167164 0.20070589177214 0.809182559249009
0.347965263388087 0.194209401112284 0.821340604205852
0.347220330219844 0.199867730288669 0.827434867552219
0.347453336128679 0.198097874698346 0.842628330155895
0.347006574773136 0.201491364102123 0.847120816711605
0.347237055331276 0.197607088593093 0.860773874439637
0.343917625438881 0.203947257398532 0.866679462565837
0.340144324300526 0.205621962990454 0.870062799429889
0.337850295445863 0.210460213427055 0.870924376848073
0.326840932063508 0.234322271835644 0.872014982305771
0.318058427752577 0.237656482839363 0.868896925485882
0.182203899796957 0.414605111207402 0.724248245616921
0.173225887564775 0.421494182291561 0.723398945892357
0.176957844037567 0.418630551372024 0.732664270212197
0.17562525431909 0.419653083426915 0.753864080769536
0.188271746113423 0.409949088969869 0.767075445354896
0.194674951908585 0.405035736353658 0.784481520154344
0.192795457965989 0.406477922779556 0.78709557404593
0.171172296991499 0.423069957760694 0.787779306350753
0.190640792047768 0.408131256088685 0.820521980851005
0.182134173304681 0.414658614226703 0.822304125830149
0.178518255050776 0.417433205889249 0.821170314102953
0.18156059362041 0.415098737398201 0.835062732915563
0.184895247570364 0.41253996742683 0.85138794363646
0.187008248700067 0.410952667829561 0.858847312630422
0.180281920528368 0.416449663741608 0.860887753051418
0.169488270481044 0.433276105907419 0.870575371547379
0.162937932727669 0.435705332222683 0.869885979555278
0.162355201498468 0.443106814868091 0.872155071699482
0.145400840259191 0.461379567620025 0.86829522351507
0.349403946066497 0.183281521240841 0.0991404538009457
0.34972532771574 0.180840385256855 0.116797694425788
0.349299237703571 0.184076860219174 0.123314374380056
0.349873939541949 0.179711566366728 0.139793594020052
0.349770734024424 0.180495490100919 0.145143685367674
0.351126142628286 0.170200139623711 0.166492334903638
0.349157469549251 0.185153696260408 0.168344066205259
0.350114577893837 0.177883736615693 0.178234857553133
0.349428586742445 0.183094356725167 0.187735200875207
0.348827665515015 0.187658806609843 0.189571152418944
0.350303954989027 0.176445274766043 0.213703375624701
0.349796302150894 0.18030128089913 0.208579613469412
0.349931727154838 0.179272625868461 0.227615784326974
0.349834046350874 0.180014585236898 0.234337352388569
0.350078347288953 0.178158935381746 0.247979065213585
0.349896856308413 0.179537496243606 0.251278769253818
0.35047933665722 0.175113118738572 0.269880323571452
0.348919874185049 0.186958412225211 0.273605609888633
0.350476099259965 0.175137709212087 0.293656212689603
0.349337802374572 0.183783932460815 0.286548730028302
0.348963316811002 0.186628432720455 0.297957339224204
0.350979351927563 0.17131512569244 0.316997919939309
0.349244413735497 0.184493289600149 0.315428496097893
0.349928662774505 0.179295902147976 0.327302210551445
0.349876576860651 0.179691533942352 0.337037394632489
0.349564503106262 0.182061969445726 0.348030833266137
0.349801484635289 0.180261916021978 0.358678290125261
0.349399249559214 0.183317194755357 0.370969081701233
0.349331300122548 0.183833321968364 0.373526520405744
0.350865923108297 0.172176703112878 0.398697979058298
0.350696972731299 0.173460008633812 0.400291695736536
0.349202612726355 0.184810799787252 0.405947552827116
0.349183722019357 0.18495428895263 0.415007281713853
0.351006027532202 0.171112504358793 0.428568199021254
0.349731844633445 0.180790884352393 0.43447780670885
0.349284209880929 0.184191007864816 0.442262111485087
0.349787762627816 0.180366145016674 0.455060134211278
0.350314675953707 0.176363840954489 0.47367486022671
0.3510437771216 0.170825767759868 0.478739566224419
0.349401664986087 0.18329884776675 0.477591616792233
0.350449979519827 0.175336108335665 0.497714142169899
0.350057589495766 0.178316606474718 0.505238126061194
0.349677719233269 0.181202007583381 0.505836415441401
0.351207136283071 0.169584931737279 0.52553481849218
0.351410543639218 0.168039899475268 0.544108090050411
0.348934534130162 0.186847058886828 0.535754791948569
0.350087158411713 0.17809200825981 0.559516874732323
0.348508520235222 0.190082955681387 0.553899285668464
0.349499692856775 0.182554252164808 0.570076514263427
0.349962525637143 0.179038688169827 0.582227265757956
0.349353569001491 0.183664173039546 0.582270573406102
0.350749569783285 0.173060494359869 0.608452707729213
0.350091811574942 0.17805666397607 0.609226962683303
0.34918562439699 0.184939838959903 0.615706900668963
0.350271874810294 0.176688947915593 0.634133671668411
0.349660936306973 0.181329486564815 0.646135189504645
0.349335993451261 0.183797672597493 0.646158465240912
0.349723261765791 0.180856077704676 0.657447103416051
0.351021182153083 0.170997393584912 0.67316921547283
