ply
format ascii 1.0
element vertex 841
property float x
property float y
property float z
end_header
0.357300145939728 -0.0376623665839717 0.708077769254013
0.350362846642069 -0.0342808507276994 0.716109971848437
0.34803242693708 -0.037912247753689 0.715234211973021
0.345198741501805 -0.0317017775781185 0.721434264599614
0.335163117792128 -0.0391858902483022 0.723106036491035
0.324385030682966 -0.0390386425742295 0.730433973573882
0.321873597282498 -0.038985507529951 0.731991120217732
0.317479433037693 -0.0358609006681255 0.736943622294377
0.306703942205471 -0.0324197650300823 0.74541112715878
0.302227321468258 -0.0319564993832704 0.747957336419504
0.29486814232218 -0.0373165733742584 0.748442537237114
0.291386920517208 -0.034128358222829 0.752349599641852
0.287156369519797 -0.0350986587591016 0.753867160789583
0.279961917314873 -0.0339329971775199 0.757762739929234
0.274214959975307 -0.032549013185901 0.761034234882817
0.253867626925213 -0.0391743122958494 0.764800246419307
0.258345900357697 -0.0352558071155051 0.765813992832861
0.249823309204984 -0.0323780160309465 0.770552042277883
0.238029054142026 -0.0356575113400224 0.77254039185828
0.229224150080804 -0.0401500542556856 0.771992814869355
0.221660286257281 -0.0331752002990655 0.778797592146597
0.21280742869873 -0.0325819374544406 0.781070148944624
0.202099883954926 -0.0377914147089061 0.78043790328931
0.193631399986633 -0.0377329388311872 0.781859109244557
0.179675103769451 -0.036491683590442 0.782588438837127
0.168908030138437 -0.0390493301838926 0.780929754200364
0.157739457470441 -0.0397540196739386 0.780391379479657
0.153490480048967 -0.0359236279779132 0.790043146435606
0.153230779708008 -0.0398858895033949 0.79361817689011
0.153171394063976 -0.0407919393439212 0.802294749377513
0.153355208786402 -0.0379874686228004 0.817093528612216
0.153156855712361 -0.0410137517259671 0.82626650172261
0.153601502311103 -0.0342297555859487 0.837640594900184
0.153664893769964 -0.0332625888215306 0.844621532668337
0.151990324625312 -0.0364663613224243 0.856921806363746
0.151601335881434 -0.0336691217662716 0.858303532030656
0.141116286439543 -0.042461921037805 0.867055500082545
0.139953159082317 -0.0335685042707206 0.867791522793968
-0.458627420798933 -0.050328611826773 0.43880118121379
-0.460530434579182 -0.0407615154952686 0.452463385903761
-0.459068354432244 -0.0481118887586226 0.457689873480641
-0.459424098694529 -0.0463234415797395 0.478485246145859
-0.459329225114757 -0.0468004032740856 0.4878631074393
-0.459308863033516 -0.0469027703692509 0.494038445781106
-0.458774877452504 -0.049587297168898 0.501997631721883
-0.459191214836265 -0.0474942277974664 0.518712046829505
-0.458865171773959 -0.0491333569607343 0.52942298673464
-0.46052788181758 -0.0407743490944817 0.53853364911778
-0.460280885417238 -0.042016083852334 0.549380855018988
-0.460055692677598 -0.0431482042056684 0.562973286751852
-0.459843859993784 -0.0442131590227293 0.577960369285968
-0.458397287897049 -0.0514855680528535 0.59879114951516
-0.459372525441391 -0.0465827178319761 0.601979996613386
-0.458740831605215 -0.0497584572015159 0.60612537593991
-0.459844681020182 -0.0442090314442935 0.621226230914996
-0.458909660101471 -0.0489096990348929 0.636860651414596
-0.459239748663468 -0.0472502317712645 0.642783684328876
-0.458766127051921 -0.0496312884033204 0.665479537134576
-0.459919264843464 -0.0438340732440338 0.667752587280687
-0.460249959759395 -0.0421715576333283 0.676754405205108
-0.458630165885886 -0.0503148113427253 0.696029926833807
-0.460292420500698 -0.0419580930717122 0.709996712564523
-0.458815307693223 -0.0493840406230535 0.715680190400223
-0.459570619862093 -0.045586829927612 0.733104150422009
-0.459127408882724 -0.0478150019875373 0.743133145618347
-0.460352502874967 -0.0416560385787675 0.757030849845397
-0.459518441103084 -0.0458491502634295 0.760584565476046
-0.459093793678608 -0.0479839970307261 0.768335575506766
-0.460163855053025 -0.0426044352241194 0.780136061698491
-0.459561552153343 -0.045632416377915 0.802434214112462
-0.458464652956354 -0.0511469010298192 0.805768790199286
-0.460434155785542 -0.0412455416767875 0.813927545013007
-0.459803080125085 -0.0444181732671199 0.826168329301936
-0.459998288863164 -0.0434367926689639 0.839380593060014
-0.46156072879408 -0.0473458624219274 0.858938595376662
-0.470269545165488 -0.0414124195166347 0.86619137970693
-0.478975142756846 -0.0503729810311707 0.868151712205297
0.493882336179908 -0.0248055628094616 0.487124425029153
0.492218604843472 -0.0264624448199465 0.49464152633752
0.48987783293476 -0.0287143908895068 0.503222528931976
0.491041446680191 -0.0224900769070996 0.508259510382395
0.487083498540577 -0.028445047760858 0.516639283673607
0.487612541043484 -0.0267531429134298 0.516995119789632
0.484738171074063 -0.0219307887867079 0.532448939220914
0.48117770906454 -0.028267065465575 0.537001979619395
0.481222432456375 -0.0270473874261774 0.538269605878561
0.479982257407846 -0.0229911951718095 0.546801993919222
0.478453360606118 -0.023277775491304 0.551306458446083
0.473368054219043 -0.0286873913255745 0.558915522551991
0.473164193467893 -0.0226490219309849 0.564895260330086
0.470171308984025 -0.0218489694084819 0.572807108648589
0.466572433253858 -0.0267216686234332 0.57682606306431
0.46175450323443 -0.0281669600555145 0.585698582177453
0.462129342356688 -0.0268835616580676 0.585904622131269
0.461772153543481 -0.0232377470860975 0.589414677512942
0.454572046180819 -0.0275797835960772 0.600050345681426
0.450807566643913 -0.0222184690859038 0.610264038295156
0.451518787357167 -0.0249054760968532 0.607251159156788
0.447080422152841 -0.0252461819922803 0.614878445292176
0.443359001921125 -0.0247035040178258 0.620982879237702
0.438566538134677 -0.0216146668436737 0.630025752397348
0.435558206037318 -0.0271022553226175 0.631475095856717
0.431481196807901 -0.0292143149536509 0.636009753286514
0.428241760848211 -0.0237423409822566 0.643557911701621
0.424936289462063 -0.0252669053306685 0.647129142155554
0.419176366062682 -0.0297256921746588 0.652049176689663
0.416357544900785 -0.0297543868696996 0.655511769303434
0.413842552501599 -0.0267037174753204 0.660294858606595
0.408211115349754 -0.0244414058950121 0.668030271578795
0.405093887386073 -0.0243195282969935 0.671737458262138
0.398961792941727 -0.0267743385470816 0.677023218303988
0.39316935325191 -0.0284979276733317 0.682097769727675
0.389034528891481 -0.0242206897372238 0.688432118964951
0.387862725603538 -0.0220268371723621 0.690611063152391
0.38379514835811 -0.0254704008978394 0.692811601673999
0.373862518563871 -0.0219065801145231 0.703290876450294
0.372730214512082 -0.0225011675134099 0.704125732564991
0.366910589090087 -0.028541816986152 0.706431853515813
0.361257687336942 -0.0262188301400133 0.711950560178053
0.354516372523251 -0.0307101332411841 0.715014551880999
0.347913411625617 -0.030902757599057 0.719989425902264
0.340964858477746 -0.0240959421096572 0.72793106433056
0.34240207746915 -0.0275200698745322 0.725559615040657
0.332768448301334 -0.0306375822464034 0.730621902480202
0.326341953788362 -0.0301003080106116 0.735025663033356
0.317772565678523 -0.0285558742594256 0.740983995465056
0.315740831771293 -0.0304247397902044 0.741229201222037
0.304334405111457 -0.0281405669343638 0.748791576924188
0.300887279553338 -0.0229802057144078 0.752491600207624
0.295286859945671 -0.0275288707845147 0.753693329123161
0.287566349341966 -0.0269047961651402 0.757792174652602
0.27816568422425 -0.0313982508270488 0.759867905058989
0.271718095148382 -0.0230583920068867 0.766113877166101
0.264829432582243 -0.029202666208777 0.766619759652648
0.256996312015017 -0.0292943765045195 0.769418082461023
0.251958044869078 -0.0292900037597824 0.771248139751379
0.236965702195291 -0.0261658629993548 0.777363402755802
0.2360882172732 -0.0312910864176422 0.775470451715774
0.223968492687607 -0.0299153161486448 0.779644875650734
0.22107361620086 -0.0270828942128471 0.781623445718089
0.209043904724013 -0.0266165569332376 0.784461667126601
0.198088532789996 -0.0305401538706714 0.78528617236153
0.184011268646976 -0.0242296337349879 0.788051040120545
0.168347959574421 -0.0295582309995986 0.786124179306387
0.15464083181031 -0.0323140490765211 0.784890455531163
0.154166119546483 -0.0266678781039787 0.787245426051608
0.153722486207684 -0.0323838980223776 0.800085895728267
0.15380846737823 -0.0310720788591393 0.808585401493767
0.153696127931361 -0.0327860476066602 0.820935616954858
0.154078209326781 -0.0269566120076027 0.830101046856125
0.154077980331702 -0.0269601057973724 0.837542376251059
0.153720699664906 -0.0278412771043748 0.852444618203166
0.151912111655128 -0.0317335968628035 0.85785952250064
0.148235109175134 -0.0299892751218166 0.863288170530547
0.14497957715173 -0.0331096687223407 0.865629293321019
-0.46160866497843 -0.0298351572570264 0.431478005021675
-0.461571782675921 -0.0303978724527992 0.433975824889605
-0.461617166144699 -0.0297054545238521 0.452913685579943
-0.461330337518107 -0.0340816137054504 0.466099610006547
-0.461675208063412 -0.0288199059699777 0.473565988305333
-0.461100698015061 -0.037585235473103 0.485579439234099
-0.460952882736228 -0.0386377251919718 0.500475703889526
-0.461492948362544 -0.0316006516468011 0.514277997575519
-0.461208749946041 -0.0359366815770996 0.52209181088091
-0.461202373946853 -0.0360339605262865 0.531840800743934
-0.461530545238433 -0.0310270341680453 0.54098294501706
-0.461237716752371 -0.0354947335157022 0.560465051164611
-0.461100471363026 -0.0375886935149086 0.562722504618778
-0.461202678903094 -0.0360293077931664 0.581887632981599
-0.461123725680297 -0.0372339011943143 0.586436348511826
-0.461437290598489 -0.0324498250298445 0.59787865597217
-0.46134260475689 -0.0338944518092591 0.610862960260446
-0.461556683360323 -0.0306282434913368 0.619714538406886
-0.460718944889729 -0.039813810166381 0.630236291693258
-0.46123091384227 -0.0355985258667334 0.649488099449509
-0.461529787958728 -0.0310385880236505 0.657236650744643
-0.461269208613426 -0.0350142605638091 0.668365181264089
-0.461505537892264 -0.0314085725411346 0.679454647279448
-0.460964301742643 -0.0385803179700629 0.691258592207277
-0.461095602295018 -0.0376629811371562 0.697891621319244
-0.461120190984272 -0.037287830234282 0.712773698099897
-0.461227369939145 -0.0356525953798943 0.726587159967115
-0.460945807308908 -0.0386732957671651 0.738549365852604
-0.461506282529989 -0.0313972115648702 0.753329439362685
-0.46161217180389 -0.0297816534397358 0.758796142405885
-0.461284485719299 -0.0347811769698574 0.777631913011254
-0.461082806485006 -0.0378582074719221 0.782828099254822
-0.461520946053719 -0.0311734894253914 0.797346470363029
-0.461196619746531 -0.0361217526580113 0.803451653521348
-0.461608952911048 -0.029830764254212 0.822840210986557
-0.461577936566298 -0.0303039822292352 0.832238348003382
-0.461100957105454 -0.0375812825175676 0.849235939797096
-0.461457119440261 -0.0366588031821087 0.852415558342653
-0.463700902744745 -0.0365298907132142 0.859396129429481
-0.472777405630353 -0.0343662472584135 0.866922878676692
0.495854059654219 -0.0179185639154798 0.485949576907423
0.494365520365039 -0.0178420684416014 0.496125957122383
0.493520830517559 -0.0198957078852407 0.498221258774043
0.490733353206698 -0.0198460174294213 0.51234347697644
0.490721245901842 -0.0150818972987191 0.516699624130793
0.489380229346212 -0.016123580300237 0.52181855809978
0.486993089379355 -0.0210276722804367 0.525864085194741
0.48526323009119 -0.0162015466092228 0.535073306730996
0.4829174336088 -0.0200693511038818 0.539757044895085
0.480313423845674 -0.0196988774874539 0.548447650195624
0.479200810583922 -0.0138013047766359 0.554753012139047
0.477389093376524 -0.0165274221861726 0.558236619904664
0.473822619392719 -0.0182143005560708 0.566006463902147
0.472253832213171 -0.0202432757815787 0.568645652605591
0.46923075185337 -0.0138289671542085 0.578501983889016
0.467238576379418 -0.0165901277982596 0.581754589637779
0.464208566543074 -0.0141063900235937 0.588817827050251
0.461457790443755 -0.0159088951195865 0.593962186064426
0.457025447703228 -0.0200970614271846 0.600238939142653
0.452848845455882 -0.0169074204003597 0.609106556593182
0.45340269462338 -0.0136893607600217 0.609082619036049
0.448679089836064 -0.0162888247478894 0.616729819836169
0.446529612350902 -0.0130191980673845 0.620816978841851
0.442430400403444 -0.0155825659320544 0.626467373502186
0.43818190554436 -0.0179562651314133 0.632135922460227
0.435021710845848 -0.0150902085191908 0.6377952518039
0.428352663224451 -0.0150193993080855 0.646711050729675
0.426192211415848 -0.0214294631515511 0.647390222281933
0.424493843344417 -0.0184485680061145 0.650787330438485
0.417034799059182 -0.0189725210704974 0.659939475297323
0.415109904048836 -0.0179389930767747 0.662552085696771
0.410601604456113 -0.0160844661600417 0.668417703454727
0.406113736963376 -0.0197265866727059 0.67244647521841
0.400811123482589 -0.0208164292235893 0.677702641877433
0.399088689397716 -0.0211099725100318 0.679376542893539
0.388916305498982 -0.0189440563167568 0.690533842409568
0.38617943925255 -0.0205337866066407 0.692588704514322
0.382419480489 -0.019732053682733 0.696229843708055
0.381500700906161 -0.0169844850486299 0.69790153638329
0.375923642450515 -0.0182433029224224 0.702552167621529
0.369517105432871 -0.0195745633220079 0.707827427402556
0.360118351509757 -0.0190281320267559 0.715433598574728
0.355953700530607 -0.0181535878731681 0.718987460032194
0.354329198841294 -0.0177698377513527 0.72038607841703
0.342028619294311 -0.0166450043714136 0.729460356495315
0.340780906514599 -0.0171040476104804 0.730197420700585
0.332656249029273 -0.0204636665961902 0.734894422327493
0.328259149574829 -0.0145044243446006 0.738982158478023
0.320275440773231 -0.0199262554165868 0.742558405632289
0.319126626388871 -0.0210833717851645 0.742941968950441
0.310092210302052 -0.0166553981303194 0.749415224656764
0.304926392875486 -0.0138181347522832 0.75252973954708
0.297293814455873 -0.0144389781006798 0.756379854241979
0.29008194971514 -0.0165745122080935 0.759755378918835
0.279434294799108 -0.0170289415751282 0.764301503761341
0.274686828421616 -0.013713110901098 0.766918999470903
0.266974118279173 -0.0216000024377405 0.768551931437709
0.264387160941149 -0.0206184528674641 0.769728003726197
0.257171661587215 -0.0180222226948125 0.772974052722321
0.246115214909325 -0.0191626083679884 0.776709626255525
0.233122556679989 -0.0182669388388797 0.780752228712949
0.228618484194833 -0.0223116797877134 0.781106961124545
0.224373877762733 -0.0192128390085678 0.783078374711716
0.20345454095497 -0.0233064987228373 0.786827530007973
0.194006201624218 -0.0195763347576186 0.789291403498469
0.197460188289972 -0.0222168286605697 0.788506166497137
0.185031584087294 -0.0188034478812194 0.789467184525484
0.173898502140233 -0.0148568728926758 0.790213250740245
0.154601165855043 -0.0189778372251977 0.793662844595626
0.154900240706186 -0.0144148367626526 0.801347223194262
0.154838667730754 -0.0153542588314102 0.808662635011955
0.154908721369014 -0.0142854468515236 0.817136516302694
0.154600366492896 -0.0189900331347912 0.832930134768746
0.154439377678508 -0.0214462477971428 0.838343819364914
0.154019073508414 -0.0200967022992014 0.854033896121093
0.152469379975804 -0.0206622739421048 0.858266038696121
0.15174361039096 -0.0178926773695134 0.859914352853528
0.142443207809303 -0.0181847875108771 0.867231141914401
-0.461691256159163 -0.0285750593435975 0.429448003484984
-0.462063989688423 -0.0228882446217287 0.438272953052346
-0.461954437848888 -0.024559682700061 0.451245381631649
-0.462031385718616 -0.0233856850743117 0.466055648658785
-0.461915285872246 -0.0251570264313719 0.470972148027693
-0.462102497606584 -0.0223007273239295 0.492638306693141
-0.461697415562783 -0.0284810850042079 0.495904083082898
-0.46186959722885 -0.0258541004252387 0.510713064902673
-0.462066890526067 -0.0228439863918512 0.517306223320409
-0.462004340271827 -0.0237983188539001 0.531164901218051
-0.461701691667247 -0.0284158442573504 0.540971797745285
-0.46206791005624 -0.0228284313673051 0.552790335148943
-0.461991453945314 -0.0239949262035817 0.560606166579827
-0.461721170673262 -0.0281186520557532 0.581405942763063
-0.462046467819151 -0.0231555766868909 0.593095741482833
-0.462232027759992 -0.0203244790782143 0.597829695528139
-0.462033174101644 -0.0233583996220159 0.611574828902799
-0.462350806432715 -0.018512266729004 0.630970907235221
-0.462305753085533 -0.0191996479756967 0.634102696305309
-0.461780950836498 -0.0272065830153446 0.653035007588004
-0.462096616664156 -0.0223904531665346 0.651596604090808
-0.461764467686898 -0.0274580672807558 0.670768786803187
-0.462390214290324 -0.017911019008539 0.678792474724963
-0.461804580697456 -0.026846061005323 0.691378730178757
-0.462233279283946 -0.0203053845125458 0.705252023769646
-0.461929426681083 -0.0249412793800456 0.713037021050491
-0.46193912166317 -0.0247933625372225 0.730720191227415
-0.462014797827387 -0.0236387673882016 0.738572665980922
-0.461850050078257 -0.0261523323122095 0.747676570109998
-0.461960490128856 -0.0244673427517514 0.761594454615515
-0.462181630279405 -0.0210933960444896 0.771321853343859
-0.462024541969826 -0.023490100503345 0.783270862042723
-0.46170217234476 -0.0284085105357032 0.791279399911558
-0.46239207470146 -0.017882634619673 0.813580648579075
-0.462323543883791 -0.0189282128470981 0.8216558734037
-0.461837915023755 -0.0263374774659781 0.835564850219858
-0.462174659983427 -0.0211997422104932 0.835588480371795
-0.462134733128199 -0.0218089083044614 0.846164832251194
-0.467560001062997 -0.0214496512996946 0.86310201092379
-0.482985389186024 -0.0256618995410809 0.868007558898021
0.496812596887166 -0.00483886154751528 0.489475665253892
0.495586072728507 -0.00899458075664042 0.496091866045999
0.494530705681685 -0.010666034278497 0.501430017506538
0.492014359790628 -0.0121261485550852 0.512785547932664
0.492550686583723 -0.00773073501389024 0.512050379800626
0.490182359770363 -0.00459603032576876 0.522711852683048
0.488447476948121 -0.0106717873763641 0.527284880906427
0.485127840823293 -0.00549348316359327 0.538894887430139
0.483671419076885 -0.00479945591075816 0.543699279448695
0.480616514975277 -0.0114645338669088 0.552092059744387
0.479815957120033 -0.00634361690017181 0.554950613506982
0.478682899455877 -0.010352843150755 0.557251923240806
0.473393260582282 -0.00950993295171724 0.570410820855001
0.472367332435589 -0.0110245667567713 0.572579815461543
0.471144703942739 -0.0118681887773631 0.575139184933937
0.465576628229666 -0.00966459397730984 0.587224466965544
0.465285133068242 -0.0108184085571415 0.587596021568645
0.461944162529913 -0.00643834015787961 0.595073078068618
0.457269586931643 -0.0111520792230407 0.602925464641869
0.453352625352293 -0.0126992935270215 0.609439493698511
0.450574046524615 -0.00690433215742794 0.615318964772852
0.448922553555749 -0.00477114913012884 0.618267657821577
0.447240123156258 -0.00747351737014981 0.620626121292189
0.440479333986548 -0.00465613827492241 0.631201714194924
0.438427159184436 -0.0108329119386429 0.633752919226237
0.433097032020963 -0.00675080983816146 0.641694896681394
0.429855002193447 -0.0124685715769017 0.645273043362734
0.424685397683663 -0.0118123758082435 0.652317886725306
0.424649149293717 -0.00670664205275583 0.652972106536368
0.419296233456109 -0.0087426805449359 0.659547816046691
0.411619528831635 -0.0120689076032025 0.668050785472317
0.41322264324555 -0.00613783763215641 0.666826160845961
0.407973480616675 -0.00563655271022653 0.672998301526482
0.405420945849726 -0.0118810602620654 0.675261166775013
0.3979687834508 -0.00493273924481101 0.683563148594672
0.392398699565666 -0.0127862791829549 0.68846718154625
0.388158776402271 -0.00485756456986282 0.693482390141286
0.379111572073161 -0.00812430936884378 0.701459221692829
0.379473290456464 -0.0107699267866476 0.700914136559579
0.373609847902826 -0.0116941317521614 0.706043189072834
0.372226393353416 -0.00454674751211051 0.707888603904551
0.363443362904902 -0.0129716986565471 0.714136502496337
0.359968961141132 -0.0100295277714372 0.717364111186941
0.35370771973881 -0.00766446040981181 0.722458055648575
0.348007949235065 -0.0113114586953438 0.726204709731674
0.339755940392892 -0.00583340613304895 0.732326678244846
0.338111525451666 -0.0124173536563714 0.732878832067723
0.330316467129183 -0.00484900647303366 0.738683061706365
0.318256361243772 -0.0107833379473612 0.745574093814783
0.314695539025908 -0.0104471059577212 0.747767013001329
0.312009613541815 -0.0104095984274006 0.749381612925242
0.302578756820485 -0.00977246553139475 0.754300861931515
0.301127664097642 -0.010715761959268 0.754957665244798
0.293464614935377 -0.00753386862646682 0.759120182638544
0.284270737439833 -0.0119125592029858 0.762987436210277
0.279404701279839 -0.00871921091235524 0.765431253189684
0.268246805779482 -0.00877942961123744 0.770281696451314
0.255856363925251 -0.0126551469298561 0.774368052525557
0.249823470416085 -0.0125716205972836 0.776568737561849
0.240116861149782 -0.0135759266008276 0.779541233613165
0.232108151212508 -0.00513937310879526 0.782570683921683
0.228632331697773 -0.0116239379298719 0.783159931897635
0.221745550523568 -0.00520691180991633 0.78551019378059
0.212969549870277 -0.0129567334562245 0.786869659489685
0.197364500628329 -0.00540154401945742 0.790933822845505
0.190994179624431 -0.012765171150725 0.790492014521625
0.180272347262373 -0.0103807485185644 0.790809789592524
0.162640289414627 -0.0125261184818555 0.790523873378261
0.159619713620332 -0.0115924082137342 0.79064831014658
0.155460384741786 -0.00586869025862104 0.797846519951289
0.155036098499396 -0.0123420473893844 0.809222714883213
0.155132772005289 -0.010867094713094 0.819617540355369
0.155337235270506 -0.00774758810733642 0.830518044658811
0.155493738413666 -0.00535981156275898 0.843730377890924
0.15532731494728 -0.00789894299154466 0.845033497276582
0.153464273341911 -0.00779115034788568 0.857900827681414
0.148731959328813 -0.00753989714709145 0.864035976579403
0.144329779174545 -0.00782490538819064 0.866730958817353
-0.46298154424318 -0.00888906735299678 0.428616441218619
-0.462671438302157 -0.0136203697240378 0.43982010196708
-0.463064829536054 -0.00761837933474786 0.441807682410663
-0.46314716188176 -0.00636223048068768 0.461880795905396
-0.46261437741701 -0.0144909505980813 0.476389157146067
-0.462801073936593 -0.0116425121487891 0.482480403726141
-0.462928541488083 -0.00969773312712206 0.504421854904832
-0.462822811310356 -0.0113108639137266 0.508356059046694
-0.463039199881847 -0.00800941229372989 0.5109917529655
-0.462453068040559 -0.0169520560924023 0.533127799494681
-0.462647105301917 -0.0139916195664092 0.547471952473166
-0.462887618768409 -0.0103220931764198 0.551419750272909
-0.462843517483038 -0.0109949487668496 0.568894048912724
-0.462954120098484 -0.00930747894612793 0.577933433018966
-0.462760758458307 -0.012257607484839 0.59375846237845
-0.462856522735557 -0.0107965269569474 0.599654505296699
-0.462935499038158 -0.00959158142601287 0.606052893370523
-0.462591364749119 -0.0148420560615885 0.628185022193888
-0.462508144221988 -0.0161117559455616 0.632722841106987
-0.462864563654944 -0.0106738462342277 0.642808684352944
-0.463004360785417 -0.0085409541887324 0.658602153797541
-0.4627704431704 -0.0121098473318514 0.671476273749744
-0.46317163313877 -0.00598887124761686 0.681534016003032
-0.462772249120416 -0.0120822938591095 0.688909882371768
-0.46276191834643 -0.0122399110117852 0.70410327976575
-0.462681138889521 -0.0134723673612011 0.712339710505268
-0.46303163025711 -0.00812490244960687 0.730504575498072
-0.462514386840066 -0.0160165119988602 0.735567318034327
-0.462441799099756 -0.0171239869047097 0.749730961826245
-0.462810387280284 -0.0115004179827047 0.75555566489513
-0.46277722099479 -0.0120064377147979 0.769211680562542
-0.462885305615097 -0.0103573850760743 0.787689073004063
-0.463152710668285 -0.00627757235785924 0.79675540988875
-0.463048813267525 -0.00786274037155028 0.799218875728902
-0.462597246594509 -0.01475231644245 0.816684934128707
-0.462688453644807 -0.013360765761717 0.834869157379248
-0.462785310135903 -0.0118830212707232 0.848744457989997
-0.463415228552801 -0.0097754312316922 0.853904932462803
-0.467085267598651 -0.00724008059293588 0.861304845395901
-0.477930486799549 -0.00826678819822611 0.867951674409975
0.497124402987431 -0.00270963748573084 0.486911039344292
0.495206213099704 -0.00413367449165535 0.499467103671325
0.494868897849177 -0.00359229464565848 0.501337675702
0.492904375306695 0.00288933584633176 0.509686803954437
0.491341798379155 -0.000483858157162895 0.517439150731654
0.489738989722868 0.000312007192130708 0.523610115360874
0.487446642428344 0.00234327200195187 0.530708472039787
0.48672807354482 -0.00192141357333717 0.533660937390333
0.482849074726266 -0.00133392026295867 0.546095338061825
0.483796235511809 -0.0020733192869422 0.543147588531971
0.478510756387625 0.000937495649801011 0.55787913567944
0.478860730549722 0.000408508652309135 0.557078341010634
0.474797355146658 -0.00373814601293815 0.567577708617206
0.471561549071358 0.00427274450060879 0.574167581766139
0.468613191842793 -0.00146068752299393 0.581264012976806
0.465541869011475 0.00316655442185295 0.586995840147965
0.463435361998765 -0.00111889412056129 0.591952703577532
0.458525674665891 0.00425318930708893 0.600437572723691
0.456664874176126 0.00396122318383129 0.603810394895357
0.456287285663498 0.00222860676595804 0.604920575152239
0.450603786612827 -0.00232143767854484 0.615386889631775
0.450337524504633 -0.00400880834188547 0.615996126323886
0.444803621220181 -1.03847858411237e-005 0.624324473712897
0.441292052958542 0.00308331815745832 0.629336727219733
0.434809352275443 0.00191106514178398 0.639187448531666
0.433019574586144 -0.00210158434913029 0.641869821013124
0.428805260234944 0.0034881155704958 0.646919575440238
0.42795683659855 0.00178555592079779 0.648341545788811
0.423715073850054 -0.00293959500858425 0.654348350543425
0.419883084789937 -0.00300586625185095 0.659123273111824
0.413356669241919 -0.00310489481346548 0.666761828845218
0.411763033560846 0.00404246799784661 0.667913966114211
0.407510443980563 -0.00206448368022057 0.673527992863641
0.402774673144282 0.00271469026884089 0.678226620027964
0.398156423122231 -0.00290228975416774 0.683367833213579
0.394411611922413 -0.00408100922072706 0.687271390480396
0.389325676559577 0.00250684999362676 0.69208652056786
0.384668244465946 -0.00357067774531442 0.696667251139048
0.382884876251891 -0.000330225276265985 0.698085992854486
0.374151533801943 0.0019177011165829 0.705839673513646
0.370037435999971 -0.00371160363447565 0.709714476124919
0.360990790619859 0.000847501940439102 0.716627625267832
0.355880688807164 -0.00122706632686041 0.720793125961177
0.35677597052933 -0.00277591406113733 0.720170482996902
0.346902904091942 0.00437408886107668 0.726817921064041
0.342500855594367 -0.00409486955751157 0.730518656129324
0.334025930483408 0.00253133976339424 0.736034110587141
0.331282760096046 -0.00205612508332377 0.738052451908502
0.326104341623849 -0.000165692218057634 0.741068663537138
0.316765590376198 -0.00296705855344536 0.746826314994835
0.311562388874785 0.00210131013917333 0.749649526783701
0.306557241553959 0.000413086688750915 0.752318799456458
0.292089723802191 -0.00136821983474227 0.759881249896003
0.291791846961203 -0.00224462987125948 0.760078462626396
0.28548503408699 -0.00214337464376876 0.762913963318906
0.276926280128202 -0.000886463545132466 0.76659864323189
0.268479856251256 -0.00390136385060799 0.770421630835784
0.262288394407542 -0.0015498263052491 0.772558153225341
0.254990181949704 0.00252839124028517 0.775001512158094
0.24789707207418 -0.00335797595797254 0.77786405436277
0.236380460608672 -0.00372017484346478 0.781370331906284
0.236282678831303 -0.00313039543554996 0.781371857603049
0.221393473450652 0.00183173954895403 0.785386175540584
0.205742484937566 -0.0022239933665458 0.789055871943538
0.202088764584993 -0.00125873043776926 0.789826535851269
0.200057725128863 5.88766825587385e-005 0.790219794988465
0.178304783334011 -0.00243282393476454 0.791037807412139
0.17024317431759 -0.000750390191448717 0.790963924814698
0.155718651891363 -0.00192829500815073 0.791601489239873
0.155571292864706 0.00417715835764139 0.802190139205398
0.155822425704594 -0.000345012575788471 0.813401802734133
0.155690527282423 -0.00235739362045679 0.815664767010279
0.1556378869847 0.00316100439215555 0.82782032064447
0.155584001649114 -0.0039826607139745 0.836746491782767
0.15569494824347 -0.00228994278925606 0.849922637932361
0.153600582747254 -0.0008540558652338 0.858669445172117
0.152366370842094 0.00024494894602146 0.860610187600552
0.136549337474141 0.00385953151170968 0.868278823597461
0.133760167432887 0.00436999258266345 0.867916027143793
-0.463465743027665 0.001501621470702 0.431750182649802
-0.463495634383972 -0.00104556750251557 0.442428237190035
-0.463556707931153 -0.000113765236365477 0.464022370326821
-0.463535751291175 0.000433501775731392 0.467892853936905
-0.463299460852163 0.00403859721718797 0.480729521267364
-0.463403514973787 -0.00245103810517743 0.494065945530951
-0.463302438493044 0.00399316719635814 0.500200744245543
-0.463337557529766 -0.00345735423784043 0.510442203591726
-0.463345767020563 0.00333210161242315 0.530579714598267
-0.463425725642144 -0.00211216879004108 0.538825633823406
-0.463323636245216 -0.00366975199578856 0.549887057248707
-0.463246405607128 -0.00484806383301077 0.571140352526065
-0.463341888851633 -0.00339127103623192 0.576320626188208
-0.463191404594891 0.00568721711963472 0.587881489531666
-0.463224708965697 -0.00517909061279807 0.604752576856732
-0.463354259600549 0.0032025298806035 0.613226015498022
-0.463392219883668 -0.00262336787895824 0.621115629147302
-0.463548951833149 0.000232100424511632 0.633208043500881
-0.463487441503239 -0.00117056670732357 0.646073609889179
-0.463222240564109 0.00521675114340853 0.663761632344536
-0.463536762685699 0.00041807087720523 0.676668911684802
-0.463448831572184 0.00175964042111533 0.682642243882453
-0.463357649887693 0.00315080409440676 0.69643969297217
-0.46318898824833 -0.00572408344399531 0.701169312955328
-0.463399082418012 -0.00251866583776778 0.712679317089514
-0.463246144207075 0.00485205202713332 0.72618864304267
-0.463323110590791 -0.00367777193252673 0.735753773801078
-0.463207115765957 0.00544751097058376 0.741321988530551
-0.463265841666323 -0.00455152687326691 0.755633860859391
-0.463263167335648 -0.00459232927459188 0.771204412124987
-0.463197955782919 0.0055872653052785 0.789540617584148
-0.463546254028846 0.000273260964218126 0.793291920263772
-0.463394662726652 0.00258609729728318 0.808857598415709
-0.463228583142832 -0.00511998209198053 0.813329371004823
-0.463212361347405 0.00536747886330026 0.832344187621126
-0.463349250289208 0.00327895720265013 0.839076820050069
-0.463478686236693 0.0013041462615632 0.846985334589848
-0.468087749780261 -0.00552332548072643 0.862464663987835
-0.478912923033646 -0.0048206033001442 0.868051277600277
0.495942727470856 0.00700006333699903 0.489550037941137
0.493737295661016 0.0124634484777764 0.496417813291371
0.493222947289435 0.00625699300950078 0.506174357613926
0.491318872980931 0.0121298742003693 0.509602623701273
0.491438614843455 0.00482111975690361 0.514976891493726
0.488986686510571 0.00591159050451846 0.524141320586772
0.486132259969028 0.00923154685191871 0.531656386975212
0.485652875935149 0.0083904054105544 0.533786616239231
0.483826098356382 0.00984974443090117 0.538625642450774
0.481715379290527 0.010282102704452 0.545106834545738
0.47817535097298 0.0109505101134904 0.554908340795324
0.47517608058474 0.0107408692136284 0.562427475598172
0.473174790732712 0.00737801489246939 0.569090659457703
0.470960047141598 0.012440961381483 0.571790298048963
0.46740666673074 0.0109013165953241 0.580262836873144
0.465919637251202 0.01169476842751 0.582927439146278
0.464165500718572 0.00512008271539096 0.589247533098
0.46113509019111 0.00957449738823402 0.593945170299019
0.457625681690918 0.0122927747891788 0.599143657796721
0.454842932104133 0.00723732716677097 0.606147700685673
0.449979186061582 0.00837486853327909 0.614448586055131
0.447566012330874 0.0125762097189337 0.616733128710924
0.442649983084511 0.00852533421637833 0.625931888040996
0.44086061394356 0.00512315338105234 0.629500096965355
0.437763238961694 0.0050562966737363 0.634257828798667
0.432484660433851 0.00443251203944614 0.64179940673532
0.431992000012487 0.0106592063427709 0.640748201025215
0.426963402639916 0.00658870821583895 0.648688498062496
0.423037929283557 0.0049493023118469 0.65429152298352
0.420759749076002 0.0084713939556614 0.656485192916614
0.417637271921939 0.00551311270965435 0.660743177289304
0.411537387360187 0.0102967511933453 0.666648160730807
0.404153369033127 0.0102985897988131 0.675130507427276
0.401680481395349 0.00750715880149006 0.678435074584218
0.398640752322326 0.00870091863261266 0.681315099016921
0.388717325527923 0.0124641940134642 0.690283254292389
0.386534019442641 0.0127847066647446 0.692229819093104
0.384819229636984 0.00715176716223751 0.695321999658971
0.380560912542478 0.00742778645793157 0.699117930384755
0.37613967527616 0.00901777882811634 0.702770849879527
0.370564858898986 0.00460834249084993 0.708576392206057
0.365277626703198 0.00685530654016798 0.712383940551213
0.3558900846591 0.0109037603372989 0.718856368507862
0.354244705637216 0.00655247991416036 0.72117795981035
0.340810221802039 0.0111766282599361 0.729638246030097
0.343385896961411 0.00565035449137121 0.729046599309222
0.335392174187409 0.00813714926813528 0.734179222337404
0.332780546395118 0.00919177493683107 0.735747998083878
0.324241673140325 0.00534192439057724 0.741597476341673
0.315710798077873 0.00818853253937119 0.746283278329213
0.308990512677609 0.0113061642830112 0.749337741783734
0.30262528933399 0.00523495379297099 0.75382475306519
0.295559186124359 0.0102416200093823 0.756549330409589
0.289549948672242 0.0089929225672561 0.7599152441589
0.284530351217307 0.00807888307470371 0.762285903119543
0.272894304980029 0.0130942951240675 0.766184831374438
0.2704988710607 0.00953289040769955 0.768117096367029
0.261205537967565 0.00696089685256733 0.772118063350249
0.254409688697503 0.0115156350420603 0.773644998768214
0.247849645466015 0.0121125103339459 0.775880692951886
0.241420634349224 0.0101968550131326 0.778379492797538
0.229659784094885 0.0100480848437766 0.781843010791094
0.225597366198096 0.00903570993567279 0.78326703265448
0.209518422545113 0.00886997649314587 0.78709438385575
0.20126278505967 0.00695935541110995 0.789221654584431
0.186855443569818 0.0106208458012299 0.789537075455658
0.177254486697933 0.0118142620703996 0.789265651598096
0.170382106201753 0.00920380872682963 0.789859358366472
0.16158592711949 0.00789606480154799 0.79009137515724
0.155235406762011 0.00930244136318364 0.803777056991795
0.155387641482041 0.00697949354766144 0.805097183858822
0.155454300926763 0.00596234081754295 0.82069781953561
0.155402618870753 0.00675095926316513 0.833229865294152
0.15544351476692 0.00612693124903878 0.843678738009414
0.155061286449538 0.0119593493533692 0.843776910780608
0.153790915736646 0.00761807121494688 0.857139630517288
0.149270338743841 0.0123717540605354 0.863379853650259
0.137701068276683 0.00540237993836375 0.868331060549883
0.142254627082504 0.0101264948823426 0.867528029124887
-0.462461405318714 0.0168248538086463 0.438149288385165
-0.462558672256897 0.015340847105229 0.449607363931929
-0.463159378846949 0.00617583561133028 0.455780833977523
-0.462587586384792 0.0148997027614356 0.470207447993431
-0.463191111341541 0.00569169130113651 0.488360241736087
-0.46258172599525 0.0149891150275759 0.49099038168138
-0.462785943020077 0.0118733653241666 0.50576336492691
-0.462867585923585 0.0106277353253682 0.515836853150988
-0.462763775640548 0.0122115741794372 0.526019915953281
-0.462863950030659 0.0106832083316589 0.539569620820811
-0.462755184108492 0.0123426556280946 0.545244753059975
-0.463090972520853 0.0072195144643769 0.561476598199273
-0.462539333082732 0.0156359058850742 0.569746815244834
-0.463043516752053 0.0079435495818728 0.594556035207889
-0.462929421080665 0.00968431313764367 0.603735197383614
-0.463110608119785 0.00691993311653831 0.615460989398254
-0.462850196626279 0.0108930447331863 0.616634745579403
-0.462844754076502 0.0109760819964442 0.631103080392837
-0.46318479509951 0.00578805853228246 0.649642934467089
-0.462489424914082 0.0163973573938486 0.656917120325232
-0.462982304289524 0.00887747128664956 0.676361767719593
-0.463087996421688 0.00726492096316955 0.686865341977912
-0.463157620795485 0.00620265829338312 0.696176367566499
-0.463168975015572 0.00602942637062959 0.703546065353767
-0.4629980526442 0.00863719782533334 0.715153675409383
-0.462656261898935 0.0138519168924285 0.720830761767037
-0.462940407373006 0.00951669470752764 0.743414587934851
-0.463165934701659 0.00607581259715756 0.749794124117534
-0.462908345120256 0.0100058701549831 0.756329874290683
-0.462496666968044 0.0162868650022069 0.771291594257827
-0.462540820595234 0.0156132108299454 0.777942559751902
-0.462852920224263 0.0108514906579743 0.794381670089596
-0.462892637311478 0.0102455250054246 0.809432037593406
-0.462425210309422 0.0173770829362651 0.820843661124376
-0.462934181528404 0.00961168274042021 0.829640597187594
-0.462441396574301 0.017130128256389 0.840893885405026
-0.463451193378037 0.00955511726818412 0.854068428678649
-0.466872383715037 0.0116995118920357 0.86140832499086
-0.475077456532954 0.0104321855390507 0.867225805323149
0.495664413117019 0.0125371007878807 0.482946056939131
0.493589386841131 0.0148245862915474 0.494028676909214
0.493103378777699 0.0149263416554997 0.496584954555527
0.490323313494817 0.0185034993340596 0.505522257866907
0.489610779335079 0.0138982459216947 0.515306094615402
0.487799952926151 0.0180510139282776 0.517403355221374
0.487269132826961 0.0140116330248945 0.524312585063104
0.483461837426666 0.017177074216499 0.533268286565776
0.480298325970794 0.0176542226899336 0.542947474478001
0.478725612062643 0.0198114649056355 0.54561554284348
0.477629824856031 0.0129113523332396 0.55506670990329
0.474963727013946 0.0154449075914401 0.559870082282485
0.472386745729216 0.0155005697731815 0.566172661476845
0.470113770550077 0.0152540301096949 0.571991540181422
0.466394370307991 0.0148136119964733 0.580259174287401
0.465733292763993 0.0160248080228939 0.580707912083352
0.462811174509954 0.0134194078231771 0.588462949465401
0.460551473751129 0.0163510864332268 0.591191455683414
0.456000788173535 0.0201553047043693 0.597218570511452
0.451467135458476 0.019156055724674 0.605914592988551
0.448132731718842 0.0176907179067613 0.612800960878805
0.446743740353785 0.0168025724118017 0.615817030136423
0.441771440537643 0.0167745097171686 0.623445545781798
0.438284060938113 0.0197834868166958 0.626966151695602
0.436220147413474 0.0141459992965027 0.633448489152255
0.430072821987075 0.0174687940193593 0.640231740821801
0.42853001455739 0.0212021267866461 0.64005039753055
0.422919190061958 0.0199172207955916 0.648429422552771
0.420931774679423 0.0130950833075481 0.654584564413191
0.417680299274964 0.0130285691152904 0.65850877900042
0.412398329183051 0.0163099472619534 0.663264050671698
0.406087907168316 0.0211192382862727 0.668044286821914
0.403794058522434 0.0201200719208515 0.671388719338855
0.402255144963577 0.0144598722762495 0.675723837007161
0.39357489790257 0.016947211969993 0.683482281588906
0.390431439967598 0.0188931101238658 0.685790059867978
0.386232466799811 0.0138006693801225 0.69219079916344
0.383451464733387 0.0218167044563642 0.690997387203646
0.378818949812193 0.0169829665718074 0.697577902149661
0.370826291131685 0.0205055277334882 0.703189528233758
0.368394042091826 0.0180316981075551 0.706427143931082
0.360810731258921 0.0178614445143416 0.712507959809258
0.355766815696383 0.0211949434916223 0.714960386926084
0.346346148915811 0.0190179337882637 0.723080221620413
0.348635123383224 0.0149493713370604 0.723130233804921
0.338654615091324 0.0199216605356344 0.728043496897946
0.331682786371004 0.0163057026447176 0.734324829012076
0.331940172284095 0.0176026221267331 0.733625354017965
0.323904654772221 0.0150927644420673 0.739508625542838
0.310941123314615 0.016161481506239 0.746889816227125
0.304947238501237 0.0137393522015296 0.750803752030426
0.30220117617409 0.016115859494992 0.751436826396465
0.289512257096202 0.0171818824909487 0.757595895292211
0.290465840185016 0.0206743880728276 0.75575038660271
0.282396811017548 0.0163327648035474 0.761026715695048
0.271082793890488 0.0183801871957413 0.765238817051527
0.265691159674665 0.0159449038828477 0.76833144855186
0.258867536877537 0.016730129518412 0.770531189984866
0.254518998052242 0.0207870504067597 0.770617889423269
0.244556670082472 0.0150786813900082 0.776256041775886
0.237691871562786 0.0145864601868201 0.778426524953838
0.228520036792693 0.0220687241489754 0.778304718648061
0.214115285331479 0.0211855624050757 0.782393710773742
0.208643363631936 0.0175878956113168 0.784941336169786
0.197668455528542 0.017122674705975 0.787544157030269
0.177431651716547 0.0213436791995205 0.786276055210583
0.17594386184407 0.0157537580552863 0.788249474616769
0.155118450589087 0.0154237425551191 0.788358514191835
0.154994372006983 0.0146835694669956 0.788603072883665
0.154799935253742 0.0159472965491104 0.802669693958046
0.154626312614895 0.0185966044224784 0.811595180616708
0.154457385430174 0.0211742642691857 0.819815088794867
0.154839649732082 0.0153412990957915 0.829965745082676
0.154445332047282 0.0213581902087682 0.837536702277329
0.154793322346854 0.0150577957886222 0.850661522143606
0.154375017759499 0.0159550137068486 0.853392179173917
0.151470003943262 0.0194596487419947 0.860137076308444
0.143747244306687 0.0208446578878793 0.866618779513835
-0.462420082780295 0.0174553139132 0.428882723813823
-0.462274852167978 0.0196711048720404 0.44677716902384
-0.462185373706573 0.0210362823826934 0.457479212955255
-0.461860187598789 0.0259976636374451 0.460864539369209
-0.4620574249731 0.0229884028227413 0.468246916552329
-0.46219538308416 0.0208835687914725 0.480111684409859
-0.461706872852307 0.0283367946490906 0.497933981551953
-0.462017423820894 0.0235987024695308 0.508935801620882
-0.461974110702735 0.0242595329520689 0.521025472944982
-0.462246987168959 0.0200962426023541 0.533258944393709
-0.462428492117899 0.0173270122147246 0.541533518561126
-0.462425546394931 0.0173719552622902 0.555182412994904
-0.462418415986062 0.01748074427897 0.558561293682251
-0.461743684578096 0.0277751562459948 0.583845179257782
-0.462222381516277 0.0204716523171656 0.589476138123958
-0.462134490704574 0.0218126069742345 0.602381366731421
-0.46174323362914 0.0277820363975359 0.612746489336738
-0.462204536860397 0.020743909154279 0.6286248020342
-0.461769243746766 0.0273851986884953 0.634587344216117
-0.462149546783046 0.0215828956067693 0.646797964110021
-0.462251320474099 0.0200301291418639 0.65799949297202
-0.461828386364806 0.0264828567080885 0.671625744020364
-0.461841567736216 0.0262817478431642 0.68668981539636
-0.461732341878124 0.0279482124057694 0.693811435581114
-0.462222299426743 0.020472904761417 0.703001573577258
-0.461702721059837 0.0284001387614152 0.719154338203988
-0.462145220187292 0.021648906701806 0.717957872032563
-0.461952634940019 0.0245871897738654 0.738675098987485
-0.461932209238095 0.0248988257638813 0.752154348271278
-0.461942070677746 0.0247483692694205 0.758735260106809
-0.461734738797778 0.0279116424786978 0.771692200914825
-0.462421819222609 0.0174288209230675 0.781936993295936
-0.461802273623751 0.0268812601480799 0.79826639270882
-0.462198225767471 0.0208401978252512 0.813793530758115
-0.462108220857386 0.022213407390624 0.823768236777202
-0.46179521562861 0.0269889443447531 0.830380233863943
-0.461712045267899 0.0282578788370596 0.849096237640365
-0.463059147798168 0.0286194108516485 0.856695391250952
-0.466038730159837 0.0284705225398468 0.861754431099116
0.4910088223007 0.0262493518742189 0.478955342384746
0.490023827670323 0.0249900131899365 0.491721031300822
0.489880419045109 0.0233561871988036 0.496734284255046
0.487100000282478 0.0272836060225935 0.50095342279662
0.487563287506431 0.0233684672322971 0.508871351226579
0.483435715040818 0.0261495470937648 0.52070925534212
0.482025911406895 0.0256298548071811 0.526292089505104
0.481425818126252 0.0239380596231624 0.530835937853999
0.480181270090761 0.0217337211920167 0.538188305576438
0.475912455268613 0.0253591984787395 0.546483307519474
0.472617950370402 0.0258922585028743 0.55458024428738
0.471518266521702 0.0283926731459193 0.553382853066773
0.471491751617323 0.0243399191831619 0.559339264156302
0.466558241674212 0.0249628018419043 0.570757204977245
0.465916134114886 0.0225844942774543 0.57471928587793
0.462909799304849 0.0231407933355386 0.580372615452942
0.460334490071594 0.0253642006233028 0.583416902796549
0.454807050298672 0.0227219448702621 0.597021783387848
0.4543172834377 0.0212654431120561 0.599214307191089
0.45157421407545 0.0227055746876752 0.602758976002459
0.447572158352658 0.0252712939697434 0.607507683810181
0.444503821368096 0.0259434796251603 0.612209417603889
0.439784022422755 0.0241194145158282 0.621224060367537
0.434757114743948 0.026723781664945 0.626481979866371
0.431400072339519 0.0271201961621092 0.631195022715107
0.425535008772092 0.0278960404023514 0.638497917671518
0.422622441498078 0.0288138561885568 0.641485508124572
0.421431624501077 0.027812241695519 0.644056128484306
0.420809575270056 0.0224399325503869 0.649429476596996
0.416772397495101 0.0214717705763959 0.655307217323319
0.411585343035151 0.0265259790795422 0.657677008069751
0.404088015219652 0.0279381084129813 0.665167571359352
0.399907641940697 0.0275879242103143 0.670291486184122
0.395297536418115 0.0241365310168736 0.677655905340341
0.389285101474173 0.027980521267516 0.680874291288645
0.386933709821792 0.0237429151428399 0.686501490995274
0.377840444919573 0.0301617286124628 0.690157602363176
0.373546972870441 0.0304345511600764 0.693784595842501
0.370711070878085 0.0285295484242083 0.697888022098583
0.365251189785978 0.0296440107851751 0.701884579251479
0.366478269058221 0.0238997124572682 0.704927651478631
0.354735686619071 0.027962884207992 0.711477412367075
0.349613745804371 0.0304783571419512 0.713607955238574
0.347508742624564 0.0239239622887278 0.719781474675154
0.340956547555701 0.0245686297409036 0.723967899533148
0.333247741214062 0.0278697443761979 0.727110581458859
0.329455547328058 0.0229313995798774 0.732784902783046
0.327377936482286 0.0232900170001883 0.733846562926934
0.314410096082555 0.0291217500182316 0.738009878421181
0.309921334974494 0.029161242140267 0.740681281588136
0.308382292201082 0.0283555437107929 0.742158864412976
0.295206632255461 0.0278885708308377 0.749294551624429
0.288798551435937 0.0294485785668291 0.751573459060625
0.288963069224733 0.0293016757745967 0.751585618791636
0.27988667850161 0.0230662156961911 0.759338062409298
0.276184052682709 0.0239092212592572 0.760546223653014
0.263716164651291 0.0249537667427127 0.765296655751093
