ply
format ascii 1.0
element vertex 858
property float x
property float y
property float z
end_header
-0.431974778831706 0.258166132951119 0.869660823286369
-0.436988589995955 0.2510997111903 0.884884750938256
-0.433635401962288 0.256164842944166 0.894703369438756
0.142446699423537 -0.292467815900405 0.297786133132232
0.142203716533902 -0.292745682359784 0.299375099151569
0.141030622961698 -0.294087189812912 0.324307621108408
0.142764152108655 -0.29210478847174 0.326040183728827
0.142334322240993 -0.29259632638884 0.334130424878669
0.14166410495872 -0.293362762673797 0.343729047470541
0.144353982332958 -0.290264607935916 0.351865483939884
0.138330158007558 -0.297175344030727 0.365942991398536
0.139186110263506 -0.296196507936076 0.370279200712702
0.138175041330977 -0.297352729861379 0.383468269948304
0.143570410106954 -0.29118278093586 0.389106194230767
0.140256941789446 -0.294971943666753 0.399784579762597
0.141305865852828 -0.293772431980614 0.402613887128165
0.144941792554198 -0.289376695839442 0.414895037350975
0.143051232608763 -0.291776493577224 0.422483697982518
0.140342122001094 -0.294874534652253 0.436862130466732
0.139894633849375 -0.295386265945426 0.445261125755967
0.143666214265556 -0.291073222759215 0.446296632985755
0.142833435206731 -0.292025558822336 0.46581929653073
0.144560280708781 -0.289952985550395 0.468772844206038
0.137409806746464 -0.298227824502455 0.477630273917063
0.139541197594552 -0.295790442885173 0.487853501625176
0.14206334240918 -0.292906209140429 0.497896858794945
0.14346168096821 -0.291307119653124 0.50204818970472
0.138573965515235 -0.29689653456793 0.511860518662635
0.140438516544994 -0.294764301332296 0.521979047821409
0.140771694440085 -0.294383291121284 0.534159949356233
0.144544108840039 -0.289977413839254 0.544225430529613
0.143043665832877 -0.29178514666892 0.546884591641277
0.140390492117184 -0.294819220333957 0.558554739434315
0.143660956414394 -0.291079235447963 0.568447125150481
0.142704097927946 -0.292173464264466 0.578492237903807
0.141533908728789 -0.293511650381444 0.580619732986751
0.139933608112023 -0.295341696385877 0.60073978016686
0.142309550516053 -0.292624654439068 0.608500665451161
0.137745521730057 -0.297843912968637 0.611142398810589
0.144445818030343 -0.290125886247095 0.620327189182619
0.139653940822938 -0.29566151379993 0.629511764593791
0.139740873691408 -0.29556210051037 0.634370444914255
0.14260161922286 -0.292290655211477 0.656777128468887
0.142038654418699 -0.292934441434952 0.658090359935664
0.140593626906423 -0.294586922723423 0.668473410225483
0.144379928460028 -0.290225415218182 0.67468534298485
0.139993160335947 -0.295273594612806 0.687617300777148
0.142567643704091 -0.292329508388012 0.693332727025738
0.141793109822043 -0.293215237369985 0.696055681542303
0.139266102842693 -0.296105031310752 0.709644912155124
0.141270231071723 -0.293813182629646 0.712417830315727
0.141487526356624 -0.293564691587557 0.732922085007577
0.140813724745117 -0.294335226782007 0.739865169085324
0.138665051794569 -0.29679237158767 0.747461571034505
0.141278546693064 -0.293803673185327 0.765298034722109
0.138494578671645 -0.296987318495895 0.764771257044998
0.138868611318382 -0.296559588266014 0.774077836656719
0.139216103021754 -0.29616220930067 0.784867179420111
0.141296396170171 -0.293783261167785 0.791683802024006
0.140769504059487 -0.29438579596145 0.804011144687555
0.142271692516411 -0.292667947480546 0.805394229329944
0.13803314108906 -0.297515001854544 0.815278644741147
0.142935496660509 -0.291908845028854 0.827841019935001
0.143333781362683 -0.291453381024025 0.835092602697319
0.141193703428427 -0.293900696879391 0.846804118195993
0.142518926910558 -0.292385219154114 0.847321292196574
0.140530080217912 -0.294659592421971 0.871351846981762
0.141926560256408 -0.293062628271644 0.874191320098409
0.141840802913275 -0.293160697272873 0.887789090797096
0.1415598162021 -0.293482023530388 0.892200823149136
0.142263349778322 -0.2926774879346 0.897791248561
0.142687198339386 -0.292192790023762 0.907440360136409
0.140242410537809 -0.294988561081455 0.917291426525786
0.143023717320382 -0.291807959067542 0.928329753012312
0.141702131750383 -0.293319276607856 0.944351254136236
0.139584973752814 -0.29574038205118 0.945307118020877
0.139508439605575 -0.295827903738598 0.955348544743602
0.128967910324407 -0.281161694463417 0.955555555555555
0.122637546027844 -0.275860414758887 0.955555555555555
0.118451920094311 -0.271702793895447 0.955555555555555
0.109433374459447 -0.266452133249681 0.955555555555555
-0.440552433647105 0.243800035443553 0.410070109768016
-0.44121428652585 0.24178446207197 0.41695460881962
-0.440757713757018 0.243174885751613 0.427737327532278
-0.441423548677513 0.241147185670946 0.436290668819918
-0.439324324131895 0.246454917036063 0.462395712728397
-0.439559125931086 0.245970110427036 0.468694699790304
-0.438165062620822 0.248848500237273 0.474477193558292
-0.440338535862492 0.24436082511837 0.494804798162814
-0.440661639711305 0.243467464804238 0.5103268896126
-0.442794498706796 0.236668792096444 0.514263477298424
-0.439851207824416 0.245367034842644 0.526545984492991
-0.440707330506573 0.243328320361076 0.529380087968356
-0.441694626818007 0.240321657975674 0.542306203422642
-0.439173651889697 0.246766017287703 0.553109963743374
-0.442433933191807 0.238070211637178 0.568912201269275
-0.440867463959635 0.242840658020611 0.589121347803389
-0.439938193051391 0.245187432245601 0.601354910666024
-0.440398623583139 0.244236759101026 0.60382332896077
-0.441536769003488 0.24080239020131 0.611275458601197
-0.440988155770699 0.242473109267162 0.632366723839932
-0.44046000284449 0.244081519547423 0.63526711181364
-0.442156627755563 0.238914703624805 0.654959715787692
-0.439112499679435 0.246892281208143 0.663841302475132
-0.438949795212024 0.247228224975995 0.675644322173514
-0.440158129699344 0.244733318431899 0.687336586985516
-0.437759967745508 0.249684919180873 0.694275913322332
-0.44030954085858 0.24442069250258 0.713801394714373
-0.441997116789189 0.239400470275709 0.725860474906402
-0.440537916770741 0.243844244406569 0.735204909562814
-0.442942051621155 0.2358738562966 0.75317003717444
-0.436971593212084 0.251125385548206 0.757685638808004
-0.438549174384087 0.248055406138007 0.765782842255487
-0.441721020513644 0.240241279946338 0.789294035670571
-0.44101259850223 0.242398672605506 0.789098564514572
-0.440014990288718 0.245028865282574 0.80504501182337
-0.441170313072526 0.241918376608601 0.814907329133937
-0.437262552194431 0.250685879750809 0.822628956107866
-0.438013287838485 0.249161876956761 0.837519326928806
-0.439315439657211 0.246473261239809 0.848093296214516
-0.44190907899199 0.239668576142478 0.85862941807143
-0.441790926759566 0.240028390991236 0.875268091382716
-0.440534260897164 0.243855377819553 0.8843511590123
-0.441673192582839 0.240386932714265 0.894462382260077
0.136651578647377 -0.299094906779776 0.29476923715447
0.13867282948609 -0.296783477300469 0.311052697943526
0.135591061873139 -0.30030767547148 0.310675759078273
0.134012992248943 -0.301932444184316 0.323078662759735
0.132953708754996 -0.30285874441097 0.335141670606007
0.137691883824296 -0.297905251341 0.338859756741173
0.134802937592037 -0.301208945943113 0.353958626310766
0.138441720527836 -0.297047765160644 0.363155612481032
0.137847855058458 -0.297726888269153 0.370163206111229
0.132480344315802 -0.303272682313166 0.376440024137192
0.133041548957961 -0.302781931734873 0.392976377058911
0.133610162740761 -0.302284702165173 0.399835415416219
0.132593632971054 -0.303173616003121 0.409232907456813
0.133101210451444 -0.302729760191323 0.413371733720058
0.135339756993501 -0.30059505865815 0.4299734493092
0.136154198203374 -0.29966369309698 0.439518464028979
0.136290974664602 -0.299507280474409 0.442427604738146
0.134438786373145 -0.301560104583058 0.454212302128311
0.134821762053665 -0.301187418968476 0.465722450149781
0.135371239619429 -0.300559056263858 0.472522942061548
0.13826872096394 -0.297245601215545 0.476730830330758
0.137184927148728 -0.29848498869086 0.487113489351212
0.134055689126038 -0.301895107506122 0.4991504148222
0.135090626504071 -0.300879955290686 0.498493607705076
0.136102555639751 -0.299722749668119 0.513395547277173
0.13618004637222 -0.299634134064369 0.52402437439839
0.137779669423888 -0.297804862898916 0.533106963609128
0.135241631841432 -0.300707271039121 0.538462207514414
0.137477167113048 -0.298150793619362 0.545016405066741
0.135713886555758 -0.300167217599179 0.557622670028022
0.1354161916737 -0.300507650717646 0.574178244522226
0.131255598209705 -0.304343672847952 0.577180903783489
0.136766353782713 -0.298963654079108 0.585760389820871
0.133345915473682 -0.302515775626419 0.599090545038716
0.138943432039821 -0.296474025990474 0.603756176194546
0.136753689801233 -0.298978136151079 0.615394307216861
0.134036004251664 -0.301912321126177 0.625086596517671
0.135675156824509 -0.300211507521449 0.631200777000259
0.137398409056826 -0.298240858488797 0.638930130928553
0.139015779630145 -0.296391291898382 0.647790522927217
0.138090744296488 -0.297449128906369 0.660902499508427
0.132925529753785 -0.302883385798623 0.669186843251715
0.137466754466383 -0.298162701146125 0.681954404571915
0.135338245498209 -0.300596787149592 0.687065766909694
0.13487400550389 -0.301127675245116 0.691798052030274
0.13524230288984 -0.300706503652391 0.706558244539421
0.134877650596956 -0.301123506848296 0.709604633426438
0.13647057940594 -0.299301890977074 0.717264471413302
0.1381830597694 -0.297343560264715 0.730447438106207
0.135912480412479 -0.299940112835117 0.747597950119775
0.133868106496094 -0.302059140867942 0.749280234694374
0.13424380110997 -0.301730611245821 0.759920694194395
0.135300772561118 -0.30063963984744 0.766821223936429
0.137314280275942 -0.298337065125038 0.771097249122443
0.132530984760026 -0.303228399309391 0.785807985663274
0.135590947579072 -0.300307806174048 0.793567426417544
0.13241787235814 -0.303327311493053 0.800841104689639
0.136352461464785 -0.299436966389778 0.812503927985565
0.133259806438197 -0.302591074467138 0.81703603953417
0.134707335130958 -0.301318273465754 0.82644036781798
0.134224387820294 -0.301747587376129 0.843134696169629
0.136184337472076 -0.299629226917509 0.846531987613706
0.135469778504529 -0.30044637075273 0.850872509629363
0.135606767889016 -0.300289714638808 0.858859057330957
0.138658630247647 -0.29679971503687 0.874354510975239
0.131894244715399 -0.303785202517434 0.885495658421961
0.135451892630279 -0.30046682439273 0.894165547274611
0.135805159596409 -0.300062841045419 0.903290704305897
0.139464107102654 -0.295878600788257 0.907538373176711
0.13551730655036 -0.300392019395579 0.916170007178404
0.137605955216301 -0.298003516194541 0.929072775046374
0.133251923140202 -0.302597968089819 0.94115863307805
0.136091271324306 -0.299735654003827 0.937783478410797
0.135550057837404 -0.300354566206243 0.951823591174976
0.134907423655455 -0.292811673796372 0.955555555555555
0.122219573823076 -0.281001229309582 0.955555555555555
0.103535799901893 -0.273727010996746 0.955555555555555
0.102270483653382 -0.268348190176812 0.955555555555555
-0.444090113888889 0.227951481230576 0.419025426555439
-0.443571959474031 0.232480251331017 0.428972204509963
-0.443325836760572 0.233806228231802 0.431840768008314
-0.443351151798057 0.233669844415471 0.457547382225312
-0.443554968907746 0.232571787370541 0.457753032183571
-0.444084595305469 0.228062252652802 0.477301896091685
-0.443613826839574 0.232254692467208 0.480694886108126
-0.444253657796512 0.224668756323501 0.492265114718097
-0.443449583898886 0.233139545158811 0.516929910628173
-0.444185023940345 0.226046405129768 0.521859012089552
-0.444021629916947 0.229326121495055 0.532081023754978
-0.443898237636914 0.230722439948504 0.542090751756672
-0.443908083539987 0.230669395514457 0.553790660790332
-0.443192541046403 0.234524353899594 0.56229151615145
-0.442916522887827 0.236011391391285 0.57631502043912
-0.44409325235216 0.227888484621893 0.583693636139266
-0.444213671756873 0.225471373615495 0.606102982670093
-0.444219035196428 0.225363716308843 0.615756553725101
-0.444257603904244 0.224589548321665 0.629410108650233
-0.443445617168033 0.233160915772715 0.636761111532246
-0.444041713182812 0.228923001390914 0.651414359437009
-0.444110744073341 0.227537383137155 0.660211550661188
-0.442985737395812 0.235638500821788 0.664746773593637
-0.444024747350462 0.229263547004849 0.676932568469846
-0.442798710796469 0.236646099621089 0.694238199077137
-0.443971906953502 0.230324182584128 0.707774394181116
-0.444150252595897 0.226744350777091 0.721557479403753
-0.443206849281376 0.234447268819561 0.724385213266557
-0.444185939926411 0.226028019056455 0.738555988557315
-0.444103864392007 0.227675475112557 0.757048548312865
-0.444132780969438 0.227095048911783 0.767666401222451
-0.443376501454767 0.233533274089362 0.76910413355552
-0.442939855609308 0.23588568722818 0.786277869036907
-0.443538075002392 0.232662802652906 0.794046221934105
-0.444165790731563 0.226432462515992 0.814244656368254
-0.444118426234906 0.227383183427256 0.816442446229574
-0.4441024510588 0.227703844155379 0.832857603213806
-0.442837059682515 0.236439496433785 0.836354401780753
-0.443975883224097 0.230244369140075 0.854618954013063
-0.4442735581757 0.224269307200833 0.866016025828808
-0.444426341539012 0.22120257264973 0.887268339340854
-0.44400239101839 0.229712293088935 0.896451105311619
-0.4441531420706 0.22668635197595 0.905119135370538
0.12750354494309 -0.307624690451966 0.298716726407566
0.128344441102005 -0.306889361045772 0.311689933491735
0.125142489333966 -0.309689337317863 0.311750422005363
0.127067840813801 -0.308005695948626 0.327139587093644
0.128818492000048 -0.3064748228633 0.337321701734421
0.129511031088621 -0.305869225666349 0.346785243144995
0.131341350966801 -0.304268685558157 0.356771818990831
0.131558273030029 -0.304078996058148 0.35940326230186
0.128206384369834 -0.307010086029246 0.37447237668479
0.124232043159338 -0.310485485377124 0.381647591232935
0.131295481946742 -0.304308796146041 0.38465055161342
0.132472549040493 -0.303279498963597 0.392994906566977
0.126146214593401 -0.308811620502086 0.401585322172231
0.130011886053776 -0.305431248420035 0.412650058446323
0.127822254983008 -0.307345991516412 0.421238236045747
0.130880046036864 -0.304672077911195 0.435824852550667
0.128449599221792 -0.306797404557494 0.433547992113235
0.129660083309171 -0.305738885576592 0.452457372844228
0.127229534667448 -0.307864301266147 0.454525046187882
0.125279988064437 -0.309569100284125 0.474376841454056
0.125689603276641 -0.309210908481766 0.47283185728545
0.127558321547976 -0.307576790544329 0.486756839182086
0.131736741337987 -0.303922932799298 0.495653935698245
0.128996574605643 -0.30631909688544 0.505328581430339
0.129822254092942 -0.305597073838165 0.520373450415929
0.129672815636639 -0.305727751675339 0.523149441090232
0.132744498415786 -0.303041690322746 0.533377702229296
0.132703005243553 -0.303077974410116 0.546333436726995
0.129135448151892 -0.306197657631359 0.549962848245763
0.128569267141184 -0.306692759841053 0.558640637678579
0.12807318834353 -0.307126560523619 0.567018385533074
0.126818846419795 -0.308223431394255 0.577288841765637
0.125065574785635 -0.30975659595444 0.587875385625114
0.131344718620293 -0.304265740682484 0.593538085935251
0.130210405213144 -0.305257651509134 0.608234802240874
0.126984725158237 -0.308078377200649 0.61543441825198
0.125683659911647 -0.309216105712133 0.621488818670347
0.130467500565815 -0.305032832105441 0.63609147860899
0.129119430471076 -0.306211664440163 0.648630979785568
0.129365779288543 -0.305996242443352 0.644084482434738
0.128480956083892 -0.306769984260061 0.661338185721634
0.129246513234629 -0.306100535744818 0.670138678830529
0.13283206347747 -0.30296511824648 0.674281209565901
0.126368310075092 -0.30861740705856 0.687485733913315
0.127754512051884 -0.307405229947685 0.696857327008425
0.125463494053377 -0.309408631778649 0.708253655424723
0.128043713037888 -0.307152335476643 0.715250367101585
0.12845799097132 -0.306790066314679 0.712813723268325
0.127859013130596 -0.307313848015039 0.731218759272854
0.131951474588391 -0.303735157326863 0.737504517639556
0.127570291600649 -0.307566323221307 0.748916961419494
0.132172140823423 -0.303542193701268 0.758840492622768
0.129557819312276 -0.305828311272399 0.771649172251667
0.127579578758587 -0.307558201980343 0.77983520438748
0.128454618096088 -0.306793015756551 0.784652924860922
0.128879182752263 -0.306421751274955 0.785311065889328
0.129415998740709 -0.305952327579966 0.802016145565665
0.128252249173123 -0.306969979128757 0.813881901860728
0.128997137357674 -0.306318604781734 0.81819227383957
0.130188822614807 -0.305276524611421 0.836107390680341
0.12932625038176 -0.306030808860672 0.829142161575293
0.127809930340081 -0.307356768914155 0.847128569023209
0.131762926061499 -0.303900035326183 0.858206340249385
0.127663965997757 -0.307484408780302 0.863889999238021
0.126677101867477 -0.308347381226089 0.873183676948544
0.129593226747382 -0.30579734891402 0.887311961010704
0.128351473985849 -0.306883211075593 0.885358791321818
0.129420217130109 -0.305948638770426 0.903998385353846
0.127837549168626 -0.307332617374659 0.915734402715699
0.126633169788134 -0.308385798038289 0.913716329286243
0.12843070776777 -0.3068139243638 0.923134129253848
0.126100452357318 -0.308851637711735 0.939417376504135
0.1275848206527 -0.307553618157662 0.949120146981518
0.129853964441423 -0.305569344431304 0.955189042005182
0.12049078065462 -0.298104918241391 0.955555555555555
0.114189095606034 -0.293494697262992 0.955555555555555
0.10725359729896 -0.287210126472324 0.955555555555555
0.0926246222077839 -0.2759713245461 0.955555555555555
-0.444444444444445 0.211007320283348 0.423993050992089
-0.444263584412742 0.224469504937031 0.434100666244022
-0.444444444444444 0.205917611170148 0.455119778629909
-0.444444444444444 0.21190337438014 0.459105517818191
-0.444444444444444 0.215166950036746 0.472718644608099
-0.444444444444444 0.210783878274544 0.480948904924762
-0.444411939332831 0.221491660036937 0.484788497394527
-0.444444444444445 0.209068765947961 0.509316903444698
-0.444436477627941 0.220999116635551 0.512004765201377
-0.444368696926271 0.222359640551269 0.525538310360643
-0.444444444444445 0.210391436542006 0.543554228230558
-0.444444444444445 0.213126083935621 0.551878163978594
-0.444444444444445 0.210604923307514 0.567114634770152
-0.444444444444445 0.21780842139538 0.578958495954403
-0.444444444444445 0.213996357270211 0.586675389285111
-0.444444444444445 0.214379480189859 0.603281395395091
-0.444444444444445 0.21971767005977 0.604628512004108
-0.444444444444445 0.216504510551191 0.617990688049065
-0.444444444444444 0.205460470766653 0.634666088963638
-0.444444444444444 0.215526906912918 0.641839744911856
-0.444444444444445 0.209279356417611 0.654465267303381
-0.444444444444445 0.216778344144808 0.664015585614783
-0.444444444444445 0.20650502431051 0.680446979407238
-0.444444444444445 0.207657504548707 0.690042557470071
-0.444444444444445 0.21009721820173 0.708297965622315
-0.444336627583242 0.22300335044327 0.712643989829609
-0.444444444444444 0.214277444926977 0.7245071487359
-0.444444444444445 0.210026267765724 0.732456637379884
-0.444444444444445 0.210588351947019 0.753761280547276
-0.444444444444445 0.216241758529383 0.759756587463583
-0.444444444444445 0.216585186125909 0.763299956361575
-0.444305685821285 0.223624427034393 0.776578567568381
-0.444444444444445 0.212500036890765 0.786818762276448
-0.444444444444445 0.216852146233146 0.799672556751168
-0.444444444444444 0.218973665867702 0.821616712278454
-0.444444444444445 0.218693374995216 0.827552911867033
-0.444444444444444 0.209901847935799 0.83866735060283
-0.444444444444445 0.216783043641014 0.851612396778603
-0.444261116302903 0.224519045918188 0.858756455359929
-0.444444444444445 0.214701058355505 0.875495949479617
-0.444444444444445 0.214311242619317 0.884606132816345
-0.444407621022681 0.221578339048663 0.892920697964855
-0.444444444444445 0.205644985312784 0.917748593753712
0.120648188947675 -0.312973426275248 0.300499538212325
0.123126585524565 -0.311332693092352 0.307486353439954
0.120716336547176 -0.312928311611647 0.309769736562829
0.12033030089162 -0.313183872612562 0.323003452627984
0.125740590659063 -0.309166322094681 0.329608461538281
0.118997236297975 -0.314066380010341 0.338706287031787
0.121294184344262 -0.312545768291428 0.34877890315396
0.118880562142041 -0.314143619932722 0.361227222702688
0.125857694460468 -0.309063919594874 0.370908860897342
0.122666725534824 -0.31163712683459 0.376947040229261
0.123906751583091 -0.310769939597858 0.388253955651399
0.120109429884064 -0.313330092307431 0.393480647590836
0.124474121626582 -0.310273797627473 0.405602517564722
0.123939340798958 -0.310741441657301 0.411767309997055
0.121315046580219 -0.312531957199563 0.429391866880028
0.124560802205928 -0.310197998994951 0.43767120610371
0.12369294889825 -0.310957752620981 0.437928944463892
0.120948462313222 -0.312774641109311 0.454401716256385
0.124752513625863 -0.310030355174621 0.458955545985234
0.121382345629165 -0.312487404288292 0.465357750993023
0.120400154081088 -0.313137628824558 0.479106748266062
0.123427159922497 -0.311133708638768 0.487756935613022
0.122452828560856 -0.311778729621724 0.50215893126168
0.122315213507029 -0.311869832711272 0.501831852305407
0.122482722603249 -0.311758939347729 0.515911450452491
0.121825577066819 -0.312193978880009 0.526792697501112
0.118566798578311 -0.314351335798454 0.530886419683161
0.124111060786074 -0.310591279529885 0.543652408609149
0.125517817300164 -0.309361128314186 0.546635630936013
0.123249376966145 -0.31125140344135 0.565506219949984
0.122882461968554 -0.311494306299378 0.562983773710062
0.122797578706976 -0.311550500205246 0.580163571392657
0.122212768680923 -0.311937652618375 0.585119031510028
0.123604635830359 -0.311016217106577 0.599459874525575
0.119032907783856 -0.314042764987986 0.598885749061766
0.125968033153889 -0.308967432906176 0.609752527154584
0.120255917165132 -0.313233115679411 0.619188792825448
0.124725265188391 -0.310054182822225 0.633721224134481
0.118876139152834 -0.314146548013413 0.644051365667378
0.11964232347692 -0.313639323279298 0.654560808196331
0.121267323732654 -0.312563550391835 0.656729297168951
0.125603979363508 -0.309285783102768 0.665959714495881
0.119523938595548 -0.313717695725835 0.671425331076175
0.122912545498903 -0.311474390581707 0.680730870632801
0.121031237814935 -0.312719842569943 0.689486722618645
0.12326153333657 -0.311243355754179 0.704335249221214
0.120746001352898 -0.312908673095533 0.714604810301018
0.12602519719747 -0.30891744528074 0.718880787628462
0.120123402563576 -0.313320842198249 0.728293780463152
0.119053354697051 -0.314029228845596 0.739023569713222
0.122867796684789 -0.311504014922257 0.747113521075838
0.123576029967807 -0.311035154587508 0.749476820515801
0.123038129715306 -0.311391252074729 0.763255405414116
0.119979376002587 -0.313416189795175 0.772304802205866
0.121845853168646 -0.312180555817131 0.780035447894894
0.123780508222339 -0.310880334269677 0.792148152886879
0.123119110003939 -0.311337641991516 0.794049766105343
0.120182540462385 -0.313281692082466 0.813061938254544
0.120691643598017 -0.312944658689208 0.813119625660919
0.118908766745511 -0.314124948090913 0.828282540297498
0.120861926315119 -0.312831929149865 0.837798555248522
0.125936198085678 -0.308995271375356 0.846151667741214
0.12448230406716 -0.3102666424168 0.858727023071367
0.123422485537159 -0.311136803147211 0.866484864455697
0.11840332148977 -0.314459559916545 0.871062755962055
0.117603604443598 -0.31498898378148 0.883725954711148
0.120774116381821 -0.312890060553326 0.89251621651198
0.119743225130938 -0.313572524973691 0.903141334042869
0.120077461474645 -0.313351255841397 0.912670294485501
0.123688941784229 -0.310960405386484 0.915616744647603
0.120280787020299 -0.3132166514876 0.925654490171532
0.119237264114414 -0.313907478240172 0.93337032465854
0.122358582173785 -0.311841122047568 0.944689037252951
0.118001201819045 -0.314725768760361 0.952623987681372
0.116283581135673 -0.304965018041231 0.955555555555555
0.108891997996201 -0.292734070194474 0.955555555555555
0.103381761721736 -0.288665018339913 0.955555555555555
0.087137350434116 -0.280296900672357 0.955555555555555
-0.444444444444444 0.192363635716807 0.438603903442766
-0.444444444444444 0.203661345308418 0.438127117706906
-0.444444444444445 0.200192093328744 0.444675060923863
-0.444444444444445 0.195936251314251 0.466376312695678
-0.444444444444444 0.197015305463417 0.479616943543519
-0.444444444444444 0.201800130124504 0.498443984605658
-0.444444444444445 0.202604432756926 0.505570166321072
-0.444444444444444 0.1927917228057 0.517888012606938
-0.444444444444444 0.194863056929242 0.532714958718454
-0.444444444444444 0.208402204594962 0.528806947969036
-0.444444444444444 0.202807596643763 0.544354497075659
-0.444444444444445 0.201585046748602 0.566991686224973
-0.444444444444445 0.201652191733598 0.56809040657358
-0.444444444444445 0.197586399008525 0.588916786236021
-0.444444444444445 0.200257723497854 0.592332872593206
-0.444444444444444 0.205919493809292 0.59704486693555
-0.444444444444444 0.193319301476932 0.625636990027022
-0.444444444444444 0.210112103253452 0.627154559462631
-0.444444444444444 0.194572933648752 0.639445546769428
-0.444444444444445 0.208655490547774 0.640404004581989
-0.444444444444445 0.204686619881423 0.663455160819357
-0.444444444444445 0.199221226045864 0.668854494360595
-0.444444444444445 0.196966592295464 0.691836604157718
-0.444444444444445 0.204727968577366 0.689645530722152
-0.444444444444445 0.194508535492585 0.70870546471467
-0.444444444444445 0.206168944714693 0.716765265509513
-0.444444444444445 0.196070645108719 0.732917098839234
-0.444444444444445 0.19350322510797 0.752591845770866
-0.444444444444445 0.199010873157144 0.754017668739657
-0.444444444444445 0.20537640590429 0.759897791737072
-0.444444444444444 0.201694389875087 0.769370650015805
-0.444444444444445 0.196298136222342 0.791791610438054
-0.444444444444445 0.194945189708873 0.808705554540807
-0.444444444444445 0.192682274503178 0.807402478588075
-0.444444444444444 0.193859528347337 0.829035631101839
-0.444444444444445 0.197336555059888 0.834538720966097
-0.444444444444445 0.204085011504243 0.847033419042501
-0.444444444444445 0.19999978172096 0.854463748882836
-0.444444444444445 0.200189710547997 0.868864539551116
-0.444444444444445 0.207884630515634 0.87726838842729
-0.444444444444444 0.205339421904409 0.887742513761714
-0.444444444444444 0.200367540177582 0.897943920913214
-0.444444444444445 0.192295753769339 0.914394434465168
0.116587057179324 -0.315661952282176 0.297475795962369
0.10965612246975 -0.319920390682466 0.302860972889083
0.114497474465993 -0.31704528525162 0.315286498555014
0.115785103034116 -0.31619285713795 0.326503984080554
0.112287417902238 -0.318508373594318 0.331839879021493
0.111740908218724 -0.318870170645234 0.345195287184571
0.115660106509226 -0.31627560658493 0.353731051204533
0.113846102223733 -0.317476502782446 0.350416940992125
0.114985968011724 -0.316721895695007 0.371863099928253
0.111873209442408 -0.318782585385529 0.372471334825269
0.112762602117343 -0.31819379500065 0.384892445460905
0.117753316304325 -0.314889872436647 0.397267152962044
0.115697732896848 -0.316250697390292 0.409000888685512
0.114582120342331 -0.316989248498101 0.416156630054949
0.117706666451288 -0.314920755291541 0.420540170836859
0.114848742062701 -0.316812741191736 0.430519925004987
0.113348430758516 -0.31780596825007 0.44574628947327
0.111954267746568 -0.318728923654947 0.447564517318901
0.111719713928628 -0.318884201561582 0.460118101458939
0.112825808347143 -0.318151951592874 0.4637879960621
0.117439305791424 -0.315097751786182 0.474692778071511
0.11624349119953 -0.315889397763992 0.48148265098018
0.111197399051183 -0.319173918774629 0.491631283688354
0.114918143142681 -0.316766796706533 0.506030504259142
0.113016826657765 -0.318025494800728 0.510276259192452
0.112334064197131 -0.318477493094965 0.520775280267018
0.114229940438616 -0.317222396517979 0.529776370522625
0.118200356299516 -0.314593925710029 0.53833363059202
0.110248047898665 -0.319633709038469 0.545990178772237
0.113518690494758 -0.317693253924378 0.553126343829628
0.116740004889132 -0.315560698760012 0.564652901831078
0.112295189722397 -0.31850322854072 0.574018027314623
0.11774538126633 -0.314895125542735 0.584010288403836
0.111882544727259 -0.318776405296447 0.593692134559194
0.117826915346113 -0.314841148842038 0.60337493753113
0.114604838455115 -0.316974208789829 0.614752940300669
0.114905748488824 -0.316775002140669 0.622682636904836
0.115551263995571 -0.316347661850632 0.628247446905767
0.116680776051512 -0.31559990907856 0.635114000075212
0.114408145461367 -0.317104422301538 0.639740471372488
0.117799248335648 -0.314859464789762 0.653895739370532
0.112172160693677 -0.318584675477729 0.663068331739335
0.113322731644709 -0.317822981422693 0.679512475896907
0.11542945634319 -0.316428300219428 0.687908290194248
0.109474896699625 -0.320008162045506 0.689001914030047
0.117854248462657 -0.314823053936758 0.704484104201505
0.117920786057799 -0.314779005118552 0.713153340060944
0.114402208804774 -0.3171083524512 0.718484286434632
0.113287154295708 -0.317846534125119 0.728249502630207
0.114026713059267 -0.317356935884309 0.740526355765578
0.11603359553627 -0.316028351627498 0.747389899033903
0.112901757823869 -0.318101671977476 0.756554254219383
0.112945199711402 -0.318072912840594 0.762373481441387
0.117653446446704 -0.314955987678614 0.773804461255601
0.112309675738329 -0.318493638595652 0.783617360617291
0.111959411822127 -0.318725518205011 0.790815565826067
0.113716301655682 -0.317562432573161 0.800360614563187
0.116520027379645 -0.315706326946668 0.81359250395774
0.114250833711589 -0.317208564879174 0.818600395463898
0.115071345932105 -0.316665374318097 0.826429612483581
0.115362234447577 -0.316472802054114 0.83284228628629
0.113463295969396 -0.317729925874605 0.843218715264805
0.113530739058036 -0.317685277607043 0.859873402909857
0.114270350253818 -0.317195644655369 0.862328221540171
0.113560811899531 -0.317665368965543 0.87120419645797
0.111911204571035 -0.318757432079191 0.877983098466986
0.109061229220375 -0.320208509702873 0.885818864949375
0.11386907882328 -0.317461291952323 0.899431449828143
0.112041966261911 -0.31867086601173 0.910079499439552
0.113770491753525 -0.317526557970788 0.922035331813002
0.11500923138146 -0.316706495019011 0.92484827416835
0.119441915926681 -0.313771995879335 0.93448670355884
0.11518678855812 -0.316588949685739 0.937368373904975
0.110782130309472 -0.318728847966528 0.955555555555555
0.106790501467373 -0.310845315966337 0.955555555555555
0.0997602514721976 -0.300585645900702 0.955555555555555
0.0894953980686543 -0.297126707685585 0.955555555555555
0.0818465865203063 -0.290555785290793 0.955555555555555
0.0760259157707173 -0.28207863932335 0.955555555555555
-0.444444444444444 0.188384328673345 0.450439246582176
-0.444444444444444 0.184981122371565 0.46451540737904
-0.444444444444445 0.183978455414498 0.48106514322316
-0.444444444444445 0.1795001901352 0.486151216437466
-0.444444444444445 0.182617382803372 0.498210463341462
-0.444444444444445 0.193418656946433 0.50784053540348
-0.444444444444445 0.178660492948273 0.520121345154201
-0.444444444444445 0.185816727355395 0.539789734562663
-0.444444444444445 0.186698892162587 0.544148306682742
-0.444444444444444 0.186271813902832 0.555111435822158
-0.444444444444444 0.184947671170711 0.568704560482242
-0.444444444444445 0.193580529222837 0.56907022118137
-0.444444444444445 0.191634792543392 0.583510458761067
-0.444444444444444 0.187554110937896 0.605706819760872
-0.444444444444445 0.18772977619641 0.605767644285656
-0.444444444444445 0.183520036737992 0.617668105862134
-0.444444444444444 0.183691658987542 0.638876146411347
-0.444444444444445 0.187805129912095 0.64218853804393
-0.444444444444444 0.183541224299629 0.652905075666221
-0.444444444444444 0.181059821973529 0.67679917698746
-0.444444444444445 0.179950103087017 0.679784157518885
-0.444444444444445 0.187156151290789 0.69553995698445
-0.444444444444445 0.179562292116575 0.707842022956506
-0.444444444444444 0.183882275083951 0.716567189501592
-0.444444444444444 0.185435060054154 0.724796729811015
-0.444444444444445 0.181218478660092 0.735689834230625
-0.444444444444444 0.185220426239462 0.74944397493317
-0.444444444444445 0.178016489671435 0.766712943623159
-0.444444444444445 0.183723966933864 0.78230338407303
-0.444444444444445 0.178948568054225 0.791033205570795
-0.444444444444445 0.191036282499896 0.79537254541852
-0.444444444444444 0.177958004149511 0.805141323693422
-0.444444444444445 0.187594702763479 0.819184360811092
-0.444444444444445 0.191154163037854 0.82990290747075
-0.444444444444444 0.18535809147127 0.846581099251751
-0.444444444444445 0.188095363693099 0.848530287382309
-0.444444444444444 0.186964233008024 0.866597129942546
-0.444444444444445 0.190551867505827 0.875814988203283
-0.444444444444445 0.192714207131742 0.880157545283665
-0.444444444444445 0.185842822132817 0.908063575585627
-0.444444444444445 0.18421015267472 0.905977970844107
-0.444444444444444 0.184143953187542 0.916682261794255
0.109228229656248 -0.320127627961415 0.297603723999365
0.106590277225826 -0.321405242509797 0.310241192233564
0.105151327081509 -0.322102155622245 0.311133684015309
0.105216876674866 -0.322070408607724 0.322066855752579
0.104149135655319 -0.322587537516018 0.3217190591687
0.108928826061807 -0.320272635272269 0.338735506277858
0.104471765508695 -0.322431281250871 0.353974606493283
0.107431368436132 -0.320997884759744 0.355169289296245
0.105182914876509 -0.32208685700428 0.363118306596129
0.109856776161832 -0.319823209977751 0.37473043743223
0.108415717474012 -0.32052114430113 0.384492476963774
0.103605417588786 -0.322850871344184 0.390355483296992
0.108809613691384 -0.320330372272013 0.400861709543008
0.104690469852381 -0.322325358244805 0.412955406574982
0.108991827469724 -0.320242122396298 0.426295354749311
0.100858268549029 -0.324181372053481 0.427978456710975
0.103119299483495 -0.323086308327955 0.432420557929481
0.109070557751136 -0.320203991703808 0.448974316968829
0.103011012857546 -0.323138753765225 0.446527270641977
0.109423359196741 -0.320033122716787 0.468433789003045
0.102408495887329 -0.323430565110235 0.472848247370936
0.100556950562018 -0.324327306543979 0.477996506838313
0.110611554119548 -0.319457655508893 0.491512439157676
0.109221687434085 -0.320130796493993 0.503771416745636
0.110570111290118 -0.319477727122466 0.512861322730319
0.110599805783595 -0.319463345469319 0.523401159967451
0.102244549260287 -0.323509967829349 0.520005261905289
0.10237749939651 -0.32344557734744 0.540231599817082
0.106637230854215 -0.321382501903091 0.542476763286518
0.107727799091353 -0.320854317304422 0.55763129052629
0.108503348415544 -0.320478702836114 0.5619872811676
0.106427854098157 -0.321483907366869 0.570315933163746
0.10231137123569 -0.323477604574067 0.578483693852092
0.104600298464265 -0.322369030100286 0.587940985535465
0.103256178380338 -0.323020015066578 0.597943413779277
0.11054795558861 -0.319488457583808 0.606572865224815
0.107321027007553 -0.321051325380134 0.621886665638194
0.107187530859019 -0.321115980307021 0.626314575642101
0.108925970650057 -0.320274018206832 0.635445089658147
0.102996172811857 -0.323145941104181 0.642804476419643
0.105299661610145 -0.322030314163079 0.654177848442764
0.103974056045216 -0.322672332167511 0.659582803233066
0.108299807873047 -0.320577281701783 0.668137181342561
0.108590851964904 -0.320436323069744 0.682119712078744
0.109611661514433 -0.3199419240364 0.691175045835344
0.0998179113009713 -0.324685238438751 0.695321306684217
0.106950673057438 -0.321230695405636 0.710016483477298
0.108047234446565 -0.320699608200353 0.715848045049779
0.105114039697019 -0.322120214668475 0.727036683656413
0.108764910350877 -0.320352023018074 0.739946542505288
0.107297442897685 -0.321062747648986 0.745453084533175
0.104612950385273 -0.322362902515058 0.750973833670536
0.101614996298176 -0.323814873260582 0.761809940843704
0.103769045326309 -0.322771623069815 0.771680759722801
0.105365899370123 -0.321998233855328 0.780282920684182
0.100812118326769 -0.324203723554095 0.791222761938675
0.10679407935456 -0.32130653695254 0.795989093182091
0.102104933421171 -0.32357758664809 0.811275496652755
0.105622403800003 -0.321874003491065 0.816388406050717
0.104482665950646 -0.322426001942927 0.82483549573606
0.107598163734936 -0.320917102370381 0.840079640822165
0.104245213629425 -0.322541004979617 0.837990955873052
0.105594094811313 -0.321887714115784 0.85401051828362
0.10740390040371 -0.321011188092068 0.863915746364607
0.108264963937102 -0.320594157335692 0.870939501148293
0.109378449322442 -0.320054873491406 0.874445464362757
0.105158463066818 -0.322098699517979 0.891526446637788
0.107076397049051 -0.321169804693995 0.893180790856622
0.102675472164551 -0.323301263015202 0.907169872440777
0.102915868220627 -0.323184834267255 0.910871095986049
0.106172007985411 -0.321607818894622 0.924263226691608
0.106080932998002 -0.3216519283818 0.927317345129693
0.103608563103726 -0.322849347906687 0.942442472044291
0.105328012428239 -0.32201658327952 0.952113533505574
0.101989263248488 -0.323633608088707 0.955387683077696
0.0931385801160499 -0.310913134322773 0.955555555555555
0.0845687800325688 -0.297739412727889 0.955555555555555
0.0693687074627105 -0.294291290021981 0.955555555555555
0.0671537222962609 -0.289798826492135 0.955555555555555
-0.444444444444444 0.175613127527948 0.454622668535164
-0.444444444444445 0.160800650449238 0.472900281081883
-0.444444444444445 0.171482143394471 0.481221156603326
-0.444444444444445 0.174450516062287 0.490556823958284
-0.444444444444445 0.173531859738038 0.50200966814677
-0.444444444444444 0.170911983421535 0.514221738262289
-0.444444444444444 0.164509149900743 0.521157880373455
-0.444444444444445 0.165509569126888 0.543109503590249
-0.444444444444445 0.167996947740182 0.541120547641846
-0.444444444444445 0.170935124244253 0.562635260998396
-0.444444444444445 0.17430590137243 0.569359419702982
-0.444444444444445 0.172680206597547 0.586842505468684
-0.444444444444445 0.170515588758778 0.596138487990649
-0.444444444444444 0.165216698208989 0.616487221186522
-0.444444444444445 0.172304828854306 0.616792575991658
-0.444444444444445 0.16058266555427 0.639558115092705
-0.444444444444445 0.17323473998713 0.647343672955179
-0.444444444444445 0.160424840206337 0.656372522254685
-0.444444444444444 0.165483893411402 0.660697241483395
-0.444444444444445 0.162782932740329 0.676383016823726
-0.444444444444445 0.168844554412433 0.684988496669224
-0.444444444444444 0.177327425094715 0.692422849628012
-0.444444444444444 0.163402239957656 0.709220725956717
-0.444444444444445 0.173982005065928 0.726100629776907
-0.444444444444445 0.178003698004942 0.726444369481473
-0.444444444444445 0.169029047537792 0.747932081174984
-0.444444444444444 0.162543041517599 0.762679668997388
-0.444444444444445 0.160751378148004 0.773120419744944
-0.444444444444445 0.170506120220457 0.776256109415936
-0.444444444444445 0.167583966467579 0.792185042427834
-0.444444444444445 0.17151212845431 0.803235832677954
-0.444444444444445 0.17217187008205 0.813268503264641
-0.444444444444445 0.172630241726738 0.826339740823378
-0.444444444444445 0.171720194777502 0.834729811357785
-0.444444444444445 0.165784670264189 0.847046621313136
-0.444444444444444 0.166113659624042 0.857996784057434
-0.444444444444444 0.174203055879126 0.866516624097162
-0.444444444444445 0.169460892130411 0.881302927283736
-0.444444444444445 0.167717813436232 0.894741600038701
-0.444444444444445 0.168723189949103 0.89897227510119
-0.444444444444445 0.169128336187025 0.91803561945043
-0.444444444444445 0.172916946733332 0.922287292937813
0.100828230445977 -0.324195920123802 0.294652470287661
0.091751925153134 -0.327559556008197 0.294373235346881
0.09653762162659 -0.325988079111147 0.306714388031045
0.0968665495888063 -0.325880069191111 0.315483257645876
0.0988771833755476 -0.325140852296579 0.328102381806202
0.100248823623397 -0.324476538749606 0.338756845033871
0.0929444277807712 -0.327167974481997 0.340493320848601
0.0948901733499655 -0.326529050925837 0.35296000737283
0.097319381693433 -0.325731372926187 0.369687091436163
0.101000164956735 -0.324112648708526 0.370309451731856
0.0944087894690299 -0.326687122724101 0.378069688445202
0.0978514081262954 -0.325556671656998 0.391492770833733
0.0931525328785494 -0.327099639109052 0.391633401243794
0.0955038103965449 -0.326327551217859 0.405822852993182
0.0952244923332143 -0.326419270758763 0.409475842589789
0.0930568734492716 -0.327131050750791 0.425398800664351
0.0986611682814208 -0.325245472843843 0.433328714263079
0.0988957738523904 -0.325131848546776 0.446106368635845
0.0964284699200939 -0.326023921205602 0.445133703818326
0.0908904873805814 -0.327842425923855 0.463144417105091
0.0965662953435282 -0.325978663536221 0.475029208735655
0.0984331804919354 -0.325355892013401 0.47732515100944
0.0975974709324342 -0.325640056893749 0.479588055158558
0.0933931617596898 -0.327020623916682 0.490639858260694
0.0920359056900129 -0.32746630545305 0.502935087134112
0.102021479720669 -0.323618004989469 0.513707312891049
0.0962085373803675 -0.32609614035009 0.5222834708023
0.0946212067704925 -0.326617371354862 0.530417897419865
0.0974299778245806 -0.325695056526689 0.549593478419885
0.0972232955200698 -0.32576292469768 0.552754124618157
0.0970544639041478 -0.325818363855885 0.559018850180082
0.0966821247293685 -0.325940628695346 0.560742061056497
0.0959100725186556 -0.32619414711616 0.579113173057536
0.0958174626904476 -0.326224557361832 0.582874898774503
0.0982740247528422 -0.325417897234381 0.602328191827011
0.100238487940527 -0.324481544533126 0.609342335339832
0.0962543516081447 -0.326081096353691 0.613424983765524
0.0968568546149574 -0.325883252725108 0.621913179634043
0.0923396785695223 -0.327366555695674 0.626817920393918
0.098423061899314 -0.325360792655653 0.650135358152702
0.0953248600528615 -0.326386313057933 0.650736297791536
0.0949867488179179 -0.32649733848491 0.656408838193175
0.0983957389856279 -0.325374025703993 0.667586262240759
0.09283567564902 -0.327203685368281 0.680180135911105
0.0915720932997689 -0.32761860730919 0.688807080901091
0.0972583477249662 -0.325751414621667 0.694628113378187
0.0985758244264867 -0.32528680662584 0.700838941647596
0.102142085776943 -0.32355959299904 0.716241179793842
0.0963440543812804 -0.326051640696324 0.717316939694212
0.0954973758710289 -0.326329664119972 0.725338496235621
0.0966764507924253 -0.325942491843347 0.744104782474518
0.0984692194642915 -0.32533843759881 0.747877396826567
0.0904533911190847 -0.327985955017382 0.753508178970784
0.0967122803131399 -0.325930726520505 0.769767043620205
0.0978607644466801 -0.32555359932648 0.779221995058532
0.0931876396444526 -0.327088111116867 0.781324241076363
0.0985790838197707 -0.325285228034721 0.797178827021728
0.0940278443417963 -0.326812213496114 0.803652601275488
0.0955629193756542 -0.326308141630227 0.81241291466811
0.0994588898298517 -0.324859119911894 0.81867549586214
0.0925320528089432 -0.327303385857279 0.826978016733333
0.0973226523615226 -0.325730298938447 0.838016050905221
0.0933308316102618 -0.327041091238494 0.849970381065692
0.0963489747529711 -0.32605002499619 0.859968730318909
0.093896082413811 -0.326855480098351 0.8646240111279
0.0951614778180242 -0.326439962805438 0.878646004137805
0.0996571837371313 -0.324763082099433 0.887207152817291
0.0976809913581127 -0.325612631330905 0.89374873889905
0.0947955131587077 -0.326560134448258 0.902854321031683
0.100036478351763 -0.324579381926455 0.914478106943664
0.100423943589507 -0.32439172455287 0.922343571583946
0.100943000170729 -0.324140334788614 0.928953767022475
0.0964059043656299 -0.326031331046093 0.93090229926521
0.0994774608574548 -0.324850125581758 0.94943374689023
0.0955311583379297 -0.32502059001249 0.955555555555555
0.0847505255960155 -0.317468181188804 0.955555555555555
0.0782086058975024 -0.310062441712514 0.955555555555555
0.0756235262775497 -0.307299120993677 0.955555555555555
0.0669248462111482 -0.299015382938404 0.955555555555555
0.0571824964398338 -0.285374007676694 0.955555555555555
-0.444444444444445 0.15770378470342 0.480020086505929
-0.444444444444445 0.156815044600015 0.487322841251122
-0.444444444444445 0.152095523301796 0.504378380389488
-0.444444444444445 0.152825951132945 0.514714775565765
-0.444444444444444 0.162832477323342 0.515666237095768
-0.444444444444445 0.161009586195909 0.527747068233405
-0.444444444444445 0.157373275056283 0.541517208536745
-0.444444444444445 0.158064935513642 0.561316151850547
-0.444444444444445 0.151742012369944 0.572755579719226
-0.444444444444444 0.144835664637018 0.58568448457385
-0.444444444444445 0.153242714915644 0.588377347423784
-0.444444444444445 0.15539088627894 0.608847487534992
-0.444444444444444 0.161172395382977 0.605136940414333
-0.444444444444444 0.155923258829464 0.621220988534549
-0.444444444444445 0.151023358209759 0.633306328836784
-0.444444444444445 0.14607426163188 0.65114409818923
-0.444444444444445 0.15256681709362 0.66203196501122
-0.444444444444445 0.147222625584193 0.673968385240535
-0.444444444444444 0.151511371769417 0.685528897892453
-0.444444444444444 0.156942193371098 0.694389724922846
-0.444444444444445 0.151825352060176 0.706320972058522
-0.444444444444445 0.152107714230033 0.720009771948352
-0.444444444444445 0.148944237911856 0.729628127836029
-0.444444444444445 0.157143373923381 0.739865056707394
-0.444444444444445 0.154680074157289 0.752026345873669
-0.444444444444444 0.161819025293868 0.756893071184251
-0.444444444444445 0.149926180187634 0.78002220944119
-0.444444444444445 0.144628172362064 0.793425783185119
-0.444444444444445 0.154003174489358 0.793626521230923
-0.444444444444445 0.14841424088718 0.814352474427782
-0.444444444444445 0.157285774640677 0.819163468092298
-0.444444444444445 0.161904071691291 0.821462495178337
-0.444444444444445 0.157058707520758 0.837284597230817
-0.444444444444444 0.152706211449352 0.85343595799383
-0.444444444444444 0.155041564595163 0.865664750973174
-0.444444444444445 0.151104645147048 0.879393278766731
-0.444444444444445 0.158314049749883 0.887763110970383
-0.444444444444445 0.15202863856334 0.904279167921023
-0.444444444444444 0.15650048203034 0.905366619303185
-0.444444444444444 0.155016768230193 0.919684573112049
-0.444444444444445 0.157884646434638 0.935995284123166
0.0902933280777312 -0.328038514842885 0.288823150306388
0.0813179501335448 -0.330531921164295 0.293821370633772
0.0870492206641944 -0.329103780866379 0.301032574862748
0.0868363221624388 -0.32917369024713 0.303863857884285
0.0861876832384505 -0.329386683505108 0.320185867570228
0.0823792661138789 -0.330334923789181 0.329599783051489
0.0883839205201466 -0.328665506103288 0.333384559732252
0.0908028549184967 -0.327871201754158 0.350461177376227
