ply
format ascii 1.0
element vertex 849
property float x
property float y
property float z
end_header
0.323828232393156 0.00510041265885823 0.578040092186405
0.321254450042213 -0.00111324759938384 0.593475580447251
0.321134866363314 -0.00140194813881897 0.601180912273996
0.323648342244833 0.00466611942304111 0.609716458411836
0.324467417929334 0.00664354304917425 0.614254020478619
0.325212575501813 0.00844251256675733 0.618509011978758
0.323192177439553 0.00356484016345804 0.630935828575067
0.324053977508978 0.00564540957911669 0.640759770280103
0.324703981977251 0.0072146591820246 0.650044873900228
0.325337441988017 0.00874396693123808 0.660581960269136
0.324124514409059 0.00581570071994034 0.667344172982416
0.323006075955009 0.0031155514354936 0.677716616782724
0.322373641050407 0.00198905558792719 0.691204558997799
0.321402006305812 0.00602642968622782 0.697007154672072
0.31697777534005 0.0118971509810842 0.700727528660506
0.235905143815853 0.105403970366177 0.607884302688326
0.230427182858576 0.114704445898053 0.607884302688326
0.229895227778741 0.117634520918054 0.607884302688326
0.214415571505154 0.133832620726774 0.607884302688326
0.20221468784918 0.145811492304906 0.607884302688326
0.197659651851248 0.144880041101542 0.607884302688326
0.186669436685233 0.163395166595899 0.607884302688326
0.180506679783679 0.172917169862751 0.607884302688326
0.171356566717683 0.18068131661821 0.607884302688326
0.174485659007146 0.188149365891699 0.607884302688326
0.162243095153872 0.198262528243801 0.607884302688326
0.150366470232114 0.207224778931313 0.607884302688326
0.141066751976648 0.215128081588777 0.607884302688326
0.130866060459308 0.228398057755937 0.607884302688326
0.120793307521639 0.237471380567093 0.607884302688326
0.121196835785521 0.243304971499336 0.607884302688326
0.107254237365244 0.253329387331077 0.607884302688326
0.106738460789948 0.261217690899186 0.607884302688326
0.0891173561475419 0.276348369962606 0.607884302688326
0.0807500241887368 0.285121614679601 0.607884302688326
0.0790329460350599 0.296993111409011 0.607884302688326
0.0647103661436926 0.318957679944439 0.607884302688326
0.056052228219467 0.320283870882129 0.607884302688326
0.0455225813742559 0.333503446297911 0.607884302688326
0.0332345425898789 0.347739288310092 0.607884302688326
0.0297532729537234 0.354258007985167 0.607884302688326
0.0157202321230719 0.362687390254603 0.607884302688326
0.0177790500990529 0.373746855676069 0.612368011016117
0.0105638822667977 0.372796960810441 0.621086633365888
0.0172886621257179 0.373682294874593 0.636468986416305
0.00690755414897137 0.37231559608173 0.644019851242441
0.00433185057398176 0.371976498273038 0.652234449209972
0.0161428921558376 0.373531451396397 0.672578339339166
0.0105006636289835 0.372788637918878 0.677855325159618
0.0114490151155374 0.372913490760674 0.687697570087804
0.00912140737201836 0.372670756477895 0.690514687895437
-0.00278846027518744 0.382737735270915 0.700885517468439
0.319009641030627 -0.00653269596009209 0.219176182576294
0.320023905898061 -0.00408404396129286 0.231810744124274
0.319880917704857 -0.00442924799658359 0.239478200471459
0.319830708139277 -0.0045504646107707 0.245932125454227
0.320204660665559 -0.00364766335013686 0.26127094933645
0.321274201283935 -0.0010655638837443 0.264967728803079
0.318139473157378 -0.00863346704123006 0.281789102337598
0.319021815989076 -0.00650330301028124 0.288860066433705
0.319087483837048 -0.00634476680109616 0.289497506902624
0.31910804367913 -0.00629513095150167 0.297024738636001
0.31913852342969 -0.00622154632432242 0.307139583300326
0.319327798063939 -0.00576459693530461 0.330018602224522
0.320768292067719 -0.002286936774863 0.330601803646582
0.318873567321315 -0.00686120695459563 0.339850483495649
0.318287766366986 -0.00827545556338537 0.347763328045283
0.318014497954453 -0.00893518387109195 0.356543670530399
0.317433657134469 -0.0103374576562763 0.3731234632962
0.320787972655756 -0.00223942363230844 0.378331431340531
0.319426471866388 -0.00552637730318222 0.388099555252507
0.319382312371535 -0.00563298775456311 0.395703147926353
0.32120559774246 -0.00123118748399839 0.407348540048556
0.320416090625924 -0.0031372262723317 0.41593470459315
0.318347534729394 -0.00813116197226027 0.429355353561675
0.319348016045553 -0.00571578640988758 0.43463870724686
0.319715802333495 -0.00482787176548376 0.446972348791739
0.319676210025316 -0.00492345605285616 0.44527502238565
0.318333750591639 -0.00816443982457407 0.465404280940138
0.319777305601893 -0.00467938974078676 0.476483761450331
0.319362333689044 -0.0056812205607923 0.477979679654174
0.319078190061818 -0.00636720395930186 0.497021056864227
0.320290689716191 -0.00343997084934232 0.499539930408172
0.317389049938021 -0.0104451489549211 0.513550414329252
0.31835586642576 -0.0081110474778967 0.523425783921234
0.319993187638518 -0.0041582044000935 0.524759073501161
0.319013368045614 -0.00652369814996159 0.534917011466358
0.321793442111513 0.000187994364333608 0.539794329912063
0.321845497057509 0.000313666120945791 0.550323797982065
0.318658797717802 -0.00737970664418093 0.562502735734071
0.320382104066501 -0.00321927708502933 0.56886973063584
0.321285364767527 -0.00103861285025169 0.576919811414109
0.319414065359091 -0.00555632926136073 0.590864906474416
0.320561445988129 -0.0027863073855331 0.597109084582091
0.318556314900461 -0.0076271220517165 0.607984907714627
0.32001350322307 -0.00410915824034116 0.616619798974591
0.320051071491222 -0.00401846041785404 0.625913704222892
0.319701190989532 -0.00486314667024292 0.638799092072654
0.321043828321461 -0.00162173341415299 0.648018490949443
0.319313820385345 -0.00579834203653721 0.647746424121704
0.318236705531832 -0.00839872732412091 0.663946335976876
0.319666605074078 -0.00494664445639984 0.667821757513794
0.319380175399863 -0.005638146860557 0.681943861446926
0.319301643543301 -0.00518067536455789 0.691927926232397
0.318020047973045 -0.00371951707305301 0.696211781143285
0.313814295258337 0.00362874487964984 0.700695459232848
0.232453708345993 0.0981616985681679 0.607884302688326
0.224008965200541 0.102790800882325 0.607884302688326
0.216073954858305 0.122803680595249 0.607884302688326
0.203088683053604 0.123282955845415 0.607884302688326
0.203176443012912 0.135275405023076 0.607884302688326
0.195641128237286 0.140792826716801 0.607884302688326
0.184777149352345 0.156779049037822 0.607884302688326
0.173759663574104 0.155841716962722 0.607884302688326
0.164620074388601 0.172758529042852 0.607884302688326
0.159349980385825 0.182631676443689 0.607884302688326
0.144561773482971 0.19808943767101 0.607884302688326
0.142386883742194 0.200573599828624 0.607884302688326
0.135801485218757 0.218578880495636 0.607884302688326
0.124353979134545 0.22971022440581 0.607884302688326
0.121939122858078 0.22893784679276 0.607884302688326
0.117164005993805 0.230608094053192 0.607884302688326
0.098928255073786 0.253533874482248 0.607884302688326
0.086714952269307 0.26565462838911 0.607884302688326
0.0878727000819343 0.269185402434488 0.607884302688326
0.0746383615332363 0.279656250319951 0.607884302688326
0.0653844031611939 0.286483213930978 0.607884302688326
0.0572082804990987 0.303105223154102 0.607884302688326
0.0508385999244974 0.311089513021554 0.607884302688326
0.0289521910514114 0.325971722776497 0.607884302688326
0.0291666499245321 0.336465850516634 0.607884302688326
0.0256902031937997 0.339928233875126 0.607884302688326
0.0145870129067329 0.359478877136237 0.607884302688326
-0.000817468942516439 0.368783833392484 0.607884302688326
-0.00172577599815877 0.371178996605364 0.610612850859208
0.00120470023775071 0.371564801120941 0.632946821178929
-0.00824452094957445 0.368963383814272 0.637397105207203
0.000977766714661951 0.371534924755841 0.644788777719076
-0.00119936053280291 0.371248300516147 0.657595348731544
0.001376784388526 0.371587456429187 0.676534649617289
0.000304933044123741 0.371446344522654 0.67951729494426
0.00329623707783912 0.372138617072544 0.692297858112881
-0.00669130004607787 0.373595249575026 0.698165994735965
0.315150576241726 -0.0158493025115334 0.217455170521324
0.317288993755614 -0.0106867059474868 0.23307461404391
0.313912385327821 -0.0188385598086871 0.247582822994154
0.317022838815947 -0.0113292608125258 0.245410477523462
0.315423468134702 -0.0151904832024472 0.270428009380069
0.316821385338852 -0.0118156125291145 0.270051409048036
0.314233641698893 -0.0180629783206485 0.28119950261357
0.317303010432328 -0.010652866696466 0.280776078729094
0.314572435958852 -0.0172450566233999 0.296627273436132
0.316033852882703 -0.0137168840655593 0.301420016158358
0.313202779612321 -0.0205516995509869 0.319007969317818
0.315206028560052 -0.0157154287725646 0.328957734623951
0.316848961096043 -0.0117490387621115 0.334518686405583
0.314029905677124 -0.0185548405875484 0.345459238670905
0.314340507076782 -0.017804982476001 0.354028880348834
0.315057029823598 -0.0160751435428886 0.361770445280989
0.315030149567732 -0.0161400382211596 0.380574896200125
0.313328443988442 -0.0202483189098476 0.38838251053043
0.316987741024196 -0.0114139943773792 0.38797697963002
0.314896713061104 -0.0164621824451763 0.392159220794853
0.314660385085525 -0.0170327286489889 0.406152136678347
0.313306347371797 -0.0203016648614339 0.425872012643274
0.316201833897352 -0.0133113420217714 0.427147642535942
0.315099634997811 -0.0159722855534767 0.432578349709169
0.314749902949081 -0.0168166134087179 0.449113962424575
0.31441690569743 -0.0176205398898857 0.45638829994254
0.314872011745956 -0.0165218166952173 0.463499515990169
0.316261682214181 -0.0131668554035977 0.47243272621471
0.315233882908279 -0.0156481824273045 0.479111229350085
0.316780359565884 -0.0119146575066202 0.4914304074089
0.315522263294889 -0.0149519705868263 0.494405016103305
0.316900038392414 -0.0116257272604831 0.507922001837839
0.316342174241002 -0.0129725304607842 0.515148209800881
0.314860485627047 -0.0165496432078078 0.521177757399916
0.316115851659428 -0.0135189215066911 0.537042548825451
0.31360905588493 -0.0195708618635836 0.553075660247904
0.314168400286315 -0.0182204850237227 0.559451524375808
0.314668090580623 -0.0170141259382182 0.560974613326938
0.313760220472176 -0.0192059182669035 0.579998102921764
0.317900330832945 -0.00921080768421435 0.578268065187044
0.316327423184059 -0.0130081426625153 0.591890635017745
0.317161659441028 -0.0109941181767154 0.599241105397379
0.314718450450011 -0.0168925464585427 0.611042345587275
0.317448668780569 -0.0103012163366696 0.622444328502682
0.315300537314158 -0.0154872644566377 0.626343740015873
0.317012543670625 -0.0113541154919869 0.639111059149436
0.313688806573101 -0.0193783266705916 0.650953641404353
0.314963887455537 -0.0163000091110921 0.658745870679018
0.31550577570257 -0.014991775155814 0.67410774387167
0.316428478269448 -0.0127641741048219 0.669635904476603
0.313478885764541 -0.0198851203336424 0.684641173073921
0.315158641302668 -0.0153515842033372 0.691432980885965
0.309252801956123 -0.00840128573087175 0.700643748314263
0.312239182689368 -0.00340277043944998 0.700361593632669
0.22412771230946 0.0885253957374172 0.607884302688326
0.215326548427593 0.0991301263549263 0.607884302688326
0.204465007523457 0.109446998801841 0.607884302688326
0.195839928203777 0.121520395785322 0.607884302688326
0.185048050247005 0.127225982707199 0.607884302688326
0.187453038392362 0.135102667539187 0.607884302688326
0.175616696342524 0.141592398459559 0.607884302688326
0.164301230393494 0.160697699044821 0.607884302688326
0.158964803408621 0.166668878321529 0.607884302688326
0.148059847342309 0.179439102864093 0.607884302688326
0.148544581160708 0.183096115525388 0.607884302688326
0.137113234269976 0.194985693860938 0.607884302688326
0.127491861069073 0.208586626249413 0.607884302688326
0.120014576354869 0.221810895295511 0.607884302688326
0.113147127381322 0.223215951238546 0.607884302688326
0.101319680868939 0.23835479260155 0.607884302688326
0.0890103336861015 0.243401980529739 0.607884302688326
0.082014268568733 0.253701397142015 0.607884302688326
0.0758268044531556 0.259948064946151 0.607884302688326
0.0659225047390577 0.272469674808211 0.607884302688326
0.0509075801521759 0.291618223067926 0.607884302688326
0.0498041006325675 0.293614722348844 0.607884302688326
0.0435636198003106 0.307682621317354 0.607884302688326
0.027160139497691 0.316671739900812 0.607884302688326
0.0219995714805912 0.331223486498217 0.607884302688326
0.00707011301945351 0.340902479775712 0.607884302688326
0.0108996701644476 0.34401760523491 0.607884302688326
-0.0114978507432131 0.361885266691001 0.607884302688326
-0.00999553926948608 0.368238088278202 0.611528348565387
-0.0169911252773784 0.365340421676985 0.6233366685665
-0.017778633621112 0.365014225040528 0.631234455894053
-0.0152149742706164 0.366076127512809 0.645382562419695
-0.0174479073659111 0.365151216340865 0.660765347251457
-0.0140149380217134 0.366573198802443 0.668485833528642
-0.00604511094279601 0.369874409268298 0.680976626377941
-0.010952477539687 0.36784171146833 0.690198915163053
-0.00837178632358114 0.372353299830783 0.697775678954456
0.312457093905111 -0.0223519440986004 0.224490915164575
0.312734633804271 -0.0216819035099484 0.231054460457622
0.31045281208329 -0.0263417640784604 0.245927062022263
0.312889241852405 -0.0213086466632921 0.251905972260016
0.310767325071583 -0.0259318827720285 0.262766723903465
0.310608169888027 -0.026139297845459 0.271931569034373
0.311346260796668 -0.0250337324545388 0.278887692304869
0.310794558321801 -0.0258963917093593 0.295928597623644
0.311628362914967 -0.0243526776945657 0.298851095217399
0.313459772211876 -0.0199312645317109 0.306024290960438
0.312630401209651 -0.0219335432535229 0.312477525101059
0.309974955002332 -0.0269645195509563 0.330283420729898
0.310779343111009 -0.0259162205581169 0.3381830053083
0.313056277721167 -0.0209053864035244 0.352303021001145
0.313888098635585 -0.0188971930704714 0.357751830825735
0.310954883166295 -0.0256874523041174 0.368218536792945
0.312073472420013 -0.0232780882907425 0.378929314977506
0.308700041882249 -0.0286260186772165 0.383548130743876
0.312532004134337 -0.0221710948072416 0.393066443254951
0.31169299128835 -0.0241966509990317 0.406313253458844
0.312965368183413 -0.0211248614425194 0.416045993665243
0.310870317639092 -0.0257976602448379 0.419722087461631
0.310868575214769 -0.0257999310164247 0.432682408560519
0.31251862874637 -0.0222033858502743 0.433450934869974
0.310805900397339 -0.0258816104287377 0.455741900840294
0.309690231040919 -0.0273355790417257 0.463320390101072
0.310631852855317 -0.0261084336015811 0.468846384448824
0.312017547471428 -0.0234131030600914 0.476594838203902
0.312734273377052 -0.0216827736582284 0.485205629629474
0.308735440618007 -0.0285798861466105 0.498307517220915
0.312069733551635 -0.023287114717488 0.504021699918275
0.309134191866274 -0.0280602234024177 0.512736421355895
0.313976096202859 -0.0186847481501019 0.516583618624808
0.311038379748499 -0.0255786374396451 0.536531227060727
0.310710090294523 -0.0260064725857016 0.537728068720023
0.309820476795913 -0.0271658394691138 0.54857295372208
0.311352510306474 -0.0250186448032062 0.560445465264365
0.313086610498458 -0.0208321566012037 0.563877055929599
0.312538630909351 -0.0221550963571307 0.57847726499737
0.309770557130846 -0.0272308960432319 0.590276950576261
0.311195989958408 -0.0253965183502946 0.603530230671888
0.31161813140418 -0.02437737874667 0.610903836391805
0.312446095633285 -0.0223784962756072 0.618436124514914
0.310350212109527 -0.0264754749675213 0.624443394683966
0.311216946558523 -0.025345924642074 0.634371354303035
0.311459961660189 -0.0247592342877697 0.645636820976054
0.310480659615033 -0.0263054724685217 0.650934584319653
0.309990218224984 -0.0269446281319255 0.662343428482863
0.311653250484631 -0.0242925937863469 0.673738675694541
0.311872183877281 -0.0237640418205572 0.678099750427245
0.30910972791358 -0.0280921054462881 0.689360640338966
0.30620503164971 -0.0257008040518957 0.69822426411378
0.309916070882391 -0.0225023739590975 0.696605084523587
0.224254127890346 0.0822326635626859 0.607884302688326
0.215912639840758 0.0899488461344407 0.607884302688326
0.208432731732364 0.0934808450092006 0.607884302688326
0.208408367116339 0.0983069196801336 0.607884302688326
0.1909583741763 0.108132084287874 0.607884302688326
0.186783072254953 0.121121466567309 0.607884302688326
0.176807295796472 0.133287789157253 0.607884302688326
0.164866022567495 0.139941366843309 0.607884302688326
0.162171416112031 0.143402638089965 0.607884302688326
0.156948525793387 0.156522589458885 0.607884302688326
0.142786198082031 0.169177648833311 0.607884302688326
0.131393644805531 0.181808922087619 0.607884302688326
0.124266713828885 0.187071594701619 0.607884302688326
0.119036241905798 0.200953202669804 0.607884302688326
0.110930428599573 0.197908765257147 0.607884302688326
0.106597950043996 0.210719683459696 0.607884302688326
0.0940726736922496 0.220192815124644 0.607884302688326
0.0896177004857679 0.238571194644029 0.607884302688326
0.074865631456246 0.246986195431248 0.607884302688326
0.0672787921485525 0.262229780616823 0.607884302688326
0.0576617112323692 0.265552489835799 0.607884302688326
0.0562279271333984 0.277921994495058 0.607884302688326
0.0395808404351585 0.279856565536111 0.607884302688326
0.0363838080575636 0.300340411058262 0.607884302688326
0.0207582156681015 0.303482563920117 0.607884302688326
0.00989203313056685 0.323332748728266 0.607884302688326
0.00228417896131993 0.33995607407676 0.607884302688326
-0.00419413881082103 0.346049632300491 0.607884302688326
-0.0140916289310486 0.354110652775354 0.607884302688326
-0.0226233806290024 0.363007465123594 0.608769933977723
-0.0184883445708438 0.364720253139785 0.619817498821304
-0.0234250853623255 0.362675388150032 0.632186797974205
-0.0236216376354288 0.362593973532798 0.646647684442942
-0.0262833752454854 0.361491445715234 0.647462809641756
-0.0212709748407158 0.363567649942934 0.662074756397176
-0.0217258115914394 0.363379250392118 0.680176983271841
-0.02693098709099 0.361223196105672 0.68548837015477
-0.0301710790626505 0.365091585881323 0.699039752549485
-0.0304273775692396 0.373493949896185 0.70074261726025
0.306121687729545 -0.031986195229191 0.231572306625561
0.303075979571726 -0.0359554393787301 0.242772581494985
0.306832133438119 -0.0310603243557515 0.248735533763658
0.307841067004101 -0.0297454565330521 0.251391699367099
0.306276704138888 -0.0317841739113279 0.257098143356788
0.307549618279703 -0.0301252799055708 0.274910631990284
0.306405085452969 -0.0316168641254196 0.289041084017608
0.302423838179263 -0.0368053265880687 0.297877047134296
0.305656474999089 -0.0325924722632913 0.305712597283838
0.301904946339334 -0.0374815595996239 0.308941998718465
0.302123233479509 -0.0371970822599822 0.319959877516893
0.306125991378306 -0.03198058660493 0.334484197339975
0.305105027205794 -0.0333111330193102 0.338532691878908
0.306369498899912 -0.0316632414242948 0.347791849976963
0.302336230651178 -0.0369194989415202 0.360871819456016
0.306336966030503 -0.0317056390851604 0.374691905898291
0.304571847223015 -0.0340059867011575 0.380212950762944
0.305671335410918 -0.0325731057975438 0.382224054409614
0.305291336267369 -0.0330683303230743 0.402612177009532
0.302390982473803 -0.0368481449770658 0.410064840095126
0.305292003377948 -0.0330674609276414 0.420145294762137
0.304823828949036 -0.0336775977223147 0.426465851842489
0.305299869344413 -0.0330572098005617 0.424352589016914
0.307207761553684 -0.0305707962647942 0.437186793929691
0.30887368940364 -0.0283997168214095 0.45214488832465
0.305732346120972 -0.0324935950921862 0.466341620954097
0.303965493250651 -0.0347962025828665 0.468371199321924
0.307428779965296 -0.0302827594629167 0.479199040440309
0.307998832055405 -0.0295398531152455 0.492774594245665
0.303011302062563 -0.0360397287497247 0.49262925653482
0.306575160292005 -0.0313952182799061 0.501888703241795
0.307533015685341 -0.0301469168277981 0.517885314360785
0.307217906172681 -0.0305575755399198 0.526229118982761
0.306380221880739 -0.0316492669636094 0.542467415643002
0.305433026472729 -0.0328836760523667 0.549461455676116
0.301803682582317 -0.0376135290971175 0.552842112765479
0.302770318050121 -0.0363537852291873 0.560660310062973
0.305284198835453 -0.0330776320054444 0.57037850409128
0.306842809346161 -0.0310464112415134 0.579769843989754
0.304755823307667 -0.0337662243996433 0.592676790661891
0.305988816108683 -0.0321593568968283 0.59729570767052
0.308318635694586 -0.0291230768983393 0.606581380528727
0.303938486359797 -0.0348313986482684 0.61434171712022
0.302642418569262 -0.0365204670778149 0.627062179823036
0.307204371469124 -0.0305752143090089 0.638527858735139
0.30684646659664 -0.0310416450198936 0.643079485437633
0.302671649697605 -0.0364823723296826 0.649698206564541
0.308341416482723 -0.0290933883972238 0.657937135202867
0.307898501307423 -0.0296706066916914 0.673922731464506
0.305897854904104 -0.0322778998465806 0.687240779357031
0.304315336308129 -0.0309072832595783 0.696341983690957
0.300218320116273 -0.0349480116550132 0.697381127962021
0.301124668549395 -0.0300966899537908 0.699272559375226
0.214593031594162 0.0695815414500394 0.607884302688326
0.210499739532424 0.0736960616275363 0.607884302688326
0.203939972379545 0.0868035045779013 0.607884302688326
0.192528553179774 0.0934796169579953 0.607884302688326
0.190846394009356 0.102591720518939 0.607884302688326
0.178144908474672 0.112078405636019 0.607884302688326
0.174688171184663 0.124290877546173 0.607884302688326
0.160286702904646 0.127651761632499 0.607884302688326
0.159652796506428 0.136886640940431 0.607884302688326
0.148329229903168 0.148747252593323 0.607884302688326
0.143806160599291 0.158542267054545 0.607884302688326
0.13313555978589 0.165520022960433 0.607884302688326
0.12641441595275 0.184200246949835 0.607884302688326
0.109923143638181 0.191293525275951 0.607884302688326
0.105280857984409 0.201655529489842 0.607884302688326
0.0900270983478657 0.209511012496705 0.607884302688326
0.08179708721316 0.221079448118499 0.607884302688326
0.0753347845010667 0.231743836038628 0.607884302688326
0.0741372079295177 0.237395108743327 0.607884302688326
0.0639955173972483 0.249946941710668 0.607884302688326
0.0458557807537976 0.260163753525781 0.607884302688326
0.0432845789310412 0.266753674893891 0.607884302688326
0.0349007997979786 0.281567501249111 0.607884302688326
0.0243520540798738 0.2927755064334 0.607884302688326
0.00803493614455608 0.307290767757441 0.607884302688326
0.00536141254894914 0.3191059139637 0.607884302688326
-0.00636808358110052 0.319183074267699 0.607884302688326
-0.0153711834385935 0.336201510533982 0.607884302688326
-0.0315529160924518 0.34688143572101 0.607884302688326
-0.0357131381183538 0.355636869318561 0.607884302688326
-0.0374194945819122 0.35687871405388 0.622504951224042
-0.040214178508933 0.355721118068762 0.631625406511903
-0.0295548875318659 0.360136340956745 0.633619036864659
-0.0292203041928398 0.360274929913513 0.652829598938685
-0.0362802716774844 0.357350595631461 0.6558460090546
-0.0367721354422464 0.357146858989256 0.676774733866182
-0.0296018566325454 0.36011688571823 0.682213152128599
-0.0386801689152048 0.356569894408294 0.691541078924574
0.301732899580891 -0.0377057753005425 0.224701160705323
0.303279714631161 -0.035689926679937 0.242631013628753
0.299767514984432 -0.0402671143740385 0.252309883509221
0.299901167754333 -0.0400929346931519 0.259215966904422
0.297730475378576 -0.0429218360738722 0.268273534491755
0.299446109801286 -0.0406859777636773 0.280115129746038
0.301992405893973 -0.0373675800889202 0.291837915504845
0.299041865914402 -0.0412127986538803 0.296818798746602
0.299418897169899 -0.0407214419553619 0.305375127239923
0.299789428423403 -0.040238556224366 0.309977720120553
0.298711179414463 -0.0416437576910573 0.324155062107024
0.301154855653388 -0.0384590968134805 0.33594293065918
0.298827285653241 -0.0414924450947352 0.341074368803846
0.300334277714856 -0.039528494803368 0.345862393347105
0.30302867719938 -0.0360170850305666 0.361671256666044
0.298598790963049 -0.0417902251725544 0.362982427705203
0.299787895922967 -0.0402405534178175 0.379735490444802
0.299183838572558 -0.041027776283521 0.390994986863761
0.29910335624509 -0.0411326628947427 0.3958755982443
0.29904982090821 -0.041202431504108 0.406933321543821
0.299877833906055 -0.0401233439562744 0.408271635094623
0.296776115396066 -0.0441655822179043 0.428675797990803
0.301082251282918 -0.0385537166712559 0.432430739282568
0.299779731501289 -0.040251193499302 0.437564495982436
0.299055178561344 -0.0411954492746053 0.456194760452199
0.296846130329911 -0.0440743369796383 0.463544434154644
0.302558006353921 -0.0366304752186267 0.469995838995506
0.299149760182928 -0.0410721881055522 0.479298104259119
0.300284933484153 -0.0395928014568247 0.482629859328204
0.299502596225734 -0.0406123632221146 0.497585816422667
0.300283308784885 -0.0395949188061345 0.513977597705866
0.300870239336552 -0.0388300160191051 0.509670480353218
0.302893618868622 -0.0361930964740253 0.520618226873463
0.298007718506881 -0.0425605257946191 0.537546805743963
0.297530510059375 -0.0431824359515444 0.544572207824773
0.299714353940755 -0.0403363951950043 0.545945740491996
0.29926813996843 -0.0409179125654552 0.565754476674077
0.30198684597097 -0.0373748259216497 0.5707029431749
0.3023103985977 -0.0369531639290443 0.581123819987042
0.300121446546523 -0.039805861782072 0.586788221432893
0.300196940590545 -0.0397074760284046 0.596926591434772
0.299188293841529 -0.0410219700639568 0.614113299614296
0.299514694623957 -0.0405965962825796 0.613162147140164
0.301005907052607 -0.0386532104092669 0.624984552895368
0.301389963118864 -0.0381526987991286 0.630426646066324
0.302425046320748 -0.036803752107432 0.639648948678674
0.299775393045071 -0.0402568474855254 0.658463485162562
0.296961506684011 -0.0439239755875486 0.665218576786176
0.299488531808512 -0.0406306923274925 0.672163250633879
0.299145675711531 -0.0410775110923113 0.687135004883027
0.303791486300212 -0.0350229728557286 0.688257246092064
0.298539324658187 -0.0387562483195225 0.696084703559489
0.289398102381447 -0.0302748429594255 0.700343193385099
0.210209496363456 0.0598912402824117 0.607884302688326
0.209688705270117 0.062405341377686 0.607884302688326
0.198646976183144 0.0760388695986627 0.607884302688326
0.186270432029613 0.0844520715335328 0.607884302688326
0.184590009593717 0.0957676695973855 0.607884302688326
0.169268967089017 0.108071940849492 0.607884302688326
0.170323506397721 0.115486648622897 0.607884302688326
0.153502007759573 0.127369340181447 0.607884302688326
0.145669774484147 0.142895156504918 0.607884302688326
0.144260999021125 0.138875424752374 0.607884302688326
0.127272765767916 0.153963838067687 0.607884302688326
0.122047211987143 0.170797837202959 0.607884302688326
0.11836795453637 0.172404833598134 0.607884302688326
0.103578578491573 0.183508530959765 0.607884302688326
0.094514881826438 0.190289227074164 0.607884302688326
0.0917751832711832 0.198786772269223 0.607884302688326
0.0738926251454117 0.216322515668575 0.607884302688326
0.0640530335467347 0.229424201807401 0.607884302688326
0.0579047014452405 0.234846570771143 0.607884302688326
0.0551238665719046 0.243369432880139 0.607884302688326
0.0492669060949436 0.250504592351871 0.607884302688326
0.0296070038155343 0.270526064091191 0.607884302688326
0.022335851935017 0.276655646780456 0.607884302688326
0.0220115918073003 0.276321931067908 0.607884302688326
0.0062736969570702 0.295597977336421 0.607884302688326
0.000521950231551576 0.301996212668488 0.607884302688326
-0.0168963847619146 0.316427144355304 0.607884302688326
-0.0228729423549143 0.327003471503609 0.607884302688326
-0.0381534212764373 0.346925189634729 0.607884302688326
-0.0425535267226444 0.35475212831153 0.611045559425836
-0.0428497164792317 0.354629442497315 0.620109837253934
-0.0397930781653167 0.355895543542208 0.626754551997483
-0.0467100291355335 0.353030448640075 0.636143136763963
-0.0464859919099233 0.353123247897399 0.645000352436274
-0.0497315122866238 0.351778909340411 0.655361490691384
-0.0454013885302618 0.35357250532705 0.661421691413023
-0.0437496013813472 0.354256697966285 0.682488242103222
-0.044682223370885 0.35387039328965 0.68740481119694
-0.049250303430157 0.354208122369558 0.696302910538175
-0.0509901395668763 0.359852877487486 0.700596205262875
0.291459592949041 -0.0510942091661471 0.236245144790989
0.297175737544343 -0.0436447844947194 0.245396488695384
0.293462437834688 -0.0484840508933063 0.254533037788954
0.29607753566877 -0.0450759890434681 0.260013820610549
0.296853848176154 -0.0440642788865914 0.263849150913992
0.292618686140835 -0.0495836495091131 0.275068403497039
0.293135903293078 -0.0489095989930411 0.288798444662261
0.293218498137191 -0.0488019592965274 0.29889160838538
0.292781857740219 -0.0493710001406693 0.302387136316073
0.297457030009377 -0.043278197017098 0.315758429261933
0.295949285555848 -0.0452431278446983 0.3192407808003
0.292768288100841 -0.0493886844390056 0.337782709325375
0.294358696716848 -0.0473160235774408 0.344757474278694
0.297200830683286 -0.0436120824793649 0.353424565496495
0.29542603543572 -0.0459250406775907 0.363591739841683
0.292518516712445 -0.0497141928497736 0.374753386851359
0.295844308135123 -0.0453799370829622 0.380513847549049
0.297024710064905 -0.0438416073379206 0.388420491847232
0.292986100333929 -0.0491048260103317 0.40620117582859
0.291844589085196 -0.0505924724330631 0.409099716072783
0.294411828305074 -0.0472467811435658 0.419641543299824
0.293405406850382 -0.048558375119092 0.430055317103296
0.29301267609203 -0.0490701918080707 0.431741124174648
0.29163616203921 -0.0508640998477785 0.443430999577525
0.293346974368192 -0.0486345258124803 0.447149969171817
0.296252401364058 -0.0448480996325291 0.462118431328578
0.291276302510398 -0.051333077916385 0.47129594551677
0.297050368567873 -0.0438081685258227 0.484099290597015
0.29430536437379 -0.0473855276401083 0.487293930410399
0.294431191402591 -0.0472215466635841 0.497583337536284
0.298042616856372 -0.0425150453800927 0.509404154348067
0.295409884709798 -0.0459460887134014 0.511928531267078
0.296008909701263 -0.0451654241455598 0.524575974338382
0.296229081433059 -0.0448784907583005 0.539670407126186
0.29636471814489 -0.0447017255539541 0.54309638063624
0.294068548318502 -0.0476941523320546 0.550574042915369
0.294647094223409 -0.0469401766294273 0.565967260023932
0.298007723960072 -0.0425605186878827 0.574233589413966
0.294503446431159 -0.0471273820770393 0.583086379969327
0.295302623781334 -0.0460858738768901 0.589488992348409
0.294697553902721 -0.0468744162950421 0.595065633251702
0.293893154823627 -0.0479227295848073 0.603559464964161
0.293917452952355 -0.0478910636469364 0.612605951131973
0.294663674331827 -0.0469185690114512 0.631037699662301
0.295302447997497 -0.0460861029628486 0.641719098984684
0.294280341681947 -0.047418137847013 0.643301200771736
0.292393595396677 -0.0498769934780907 0.658860623825695
0.293894097084853 -0.0479215016060697 0.659461568024961
0.297843468677481 -0.0427745803397781 0.669302249932864
0.290828687919736 -0.0519164206081909 0.68633858783852
0.291070904076615 -0.0511634992629448 0.692070163888984
0.292037717824308 -0.0466586945116769 0.696541307438271
0.288206123401775 -0.0385777644193071 0.700896260845913
0.200838679097341 0.0551288446508357 0.607884302688326
0.193424737386381 0.0636599555033962 0.607884302688326
0.184951009135182 0.0689162685813492 0.607884302688326
0.182656793729447 0.082343436494418 0.607884302688326
0.172699591251708 0.0869092244776747 0.607884302688326
0.159949564332992 0.104502433535931 0.607884302688326
0.161000657417111 0.111987616510378 0.607884302688326
0.147032595748414 0.117181732087223 0.607884302688326
0.139229488434636 0.124666213075805 0.607884302688326
0.126011516879587 0.144521174901082 0.607884302688326
0.119420348553583 0.147710214424246 0.607884302688326
0.10958625142905 0.16432937823425 0.607884302688326
0.113144729132431 0.163166852023488 0.607884302688326
0.0970537851669004 0.173813680343261 0.607884302688326
0.0956761221056112 0.178794895472129 0.607884302688326
0.0848902925784761 0.194446724315746 0.607884302688326
0.0724185906176507 0.207592212908489 0.607884302688326
0.0571475935091714 0.2189081036412 0.607884302688326
0.0501926599099756 0.22622985918161 0.607884302688326
0.041650102486104 0.233798616875685 0.607884302688326
0.0344863318793245 0.245053197439595 0.607884302688326
0.0287247163378202 0.252528844518137 0.607884302688326
0.0267090763847061 0.265613248769405 0.607884302688326
0.010530450699634 0.284104862745332 0.607884302688326
-0.00259736308103539 0.287168492009411 0.607884302688326
-0.00519634074340254 0.292203177180336 0.607884302688326
-0.0197792160715321 0.309466721400638 0.607884302688326
-0.0298458257027955 0.313464694782652 0.607884302688326
-0.0378332669073936 0.328763402172461 0.607884302688326
-0.0528651342083552 0.344076955215767 0.607884302688326
-0.0549352256621026 0.349623460685586 0.619367948735565
-0.0527264274109567 0.350538374877756 0.620055692351808
-0.0609865033339959 0.347116939404202 0.63089473442248
-0.0570089590104723 0.348764492207946 0.644045482825394
-0.0595027802402607 0.347731517632433 0.657345427383182
-0.0614450757201437 0.346926992502529 0.663407573047268
-0.0510410607428581 0.351236476609254 0.68530856523272
-0.0609111773109883 0.347148140464531 0.687236931359879
-0.0601376019920786 0.351596744728877 0.698265869582964
-0.0659779873220924 0.362680215525193 0.699516294018998
0.289790148294145 -0.0532698717989622 0.233358599619855
0.289056261623112 -0.0542262915294411 0.241902681260676
0.290261074006725 -0.052656149461604 0.250482444776564
0.291626011419389 -0.0508773283930793 0.256676754544702
0.286096330584571 -0.0580837487607281 0.273598119398196
0.289217100480424 -0.0540166822496526 0.287321279107158
0.288289477919842 -0.0552255835070246 0.296616329666875
0.291981651960768 -0.0504138486159427 0.298058163803708
0.289418509556347 -0.0537542008315898 0.30769184758548
0.289387176456459 -0.0537950349223735 0.319346409857592
0.286394730286295 -0.0576948666981933 0.33168912371049
0.287878426871583 -0.055761275662648 0.329378406583702
0.287163080806979 -0.0566935328044017 0.345357592093695
0.286710536123053 -0.0572833005188385 0.351068343460848
0.288707588840728 -0.0546806907462634 0.359031175842676
0.288899150509985 -0.0544310427184239 0.370437411889822
0.290940999888743 -0.051770052800506 0.381896641562319
0.288975740400381 -0.054331228829957 0.392588384231231
0.290967352671108 -0.0517357091858831 0.396470189859892
0.28810655685135 -0.0554639708847098 0.412185220032511
0.287927085764376 -0.0556978621589453 0.411861099769099
0.288995342909219 -0.054305682343067 0.431058676959566
0.288232927593519 -0.055299281327131 0.434916444688815
0.290369885036596 -0.0525143441666311 0.442390585764125
0.28846575121987 -0.0549958596698733 0.455993514764485
0.289329087876341 -0.0538707374338561 0.459929402618888
0.289489567402769 -0.0536615964431937 0.469389165216852
0.288523860121208 -0.054920130675261 0.48166676927461
0.290789530367507 -0.0519674517237941 0.493319838111229
0.28667628997729 -0.0573279309649196 0.494167071437638
0.288804113731389 -0.0545548970596435 0.511654036625071
0.292287656985295 -0.0500150551037631 0.518863456904792
0.288089666367446 -0.0554859829918931 0.528634539134946
0.2891730892346 -0.054074038821902 0.542724302576753
0.291303404221638 -0.0512977582786496 0.54950237668402
0.286980282340609 -0.0569317604038919 0.552904366086957
0.289271919107711 -0.0539452412236688 0.558020595072939
0.286693380733836 -0.0573056578573467 0.575912310807659
0.291469768019339 -0.0510809487563648 0.582765115360739
0.286689268992681 -0.0573110163827477 0.588169939383609
0.289019261486566 -0.0542745110461859 0.602958925226116
0.288264028235081 -0.0552587501819361 0.605450649543071
0.291864401848931 -0.0505666519366575 0.616340200150438
0.289188242514425 -0.0540542906831523 0.626549427725959
0.288523915848237 -0.0549200580503832 0.634482089644986
0.288109139056681 -0.0554606056892038 0.647470498255208
0.289056330659164 -0.0542262015599065 0.654765004446131
0.289168121367231 -0.0540805130727053 0.658508265241198
0.29023666892036 -0.0526879547893811 0.679982085071431
0.288207510504123 -0.0553324055229355 0.684772553633976
0.284611491206109 -0.057628972522499 0.695507265237995
0.28427676478142 -0.051639084777316 0.699490072807397
0.280776884003599 -0.0496445560261767 0.700784316937665
0.201681489751008 0.0427836863150938 0.607884302688326
0.186800209799491 0.0505922166995081 0.607884302688326
0.183963493698918 0.0596546434031263 0.607884302688326
0.174755614617287 0.0730255477092691 0.607884302688326
0.164940602784931 0.0875015236681522 0.607884302688326
0.159558784544591 0.0924331400932379 0.607884302688326
0.148331953805215 0.0951860369180631 0.607884302688326
0.139170817558649 0.108324486875692 0.607884302688326
0.133806199334809 0.11233469551539 0.607884302688326
0.118298780576723 0.130620394876706 0.607884302688326
0.114240821580673 0.146587919685407 0.607884302688326
0.11534768474748 0.14174290985744 0.607884302688326
0.0998081992149328 0.154197128865053 0.607884302688326
0.093377480395654 0.166186215173211 0.607884302688326
0.0829974012569752 0.185173645645923 0.607884302688326
0.0738212986121869 0.183063528670247 0.607884302688326
0.0668545699648795 0.192353816340026 0.607884302688326
0.0507350945201425 0.210850368714861 0.607884302688326
0.0437483542780135 0.220189255639564 0.607884302688326
0.0457070510510388 0.224417313550058 0.607884302688326
0.0357489847306836 0.236456871032196 0.607884302688326
0.0173622018220171 0.248964971340365 0.607884302688326
0.0170345478809774 0.260627402675714 0.607884302688326
0.00094697886891562 0.264975293372556 0.607884302688326
-0.00378243858914589 0.274303399567777 0.607884302688326
-0.0156994868459011 0.286917929408167 0.607884302688326
-0.0315711796968437 0.300788311972505 0.607884302688326
-0.0354433962428808 0.31310781232929 0.607884302688326
-0.0446193228026316 0.32159799485564 0.607884302688326
-0.0548022932459624 0.335269525793156 0.607884302688326
-0.0609604630413759 0.336359756183074 0.607884302688326
-0.0621256593398749 0.346645085536908 0.619293327233538
-0.0695593911911862 0.342605523975527 0.629560586792151
-0.0661922361256084 0.344960654279826 0.639329944214031
-0.070996018670886 0.341503160938682 0.649732695930746
-0.0667631781474666 0.344724162351043 0.663152972309233
-0.0673684190816908 0.344286716005052 0.672060936906611
-0.0687008739088963 0.343264287455874 0.679729364290507
-0.0641390725330264 0.346094813186422 0.692038967335574
-0.0705765669700923 0.356817884749874 0.700748226999645
0.280566090038062 -0.0652908985588535 0.232312343506456
0.283606340883904 -0.0613287665167504 0.23704257134902
0.281681134179323 -0.0638377447421246 0.257204166830447
0.281823060862844 -0.0636527822870766 0.260782470485654
0.280525993107189 -0.0653431538965405 0.275232553775696
0.283656132343121 -0.061263877023747 0.285672183402842
0.281408848087719 -0.0641925948853736 0.28972389519646
0.280978628116941 -0.0647532684671959 0.302291207022832
0.283652396359838 -0.0612687458519562 0.302783685806743
0.282454994882934 -0.062829229838134 0.313591015039398
0.283309677479397 -0.0617153857926974 0.322337896804288
0.281511283769148 -0.0640590981062522 0.339065248618101
0.282223527195064 -0.0631308844019592 0.34612594052129
0.280537542022422 -0.0653281030571799 0.352491058632114
0.285066347952917 -0.0594260482598853 0.368035693005539
0.280323226245518 -0.0656074048154415 0.372490538496442
0.28462496127208 -0.0600012745815852 0.380767521918352
0.282303309583835 -0.063026909968606 0.397861436019939
0.283193548724444 -0.0618667277326679 0.399634597231925
0.286411198582941 -0.0576734047961573 0.408809781445229
0.282182365973671 -0.0631845267500555 0.41762999852751
0.283610603176517 -0.0613232117888702 0.419953855428146
0.285465599876898 -0.0589057330223984 0.436625102772373
0.281965329687057 -0.0634673739455979 0.447897860994162
0.28256494722585 -0.0626859371550423 0.448013178250945
0.28491026559911 -0.0596294587436192 0.462319148660927
0.284831420064833 -0.0597322122444253 0.475902457834371
0.283321724349197 -0.0616996860063111 0.484073896881084
0.282313061097049 -0.0630142015491632 0.494760375962478
0.28184937815352 -0.0636184849261232 0.500004834094458
0.281286998193798 -0.0643513927588102 0.507225086168833
0.284202444736212 -0.0605519088515752 0.514954964300713
0.282026170979454 -0.0633880840296298 0.526812867932819
0.281817093360685 -0.0636605592873031 0.540338184481725
0.283884324032264 -0.0609664918245854 0.542145795146191
0.280172727487229 -0.0658035386158248 0.554562295312109
0.284442114530451 -0.0602395650946186 0.564556758604271
0.283797453796859 -0.0610797033195102 0.578791511049414
0.279408303918543 -0.0667997548061334 0.58439089624579
0.285456917225152 -0.0589170484744569 0.594792202258896
0.282151721999369 -0.0632244627548903 0.596330412829191
0.283670073953902 -0.0612457079628398 0.616086654642463
0.282285398667908 -0.0630502519286942 0.619456065626748
0.280232365776606 -0.0657258164839164 0.626916799357403
0.280852011614606 -0.064918278305659 0.640673744064891
0.280413345803747 -0.0654899587205686 0.654530549689922
0.281557686375431 -0.0639986250523791 0.65976631787853
0.285477468966482 -0.0588902649236992 0.663054620479883
0.282937515098338 -0.0622003972505108 0.674234378785259
0.282726115081562 -0.0624758991161923 0.681546789043765
0.28436484264235 -0.0585323160420639 0.694644671648636
0.28140927254808 -0.0603165165627756 0.696696095967705
0.271862353267748 -0.0572975458458135 0.700862595079088
0.185561315953123 0.0426928975658402 0.607884302688326
0.18491833626553 0.0492369629597018 0.607884302688326
0.174897413769517 0.0551264540285607 0.607884302688326
0.163288072611164 0.0686301874361676 0.607884302688326
0.162782619695304 0.073114757066993 0.607884302688326
0.155220190304678 0.0824392622194923 0.607884302688326
0.139210980179964 0.101670504780032 0.607884302688326
0.139539478676446 0.102061111054859 0.607884302688326
0.132914042575157 0.110291519603753 0.607884302688326
0.114742560041327 0.126424858651044 0.607884302688326
0.110478340523532 0.128929162395695 0.607884302688326
0.0993052587111591 0.144951090057921 0.607884302688326
0.0881848511600228 0.149698872318329 0.607884302688326
0.0869248639139105 0.164931699597345 0.607884302688326
0.0763248157079501 0.168346913804211 0.607884302688326
0.0683838714955066 0.178158541866554 0.607884302688326
0.0542137191395972 0.190164161592507 0.607884302688326
0.0458652525295816 0.206187538057549 0.607884302688326
0.0371189668382596 0.214308983961075 0.607884302688326
0.0333831016738472 0.216066426601272 0.607884302688326
0.0243329780579657 0.235945939672486 0.607884302688326
0.0119074926995333 0.248073518361155 0.607884302688326
0.00645982358221599 0.253337206324196 0.607884302688326
0.00166286938160907 0.255186792474097 0.607884302688326
-0.0146010760303759 0.26464130788618 0.607884302688326
-0.0247670763633287 0.280141587086648 0.607884302688326
-0.0293171188910546 0.290497656635021 0.607884302688326
-0.0536811695627762 0.312761788767813 0.607884302688326
-0.0578284567441534 0.318690012614568 0.607884302688326
-0.070154293471911 0.334146795604202 0.607884302688326
-0.0718743307650206 0.340829208364984 0.6094798306093
-0.0737586750789109 0.339383300118291 0.615513469958588
-0.0720546404744925 0.340690851858712 0.626037761758123
-0.0769432225190806 0.33693971092295 0.643486584413905
-0.0806724947432066 0.334078139699857 0.65265569488409
-0.0761805094280785 0.33752496126176 0.665266025847987
-0.0729030715377288 0.340039827806451 0.666977632889535
-0.0724590084035576 0.340380569433666 0.677783491580181
-0.0793863924359497 0.343399147938974 0.700010261259433
-0.0764609032409582 0.345492699709248 0.69996012727015
0.274867893863771 -0.0727169323926173 0.234868345266834
0.274616570241962 -0.0730444637133524 0.242703755632779
0.277159399821791 -0.0697305836861072 0.250051316171715
0.2781513631652 -0.0684378318880498 0.260658291369119
0.274528309504476 -0.07315948734587 0.271963721917139
0.278730611412377 -0.0676829408751549 0.275642633522874
0.277335532151763 -0.0695010435647106 0.287796101488403
0.276121498669674 -0.0710832028020475 0.302733378372834
0.273570838966366 -0.0744072872448837 0.30957652506113
0.277531951296578 -0.0692450651514765 0.323399706014178
0.276958345127334 -0.0699926032652535 0.327600028746728
0.278150820382664 -0.068438539256022 0.337292759554759
0.279639311524505 -0.0664986998327259 0.341993125690567
0.276309754232884 -0.070837863375494 0.357716454530472
0.276677354968584 -0.0703587967696553 0.362252402143913
0.278865008021714 -0.0675077918038422 0.366821668120087
0.27737638484239 -0.0694478033017368 0.386002948991829
0.275511048060806 -0.0718787575243911 0.396212365078606
0.276367598101388 -0.0707624797783961 0.399921427790266
0.278579794412845 -0.0678794894156003 0.407586302316331
0.277039947461103 -0.0698862570334026 0.414987678547005
0.278104245221456 -0.0684992371878519 0.43404295409541
0.280349422013109 -0.0655732658264568 0.434550784109983
0.276675084791643 -0.0703617553218454 0.443351458284608
0.278622018300162 -0.0678244621743082 0.457301611955625
0.275627341935168 -0.0717272003966159 0.468527191150602
0.277000898531021 -0.0699371465898677 0.476822399095925
0.279808342502693 -0.066278414373154 0.481515412594733
0.27784958082625 -0.0688311222892446 0.493000209386352
0.277702682456209 -0.0690225639723103 0.504199990994454
0.279640033458543 -0.0664977589899698 0.508337415213743
0.276939371273353 -0.0700173304731828 0.523922857245071
0.279111014941898 -0.0671871893435635 0.533231809523275
0.277937992737973 -0.0687159016426255 0.538206729905056
0.276093828121011 -0.0711192637631466 0.54849949530284
0.276951109448449 -0.0700020329855655 0.552731354690075
0.277885179866427 -0.0687847287168369 0.572538486791938
0.274519383057272 -0.0731711205183556 0.580120467187127
0.278825707299324 -0.0675590095024325 0.57787828197099
0.274677021444348 -0.0729656821725847 0.594232032883117
0.276371017545752 -0.0707580234717403 0.604457367671132
0.277884227901448 -0.0687859693417517 0.607229160942708
0.277819058743985 -0.0688708994412829 0.62162081867543
0.27668680354203 -0.0703464831490026 0.627695457047026
0.277551057147405 -0.0692201659219078 0.643383197499181
0.278102431012612 -0.068501601510849 0.650685601892092
0.27501313795702 -0.0725276466050402 0.656816996238393
0.27924754324171 -0.0670092621991382 0.671427111624808
0.277896766736791 -0.0687696284133851 0.677451349853601
0.276290380682793 -0.0708631114775339 0.680991761527957
0.274458768408309 -0.0714510801591161 0.694631453679486
0.275877080755749 -0.0679844491783046 0.696329412783469
0.18657485573034 0.0298857736998797 0.607884302688326
0.187461472618406 0.0292751017793335 0.607884302688326
0.175719814616581 0.0445203370324837 0.607884302688326
0.168109095956665 0.0492664584556951 0.607884302688326
0.160499747781343 0.0591387726734292 0.607884302688326
0.155201305658741 0.0730309788790839 0.607884302688326
0.14315934765771 0.0805401490522059 0.607884302688326
0.134678685527952 0.0908515623293127 0.607884302688326
