ply
format ascii 1.0
element vertex 835
property float x
property float y
property float z
end_header
0.223488924539783 -0.304200467702502 0.701295018124672
0.23698949606739 -0.306302587673045 0.703082431365766
0.257459686706968 -0.301083102523354 0.703082431365766
0.277815312142407 -0.306550329924143 0.703082431365766
-0.0152128181321873 -0.26425792012169 0.00698058337166653
-0.00582491878665289 -0.271461508649949 0.00744206611338028
-0.00905710110130061 -0.268981367929851 0.0151249907736369
-0.0152840840752515 -0.264203235840253 0.0296170136501593
-0.00266054630900357 -0.273889617052066 0.0302998382880025
-0.00541056784887178 -0.271779451307002 0.0403272995901325
-0.0159203391283161 -0.263715020166798 0.0720073252234594
-0.00462347318565748 -0.272383410284181 0.0611252685474784
-0.00167293075716276 -0.274647441118742 0.0694155917931569
-0.00705624618774283 -0.270516677904054 0.0848149012356505
-0.00683708225668836 -0.270684848303144 0.0936292909478227
-0.00724915945073828 -0.270368650351018 0.104191713984693
-0.0154858626697478 -0.2640484056791 0.12554460957213
-0.00695994443155914 -0.270590572840564 0.126848426584346
-0.0161349912669775 -0.263550311787776 0.144767089700251
-0.0107011833853561 -0.267719819222837 0.148728940846237
-0.0139994068515496 -0.265189003344842 0.158732977041844
-0.0135195646393023 -0.26555719922427 0.174242849087821
-0.0102501120853071 -0.268065938404867 0.179489631303417
-0.0118617328641304 -0.266829298286889 0.189228658967772
-0.00275572975593269 -0.273816580224429 0.196023554912184
-0.00250921778536474 -0.274005735512305 0.195660696255517
-0.0115999021773493 -0.267030208039137 0.218612202143752
-0.0128588292637123 -0.266064199309873 0.240425312639624
-0.00569779790679094 -0.271559051931802 0.234807518624003
-0.00601943601069776 -0.271312250334312 0.244609488652201
-0.0140871175279655 -0.265121700575694 0.264392063617882
-0.0121189316306279 -0.26663194273208 0.268133903627363
-0.00127421227252427 -0.274953388572611 0.274704060331021
-0.00210665392836384 -0.274314633624167 0.285289347886213
-0.0081540413828471 -0.269674310023577 0.300545487703137
-0.0108841159461271 -0.267579450131977 0.313283167728156
-0.00739445044392443 -0.270257164650837 0.313913074987097
-0.0135355961045435 -0.265544897848334 0.337608150338724
-0.0139672711275103 -0.265213661953175 0.340229139032558
-0.0119169807874128 -0.266786905064324 0.349903143920809
-0.00903426573706523 -0.268998890121109 0.355776571918945
-0.0144126217546364 -0.264871932397868 0.36769470474993
-0.0148069026095779 -0.264569390057028 0.382227211563197
-0.00551940953568304 -0.271695934143295 0.377591882351115
-0.00899552728911989 -0.26902861517769 0.399063649945856
-0.00929381674270164 -0.268799729629727 0.406762489570636
-0.00641031585281996 -0.271012317682395 0.417756304689776
-0.00896329406039405 -0.269053348604001 0.428099949814469
-0.0114677407986655 -0.267131619031769 0.444969561254892
-0.0109375264536777 -0.267538466808092 0.448797906296979
-0.00370839257678342 -0.273085576331546 0.454927163824503
-0.00896063461356757 -0.269055389269324 0.465611615657745
-0.0124940126535622 -0.266344132940504 0.483509623803863
-0.00755867304640442 -0.270131152215918 0.487567370738764
-0.0160522852870392 -0.26361377431825 0.503645631177218
-0.0113641705508192 -0.267211091278094 0.511854212889675
-0.00325183766918033 -0.273435903233644 0.511668352640273
-0.0131275188533632 -0.265858026536344 0.52650769453971
-0.00719636427379258 -0.270409161515124 0.531753687490204
-0.0158253824299157 -0.263787883004171 0.547709308820362
-0.00557963943129427 -0.271649718118909 0.55541002330842
-0.0151369170999132 -0.264316161032169 0.572137024531245
-0.0132488325092051 -0.265764939294207 0.583053348100719
-0.00896994979640723 -0.269048241478133 0.583445024980161
-0.0109186309887903 -0.26755296580825 0.596525525456983
-0.00954308035088248 -0.268608462936049 0.611818867125457
-0.00643753615871258 -0.270991430807062 0.619361821948717
-0.0133787332684745 -0.265665262935861 0.627456758989974
-0.00444581634255185 -0.272519731174495 0.629976626883907
-0.0135210801994006 -0.265556036294105 0.647917149430355
-0.00369609284901845 -0.273095014244605 0.656565731945033
-0.00824670813715195 -0.26960320432211 0.665453852133251
-0.0136683227915681 -0.265443053079354 0.684033631629202
-0.0143866589779136 -0.26489185433713 0.695129133623955
-0.0135874856861567 -0.265160823105743 0.703082431365766
-0.00581889407393382 -0.26574589403829 0.703082431365766
0.00761222890611902 -0.269293779930063 0.703082431365766
0.128836889931072 -0.276740871168854 0.628007419924402
0.114969366613336 -0.28183237422264 0.644620473079832
0.116873689236138 -0.282597345531289 0.645983742925143
0.146467897166021 -0.284268382888863 0.640085138645814
0.176685337078361 -0.284364848755906 0.632377857598269
0.180528013173362 -0.285109720716449 0.63569355125805
0.179903313400434 -0.289559274296252 0.647270951264851
0.181475133767609 -0.291166872823153 0.652081136107578
0.199819041412715 -0.288151934816893 0.650490803452286
0.207253112826637 -0.29162870610389 0.662301948690809
0.234750546343691 -0.285577068609504 0.655856147234107
0.238627024013676 -0.28783368366512 0.663191151059833
0.232583211482303 -0.289512742186577 0.665532910840645
0.239259192773274 -0.295716639969142 0.684308882510957
0.251927442808803 -0.291462675745497 0.678023122013418
0.256072161911694 -0.295827339760781 0.693045954662862
0.256390149963162 -0.297069347107076 0.69643941455494
0.266579318730052 -0.293892533260253 0.699017577232322
0.280386908135519 -0.293233038294899 0.703082431365766
0.294706343965548 -0.296253526960923 0.703082431365766
-0.028069076853151 -0.254392965840655 0.0170088881245446
-0.0247397611814901 -0.256947639607021 0.019517607355657
-0.0164820914958611 -0.26328397241462 0.0228133410730478
-0.0167542402826121 -0.2630751453058 0.0385918587604469
-0.0225169274196474 -0.258653279942274 0.0590471507441096
-0.0204121981960599 -0.260268295477921 0.0635517765474642
-0.0204817350017467 -0.26021493801026 0.0673187965068183
-0.0231109965323516 -0.258197434679372 0.0893131563249411
-0.0164063791849271 -0.263342068514122 0.0888149931395391
-0.0225606662818141 -0.25861971793291 0.106864359909867
-0.0219628766657747 -0.259078418038431 0.107934866109683
-0.0294002771348244 -0.253371499938121 0.13392940271183
-0.0298320766620207 -0.253040168507507 0.137832704863879
-0.0200174918454405 -0.260571164313078 0.133729275871363
-0.0164081022054945 -0.26334074639394 0.149928410313262
-0.0182773980272101 -0.261906385261421 0.151016589815816
-0.0168094538707222 -0.26303277842954 0.165615655915463
-0.0179624387993543 -0.262148061977068 0.176533570180067
-0.0289045012395038 -0.253751922162591 0.194366303393742
-0.0303335527277627 -0.252655372388438 0.203773905884749
-0.0180892456426503 -0.262050759663947 0.198474721911308
-0.0189658261416451 -0.261378135789932 0.217309908403002
-0.0264105852639354 -0.255665571196396 0.229877993674627
-0.0171394645726623 -0.26277955231162 0.228840769331027
-0.0238862171567623 -0.257602586972623 0.247629817505111
-0.0163824001337078 -0.263360468287269 0.248225590635749
-0.0172593903588717 -0.262687530019307 0.262881699780021
-0.0296055120892586 -0.253214017618708 0.285615827798965
-0.0206013828036131 -0.260123129022835 0.285027301884346
-0.0258670531880871 -0.256082638027027 0.304871317590424
-0.0175886927526374 -0.262434847405365 0.304491068074198
-0.0185880602265783 -0.261668005771701 0.319310859193105
-0.0304654444080039 -0.252554168342699 0.334415492216644
-0.0248235027270998 -0.25688338245906 0.339807671101977
-0.0204547947997953 -0.260235609954279 0.351881014358206
-0.0229862445369384 -0.258293160252257 0.364739713244583
-0.0188999683586185 -0.261428670244216 0.366078467667227
-0.0164996485712071 -0.263270500396877 0.374680725261014
-0.0187283898530499 -0.261560327062096 0.389695445391801
-0.0297227672609704 -0.253124044560973 0.403652190056154
-0.029793045699268 -0.253070118018594 0.419744078725923
-0.0191670101188053 -0.261223761894708 0.411403376252909
-0.0252921278401324 -0.256523793762586 0.424265550309245
-0.0245483927492972 -0.25709448176969 0.442155333195208
-0.0274727052431238 -0.254850577871893 0.446006277643817
-0.0170022430376954 -0.262884846098732 0.449462256879091
-0.0226658139983492 -0.258539035252289 0.46448855584677
-0.0219000443948481 -0.259126630935629 0.471648663410496
-0.030127934974908 -0.252813148439411 0.495383970853248
-0.025385538434751 -0.256452117292372 0.506707266734344
-0.0167685643466813 -0.263064154064863 0.510179921611706
-0.0243257320880585 -0.25726533530422 0.523532515081286
-0.0195885059247157 -0.260900336787513 0.53053517631996
-0.030412194164404 -0.252595028691729 0.548095206642721
-0.0285467807957587 -0.254026410713228 0.559023661662054
-0.0240059654453721 -0.257510700879009 0.564921459215818
-0.0240832025931159 -0.25745143473107 0.570383235601063
-0.0215575988901843 -0.259389398613269 0.575710211385207
-0.0279119641957188 -0.254513522622856 0.592157760364427
-0.0192679047135974 -0.261146342749183 0.598077675039071
-0.0176286711159726 -0.262404170928242 0.602810686767413
-0.0225993269152155 -0.258590052585529 0.616986769972926
-0.0166370098430576 -0.263165099385883 0.616684108247101
-0.0268368589085033 -0.255338479924655 0.636111241896541
-0.0178938794473524 -0.262200669418137 0.640613036968905
-0.0158736804669048 -0.263750822616922 0.64940973790447
-0.0193026700027112 -0.2611196664046 0.668704688237925
-0.020311619877551 -0.260345471936118 0.673436084723491
-0.0178766191655185 -0.262213913698209 0.686486549617334
-0.0305531706879937 -0.252095184490753 0.703082431365767
-0.0182678523902199 -0.258411215347689 0.703082431365766
-0.0106683098376289 -0.262121386268441 0.703082431365766
0.116654976735757 -0.267911685641364 0.628007419924402
0.128377434041106 -0.272024492783774 0.628007419924402
0.137775739421403 -0.268367338687772 0.628007419924402
0.143407617868381 -0.268091094470458 0.628007419924402
0.157489804354528 -0.26916150751923 0.628007419924402
0.173435682212044 -0.273707278066511 0.628007419924402
0.19836809570146 -0.276095259764432 0.628007419924402
0.204183652573116 -0.280053865533177 0.630546703080419
0.217258400854829 -0.276296348173549 0.628007419924402
0.238906826251404 -0.275583762712517 0.63081521424763
0.224109973079436 -0.283560781072406 0.646797559996274
0.245620209002265 -0.279865968294118 0.644509982445429
0.25177138813545 -0.280532321771842 0.650862559309871
0.25626819536918 -0.278157410161453 0.649597108429824
0.260304656434311 -0.279974602562795 0.658216236316619
0.270472799036011 -0.27858374870944 0.665184681386398
0.264018803591029 -0.286109752359428 0.677172071403826
0.282195295103597 -0.279929539619332 0.680503809842531
0.28007399312665 -0.286892141612364 0.695532736797866
0.282393922047182 -0.288587384441526 0.702094230536065
0.30325143123374 -0.28283606292104 0.703082431365766
0.321198126452727 -0.284916454789044 0.703082431365766
-0.0331529650747704 -0.250491961204338 0.0266707864789263
-0.0367444526087211 -0.247736115892547 0.0430712209329595
-0.0374339104413479 -0.2472070762905 0.0506256052309083
-0.0312048775777279 -0.251986781315763 0.0553131690476515
-0.031550914032395 -0.251721258205272 0.067719756119678
-0.0338113306121277 -0.249986779559568 0.0744482168112698
-0.038585009984796 -0.246323806544962 0.0957969545158043
-0.0372609915282454 -0.247339761639255 0.0986094674584052
-0.0329395137065199 -0.250655748199818 0.0976020073761506
-0.0345546013763239 -0.249416447842825 0.109295206935679
-0.0375789429328185 -0.24709578894566 0.124217189321981
-0.0426573710939642 -0.243198973961101 0.148186006954162
-0.0378109755215423 -0.246917744078242 0.153060091128351
-0.0437731103774542 -0.242342837097331 0.162428888350111
-0.0369387195014667 -0.247587049662873 0.168987044495668
-0.0417765119088515 -0.243874880986447 0.181738887213275
-0.0408463030437789 -0.244588655353075 0.193307549821767
-0.0378119018662827 -0.246917033268922 0.198810058912076
-0.0395578218815314 -0.24557734172237 0.20348034351877
-0.0410022189349724 -0.244469016881907 0.217438284483352
-0.039495668413211 -0.245625033756008 0.229637966415867
-0.0439991591841576 -0.242169383747347 0.243481048344655
-0.0398419705825056 -0.245359306755513 0.243576918218471
-0.0373693244061786 -0.247256634898331 0.253396467037797
-0.0340396433520016 -0.249811589032564 0.261213475422463
-0.0314171018481117 -0.251823935905593 0.268390196977963
-0.0435413745985526 -0.242520654214562 0.292567823070807
-0.038456891231147 -0.246422115522303 0.295942490202568
-0.0350234865250702 -0.249056659613929 0.302835155552577
-0.0442982938261333 -0.241939849663519 0.311976815991429
-0.0428014933538418 -0.243088385061528 0.320918108911669
-0.0356434352845843 -0.24858095619959 0.330321919712972
-0.038076849490909 -0.246713731806146 0.341353901658601
-0.0444047166320765 -0.241858188572383 0.356730175448635
-0.0371646195661567 -0.24741371044665 0.369439021051365
-0.0397545813265519 -0.245426362890065 0.3749780322454
-0.0384930173321148 -0.24639439499006 0.382525181947295
-0.0414924882205476 -0.244092820027708 0.389596487770522
-0.0370317134592568 -0.247515692889342 0.399619164413184
-0.0345867902402581 -0.249391748458816 0.409361808221996
-0.0334607803632349 -0.250255766226187 0.420953147451542
-0.0317955313517557 -0.2515335567344 0.419283966935915
-0.0307644267203222 -0.252324751145529 0.427840753539028
-0.0362907076681362 -0.248084286631117 0.452690329658247
-0.0333813900160111 -0.250316684582197 0.456042234739399
-0.0308328104786058 -0.252272278442259 0.465800200402974
-0.0324775976662087 -0.251010188843729 0.474277605470961
-0.0428175255813681 -0.24307608310067 0.491437314412745
-0.0429492895933979 -0.242974977018195 0.501423853827091
-0.044919772106434 -0.241462972606602 0.518747467489193
-0.039308029465516 -0.245769014184571 0.519011320572523
-0.0436792592162205 -0.242414851626199 0.537464924894311
-0.042896571818235 -0.243015428789824 0.541959429126051
-0.0416415054740811 -0.243978475067397 0.557492972167139
-0.0367989394007998 -0.247694306706497 0.552255985160957
-0.044156986458525 -0.242048278620285 0.575681630848674
-0.0409994711522979 -0.24447112532971 0.580848798854314
-0.0315317029821674 -0.25173599936258 0.586068627511567
-0.044543413476262 -0.241751762740692 0.600274973826229
-0.039674616718148 -0.245487721892177 0.618262277007138
-0.0342285857266643 -0.249666608449312 0.62176390338795
-0.0355544590078553 -0.248649230098014 0.629374378952915
-0.0340564050642632 -0.249798727318381 0.632096455560179
-0.0367147236540181 -0.247758927721815 0.64985918275834
-0.0364411729228765 -0.247968830580402 0.663963289835798
-0.0351338524971402 -0.248971972825006 0.669348716438218
-0.0336816959486243 -0.250086251735452 0.678407427481987
-0.0345502845010962 -0.249419760297691 0.679863081605105
-0.0309495984084684 -0.252182663911805 0.695841042876824
-0.0316271960991405 -0.243676828917822 0.703082431365766
-0.0185105034344386 -0.247388099004338 0.703082431365766
0.0897231986953075 -0.255052098177805 0.628007419924402
0.105292819510148 -0.257925646412224 0.628007419924402
0.122580729818233 -0.264139407778979 0.628007419924402
0.129368674969933 -0.264456391678216 0.628007419924402
0.151900262623236 -0.264915873296072 0.628007419924402
0.16821700855005 -0.259901502058426 0.628007419924402
0.174908229812903 -0.264229516783364 0.628007419924402
0.194581679308595 -0.261626650681541 0.628007419924402
0.207717309625449 -0.267726807616641 0.628007419924402
0.212301420955311 -0.272954506479989 0.628007419924402
0.237300259917608 -0.273953003211765 0.628007419924402
0.245408586554623 -0.267155847868747 0.628007419924402
0.253651588906939 -0.275196630186332 0.639605835221776
0.263617389189038 -0.271599934726885 0.640918223904257
0.268496185435906 -0.270703902825699 0.643696857648426
0.267152079367549 -0.27657365352401 0.65682139159044
0.282108754550805 -0.270030346878673 0.65596161804106
0.292055514052458 -0.271267256943313 0.669194816566615
0.291031770377276 -0.276344683158588 0.680689898561079
0.296144634970245 -0.273164616243878 0.678065860539094
0.301580139755633 -0.275062560186909 0.688315992664217
0.304898299257701 -0.276864961053795 0.696163602581947
0.312328934214519 -0.278652238612416 0.703082431365766
0.326199362133222 -0.279968733633555 0.703082431365766
0.33974687749899 -0.277691833446203 0.703082431365766
-0.057109209342181 -0.232109688447338 0.0471161404117391
-0.0565005959871832 -0.232576693899872 0.0600154439214523
-0.0542338473292416 -0.234316031320076 0.0563716204087573
-0.0566019234603492 -0.232498942595088 0.077249837103572
-0.0575388855513746 -0.231779986295931 0.0878252305634464
-0.0473259618728368 -0.239616638260642 0.085638497967327
-0.0472276149789886 -0.239692102486476 0.0966142030165356
-0.0488037207965757 -0.238482713956731 0.112015842741627
-0.0529334733740588 -0.235313843350352 0.125771954576605
-0.0503983226445412 -0.237259132923706 0.128453892925361
-0.0471755840034752 -0.239732027258198 0.128357082391563
-0.0495055335560485 -0.237944194085879 0.151545266472978
-0.058537577886808 -0.230859372300258 0.168000311109265
-0.0479273772973762 -0.239155155974406 0.165699661872972
-0.0560321058673318 -0.232936179012435 0.182359595037471
-0.0586816777430262 -0.230671577711411 0.198665603219465
-0.0480917577245808 -0.239029022436317 0.196811983601409
-0.0538728355619254 -0.234593045392115 0.213604213218065
-0.0537551995034815 -0.234683310714519 0.225960225643323
-0.0589312127242563 -0.23034637739246 0.232046590817948
-0.0529005306405217 -0.235339121198853 0.23960670058585
-0.052397747509114 -0.235724920264683 0.248375454445781
-0.0476904405738779 -0.23933696391679 0.250507416204281
-0.0452491720999374 -0.241210215101746 0.256700179447592
-0.0477436337367515 -0.239296147367341 0.271788885997951
-0.0483924165897756 -0.238798318774878 0.283493131323226
-0.0550699275495727 -0.2336744844029 0.299407944433169
-0.0452339108008937 -0.241221925508375 0.299996375150943
-0.0478478008065284 -0.239216217163442 0.313292883929102
-0.0528389239717895 -0.235386393658411 0.330099062221687
-0.0556165108149627 -0.233255076312189 0.342780202452751
-0.047661623038553 -0.239359076389372 0.343346321137637
-0.046990817876781 -0.239873803293675 0.352971641539076
-0.046523873217898 -0.240232102532328 0.35801884250361
-0.058620969786279 -0.230750693860978 0.387261211287454
-0.0450151810288378 -0.241389762765548 0.377597362918756
-0.0487496061059094 -0.238524237619325 0.393699657079958
-0.0559673509396229 -0.232985867216071 0.409334148888802
-0.0460526759945306 -0.240593664878479 0.410641588351178
-0.0533681799266496 -0.234980281280698 0.429405850893405
-0.0505853828375087 -0.237115596589265 0.442083021871626
-0.0561686225941569 -0.232831426043632 0.451893324172963
-0.0586519618128559 -0.230710304265587 0.467654301533567
-0.0571391269472598 -0.232086731861545 0.46927986826883
-0.0463409809450484 -0.240372440709179 0.467272906449593
-0.0586462885457123 -0.230717697811275 0.489176676770254
-0.0576522193686721 -0.231693022199268 0.50622917803028
-0.0468234442671509 -0.24000223358142 0.500160787527284
-0.0561076441358202 -0.232878216460399 0.514587095442374
-0.0493896683180315 -0.238033100609978 0.513628845075456
-0.0461885779288942 -0.240489383656523 0.530457278162413
-0.0588175235241753 -0.230494540042624 0.543989297160203
-0.0509712285407299 -0.236819526767988 0.548111449576608
-0.0457368241996495 -0.240836026484893 0.559475721692041
-0.0537387719554213 -0.234695916015492 0.574417189513921
-0.0482872032916249 -0.238879051778043 0.577699327032844
-0.0563796694747674 -0.232669484076411 0.603021050948902
-0.0504476735208097 -0.237221264664465 0.603642034518303
-0.0498464451480938 -0.237682603420788 0.613340783065047
-0.0473186025595989 -0.239622285260303 0.616595432033148
-0.0529106650199255 -0.235331344816031 0.635011837784992
-0.0588729559338397 -0.230422299119872 0.645636022993996
-0.0576183175354272 -0.231719035990858 0.658226025312497
-0.0586341099683734 -0.230733569242268 0.666952127647238
-0.0538607867543016 -0.234602290767378 0.671909158516666
-0.0578490894031669 -0.231541958508676 0.688734444647442
-0.0582828446965641 -0.231191347057088 0.695672632762414
-0.0513071652829727 -0.235031465111903 0.703082431365766
-0.0503602705118479 -0.234829924202379 0.703082431365766
-0.031066208549177 -0.238395032592593 0.703082431365766
0.0885749844453137 -0.249413502628788 0.628007419924402
0.0931442965424436 -0.247967045438757 0.628007419924402
0.101085202329045 -0.247625245731231 0.628007419924402
0.123802182378508 -0.251675488837422 0.628007419924402
0.124980481481316 -0.245313358144604 0.628007419924402
0.146464920164306 -0.249089030060399 0.628007419924402
0.168283704200524 -0.255009018957098 0.628007419924402
0.178084308915117 -0.257843076354672 0.628007419924402
0.19853389351704 -0.260615409892544 0.628007419924402
0.202116660684762 -0.254279054638266 0.628007419924402
0.215490420759743 -0.253453879599676 0.628007419924402
0.231472927991237 -0.256182584459557 0.628007419924402
0.259240651430087 -0.255423013326974 0.628007419924402
0.260011179411323 -0.263109662095088 0.628007419924402
0.271393457230833 -0.263764791620009 0.629519945317714
0.281588138955692 -0.261539640575611 0.634454609476925
0.283233461741939 -0.265190855332363 0.645157605700782
0.295782627573977 -0.261247063441582 0.648255919372642
0.2929971721174 -0.26497716349493 0.654620132147524
0.304202909898016 -0.265789324712166 0.66809229689692
0.307413912387702 -0.268108065017628 0.677105757753991
0.315442927664871 -0.265357424978583 0.678526375728467
0.3248961851767 -0.263293703492309 0.683101175433521
0.325904748559253 -0.267906822447123 0.695528787604783
0.336417613190977 -0.264508046637859 0.703082431365766
0.339408944300615 -0.271640338672839 0.703082431365766
0.356554094694936 -0.26591322873932 0.703082431365766
-0.0625847657869842 -0.225584974340093 0.0513418987520312
-0.0593213602439499 -0.229837927245645 0.0594568321055119
-0.0621458009088869 -0.226157044507015 0.079503425674262
-0.0609039944798329 -0.227775398153515 0.0801010182106236
-0.0661457594441624 -0.220944197053531 0.101534539468503
-0.0600536436987025 -0.228883596867299 0.103654443627892
-0.0632565320243378 -0.224709511534955 0.114226983241301
-0.0615020469036941 -0.226996001060449 0.116383988571293
-0.0599831673167951 -0.228975443476388 0.126927235259481
-0.0649892618704575 -0.222451374035213 0.146309404176087
-0.0619169612134475 -0.226455274204424 0.153140683937302
-0.0608355773792955 -0.227864561054871 0.155518148359554
-0.0621757617761918 -0.226117998744551 0.166171005583205
-0.0657489024569066 -0.221461391148711 0.185705841882231
-0.0610383438964452 -0.22760031058496 0.195062409103799
-0.0649755145741183 -0.22246928986061 0.201579854095759
-0.063187671565722 -0.224799252231808 0.208685221866209
-0.0652265659157949 -0.222142113382251 0.227229899376862
-0.0590821342274996 -0.230149692660127 0.224645758743278
-0.0619117529268698 -0.226462061775642 0.232359711192066
-0.0611716801270783 -0.22742654342608 0.247860583575701
-0.0606722995169656 -0.228077348907883 0.250656627060847
-0.0657011188036869 -0.221523664017994 0.271865845864367
-0.0627943512898028 -0.225311837195039 0.278086511583858
-0.0595833774000767 -0.229496459839661 0.284811379956762
-0.0620783266969736 -0.226244978611992 0.30520395311378
-0.0625972598653935 -0.225568691740099 0.300877820531899
-0.0619058117546151 -0.226469804462068 0.309929977829769
-0.0616046011670641 -0.226862349742333 0.332339399550156
-0.0591418600301649 -0.23007185647868 0.334066263207722
-0.0656563894672656 -0.22158195642413 0.350513545759773
-0.0635897801160444 -0.224275214166392 0.358440772444234
-0.061287626462535 -0.227275439219824 0.368017917353217
-0.0657728448522051 -0.221430188811672 0.37757383883922
-0.0645385974963337 -0.223038691282206 0.392392754130802
-0.0664981485639823 -0.220484954611468 0.400023123078176
-0.0613268829922142 -0.227224279114296 0.401756037875282
-0.0637894295564394 -0.224015025949995 0.417021003689738
-0.0635127945173106 -0.224375543752006 0.422579664187959
-0.0599585996218176 -0.229007460719834 0.43613661690505
-0.0596217458906169 -0.229446457049271 0.437172368699412
-0.0588406537203491 -0.230464396184091 0.4468034671363
-0.0604515911885392 -0.228364981601487 0.459558361164095
-0.0594457819848918 -0.229675777675916 0.471043462020192
-0.0615069574374633 -0.226989601528247 0.477404141045143
-0.0638480641838882 -0.223938611815777 0.496860596336011
-0.0598279493692143 -0.229177727443995 0.498331383265959
-0.0646248090867817 -0.222926338150102 0.517445144927811
-0.0663929306564413 -0.220622077258253 0.524206516994714
-0.0594374633117219 -0.22968661878186 0.528095151556495
-0.0633728629019017 -0.224557906183669 0.542670079000355
-0.0640569603339738 -0.223666373052697 0.552089189321437
-0.0623071950897112 -0.225946711515536 0.561553942400349
-0.0666562187126491 -0.220278953583037 0.569810608014569
-0.0644510175213714 -0.22315282772773 0.585898401900521
-0.0606994340159789 -0.22804198654029 0.592113831096637
-0.0625673552570343 -0.225607664184477 0.604328740813133
-0.060028857801667 -0.228915898477206 0.606234884290303
-0.0599335963915441 -0.22904004556393 0.618752138794486
-0.0621636552136666 -0.226133776324011 0.627829184307302
-0.061329891695611 -0.22722035809569 0.642840088853767
-0.0599213135106357 -0.229056052925981 0.64849153773819
-0.0607528395773523 -0.227972387057657 0.659037729935837
-0.0643922612601201 -0.223229400378206 0.672906603935995
-0.0649509528611786 -0.222501299308113 0.677044243178045
-0.0611968377729945 -0.2273937573436 0.687351639399792
-0.0621527796553152 -0.226147949627599 0.69655522387555
-0.0592586971206665 -0.229483103499332 0.703082431365766
-0.0523461697977416 -0.229971371069892 0.703082431365766
-0.0374079585658881 -0.2306479316065 0.703082431365766
0.0863456818170539 -0.234078779354424 0.628007419924402
0.0870485552829297 -0.235349019929952 0.628007419924402
0.106166146552558 -0.240804395311193 0.628007419924402
0.124762045171682 -0.23917927466774 0.628007419924402
0.140354314981611 -0.240523574985109 0.628007419924402
0.151448952830343 -0.245766453475107 0.628007419924402
0.166293427982749 -0.240335333801952 0.628007419924402
0.181497785291084 -0.242485314055212 0.628007419924402
0.182991964918382 -0.240306175557271 0.628007419924402
0.206822978935233 -0.250257733033457 0.628007419924402
0.214226560353005 -0.245972156729776 0.628007419924402
0.22869397092153 -0.245394841754294 0.628007419924402
0.25464615912969 -0.24946378132051 0.628007419924402
0.265489276548012 -0.254778197143712 0.628007419924402
0.286800549223441 -0.250933242766903 0.628007419924402
0.299851532313793 -0.248918761911948 0.628007419924402
0.298017842941256 -0.255106755279207 0.635374835342471
0.313120691065076 -0.249982405498755 0.638169829834508
0.312427156539152 -0.254641418933481 0.648969196725596
0.318659989677241 -0.254277620988798 0.654448064702465
0.323256125073019 -0.256086994099046 0.665082988896917
0.33076166348173 -0.253262112934813 0.671307463537725
0.331763458075413 -0.259026786707977 0.685166494032405
0.333083239971131 -0.257997254855709 0.685130798251935
0.340128695062328 -0.259617526635853 0.700035743877901
0.346943573189897 -0.254633174821631 0.700555216599335
0.35760646756637 -0.255716965862101 0.703082431365766
-0.0679291311779591 -0.218620061760839 0.0557868344023733
-0.0742182104766298 -0.210423974047001 0.0731793195138456
-0.0722154188366567 -0.213034062928728 0.0804019083404401
-0.0708355051532454 -0.21483240145328 0.0860988870247373
-0.0684955306171942 -0.217881915640465 0.0991597923165791
-0.0674656933322811 -0.219224025720061 0.101699684996898
-0.0730347854251873 -0.211966243600897 0.122801671783888
-0.0732652002836149 -0.211665961111115 0.133643580642536
-0.0698819313267909 -0.216075123058794 0.13658369250736
-0.0744872992825081 -0.210073290687633 0.151282314535645
-0.0686096867164124 -0.217733144515499 0.152000719861978
-0.0683986500742341 -0.218008172822185 0.167068036864482
-0.0705738648236629 -0.215173377769351 0.178441397558346
-0.0689971810706253 -0.217228152041256 0.185789479774847
-0.0682317492545683 -0.218225682205122 0.200687479381726
-0.0674447570325607 -0.219251310437071 0.205517585089036
-0.0708251870167901 -0.21484584831051 0.210286950552207
-0.072354704634242 -0.212852542143239 0.224819378069651
-0.0730974740653033 -0.211884546174509 0.234293980034845
-0.0668845068092321 -0.219981442743252 0.239727153857349
-0.0719714256379847 -0.213352041056038 0.256435859813883
-0.0716843240977212 -0.213726199067891 0.267217432997538
-0.0692252425267335 -0.216930936565088 0.279477931933803
-0.0699785719908411 -0.215949178493355 0.284153063257414
-0.0719110024643274 -0.213430786069056 0.296488643586975
-0.0680956724644281 -0.218403020930687 0.306317355185169
-0.0699634505627772 -0.215968885122081 0.310863160121396
-0.0683593150552248 -0.218059435217 0.319829484851557
-0.0722931806864794 -0.212932721713 0.337778022267978
-0.0708861288513661 -0.214766427365422 0.345697939467092
-0.0715484147138385 -0.213903319625374 0.352980624250458
-0.0736931032962856 -0.211108307047886 0.362802085523159
-0.0734852891131011 -0.21137913576425 0.373198796549703
-0.0709159679085047 -0.214727540349058 0.384678605352998
-0.0718357157086662 -0.213528901679272 0.396546690229711
-0.0733110270713954 -0.211606238478523 0.404030985303873
-0.0714588485243978 -0.214020044556003 0.409505869753651
-0.0724841753809485 -0.212683812581089 0.425827636294998
-0.0723392998878399 -0.212872617999611 0.438227480041555
-0.0674481264085343 -0.219246919380811 0.444504949974133
-0.0690538930645259 -0.21715424353186 0.453110777076987
-0.0728899491357476 -0.212154997928202 0.46459811226546
-0.070274150959194 -0.215563972482119 0.473836812441239
-0.0714538586949316 -0.214026547428369 0.48042140446543
-0.069717389025728 -0.216289558760444 0.486103922448204
-0.070365106575925 -0.215445436814593 0.506529899617313
-0.0704190321065983 -0.215375159694776 0.509643347385023
-0.0708986155249007 -0.21475015441565 0.52287976828342
-0.0741970698037667 -0.210451525108275 0.534351627676668
-0.0721610413438324 -0.213104929057088 0.539020727831729
-0.0703583409757131 -0.215454253916451 0.544346084835591
-0.0734264183463085 -0.211455857641251 0.55905078471986
-0.0727514808661416 -0.212335453290486 0.574903282194645
-0.0689688537168487 -0.217265068967443 0.576185796515704
-0.0744307329894446 -0.210147009316001 0.589756121994184
-0.0691664846033721 -0.217007511381668 0.596495214233525
-0.0723898044395875 -0.212806799186331 0.604086675651087
-0.0699763355135104 -0.215952093127358 0.619854313276934
-0.0726208758399936 -0.212505661074383 0.627358277878842
-0.0724559187047323 -0.212720637398487 0.636037143052605
-0.074664136489338 -0.209842831952829 0.65211580694065
-0.0674402266668241 -0.219257214524647 0.660005949547656
-0.0698015810235558 -0.216179837612685 0.663636760833461
-0.0724782842831753 -0.212691490009181 0.683400963027049
-0.0686895233891299 -0.21762909933793 0.685098950642982
-0.0677474785761435 -0.218856796040568 0.68931892425781
-0.0603189390379634 -0.211384110499934 0.703082431365767
0.047403537539822 -0.222664364330769 0.628007419924402
0.0493584984254619 -0.225510825686293 0.628007419924402
0.0751204219720254 -0.224080457574467 0.628007419924402
0.0709583195239931 -0.221220410198386 0.628007419924402
0.101974017895797 -0.228564969527281 0.628007419924402
0.106891420087382 -0.231581458015529 0.628007419924402
0.120939238550653 -0.226379013322652 0.628007419924402
0.123236610223645 -0.234612927930936 0.628007419924402
0.13808163503938 -0.226827088100577 0.628007419924402
0.172809701862767 -0.230551689977902 0.628007419924402
0.185352071790743 -0.236755160119842 0.628007419924402
0.182565967763331 -0.230972219107217 0.628007419924402
0.212322305732766 -0.23390223019954 0.628007419924402
0.216154687357476 -0.234746647313804 0.628007419924402
0.245965635027222 -0.24000779945464 0.628007419924402
0.249173336152144 -0.23919480767368 0.628007419924402
0.266869489267732 -0.244657089368604 0.628007419924402
0.277443255948257 -0.239439763523422 0.628007419924402
0.293368331300347 -0.237624822024084 0.628007419924402
0.301686251877311 -0.241576531872637 0.628007419924402
0.318751389557954 -0.243544749459386 0.631145176995954
0.317913839795942 -0.248834833725566 0.641003568034755
0.327981067496203 -0.241020882701073 0.640814572769197
0.331163780286236 -0.249355816094305 0.663675697193137
0.340402713630893 -0.240112959735202 0.659107395586774
0.3427265519335 -0.245251511238351 0.673790150790321
0.350428553680337 -0.24163377276076 0.678652548625687
0.352977789451334 -0.243703237689259 0.68719183608863
0.359867315207086 -0.243277647620543 0.697503158193064
0.358180988287467 -0.247254628934176 0.703082431365766
-0.0752973189521503 -0.209017652501655 0.0667042017923327
-0.0823529232494091 -0.199822609960739 0.0839217465049883
-0.0819497237200897 -0.200348069817666 0.0881989327379485
-0.0806405368241124 -0.202054235398295 0.0982997486441287
-0.0821448346250954 -0.200093796335745 0.113424856007677
-0.0765249989680344 -0.207417708755224 0.115427035735521
-0.0767547643489138 -0.207118272681061 0.130963169041467
-0.0815946825978682 -0.200810768416547 0.140380738379102
-0.0776590425580476 -0.205939794374811 0.153388111482586
-0.0812054724708583 -0.201317996929434 0.155928226872874
-0.0760551164247455 -0.208030071607893 0.170102561540564
-0.076878769807446 -0.206956665621132 0.172505666047414
-0.0822420925295759 -0.199967047366916 0.183169842112581
-0.0818179149134205 -0.200519846398881 0.192488851508142
-0.0798364761614496 -0.203102107655181 0.207117649681566
-0.0815618876744108 -0.200853507592898 0.222075174783733
-0.0797293545708567 -0.20324171123002 0.229843439085274
-0.0799236057055545 -0.202988558222578 0.241341348357522
-0.0822563219230875 -0.199948503260252 0.242545923358291
-0.0795970999110469 -0.203414068858361 0.251750889493981
-0.0748311461591097 -0.209625180713674 0.252038444757306
-0.0758141592875051 -0.208344093062913 0.267455917525836
-0.0750090873208679 -0.209393283276797 0.277286883713619
-0.0796617213346782 -0.203329852579456 0.29372789890326
-0.079493047357798 -0.203549672785863 0.295433295792314
-0.0763671034567707 -0.207623482191761 0.307304410395719
-0.0821797143917677 -0.200048340138819 0.319798550114773
-0.0780728646959298 -0.20540049086488 0.332741091893615
-0.0828387913236617 -0.19918941435852 0.343135833731615
-0.082018238705291 -0.200258779350531 0.356048238854776
-0.0765245149851843 -0.207418339493955 0.357976827894096
-0.0778842393094221 -0.205646312254539 0.364601008408438
-0.0807704940741692 -0.201884871812636 0.382143707190067
-0.0763990743931111 -0.207581816856328 0.381987122534599
-0.0828916636288695 -0.199120509828852 0.407697189001277
-0.0773790796695952 -0.206304649114496 0.405873697171762
-0.0750544967048778 -0.20933410461539 0.413855051986082
-0.0821762536122142 -0.200052850314543 0.428282254431802
-0.07507079673135 -0.209312862007314 0.437820148606564
-0.0795983740298671 -0.203412408394386 0.448253429977183
-0.081582346866485 -0.200826844654678 0.462878134642324
-0.0798876496522198 -0.203035417063592 0.461767389429723
-0.0814674891682292 -0.200976530121311 0.485351259208879
-0.0774500564513958 -0.206212150371571 0.487937655553262
-0.0791526646097926 -0.203993268219541 0.492452703045477
-0.0799280961819612 -0.20298270611979 0.507469393015679
-0.0815572713103707 -0.200859523755645 0.524988557997311
-0.0784527372513255 -0.204905431312242 0.523789209222359
-0.0779517236045746 -0.205558365008828 0.529159379975726
-0.0801803896247826 -0.202653910903703 0.542333573461424
-0.0825291314967818 -0.199592970901859 0.558098053086371
-0.0765016128458298 -0.207448186143054 0.565035002985465
-0.0809893163259132 -0.201599697102021 0.577610555740004
-0.0804747473978162 -0.202270296385193 0.584022323500571
-0.0812053725592913 -0.201318127136723 0.59936424496417
-0.0759040515697555 -0.208226943159861 0.606810423440153
-0.0775234161936115 -0.206116546094171 0.615892869513049
-0.0824104283003492 -0.199747667919288 0.63232899299104
-0.0751533356734374 -0.209205295163738 0.62718495578008
-0.0783324120122195 -0.205062242216838 0.649594331812284
-0.0790902269551587 -0.204074638555281 0.649263137100003
-0.077068710205923 -0.206709130474509 0.663191044925039
-0.0820519397268381 -0.200214859324161 0.677730403402509
-0.0781923994837204 -0.205244710096493 0.676235690748938
-0.0753569129105828 -0.208939988142957 0.687722540078552
-0.0732700377490843 -0.206498668033687 0.703082431365766
-0.0638951521169686 -0.206117574391016 0.703082431365766
0.0470835649647349 -0.214491138667288 0.628007419924402
0.0494273026858938 -0.212875856216508 0.628007419924402
0.0636104984660365 -0.215688818634262 0.628007419924402
0.0791605785225081 -0.211107061479201 0.628007419924402
0.0926915288497966 -0.219384610570163 0.628007419924402
0.0998880326434727 -0.221127393062372 0.628007419924402
0.11723344177478 -0.222583544099316 0.628007419924402
0.133071240239486 -0.219605048137685 0.628007419924402
0.142238179222938 -0.220312841309311 0.631018735119624
0.155474064448753 -0.226139712304423 0.628007419924402
0.145580192203032 -0.223949723128618 0.655000708925477
0.146780061582773 -0.219206023019753 0.656896442125411
0.212064691255218 -0.228937231370578 0.628007419924402
0.173635900478507 -0.218731887561872 0.662883182781027
0.23766083300258 -0.229228547985532 0.628007419924402
0.255024635722565 -0.224805731342609 0.628007419924402
0.262171263410315 -0.223358790123279 0.628007419924402
0.28455717888504 -0.235498324278031 0.628007419924402
0.294890831860667 -0.230501301903299 0.628007419924402
0.305337055589527 -0.228358067767893 0.628007419924402
0.316247138392402 -0.234251874564734 0.628007419924402
0.335660745769691 -0.234456865318043 0.639390794085817
0.341166037833847 -0.232790485000298 0.644816947004058
0.341470126314777 -0.235825780572376 0.651750581684925
0.347921116084429 -0.235794683195589 0.662184920644927
0.34915093300099 -0.238222455035303 0.669336648341139
0.356457645282909 -0.234020269407727 0.67231586403916
0.356826554259263 -0.235851352751345 0.676800553185326
0.368593147297745 -0.230701664838892 0.685029232505503
0.36538333711222 -0.239526565749182 0.69852457013796
0.375629478030433 -0.232808562488129 0.700951589156694
0.383067693004338 -0.233818375788993 0.703082431365766
-0.0880464080929285 -0.192402716052778 0.0823005256223052
-0.087686292177449 -0.192872028250995 0.0875316457779284
-0.0890928390592695 -0.191038980666515 0.0940471205111848
-0.0851706240375796 -0.196150510800521 0.10795596266137
-0.0861257649626272 -0.19490574691236 0.119886687173683
-0.0841214970232719 -0.1975177597449 0.125738970358571
-0.0828054532857815 -0.199232861335366 0.130830640813754
-0.0848423308839509 -0.196578350768059 0.149819456536384
-0.0893363339589881 -0.190721651935045 0.156871301722141
-0.0876576669649575 -0.192909333354217 0.171023125369042
-0.0888247134008586 -0.191388408827666 0.178229631900003
-0.0868828794743071 -0.193919056070592 0.181109353404896
-0.0829359145948519 -0.199062840847212 0.193380408849766
-0.0882868797139873 -0.192089327334765 0.205260295481963
-0.083823816325768 -0.197905704782892 0.211603125037148
-0.088564494075404 -0.191727533255102 0.229862602295642
-0.0903457453808189 -0.189406161358479 0.23582973873915
-0.0870816096141297 -0.193660065910027 0.237420554550663
-0.0874375445400211 -0.193196202483525 0.25473314855805
-0.0855583443170615 -0.195645223894735 0.258804781476712
-0.0831501859873055 -0.198783596931892 0.266205945000036
-0.0899566741441748 -0.189913208865917 0.282510697466168
-0.084279417092049 -0.197311954304388 0.285553508100476
-0.0870333815397932 -0.193722917960186 0.299000551686573
-0.0847054424601541 -0.1967567472352 0.30245922990016
-0.0850141309132605 -0.196354456610809 0.319096123153547
-0.0883867086589162 -0.191959227720791 0.328235477849533
-0.0897348718719424 -0.190202267214844 0.33590104737557
-0.090120904202953 -0.189699180086334 0.354028807245038
-0.0853598832684229 -0.195903863368841 0.356763320533851
-0.0867136237659243 -0.194139634404255 0.36805080924171
-0.0894618312957974 -0.190558100621491 0.38323105151764
-0.0866960671387091 -0.194162514646303 0.389285078094593
-0.088875750156825 -0.191321896432343 0.395908381301945
-0.0832705956095346 -0.198626676057068 0.406766679114262
-0.0883336592821869 -0.192028363014558 0.418701321289738
-0.0891013762800457 -0.191027854743786 0.426966992203896
-0.0906520970249557 -0.189006916122829 0.441154230915117
-0.0865479431122553 -0.194355553635906 0.44910245216448
-0.0862390652202415 -0.194758091141888 0.455893596169775
-0.0856150526948225 -0.195571320097984 0.467948673959151
-0.0859172437905374 -0.195177496994602 0.474094082504586
-0.0851920998814951 -0.196122522935827 0.488640073707345
-0.0892552691097964 -0.190827297703357 0.493456361801013
-0.0860446161552492 -0.195011502097111 0.497720495812298
-0.0858716285535855 -0.195236943928786 0.51207655282083
-0.0886408453035667 -0.191628030397313 0.521902120214415
-0.0830641451972219 -0.198895727472628 0.532596651348086
-0.0896706002356993 -0.190286027641949 0.552890006359382
-0.0868011799364495 -0.194025528981277 0.552904044946853
-0.0826038341072581 -0.199495616564469 0.553845509538609
-0.087114509701826 -0.193617189680973 0.57335118736512
-0.0832111135882811 -0.198704194536393 0.58359087960306
-0.0838864706399854 -0.197824052090886 0.594267108245321
-0.0860784363579561 -0.194967426750828 0.598614881911287
-0.0869528977928247 -0.193827806421336 0.605881128010934
-0.0865039415305432 -0.194412897613638 0.625044432608719
-0.0845707260821849 -0.196932313037107 0.627443308990677
-0.0889091190031966 -0.191278409305089 0.639994365095046
-0.0898125792874548 -0.19010099693929 0.645978027546349
-0.0863837358487261 -0.194569552708141 0.657238167299915
-0.0839564628437433 -0.197732836475048 0.665042110148691
-0.0831671779852538 -0.19876145252903 0.676884271189013
-0.090828714371592 -0.188776743915408 0.699061729558375
-0.0901169706783965 -0.189165481892577 0.703082431365767
-0.0827684325053149 -0.190017641159152 0.703082431365766
-0.0657949385654823 -0.199961695531133 0.703082431365767
0.0403303918712252 -0.198489360925442 0.628007419924402
0.061858018250491 -0.198881222618806 0.628007419924402
0.0621335107112727 -0.204944925631388 0.628007419924402
0.0733584608272041 -0.206575506842592 0.628007419924402
0.0928500884498662 -0.208768486205627 0.628007419924402
0.103520785350621 -0.207583294376206 0.628007419924402
0.119233152539405 -0.21109378993373 0.628007419924402
0.128188004055404 -0.210606409407374 0.628007419924402
0.140139534535618 -0.205140441388732 0.634471259136779
0.139771552554961 -0.210183432710987 0.641207195200571
0.146402160252618 -0.206550860784779 0.657296568565223
0.147765597381708 -0.206233444170168 0.658484563476583
0.161779778350329 -0.20792907470701 0.664493174014388
0.173329789253401 -0.206797860881027 0.662742468339332
0.240038678943762 -0.215257979427811 0.628007419924402
0.252912719461017 -0.217150275386509 0.628007419924402
0.258736044555325 -0.22031656326946 0.628007419924402
0.280746355724036 -0.217578850158089 0.628007419924402
0.287711663187853 -0.219323720905574 0.628007419924402
0.308514157205119 -0.22232746485523 0.628007419924402
0.320081864108532 -0.219133109845812 0.628007419924402
0.341921879259226 -0.225065930966628 0.629661401629849
0.343578187146009 -0.22405208976902 0.630206754751002
0.351124950685515 -0.222644532958289 0.639504853313872
0.360198956388626 -0.220534832823402 0.649799418165937
0.363165373524149 -0.222543121048317 0.658887981547319
0.369917824766204 -0.219781992450813 0.664021888990763
0.362732681393809 -0.228722999409348 0.671292850883951
0.380867883273403 -0.221207864516195 0.684870001520734
0.375101440273064 -0.22635639716281 0.686405342497123
0.384227212277333 -0.222527982556253 0.693138317462839
0.383601772136437 -0.230354913451205 0.703082431365766
0.403250518179066 -0.22411334167187 0.703082431365766
-0.094922347456222 -0.183441817412417 0.0791689631322552
-0.0919124595729111 -0.187364379671354 0.0889055536283758
-0.0904465523792291 -0.189274787120391 0.0982272292272462
-0.0916420481581637 -0.187716786688159 0.10986352232926
-0.097602753003868 -0.17994864489322 0.129799577418384
-0.0939871457120759 -0.184660596054112 0.131748224010387
-0.094739019872288 -0.18368073457134 0.141780895187509
-0.0972923933292403 -0.180353113495901 0.160104687468857
-0.0908588391725439 -0.188737484510456 0.154913050034435
-0.0916194024116319 -0.187746299199626 0.162862862335473
-0.0981997563588181 -0.179170614973377 0.181876515216181
-0.0939884030012993 -0.184658957522896 0.195378905839843
-0.0949790717675452 -0.183367892850643 0.199433676731278
-0.0936698934480848 -0.185074047254137 0.215855340289238
-0.0930208811357138 -0.185919856566906 0.217860528773523
-0.0912046785679659 -0.188286777835414 0.228409239571336
-0.0934568483333585 -0.185351693053208 0.232952760391291
-0.091322589281303 -0.188133113602063 0.251201870903455
-0.0921915234945402 -0.187000696488042 0.261710841595663
-0.0955899351946284 -0.182571800133127 0.275170562868715
-0.0911335259786509 -0.188379505695153 0.278913033794248
-0.0980473215157169 -0.179369271928613 0.285451564685642
-0.092340520908961 -0.186806519277081 0.295792786771485
-0.0939112023666999 -0.184759567348705 0.309411408563252
-0.0955092457307443 -0.182676956689782 0.311913218519102
-0.094009975937187 -0.18463084312548 0.326326958701246
-0.0982771444120356 -0.179069760898869 0.34372431862732
-0.0941497744113569 -0.184448654206858 0.347300569462837
-0.0931865771481703 -0.185703917319294 0.351023730410751
-0.094322430433409 -0.184223644498146 0.368644586920083
-0.0923038878263342 -0.186854260439846 0.371498082884695
-0.0960914168409986 -0.181918256527563 0.385280403422952
-0.0962344011250082 -0.181731915780725 0.396701695621088
-0.0972308422343064 -0.180433328444545 0.406747170769414
-0.0951641483636129 -0.183126696334728 0.419313367435684
-0.0931120389807354 -0.18580105735034 0.41526741682972
-0.0908540290903484 -0.188743753131618 0.430769823714522
-0.094090429167149 -0.184525994434867 0.446557675004273
-0.0949178673453353 -0.183447656006597 0.457902142976972
-0.0957755526628014 -0.182329898738962 0.460893725277945
-0.0903215919185179 -0.189437638763392 0.465827305972227
-0.0927458677926547 -0.18627826093345 0.480397843380931
-0.0941184393171472 -0.184489490896692 0.489197584343235
-0.0916917521741185 -0.187652011153434 0.502193609311585
-0.0942085179205093 -0.184372098175241 0.514965246179776
-0.0977879312313884 -0.179707315928617 0.524851008441868
-0.0977804622636627 -0.179717049676866 0.53230515200295
-0.0933832444613268 -0.185447615486779 0.541565024062633
-0.0909454098187633 -0.188624663447759 0.538419304877078
-0.0974716628624862 -0.180119484891598 0.563830592925228
-0.0915812329417377 -0.18779604262126 0.564660324989785
-0.0972016199808077 -0.180471411626756 0.574874685705884
-0.097765344845316 -0.179736751080027 0.588661748007776
-0.0982912704249955 -0.179051351520363 0.599671982528454
-0.094146247699463 -0.184453250307281 0.604896460059858
-0.0935820522807742 -0.185188524092156 0.615573708875618
-0.095832398916476 -0.182255815258823 0.623607447720176
-0.0947407946882267 -0.183678421586176 0.635846552678801
