ply
format ascii 1.0
element vertex 853
property float x
property float y
property float z
end_header
-0.273998491386527 -0.24229866100215 0.709171136462228
-0.273078661710131 -0.251443256213411 0.71958318603466
-0.272078498442367 -0.256620730727 0.722770448042845
-0.274258499399838 -0.257199068106447 0.723954565998588
-0.269515355966779 -0.271393892305077 0.729599400272914
-0.268900109442806 -0.287041949514909 0.732718258910211
-0.21556010862643 0.357567086313899 0.349468080449464
-0.207885778726601 0.359870710905036 0.364310040223873
-0.211238327861697 0.358864367063761 0.367646038595905
-0.211706814414722 0.358723740174085 0.380764874054712
-0.209941989810635 0.359253492401326 0.390483522128521
-0.207908920630644 0.359863764336419 0.395686457344714
-0.215699509099352 0.357525242092757 0.402828096540924
-0.210246408521006 0.359162114204615 0.413005660463557
-0.20748546669356 0.359990873662629 0.417736020695289
-0.210509205908002 0.359083229594353 0.433485166240831
-0.208378481015673 0.359722815111653 0.443005092811742
-0.212381839578717 0.358521116024783 0.443865415587456
-0.208878401010437 0.359572752759816 0.463179071070813
-0.212533016640459 0.358475736792773 0.462430123370183
-0.207434651092886 0.360006127120436 0.470309287729265
-0.21036507473323 0.359126493843204 0.476207710138
-0.215454363036392 0.357598828256817 0.487442607538963
-0.213466969594467 0.358195389580716 0.495692156756276
-0.213595824479442 0.358156710857546 0.506268856466721
-0.21122516107562 0.358868319373942 0.518399718993065
-0.212400177256583 0.358515611553874 0.525588512770619
-0.213146607797066 0.358291553457457 0.537100175689072
-0.212896063321811 0.358366760077696 0.543365005923374
-0.209334231245396 0.359435924951742 0.552885703024069
-0.208544573157464 0.359672958779281 0.560929144461752
-0.212819299789875 0.358389802396984 0.572820953281416
-0.210129846258719 0.35919710301762 0.573688163867268
-0.212606585182489 0.358453653522341 0.5824080065579
-0.215581909212453 0.35756054237238 0.593153219893975
-0.20987220975485 0.359274438471481 0.607611116964158
-0.209488130652694 0.359389728545822 0.61242913652071
-0.215734468337522 0.357514748282641 0.62285967284676
-0.211636119541965 0.358744960847352 0.628427986301858
-0.209272620743182 0.359454418744662 0.639649048340375
-0.209726027699557 0.359318318338747 0.653241316441708
-0.212654037358691 0.358439409672856 0.658035215822529
-0.211283121742782 0.358850921161989 0.665421722817514
-0.212163060744361 0.358586787465731 0.675644652502644
-0.215283414403552 0.357650142375388 0.683000733356929
-0.20696742119854 0.359129327336522 0.694710470549801
-0.215056083357201 0.354984419323395 0.701722516817793
-0.210865976984108 0.352649318540646 0.710033927113718
-0.209088716545531 0.352011609633619 0.71158133384134
-0.207781644146022 0.345945739267514 0.719646092709867
-0.211506346306678 0.340422910155945 0.722910232240204
-0.210552830544945 0.331682177917797 0.728370423368572
-0.209829313583143 0.332522466281767 0.728123110326908
-0.2125211251078 0.315035492639909 0.732576677625515
-0.212884934646071 0.3058414092686 0.732534494459778
-0.215318680208554 0.290643976365371 0.7288683688681
-0.254347365751856 -0.246399944318292 0.282517949388594
-0.254493875461674 -0.246321084420003 0.294659752306547
-0.25952112063704 -0.243615133778929 0.312969078825488
-0.260614978499489 -0.243026356967597 0.315340980703724
-0.257804655053493 -0.244539033645389 0.331862705438842
-0.263483919014361 -0.241482129233597 0.338299868413805
-0.262441425149054 -0.242043259006412 0.357311173312011
-0.26405402964708 -0.241175263111442 0.36142657174488
-0.256731458381263 -0.245116689423438 0.378289687042445
-0.263492442691168 -0.241477541303645 0.382683333488979
-0.258659861032455 -0.244078712915785 0.395510373770413
-0.256245031558181 -0.245378512137039 0.399728062029724
-0.255654899227473 -0.245696155081215 0.407837524995551
-0.263727958342231 -0.24135077332143 0.427879341292116
-0.262232529728362 -0.242155698459398 0.433742059969251
-0.260956179314337 -0.242842703190735 0.452436298842545
-0.257058436409534 -0.244940691163088 0.456203339420664
-0.264110896106344 -0.241144654333367 0.472080860672274
-0.261467602900428 -0.242567425790812 0.484122020502756
-0.260063386891704 -0.243323255092242 0.495730027207911
-0.26242516789418 -0.242052009590026 0.503171572432757
-0.259251094818393 -0.243760477105461 0.506616881517216
-0.264767846684733 -0.240791045989884 0.528005705263581
-0.257221356830932 -0.244852998082018 0.54036333688614
-0.26140160181579 -0.242602951346272 0.543247637987081
-0.262822170660201 -0.241838320014175 0.562400341538458
-0.259383454072561 -0.243689233791046 0.561952752490573
-0.254773963179021 -0.246170325204593 0.569335948555932
-0.255857166240538 -0.245587283416003 0.579487169645655
-0.262637888319671 -0.241937511300874 0.594416472096987
-0.262041247419332 -0.242258657529164 0.608941732486177
-0.256314457108304 -0.24534114333856 0.616224265423538
-0.261392992753691 -0.242607585235469 0.630155380014202
-0.258248570083022 -0.244300093208462 0.642428694431962
-0.254314974540353 -0.246417379119357 0.65372605207985
-0.2557331468586 -0.245654037734592 0.659420424232204
-0.258162507490446 -0.244346417013933 0.679873824126824
-0.257655461079061 -0.244619338368288 0.686919532133322
-0.260012698702071 -0.244763004004651 0.696759431147176
-0.256888948557426 -0.249022437470296 0.703884923235099
-0.264930248508948 -0.253076460032256 0.71642287664905
-0.261339532042897 -0.258980147221116 0.720458025423893
-0.262691492544491 -0.264934042402364 0.724974567014215
-0.260161636657526 -0.271610746475734 0.727841383547326
-0.261609397721042 -0.281287969604611 0.731595797278876
-0.264136155352683 -0.303106003666666 0.731973295481725
-0.204653753376373 0.36084087679224 0.350434272296514
-0.200313134194453 0.362143812321303 0.36049245530676
-0.202518259828255 0.361481893729989 0.369181634217526
-0.201526612744535 0.361779559146723 0.374558871102471
-0.20603318560984 0.360426808846726 0.384948104197941
-0.197873831429872 0.362876024502309 0.400140410518969
-0.203116468977977 0.361302327653741 0.408833018370528
-0.199575711900992 0.362365166387578 0.416593505216599
-0.201651091137582 0.361742194127101 0.422551215489335
-0.201828386674957 0.361688974840841 0.431144848165608
-0.204289190242533 0.360950308705006 0.442556931524374
-0.203067636735641 0.361316985761452 0.450784148136353
-0.198641657133161 0.362645544161369 0.459673246692705
-0.199763375219637 0.362308834976064 0.463388649161235
-0.198963651202449 0.362548890321112 0.48257741981794
-0.203240692016636 0.361265039284545 0.486791261505731
-0.198601558703369 0.362657580616686 0.492154048699473
-0.200632151780044 0.362048051940297 0.499231411000037
-0.199964642108984 0.362248420143533 0.511944187211595
-0.200713579195283 0.362023609650405 0.518792405322418
-0.201204388749781 0.361876282004335 0.524755223189548
-0.204177718869636 0.360983769371822 0.535093957260573
-0.20237078570529 0.36152616144074 0.540898966380644
-0.198269494339112 0.36275725728492 0.559021274736494
-0.206395704636932 0.360317990519072 0.556903308746512
-0.20523609947047 0.360666072372776 0.569885210098445
-0.201248142793347 0.361863148233434 0.578111956524321
-0.2025728474779 0.361465508005927 0.58793306608204
-0.20390989435351 0.361064162989181 0.597575195499837
-0.202356897647603 0.361530330256992 0.612141175244582
-0.202306799574027 0.361545368332728 0.614907077935534
-0.197972943793919 0.362846273672975 0.629197771641171
-0.199986891694002 0.362241741424758 0.63158286795468
-0.203912294945656 0.361063442396873 0.645754169441544
-0.201860715057024 0.361679270741995 0.65010699282
-0.201512560132044 0.36178377735784 0.661833367040725
-0.202087226083753 0.361611278307718 0.661778190975816
-0.197632853362913 0.362948359547612 0.682225590979731
-0.202575214668703 0.36099397961745 0.690734831791004
-0.206633310690364 0.35902271621614 0.696216365662188
-0.20684335757294 0.358004018558736 0.700440100617453
-0.201194872027855 0.356908192300935 0.706897368101218
-0.203778208688571 0.353429724324268 0.711801059231253
-0.204481728494489 0.34809427913553 0.718200035614405
-0.202794147404481 0.341203565475569 0.72425906947802
-0.200129211251059 0.336878857626211 0.727549711661607
-0.201456418627992 0.33089939425299 0.729764851262047
-0.209265819455733 0.326080126342889 0.730747223332925
-0.209458789200836 0.315156201175433 0.732677411311548
-0.20918284458306 0.29862835531257 0.731306367646386
-0.250731051210598 -0.24834645146284 0.286460018931586
-0.244677421925539 -0.251604860685648 0.292883990175292
-0.251924717895972 -0.247703951839319 0.306122038145856
-0.253397364095163 -0.246911289498859 0.314078824099528
-0.248502700348033 -0.249545877238738 0.321235807322888
-0.250164235557497 -0.248651544038669 0.331326816946612
-0.253537485273758 -0.246835868273154 0.346559470818072
-0.25262332918377 -0.247327919321283 0.361374684391492
-0.253638228175034 -0.246781642686618 0.367220531149543
-0.248189565270713 -0.249714424431815 0.385502558514104
-0.252460210751148 -0.24741571898331 0.397041038539601
-0.247250669504091 -0.250219791787686 0.39206675397143
-0.24941211226879 -0.249056379773599 0.415137856961781
-0.245884740815653 -0.250955012665365 0.425457524672011
-0.247417888252911 -0.250129785101164 0.428571272363459
-0.247207879495032 -0.250242823815845 0.445012432029626
-0.249578477420044 -0.248966832542067 0.458265771808717
-0.244336594339216 -0.25178831356959 0.469982890832343
-0.247730991082549 -0.249961255265633 0.466311745016101
-0.250591495389238 -0.248421568380973 0.48530767513225
-0.245372275906086 -0.251230850565089 0.493069347882599
-0.246565527376855 -0.250588574433797 0.506202245690528
-0.248272693859727 -0.249669679874729 0.513802195521591
-0.252698047315404 -0.247287701752985 0.528723241270757
-0.24477718946243 -0.251551160095962 0.540931683811305
-0.244685879249543 -0.251600308470564 0.554213870095944
-0.246951255157898 -0.250380953699184 0.553499144261447
-0.243510557406231 -0.25223293385175 0.57086393985307
-0.24668570468623 -0.250523888138221 0.584039724011064
-0.25385134543097 -0.246666930800644 0.594468664768949
-0.246595918250927 -0.250572216328651 0.598401626147738
-0.247267998989968 -0.250210464068074 0.620386408775627
-0.251149375853032 -0.24812128523464 0.625443578002877
-0.253340892011289 -0.246941686001562 0.640846631502179
-0.246705854638435 -0.250513042282452 0.65185782096818
-0.245897653921232 -0.250948062094008 0.662843019205122
-0.247950240732442 -0.249843242574786 0.673545970920089
-0.24429012430522 -0.251813326397469 0.672691469826848
-0.25128278530803 -0.250083242433127 0.699723357100228
-0.245685282516076 -0.252498395628665 0.696917063327012
-0.250756592442156 -0.258436360144329 0.713817730560181
-0.252972438970188 -0.260937402985998 0.718058365110014
-0.248966242269433 -0.271920954336962 0.724703637888261
-0.246776534670407 -0.27972258161483 0.728172420575846
-0.255129596818688 -0.285414047553144 0.731669823358898
-0.249114473432196 -0.298966308607465 0.732866083928518
-0.197762226289051 0.362909525322609 0.348363477610688
-0.189227636225473 0.364867156637493 0.370745677441496
-0.193713199657447 0.364124932718496 0.377977128938914
-0.194840703777409 0.363786486723698 0.381164459079297
-0.195202719537473 0.363677819463084 0.391932097608631
-0.191816745913727 0.364694196424515 0.401297670344093
-0.19232187222699 0.364542571277818 0.409700334260566
-0.191835217757124 0.364688651680772 0.410293856527305
-0.197341681368125 0.363035761441484 0.424033251321849
-0.197434226302659 0.363007981975425 0.433018578432924
-0.189288818504401 0.364865331893794 0.446768872331878
-0.194921490239272 0.363762236830534 0.448332198014183
-0.190856414514039 0.364818578798095 0.464228865076475
-0.19464350557623 0.363845680246976 0.463904546856001
-0.196299769331085 0.363348515026703 0.478584736992568
-0.190296761755257 0.364835270279082 0.48529892401065
-0.195129419552848 0.363699822119905 0.495259605233526
-0.195155759567247 0.363691915565757 0.507623157892277
-0.192060110699159 0.364621144951402 0.515974796532653
-0.196633544702856 0.363248324760665 0.521899054245054
-0.192619720509329 0.364453165344455 0.534312904120308
-0.194534658130558 0.363878353282382 0.536993825096032
-0.193430460641302 0.364209803262109 0.548347585263336
-0.190787645587881 0.364820629811345 0.555492333253961
-0.196380181667651 0.363324377435752 0.564565926561391
-0.196316777257173 0.363343409711022 0.574476368076893
-0.192343799086151 0.364535989432545 0.587649024235733
-0.193650410287376 0.364143780375405 0.594260487980775
-0.197859288610209 0.362880389860254 0.592731123211769
-0.190248692252357 0.364836703938045 0.61139403849742
-0.195915433747991 0.363463882089629 0.618605617217686
-0.194009105699486 0.364036109792716 0.627538575773251
-0.192468884683842 0.364498442146646 0.636158685175524
-0.18917397038282 0.364868757205664 0.644492206143189
-0.193399575517047 0.364219074134311 0.654811559285291
-0.195084701629523 0.363713245221229 0.656446652095263
-0.194289183798336 0.363952037983924 0.669744059458039
-0.194968854392686 0.363748019403088 0.678098721464316
-0.193758276629655 0.364111401840487 0.685995344530658
-0.194514068750126 0.362524912725958 0.697203809117456
-0.192017930211771 0.36206246557615 0.70134632355172
-0.196834113397322 0.356864619597664 0.710026251082779
-0.195235925705363 0.355212582330451 0.712776717822974
-0.198293925629463 0.348685298092093 0.719751285696871
-0.191711247090009 0.341205142803918 0.726703953989907
-0.194960582856587 0.336962102725102 0.728132457816453
-0.197411073197642 0.332386507474093 0.729656572052559
-0.192694476961594 0.324520558396836 0.732130907067922
-0.195845435907599 0.306447674407621 0.731965742348109
-0.200479030375669 0.294119123576983 0.728479678175644
-0.241046843093922 -0.253559045686415 0.281746038533114
-0.239831326461677 -0.254213306199982 0.284110917909921
-0.239039430283525 -0.254639549976878 0.303046230130158
-0.234586405516496 -0.257036422379699 0.310495555196203
-0.236127658033067 -0.256206832198639 0.316587024518452
-0.234481504185724 -0.257092886270629 0.32771793410071
-0.23531918211953 -0.256642000136588 0.339140589332522
-0.237686778663158 -0.255367624377787 0.355696713735363
-0.23850707400614 -0.254926094547477 0.36224344100204
-0.234360905237462 -0.257157799516349 0.371918157997734
-0.241963341897832 -0.253065733655775 0.395199862372399
-0.239372907271474 -0.254460053605039 0.393751364936983
-0.23606521237523 -0.256240444020216 0.403675417353912
-0.235155883402911 -0.256729896837765 0.414752307753541
-0.240571180069701 -0.253815074708359 0.430840831059021
-0.236540391215955 -0.255984675613498 0.437543466303417
-0.233862073441166 -0.257426299295431 0.447910512936234
-0.238137890887965 -0.255124809999071 0.466292742222335
-0.243721162435654 -0.252119574189648 0.475623033006049
-0.234462188971937 -0.257103282822478 0.48051700776682
-0.240543969584209 -0.253829720946625 0.501847499584121
-0.241077081563532 -0.253542769614059 0.508709568937477
-0.237208948156639 -0.255624820062568 0.515494182768239
-0.238184047652793 -0.255099965790559 0.525926553712961
-0.242912549801067 -0.252554815718679 0.544673881308488
-0.243038026399721 -0.252487277042779 0.54949614438196
-0.233391322328091 -0.257679684446099 0.563252569069582
-0.237364355075473 -0.255541171177945 0.571339158377034
-0.238614860100135 -0.254868077912128 0.57733143302064
-0.233712531291689 -0.257506791426036 0.583424494961389
-0.241076419830199 -0.253543125796754 0.60700814816986
-0.240904268293353 -0.253635787591682 0.617288300820514
-0.241197393600761 -0.253478010800252 0.628673842002181
-0.236710211376176 -0.255893268698699 0.633601533429229
-0.23583246158692 -0.256365723795294 0.647241619991131
-0.238121466125063 -0.255133650745076 0.653993675757181
-0.237079490754101 -0.255694501434605 0.674172354474964
-0.233766010116579 -0.257478006066372 0.675868586646133
-0.243982547452392 -0.253008177022047 0.694195489554523
-0.234505519287179 -0.258337491195114 0.695722705127506
-0.243850698006546 -0.255174345845204 0.702043089532846
-0.243094845428677 -0.260564058059037 0.711525866498541
-0.244345814307739 -0.265457140982042 0.717916459816265
-0.243125933154194 -0.278619573245182 0.727052929204157
-0.242581794549522 -0.287913467729689 0.730337364321633
-0.243303201494 -0.311160334946785 0.732109301050234
-0.18566028681527 0.36497355179756 0.356390605075079
-0.186157807874223 0.364958713376475 0.364053065485294
-0.184864636897744 0.364997281825263 0.374911784173167
-0.180382278471359 0.365130966863484 0.377846271532753
-0.186626215452106 0.364944743256508 0.389432899697133
-0.186779427063133 0.364940173764708 0.39881622678066
-0.184921894874216 0.364995574122745 0.411092116040863
-0.183004974720917 0.365052745709571 0.422499273979567
-0.183013914387519 0.365052479086611 0.427359969068922
-0.183849013700025 0.36502757249216 0.431822460028576
-0.184561169656578 0.365006332647593 0.443826882687357
-0.182906407541151 0.36505568544708 0.459700819153821
-0.183847341974796 0.365027622350879 0.461557563722585
-0.187139582455286 0.36492943223474 0.469905244028307
-0.182299634232762 0.365073782284773 0.478332898289022
-0.187752903945522 0.364911140099425 0.481322434581976
-0.186861562738069 0.364937724092058 0.492287956787915
-0.181819507674373 0.36508810191993 0.502718456811544
-0.185129559756585 0.364989380577942 0.518757741619152
-0.180914665904431 0.365115088562918 0.52048238660018
-0.186209923418771 0.364957159045495 0.538481845246524
-0.185147276321254 0.364988852186546 0.540022638295992
-0.1849961797049 0.364993358599245 0.545209254807699
-0.186474909591747 0.364949255909849 0.551029580475951
-0.183279259292403 0.365044565251889 0.571307579706888
-0.18653463083322 0.364947474741167 0.580586962382078
-0.180030575681778 0.365141456297035 0.587468293921784
-0.185207040064189 0.364987069750271 0.588067537777215
-0.180501259442267 0.365127418290583 0.596976529531403
-0.180412593183461 0.365130062736 0.613147744876255
-0.186604619487793 0.364945387349872 0.619167149296575
-0.187453619412784 0.364920066173691 0.628842700474701
-0.181961843732437 0.365083856788338 0.631658473332948
-0.184240854425048 0.365015885956342 0.642749604486757
-0.188408005640829 0.364891601881629 0.657154918229086
-0.181967784125317 0.365083679617846 0.66114823514801
-0.186056987911306 0.364961720302588 0.675285415625476
-0.185814149094052 0.364968962899783 0.683829811273409
-0.184054183223754 0.364597604920543 0.690527526148195
-0.180538124192705 0.363595901066975 0.698932754406307
-0.187081295460725 0.361777161443524 0.703012452944216
-0.189162312965349 0.35662392709343 0.712963447224163
-0.18696868816556 0.355772800963876 0.7141579188985
-0.181366609319196 0.352093667747949 0.719170402038962
-0.188125860082465 0.342119580632002 0.726822916933312
-0.182962309685572 0.336690614939876 0.729248589954454
-0.187195097371124 0.332414212055849 0.730862699357323
-0.191799972090201 0.326069781446646 0.731969344230668
-0.189774175986447 0.309788020246005 0.73215722829647
-0.190732053323177 0.298528636108237 0.729068576138471
-0.223586627348296 -0.260805244262983 0.277226445830257
-0.224268211414192 -0.260644229163033 0.279292714744367
-0.232482486521447 -0.2581688718137 0.295446523427599
-0.231633296025826 -0.258625954666408 0.301079582519399
-0.222852890774704 -0.260978579693851 0.319099178901938
-0.229356996411809 -0.259442071914918 0.333752526357545
-0.230424413705061 -0.259189908886524 0.343747388838747
-0.229178927968131 -0.259484138197995 0.342370061880626
-0.23003332273241 -0.259282298886822 0.356314789022137
-0.225486946185133 -0.26035631940872 0.370830566671868
-0.226352703740812 -0.26015179579038 0.379404862522082
-0.224053769303479 -0.260694888237413 0.392807262311043
-0.22417845615981 -0.260665432638846 0.40224122886698
-0.22343560093964 -0.260840922227745 0.416292184244684
-0.222857403873048 -0.260977513534858 0.422579386147934
-0.232153922093231 -0.258345723965157 0.43790467374229
-0.226011640970793 -0.260232367298359 0.454105402096356
-0.223612177412484 -0.260799208402779 0.457221574388634
-0.223961010786182 -0.260716801193835 0.460007893903423
-0.228269906460159 -0.259698882345176 0.479166786550772
-0.22541400300538 -0.260373551257242 0.484724921031206
-0.224611829646144 -0.260563053961424 0.49927011550614
-0.232563750183983 -0.258125131066617 0.509876190500725
-0.22357004423404 -0.260809161801455 0.516465138095674
-0.224838106108526 -0.260509599180085 0.537591095662078
-0.229613370375125 -0.259381507002395 0.542551606045162
-0.22552713220946 -0.260346825999107 0.553800399976059
-0.231236360327087 -0.258839608142815 0.563203340208693
-0.226804883221102 -0.260044974448953 0.581532155373965
-0.231228151485448 -0.258844026610489 0.596308918576922
-0.23004516408694 -0.25927950152553 0.60384737224426
-0.23109988662216 -0.258913066089753 0.611666715086165
-0.229682633506101 -0.259365144516071 0.627953558160912
-0.229152604027785 -0.259490356876068 0.626112777215888
-0.229599150294495 -0.259384866305845 0.635007502226255
-0.228884211004496 -0.259553761130413 0.650785508428835
-0.230478700577571 -0.259177084340528 0.664756865359691
-0.227727608925877 -0.25982699286896 0.669382866291353
-0.22314904406578 -0.260908617448327 0.680186183167225
-0.233317617951231 -0.258857677076529 0.694925021574356
-0.231430618064636 -0.262750733940607 0.704326770328681
-0.225039566418768 -0.269096002045003 0.713173616660662
-0.226717378927723 -0.274842241329872 0.72044981494295
-0.227330558731231 -0.278286479684324 0.723131241711399
-0.235332426047139 -0.295889367435276 0.731949088877901
-0.22767184916581 -0.306299219615403 0.733051479359879
-0.172176535536039 0.365375700763272 0.351362246423586
-0.178193313762589 0.365196252100165 0.364953443478865
-0.176808370024664 0.365237557644909 0.378690775769525
-0.173039426019838 0.36534996530521 0.383454283387983
-0.171599853298119 0.365392900143528 0.390947907836299
-0.174241111608202 0.365314125381551 0.391634384796182
-0.177252225388141 0.365224319787606 0.410936300967605
-0.17293790250973 0.365352993214412 0.415459999539506
-0.174437191721598 0.365308277349118 0.42906967682729
-0.179524666726693 0.365156544884686 0.434854098116711
-0.176769065699536 0.365238729884991 0.447548364867427
-0.177240899127736 0.365224657590033 0.451098777141679
-0.174485566819907 0.365306834575861 0.469019476306588
-0.173321535475282 0.365341551472636 0.471843022991517
-0.173478346744632 0.365336874622072 0.482150104159598
-0.178499012121663 0.365187134735392 0.488696301624267
-0.179121742754174 0.365168561975142 0.501044198157234
-0.178960324559099 0.365173376225928 0.501838640634953
-0.176210183890488 0.365255398372625 0.511501486464615
-0.17844270662596 0.365188814030448 0.523912249147757
-0.174094811776041 0.365318488731555 0.530571506813811
-0.179010198811132 0.365171888740847 0.537397353661049
-0.177075099688019 0.365229602510168 0.55614965433136
-0.174087078159679 0.365318719384417 0.557426058757903
-0.175307909694808 0.365282308438456 0.570225246097942
-0.173754851370751 0.365328627951905 0.576583134564431
-0.171388010499878 0.365399218293459 0.585411649507402
-0.177006362199332 0.365231652585805 0.596077307350049
-0.174873080226652 0.365295277101053 0.600384775708704
-0.177485686424443 0.365217356880004 0.613713196798254
-0.175942405405076 0.365263384788179 0.617543506380156
-0.179133501839918 0.365168211263825 0.627199537615526
-0.179628412015023 0.365153450711594 0.639559125124869
-0.17948948921381 0.365157594043791 0.646131458505081
-0.173925966915718 0.365323524480475 0.660784067208017
-0.175879568113914 0.365265258892138 0.663753712911555
-0.175931395162288 0.365263713165473 0.666779407176379
-0.177735859965139 0.365167700829147 0.687628578088038
-0.175236089113114 0.365216482507907 0.687824345440314
-0.174454474899382 0.363828549099563 0.698543814125838
-0.178704371518286 0.361539230051538 0.704190035621133
-0.178555461327481 0.358568034014091 0.710842108242618
-0.179429428094225 0.353291849843105 0.71768419570761
-0.174879390236697 0.349632313986459 0.721428629902726
-0.1744481334851 0.343375873758459 0.72623923478045
-0.181722803314312 0.33351489147712 0.730579330295884
-0.176013362821911 0.33065701954929 0.731651963509685
-0.179699304110925 0.323342677130997 0.732600442117992
-0.17701931377896 0.298480592213856 0.727810026115005
-0.212970703819764 -0.26331311390598 0.264224538862937
-0.213149015956861 -0.2632709900536 0.274039663758107
-0.222247074616743 -0.261121695641107 0.276554555903665
-0.213689860739287 -0.263143222722969 0.290773845173634
-0.213200649013623 -0.263258792436003 0.297334933398622
-0.220505537740456 -0.261533110385426 0.306803339496082
-0.220344620401174 -0.261571124949974 0.325651281116292
-0.214904451789207 -0.262856291867207 0.332152559755342
-0.213358009323967 -0.263221618171865 0.349043478182236
-0.219081761146903 -0.261869458522052 0.357262498365598
-0.216636156035602 -0.262447199949908 0.370686451919673
-0.216799495633828 -0.26240861315915 0.377545539429291
-0.217080351767807 -0.262342264661955 0.387995056085894
-0.217362194200849 -0.262275683164826 0.40026341860267
-0.221406340233168 -0.261320307870437 0.408537783712638
-0.222629787004038 -0.261031284969296 0.427556472131196
-0.219138092945136 -0.261856150889763 0.426236668866569
-0.212490274223415 -0.263426608958676 0.435862979711513
-0.222944004817327 -0.260957055222528 0.454389736034141
-0.21478583464126 -0.262884313578522 0.459734389726971
-0.213949138262099 -0.263081971883433 0.480369721408395
-0.218728607412641 -0.261952886358272 0.486186031050511
-0.216547893285709 -0.262468050841539 0.500214913466701
-0.220455824224169 -0.261544854537313 0.510731252455348
-0.214243413723443 -0.263012453250014 0.520311544668402
-0.218683149956288 -0.261963625073046 0.532579669777453
-0.221999043609616 -0.261180289642055 0.539721909262076
-0.21727898433443 -0.262295340380464 0.548286772388685
-0.221719298401692 -0.26124637569786 0.564972839351408
-0.214136524586301 -0.263037704375974 0.572225907839427
-0.21959707136042 -0.261747723391072 0.580808497480722
-0.217065164995808 -0.262345852333285 0.593741667854004
-0.21795605342825 -0.26213539188215 0.608154367196395
-0.220525808915973 -0.261528321591915 0.619168970004132
-0.219728013288189 -0.261716790115719 0.629828013075557
-0.213469338949371 -0.263195318040071 0.64019605881412
-0.220944354528447 -0.261429445800947 0.648469132483191
-0.214150452722701 -0.263034414040436 0.666551647805439
-0.220395568917713 -0.261559089045831 0.674749518938194
-0.218204725317314 -0.26248465449545 0.690325528647541
-0.212991476228692 -0.264394081092666 0.695338735684009
-0.216643790551904 -0.265850806967899 0.703402715129174
-0.218142050252538 -0.26775977915708 0.708721896047996
-0.215726486640721 -0.275803073737079 0.718892430317861
-0.216700648244894 -0.282377663439478 0.724311673583382
-0.21521680085123 -0.288676388146337 0.72794300899605
-0.218960292928397 -0.2989211803204 0.731841942911029
-0.219414836156696 -0.306470847871632 0.732823444672069
-0.165725583789615 0.36556809852551 0.354292640929448
-0.169582659031685 0.365453062376655 0.370963580014172
-0.171102605344848 0.365407730419315 0.375288245835793
-0.166179447031302 0.365554562186146 0.385650821477532
-0.163152703674839 0.365644833927672 0.394586440417121
-0.170514200785576 0.365425279414401 0.407265743626749
-0.167454559139666 0.365516532337855 0.400915508186585
-0.17061475968927 0.365422280274304 0.415202891412332
-0.169323034018739 0.365460805617262 0.43000843528043
-0.170093281445852 0.365437833211457 0.442061412637823
-0.168937079972469 0.365472316584596 0.442941203754259
-0.163673456164142 0.365629302635925 0.452398486322355
-0.164494650666592 0.365604810748395 0.453720272861404
-0.168070916967313 0.365498149644658 0.468046164439496
-0.167757778390806 0.365507488911756 0.474920413751297
-0.167859446381601 0.365504456693459 0.485461356250603
-0.165544858749418 0.365573488597345 0.497328641240475
-0.168708797451582 0.36547912504448 0.507178202567174
-0.168288093871522 0.365491672406567 0.518234162858839
-0.166418587401948 0.365547429894047 0.52308078473873
-0.1649650426437 0.365590781444297 0.533973391238291
-0.16272012786181 0.365657735375659 0.537528936819415
-0.163795456652637 0.365625664006789 0.550306274456862
-0.166711233180294 0.365538701818703 0.557713393224757
-0.162565897120023 0.365662335262739 0.563591560349519
-0.163747457446361 0.365627095569175 0.576402509445319
-0.163042585579478 0.365648118167883 0.586161996853212
-0.162771809077393 0.365656193998414 0.598023517006577
-0.167139568737499 0.365525926835114 0.601359667582685
-0.169082722264293 0.365467972845543 0.613309848080221
-0.163644879895488 0.365630154914838 0.622164983691435
-0.164227662084742 0.365612773605306 0.62845350213986
-0.162336869475353 0.365669165945723 0.642696406015442
-0.162865616029632 0.365653396233309 0.647807611396572
-0.167831183812829 0.365505299616364 0.65640914192687
-0.167237547066319 0.365523004659914 0.661012979497142
-0.168050130476326 0.365498769595715 0.675031178299522
-0.168109544991504 0.365496997575056 0.683946547252233
-0.169679095966491 0.364613095665875 0.693666411202565
-0.168129088553854 0.363154399595469 0.701052125810717
-0.163017928718042 0.360522472123767 0.707774180765605
-0.167501893942163 0.359834597731664 0.709111996525261
-0.165917706570214 0.352403052583341 0.71936767674
-0.165130095397615 0.348697160710117 0.722369313831157
-0.168648835437773 0.34566003488626 0.724619255004218
-0.16531271296468 0.339377733688625 0.728353588498768
-0.169561110123489 0.326914011201297 0.732170074661303
-0.16768987799449 0.317022831105635 0.732777611471447
-0.167324553319803 0.307893535855149 0.731574282504085
-0.20628053778298 -0.264893575960475 0.257084087338884
-0.209392133889375 -0.264158503086643 0.273706966556739
-0.207445589427769 -0.264618348125173 0.279420142642713
-0.208223246154433 -0.264434637146826 0.294349817516024
-0.203824663505408 -0.26547374334122 0.30484351529254
-0.20524818848329 -0.265137454645424 0.308252190536629
-0.205418242675094 -0.265097281621934 0.318367330084176
-0.206464988661624 -0.264850001912684 0.329159446280538
-0.210155106322678 -0.263978261075782 0.34639726703322
-0.207645611557515 -0.264571095578018 0.35003510759785
-0.207788294594071 -0.264537388623085 0.367519557402598
-0.203986687197021 -0.265435467415762 0.376257306243863
-0.20669316927422 -0.26479609730138 0.391460282452278
-0.20361903266787 -0.265522320870414 0.393947545252009
-0.20265643390267 -0.265749721926491 0.413374464192246
-0.206379783906544 -0.264870130394028 0.415148202649498
-0.210207815565525 -0.263965809223649 0.435418233026085
-0.210530535414505 -0.263889570984905 0.44147505145983
-0.207677893354677 -0.264563469436128 0.451826307887928
-0.201440043742848 -0.266037077797854 0.462006890650568
-0.202073072086571 -0.26588753333645 0.472303365432427
-0.204299775230506 -0.265361504564329 0.487317107915435
-0.207552593677739 -0.26459306980535 0.492098479409812
-0.211302940114098 -0.26370710072756 0.504670639183148
-0.20360311000053 -0.265526082387153 0.519400934083648
-0.208741073147882 -0.264312307460323 0.530340987686728
-0.210873432050175 -0.263808566250746 0.540795632487354
-0.202056266122414 -0.265891503520223 0.549887406808284
-0.207565297202186 -0.26459006876797 0.562878437912323
-0.211071370352516 -0.263761805979885 0.568741229189589
-0.206036162073294 -0.264951306446396 0.584370912759569
-0.202417696240212 -0.265806120499325 0.599432849377926
-0.206807849366464 -0.264769005666701 0.607892296356969
-0.20810531918647 -0.264462495812372 0.608650461022199
-0.209996076088195 -0.264015829837116 0.628229145283372
-0.211739960874661 -0.263603860430488 0.641465701366493
-0.212074008584209 -0.263524946136519 0.651159344956658
-0.208655151658932 -0.264332605260437 0.662659130197898
-0.208901235382251 -0.264274471279188 0.665547191461547
-0.210696046220679 -0.263850471275371 0.682676910467043
-0.211465969572818 -0.265013407799689 0.697253790024803
-0.206404292304454 -0.269515641159363 0.706331287952207
-0.210112802576839 -0.269074815954181 0.707354405968234
-0.207104510450855 -0.281620552826344 0.722052378804689
-0.211581706108783 -0.287515476539661 0.727128488638594
-0.207776093229488 -0.29015267646671 0.727829489316662
-0.208978006600823 -0.294854561662796 0.729840255897351
-0.212661612964484 -0.320828667298054 0.731797859433289
-0.210141988895352 -0.330391167491977 0.728676186040476
-0.159056214893317 0.365767010515806 0.35177735487003
-0.158664593873349 0.365778690498985 0.37182611453426
-0.159068425976153 0.365766646323807 0.373324263168456
-0.161553971227222 0.36569251565859 0.382617932886394
-0.155484799908264 0.365873526930461 0.388711991653476
-0.156561154069629 0.365841424980212 0.406111357914249
-0.157216346380234 0.365821884059841 0.415442112341483
-0.161764130212574 0.36568624772789 0.420436880798823
-0.160050322303828 0.365737361551014 0.429798072566765
-0.155186584106218 0.365882421130145 0.433660153905367
-0.160070397421677 0.365736762816454 0.44590620061816
-0.155657818703509 0.365868366695145 0.459691126299749
-0.159600410056696 0.365750780053113 0.464868785427797
-0.15452379850805 0.365902188518112 0.474932876616201
-0.160454426959518 0.365725309247025 0.475960583633654
-0.16108187990358 0.365706595645205 0.486605235229972
-0.155353865430469 0.365877432013233 0.499643082268545
-0.154911993362395 0.365890610719327 0.50744358426568
-0.160943934589541 0.365710709824131 0.521379781592572
-0.153796280108751 0.365923886543072 0.523096430495768
-0.156335689820892 0.365848149385948 0.536400095147084
-0.155365353429198 0.365877089387008 0.534939676735858
-0.16188363443664 0.365682683549116 0.549952533725027
-0.158879830778712 0.365772271120796 0.559967362353101
-0.161859023319476 0.365683417568537 0.572013326643406
-0.155904410762983 0.36586101215859 0.58199848833138
-0.15868177705221 0.365778178015666 0.589717828817287
-0.156187491308278 0.365852569363544 0.594159123392851
-0.160526876963471 0.365723148446699 0.603439294529011
-0.160883964268737 0.365712498421531 0.604699946399718
-0.157100686434185 0.36582533358414 0.618718024061147
-0.161302888201882 0.365700004136897 0.626428962487452
-0.162489007654146 0.365664628468727 0.642305245762204
-0.160400229463003 0.365726925671618 0.643491928522152
-0.16191917785634 0.365681623476946 0.657279749251679
-0.15972464082493 0.365747074906532 0.668275823754564
-0.154692123097185 0.365897168286129 0.671101321891435
-0.160615872311954 0.365720494186278 0.682357380816191
-0.159889332987805 0.365331130387297 0.690430180278685
-0.155197816588132 0.365165414096194 0.692751742047204
-0.160033245026983 0.363348675522812 0.701166029021026
-0.155312097062657 0.359928113572536 0.70976393391991
-0.154493618257524 0.352974154795908 0.719067436946226
-0.162450440196063 0.348979717084931 0.722213825424529
-0.162298456974281 0.34936065133882 0.721925002473191
-0.157936602763835 0.339215916487475 0.728511738362368
-0.163025546300881 0.332068971304855 0.731409232199978
-0.157265976151105 0.319179649934103 0.733020632632492
-0.164932725660896 0.315262678502288 0.732535057033326
-0.196601056266114 -0.267180223729823 0.259484912523484
-0.197337123911966 -0.26700633761438 0.265301253197549
-0.195551035315644 -0.267428277105408 0.27473290171084
-0.199039456833404 -0.266604184278924 0.291200950220378
-0.198585925569267 -0.266711324961166 0.29553548691729
-0.191617833621007 -0.268357443287064 0.312381305543685
-0.199027101160096 -0.266607103141133 0.317462324233264
-0.197917102458386 -0.266869325456535 0.327785568570657
-0.197366278336595 -0.266999450272332 0.343842437006394
-0.197507267812293 -0.266966143398453 0.351611432486694
-0.191678432796064 -0.268343127544199 0.35886143270053
-0.197647235528109 -0.266933077901649 0.376593485736872
-0.195835566714004 -0.267361060376264 0.393587415440925
-0.19596036394892 -0.267331578702236 0.389990705723434
-0.191754847006198 -0.268325075711273 0.401965592384554
-0.193069360777013 -0.268014539452014 0.422659619112648
-0.198736543192888 -0.26667574356639 0.425709852885586
-0.190818929947258 -0.268546173571875 0.435217338747341
-0.193485190595382 -0.267916305231002 0.451277049005665
-0.19250897643852 -0.268146922740867 0.460826966516592
-0.191154012995435 -0.268467014693033 0.4717031777139
-0.19318659592096 -0.267986844220619 0.479232851849257
-0.197826429212786 -0.266890745795469 0.500170039955145
-0.193893380719852 -0.267819875785276 0.507572888030627
-0.195826070430326 -0.267363303746 0.522379442727217
-0.198642346500277 -0.266697996272453 0.526371724212018
-0.201004920798862 -0.266139869761197 0.54764395339231
-0.19563130279534 -0.267409314989195 0.552315983740391
-0.193126347523399 -0.268001077097002 0.558166837168005
-0.191796698584854 -0.268315188836773 0.570130972176038
-0.193881032894956 -0.267822792793403 0.576530931151977
-0.191448963089692 -0.26839733668663 0.584620656986767
-0.192733733860067 -0.268093826812564 0.605471303564948
-0.192616428718397 -0.268121538579984 0.613325947728415
-0.197318599700182 -0.267010713711124 0.623436335737782
-0.194288839338589 -0.267726453987133 0.637975637049832
-0.195471973795275 -0.267446954329894 0.645001779637785
-0.199823696190049 -0.266418918242474 0.661046055664088
-0.201177465428825 -0.266099108405071 0.677249683610358
-0.200238286132972 -0.266320976925419 0.684665638508999
-0.197197189537014 -0.268156016367803 0.69556612532045
-0.191270418752864 -0.26990138342294 0.698119422304205
-0.201270576694593 -0.274362726426508 0.712731563545019
-0.199625927936812 -0.276203077685712 0.714573753706337
-0.191870124811197 -0.289272697286702 0.725080559886358
-0.198915634488992 -0.297417067468305 0.729915029280132
-0.20154971249949 -0.308286921959907 0.732515251956571
-0.194341614210668 -0.314666073256016 0.733114677630064
-0.146955326780056 0.366127915989229 0.35633321660908
-0.15072814050564 0.366015392915631 0.361016768927079
-0.148594789294924 0.366079019495885 0.376113754681239
-0.145764780304845 0.366163423692074 0.385049242824186
-0.150218075447965 0.366030605457834 0.392498141095113
-0.150153477422901 0.36603253207517 0.406024568885432
-0.149083561243358 0.366064442014481 0.409552372564096
-0.150126551773995 0.366033335124829 0.415772401885136
-0.145461063800882 0.366172481948593 0.431019618920956
-0.147529958632032 0.366110777761139 0.435460977374336
-0.153475746319066 0.365933446370255 0.44523847308756
-0.152604341033224 0.365959435779816 0.459701248160789
-0.149475853225248 0.366052742020058 0.462216310454134
-0.147572950339576 0.366109495545948 0.472119218297167
-0.150135158742969 0.366033078424479 0.477613092119037
-0.148661096325045 0.36607704190797 0.491241298078738
-0.146056715275588 0.36615471681636 0.493336279357269
-0.145847560761821 0.366160954788986 0.508652296930805
-0.14793280053668 0.366098763118334 0.520081863416411
-0.147279838886511 0.366118237509905 0.522928431728443
-0.145842415500499 0.366161108244911 0.536319409450484
-0.151023717787783 0.366006577409038 0.535836916564442
-0.148542351306388 0.366080583443664 0.551714739054452
-0.147366756931933 0.366115645204445 0.557604005177476
-0.14582758509226 0.366161550557529 0.569865262192444
-0.152233812903738 0.365970486673662 0.571775436479506
-0.148122595180341 0.36609310254821 0.585086899954241
-0.148257909905898 0.36608906682582 0.595350799271449
-0.152573726967999 0.365960348835419 0.604337509187087
-0.144862383048522 0.366190337428153 0.615901417373327
-0.151181263239033 0.366001878661712 0.622486687069617
-0.149404818651228 0.366054860605597 0.629369349407791
-0.149887219650682 0.366040473135895 0.633714575813542
-0.146678727642251 0.36613616547818 0.644597048666324
-0.145720881239557 0.366164732968946 0.656878019950092
-0.153332210890149 0.365937727272734 0.667169843430626
-0.14790304081058 0.366099650693521 0.67080162167833
-0.146214365065231 0.366150014957171 0.6781053196906
-0.153244021642192 0.365224226830569 0.692747629952277
-0.145884762029845 0.364178961486599 0.700180277696729
-0.15247374409521 0.359541229709676 0.710587567404999
-0.150359798055652 0.35927682679339 0.711014309521562
-0.154168929240058 0.354171695361789 0.717519391811822
-0.149545205482421 0.353752345510787 0.718245615544209
-0.152440783156374 0.344412110936395 0.725947746942611
-0.149067393700343 0.33657347067364 0.729715843684079
-0.150542177569148 0.329982242804565 0.731840812098753
-0.147354928829248 0.322577458832661 0.73282818512697
-0.148790688242283 0.312428255017575 0.732098516432715
-0.149831804251582 0.305815661506836 0.730512442263803
-0.186344973534138 -0.269603085807763 0.271264969221412
-0.182390385935062 -0.270537304122697 0.275954511547622
-0.18715961628216 -0.269410637377615 0.281432166263672
-0.182390004348509 -0.270537394267406 0.294370451650848
-0.187776633307008 -0.269264875375687 0.309062515230745
-0.189099926423419 -0.268952265113705 0.313445497903469
-0.187011147888971 -0.269445711045507 0.326722765214677
-0.183854293456889 -0.270191475592162 0.34546369598755
-0.183707665756888 -0.270226114420961 0.352793475647934
-0.18381028644264 -0.27020187165943 0.362401078316909
-0.181202947409437 -0.270817820558535 0.365883705733258
-0.182962217211822 -0.270402216648108 0.37630034391435
-0.190577104807681 -0.268603301519795 0.391282891644185
-0.182211138327208 -0.270579648967506 0.414898240417706
-0.186334501635035 -0.269605559653566 0.418634645291617
-0.184783740457099 -0.269971906196213 0.431935300328787
-0.185158272127248 -0.269883428109179 0.430832186478822
-0.186857696072098 -0.269481961980451 0.453682799972594
-0.190727393164767 -0.268567797909825 0.456535344861461
-0.189273462571409 -0.268911269524735 0.466073636588444
-0.188101060503249 -0.269188233799037 0.476615743463068
-0.186920810809185 -0.269467051969773 0.497606475765307
-0.186928413787678 -0.269465255868011 0.501299646707708
-0.185314795701735 -0.269846451512671 0.522820461679855
-0.188501015008565 -0.269093749907949 0.526482500378275
-0.185284499159952 -0.269853608664588 0.535817218671233
-0.183939797971521 -0.270171276296641 0.538994077732792
-0.1842505605408 -0.270097862804957 0.558653126580945
-0.186809587882981 -0.269493326895312 0.569054263873869
-0.179804855162272 -0.271148101112586 0.586233553825538
-0.182407168225261 -0.270533339531579 0.593872306707784
-0.187270966141376 -0.269384332465853 0.605201359760478
-0.183736910247795 -0.270219205801964 0.611123025032516
-0.183078382390128 -0.270374774181754 0.625292477786201
-0.185866355089485 -0.269716153000146 0.638200992377431
-0.187170598199667 -0.269408043046799 0.651811733105553
-0.187843147822104 -0.269249162213023 0.659293370712665
-0.188139681604848 -0.269179110081442 0.665861515382247
-0.184269088981184 -0.270093485709263 0.675884453046734
-0.189731949655333 -0.268802958096493 0.686678265619584
-0.187768889897032 -0.270821592885052 0.698807359560401
-0.181287949111133 -0.275209893565477 0.705769152053149
-0.189577006602577 -0.277883100512491 0.713693278446057
-0.188043260595469 -0.287035916099809 0.722734035458892
-0.182540463197893 -0.292989004365079 0.726210405108797
-0.191541412116394 -0.305351796742662 0.731835953356874
-0.187588284894897 -0.321125407567418 0.732519079625485
-0.139900714957059 0.366338317737925 0.360499342960964
-0.136796718157672 0.366430893540949 0.361629875890026
-0.142750865717974 0.366253312819272 0.376030932679322
-0.141911535872428 0.366278345588142 0.380607693194716
-0.137181906379325 0.366419405414112 0.3989920343909
-0.142438180407506 0.366262638567842 0.399069875147555
-0.137135490315545 0.366420789759733 0.409734276294207
-0.143276474079051 0.36623763670256 0.41696080198
-0.140402585460373 0.366323349595926 0.42758761970927
-0.144428100520191 0.366203289778428 0.432531132776883
-0.144453378365641 0.36620253587403 0.446855057114694
-0.144590053768481 0.366198459569836 0.457374720072213
-0.138587121841547 0.366377495271078 0.455434513162467
-0.141081674035367 0.36630309597641 0.469781413077602
-0.143367623635797 0.366234918193503 0.48305365895523
-0.143485244015978 0.366231410199825 0.491441560850656
-0.144528382783428 0.366200298889053 0.500002174368029
-0.139114834770592 0.366361756386237 0.507712956061122
-0.143350300078782 0.366235434863559 0.514368968986976
-0.140843233302639 0.366310207402011 0.522620008196969
-0.141862765649653 0.366279800145872 0.529988937648181
-0.138600794329065 0.366377087493109 0.540021332515871
-0.136340670950699 0.366444495016444 0.544965628902146
-0.138347637267525 0.366384637828943 0.564794757171099
-0.139618760418969 0.366346726950133 0.564857707110479
-0.138682779064779 0.366374642322178 0.576602876828236
-0.136155279850269 0.366450024252169 0.588060016647523
-0.139130947928577 0.36636127581598 0.591709192259745
-0.138608220914756 0.366376865997348 0.602352216215583
-0.138046089611904 0.366393631400191 0.613260773489585
-0.137637696659496 0.366405811601384 0.621207135542838
-0.137278456176332 0.366416525844457 0.626625537818916
-0.144135153551553 0.366212026836685 0.636210034229487
-0.144457816136881 0.366202403518791 0.646066071522362
-0.137134420115236 0.366420821678146 0.658222198331324
-0.139003208706815 0.366365085601169 0.664479289909509
-0.137875756600475 0.366398711532786 0.673890525219173
-0.141282508161554 0.366297106156926 0.682160547007098
-0.140304040689666 0.365526799166282 0.693380803188368
-0.141490367440695 0.364775841183348 0.698816143537022
-0.140055923563067 0.361999885742261 0.705860727040817
-0.142543122711685 0.360120720549827 0.710218346791033
-0.139541571852173 0.353717507257944 0.718679842054747
-0.137504806251508 0.350694336059058 0.721469040441738
-0.144281559402224 0.346269999508246 0.724708865221324
-0.14330588304026 0.341066974655953 0.72792574993778
-0.144008251423706 0.332925069510661 0.731289560554545
-0.142405895402063 0.32806393419568 0.732125309309874
-0.141788764888044 0.308796102254532 0.73159284141527
-0.178439580505031 -0.271470628950889 0.260719656944759
-0.17386305845906 -0.272551770942798 0.259324862412467
-0.169652129947208 -0.273546546362508 0.274990649755652
-0.175433193829353 -0.272180847506889 0.283732863522079
-0.175239377796288 -0.272226633946885 0.299739630635768
-0.179287900431004 -0.271270224738841 0.309129017675657
-0.176055564987668 -0.272033820662694 0.320308631474615
-0.176070220328614 -0.272030358534829 0.326970845334881
-0.1779398570579 -0.271588681917226 0.346593069336047
-0.170792010392907 -0.273277264885609 0.348952843984839
-0.171215404336097 -0.273177243741494 0.353005149388982
-0.175517479082698 -0.272160936245504 0.374978620722407
-0.179614923901309 -0.271192969827243 0.379935974555102
-0.179355800553214 -0.271254184245068 0.386356996393144
-0.175558743150052 -0.272151188162675 0.400471321299337
-0.175709145575751 -0.272115657605524 0.415156049226284
-0.174238375606618 -0.272463107297254 0.419945373571541
-0.17887921013313 -0.27136677234383 0.433471722544588
-0.173569001039647 -0.272621238066734 0.443133423443678
-0.174779476463292 -0.272335279472514 0.457340075040568
-0.175546891514863 -0.272153987952635 0.47488427081769
-0.175517402214811 -0.272160954404512 0.481604247765857
-0.169540770665763 -0.273572853500145 0.487981531860647
-0.17857771071164 -0.271437997541007 0.497235037063033
-0.170569829393935 -0.273329752168611 0.519606370635688
