ply
format ascii 1.0
element vertex 844
property float x
property float y
property float z
end_header
-0.451899872349963 -0.170197377272949 0.531496291407818
-0.45436366293696 -0.166510054082448 0.539751149789829
-0.451728762855663 -0.170453460728165 0.546391840644237
-0.454515410379877 -0.166282947984908 0.561735566515536
-0.453640798616735 -0.167591896989722 0.564605276901175
-0.453778267005034 -0.16738616100761 0.567540127317553
-0.454595584408482 -0.166162959071682 0.586187316385047
-0.450806092749182 -0.171834334126563 0.587789462229951
-0.45100192606163 -0.171541248862632 0.590608736382163
-0.454805857607187 -0.165848262990767 0.604584568758963
-0.45379870725718 -0.167355570008458 0.614046444328357
-0.450900984935343 -0.171692317933923 0.626186815806797
-0.454193109715399 -0.166765305016676 0.632168059659505
-0.453835941723451 -0.167299844691665 0.638125646744055
-0.454062480186412 -0.166960805922534 0.651251173720934
-0.449884239888293 -0.1732139844305 0.650290319357086
-0.451560800809654 -0.170704833694131 0.662336243442695
-0.449965477339716 -0.173092403992556 0.671987630977454
-0.455054820284466 -0.165475664013261 0.688384006994914
-0.452278346231918 -0.169630951080196 0.691978597122519
-0.453058378061306 -0.168463550949271 0.702990851929223
-0.452403359517778 -0.169443855476168 0.708004167557784
-0.449839818385612 -0.173280465907399 0.712730660920912
-0.451414068600669 -0.170924433963666 0.725284139799792
-0.450823871199373 -0.171807726795557 0.728568756859782
-0.450546115094906 -0.172223418182118 0.736402000324463
-0.451542656933874 -0.170731987923181 0.754846526840533
-0.452411372217394 -0.169431863623749 0.753656872769711
-0.452193317994963 -0.169758204829612 0.760697824232386
-0.451350966237633 -0.171018873323824 0.777595248953513
-0.449175314947539 -0.17427496558213 0.77689148193308
-0.45134152190447 -0.171033007767261 0.787983387187065
-0.450374180085254 -0.172480737108367 0.79840522012485
-0.449586037578472 -0.173660275725818 0.806220614933731
-0.454744627219991 -0.165939900741094 0.820637040579754
-0.449999772308369 -0.173041077944839 0.82682587438256
-0.452154022690886 -0.169817014408141 0.836345759904941
-0.449076579153974 -0.174422734139759 0.83519794145696
-0.453289702546863 -0.168117349391142 0.848007532478092
-0.452994373670123 -0.165593372810562 0.857372675439661
-0.443904601615636 -0.172239386938259 0.863196740286178
-0.433404379729875 -0.171395794024036 0.867930089673754
-0.423105670765747 -0.172598085432838 0.867803095201788
-0.419580128725768 -0.16993560200696 0.86605047029585
0.0391592742636242 -0.200268788541414 0.495284630282546
0.0337161656601739 -0.206391584669139 0.513509833927843
0.0344812897975706 -0.20560300748965 0.524642959490622
0.0394430406642358 -0.199945214976345 0.52258214965086
0.0352033274652108 -0.204779681325142 0.533562990459286
0.0395052153700834 -0.199874318312101 0.543157814042354
0.0369702549575222 -0.202764886667732 0.563011584787063
0.0385148254108328 -0.201003641618989 0.569994567984295
0.0400879609953697 -0.199209824280757 0.575434714069157
0.0345650038371914 -0.205507549922482 0.598783144994853
0.0360873829649235 -0.203771609230829 0.600541587987511
0.0327484125270213 -0.2072402813889 0.61523124088328
0.0357181455152684 -0.204192643848331 0.620007841634111
0.0413553094108093 -0.197764690381594 0.622943317885187
0.0389530207543054 -0.200503975593772 0.638666863158849
0.039682582426102 -0.199672069946832 0.653122348790045
0.0386464498128963 -0.200853552753873 0.65425835362579
0.0380975633216465 -0.201479437842484 0.672830647108832
0.0336083127616603 -0.2064861691226 0.685753792102789
0.0338823842507109 -0.206245814877525 0.697507034554089
0.0377642403246496 -0.201859519875541 0.701472922496925
0.033947613900275 -0.206188610010169 0.714812484173661
0.0375864549207404 -0.202062245275151 0.717511814585503
0.0359596210124904 -0.203917293816247 0.728411498978767
0.0388947600934272 -0.200570409145112 0.734228537539316
0.0396002512892086 -0.199765950615662 0.748169178185632
0.0408951939360581 -0.198289351526069 0.754624493463041
0.0372477518904043 -0.202448462060469 0.772246572821513
0.0336949768804754 -0.206410166730213 0.782596713990009
0.0340347304011371 -0.206112210889374 0.790735599040948
0.0386050139174282 -0.200900801337179 0.802045412487642
0.0393675147265084 -0.200031335802746 0.815110984015075
0.0384260366354209 -0.201104885813284 0.820736455949863
0.0395511719089334 -0.199821914922968 0.823666212865594
0.0351465513916632 -0.204844422029075 0.846949735602273
0.0366353755705934 -0.203949707296624 0.854199550392841
0.0399406307572312 -0.203072244691453 0.859279396572547
0.0512508202877898 -0.207644153929739 0.867829975633914
0.0531652969126974 -0.202058594640335 0.867034629016836
-0.456023375899287 -0.164026118098658 0.442316546037421
-0.459492345969402 -0.157014762982002 0.458561245619485
-0.458021326886582 -0.159997694598459 0.467979607926001
-0.459489612346944 -0.157020306219988 0.473133757529082
-0.456578616893878 -0.162923221058908 0.482636540148054
-0.45590902375873 -0.16419725817119 0.491365685186521
-0.455640857200175 -0.164598597788077 0.493860697350086
-0.456215773903285 -0.16365899385825 0.501528021725578
-0.457279332321163 -0.161502310734495 0.510763772258941
-0.458180549733068 -0.159674822605571 0.524164430106289
-0.457041088670449 -0.161985421066942 0.537360436316888
-0.459438925554319 -0.157123088867762 0.548804063627614
-0.457752038478453 -0.160543757471425 0.547666838662071
-0.459149780989276 -0.157709416043844 0.561300531672758
-0.459505659846838 -0.1569877651093 0.566321674914315
-0.459480782623667 -0.157038211127568 0.576730529253786
-0.459480250270409 -0.157039290633188 0.587523304197104
-0.457465217433925 -0.161125373013996 0.595969584754962
-0.457095541599043 -0.1618750014509 0.6032780377625
-0.457551585058123 -0.160950236797299 0.608072063973199
-0.455923351876807 -0.164175814627107 0.614030032889381
-0.459177549521054 -0.157653107031712 0.631968727340847
-0.456573549522317 -0.16293349667193 0.628058334020068
-0.45802710454764 -0.159985978660822 0.645763585242158
-0.455049703281926 -0.165483322148752 0.646939445765197
-0.457929424684173 -0.160184053829547 0.65634950263355
-0.458252822530695 -0.159528267869763 0.669664438390986
-0.459284203730106 -0.157436833690374 0.680349756820554
-0.459594490576793 -0.156807634208217 0.688986211735855
-0.456284470924326 -0.163519690080065 0.692542748282274
-0.459764868486421 -0.156462141984963 0.704159118874483
-0.456126835377829 -0.163839343346983 0.711280318073468
-0.458179511395957 -0.159676928144946 0.715745339322879
-0.459001716517103 -0.158009661091972 0.732014276905844
-0.459264828172992 -0.157476123433504 0.735425333909492
-0.4559035431089 -0.164205460543309 0.746087474995221
-0.457433729341921 -0.161189224548134 0.758837632468856
-0.45835300639573 -0.159325115088155 0.763319835054808
-0.458496077224339 -0.159034996147461 0.765332902349918
-0.458801674070491 -0.158415307045585 0.776578959513923
-0.457181982675487 -0.161699716287779 0.78906308695434
-0.455975337305476 -0.164098012934985 0.794102057071119
-0.458435270362222 -0.159158300266099 0.805009233636557
-0.457003004836669 -0.162062647442306 0.812791936075166
-0.456378151728009 -0.163329724202377 0.815472702529681
-0.456135298032751 -0.163822182780391 0.828493419678897
-0.459276269794079 -0.157452922121107 0.84476778369203
-0.4565074585203 -0.163067515966297 0.848248379743886
-0.454114388910414 -0.162737497895022 0.85893182687983
-0.452435935532099 -0.164132687447729 0.859915960336869
-0.447566918185577 -0.16513530498119 0.863890132484242
-0.436605313141015 -0.165311541678011 0.86802491802428
-0.424626669496466 -0.160306017057008 0.865251663344493
0.0469083728070882 -0.191432635154788 0.480515478072091
0.0498649328865595 -0.188061324516209 0.495376345477993
0.0464823101104283 -0.191918466547807 0.49699460874922
0.0486069367187475 -0.189495794220811 0.507184040911018
0.0497390123452845 -0.188204909374627 0.5229951320793
0.0478868731671262 -0.190316869337427 0.531386025647793
0.0483742025404679 -0.189761176688984 0.543402101605357
0.0441195017334979 -0.194612733129222 0.547913170479777
0.042137626228548 -0.196872629019915 0.568834256905625
0.0426359096982222 -0.196304445618533 0.575389781461599
0.048104688234658 -0.19006849885461 0.585636422018865
0.0440066620629547 -0.194741402113289 0.595562024911206
0.0450196037999915 -0.193586363432342 0.607375766407009
0.0482367884974951 -0.189917867374279 0.611745915730504
0.048714273555509 -0.189373400016073 0.624968878991414
0.0487669180268126 -0.18931337050157 0.632793260058808
0.0500430850390245 -0.18785818092002 0.639029446820925
0.0461931188896561 -0.192248225934718 0.648819103023672
0.0495873422673161 -0.188377855952294 0.663777153050735
0.0491846854741328 -0.188836998027566 0.679595315850289
0.0443514114481707 -0.194348290781613 0.686101481078158
0.0448256851935695 -0.193807485223639 0.690509886233004
0.0479386247012416 -0.190257858022643 0.709343734219548
0.0494632902989415 -0.18851931011168 0.706602594741607
0.0465939030208536 -0.191791219221186 0.727531322691181
0.0433795706438907 -0.195456462831024 0.743840759584719
0.0489862124631953 -0.189063313121884 0.742243275219281
0.0424836482915471 -0.196478066477359 0.757576020651831
0.0436426560486799 -0.195156471422028 0.765264455721674
0.0445310349418859 -0.194143469442279 0.781028729767791
0.0459470147409509 -0.192528853932265 0.788842389382177
0.0459333048221017 -0.192544487098521 0.792632591676236
0.0421523604695032 -0.196855827838152 0.809565099250931
0.0477011941892166 -0.190528595633108 0.820439145494902
0.0450942789210909 -0.193501212776367 0.828350699224885
0.0426028103192677 -0.196342188226633 0.833438744631325
0.0432019840073698 -0.195658961579867 0.841104861460741
0.050239852805737 -0.18829247977086 0.853475340518264
0.0535239530087815 -0.192800770640962 0.863475559344112
0.059051366284575 -0.197628194423719 0.867659032340522
-0.463861299120999 -0.148155402393875 0.453435228344589
-0.461867192664023 -0.152199050274835 0.463675945071212
-0.46131261081349 -0.153323631019698 0.471949725560363
-0.4620139191987 -0.15190151829556 0.480770879446737
-0.461718685737446 -0.152500192531737 0.485357910262575
-0.459930024197113 -0.156127239333585 0.498010900355987
-0.463354174165296 -0.149183750075783 0.505151955608424
-0.46029418491213 -0.155388794453446 0.512520799868072
-0.462734356724609 -0.150440615511352 0.525020747125175
-0.463341213873936 -0.149210030946852 0.537823107078964
-0.45979180072188 -0.156407528814004 0.542131603691445
-0.461614326300362 -0.152711812535847 0.544622791146263
-0.460882665514435 -0.15419547384001 0.55271873865488
-0.463256240705759 -0.149382339486468 0.560907796128302
-0.461046812364648 -0.153862616955311 0.569269766827293
-0.462863670497191 -0.150178393120642 0.579227739802368
-0.462943390798229 -0.150016736341869 0.596088206173144
-0.462522667714198 -0.150869878360069 0.601374655261563
-0.461476538559511 -0.152991218434346 0.609911877806433
-0.463648102829281 -0.148587721706728 0.618377170867992
-0.459851140566747 -0.156287199512068 0.619812917608153
-0.459901332071186 -0.156185421209382 0.625953404588014
-0.46339561522347 -0.1490997159228 0.643231409004255
-0.46299733365038 -0.149907351058535 0.648032029811057
-0.461778194767691 -0.152379520155793 0.656178551455118
-0.460994570131822 -0.153968553723792 0.666413005217893
-0.460305610888218 -0.155365624865967 0.671490248032906
-0.461314472265247 -0.153319856368939 0.682417355906893
-0.460387867679123 -0.155198824594561 0.687472657354696
-0.461633323373263 -0.152673290282781 0.699504397745703
-0.459887946212002 -0.156212565046631 0.703074924567601
-0.46102943672793 -0.153897851261057 0.717911550716487
-0.462501384539814 -0.150913036368359 0.721713100180813
-0.46001799093858 -0.155948860427845 0.734545003624052
-0.46081314276089 -0.154336452038073 0.740080191732611
-0.463539503038582 -0.148807940297362 0.752411364633766
-0.459630427807093 -0.156734760714106 0.752573460445214
-0.461772529760623 -0.152391007653739 0.770861884639117
-0.460743003451507 -0.154478680487697 0.773744527544781
-0.463709551509761 -0.148463116109196 0.791162965925415
-0.463411674486579 -0.149067150958671 0.788460205967853
-0.461874484161097 -0.152184264581426 0.801557809495183
-0.462746329622784 -0.150416336875591 0.806390486427396
-0.460753751976448 -0.154456884635249 0.814863919748048
-0.46039164028179 -0.155191174513128 0.822966282990084
-0.460335210726099 -0.155305602332416 0.833077966608701
-0.460835141297046 -0.154291843419612 0.845907634513519
-0.462393006779152 -0.150614781094895 0.851913537910679
-0.4587934229645 -0.155224971973487 0.856817777990332
-0.457826898101391 -0.156869198457829 0.857155590732107
-0.453549414729491 -0.155679734672135 0.86350984787191
-0.441330274744757 -0.157513926323317 0.868078148641709
0.05589697565831 -0.181183097988708 0.4631495788074
0.05058757312097 -0.187237311255985 0.481895018423551
0.0501831513978488 -0.18769846584814 0.484357334182919
0.0577155550677201 -0.179109405607953 0.492076549934935
0.0565013012380606 -0.180493996735422 0.511180864053779
0.051016809941176 -0.186747860468741 0.512523335804392
0.0572057850587012 -0.179690686897166 0.527525394939011
0.0515543507404755 -0.186134912662291 0.532750020313559
0.0542377680722681 -0.183075061634323 0.541679268108969
0.0507882438875207 -0.18700849010169 0.560821606291737
0.0537620600269875 -0.183617502697858 0.56554965356224
0.0508113696725247 -0.186982120197845 0.587578950503255
0.0555790507886386 -0.181545621822685 0.586622180308977
0.0541820144985383 -0.183138636400673 0.588645287056155
0.0549747373775659 -0.182234709200253 0.6009060633988
0.053481502967941 -0.183937416710246 0.610073127600189
0.0527601461789473 -0.184759966481459 0.626166261252788
0.0550895537171328 -0.18210378625715 0.638792779496794
0.0583247388193994 -0.178414764671296 0.645082231130776
0.0509567733974522 -0.186816319026361 0.658718715051773
0.0569397369586681 -0.179994056612615 0.671064703694116
0.050202923524495 -0.187675920058737 0.679650096124479
0.0531712624585748 -0.184291178210649 0.690905798902119
0.0538901774089669 -0.183471412822718 0.697191916772351
0.0496088772948905 -0.188353299959649 0.709451114407287
0.0539406904615959 -0.183413813725409 0.722592354028511
0.0560479104983553 -0.181010989789213 0.726393801528571
0.0544297144002522 -0.18285618879556 0.741990436996684
0.0559961530638308 -0.181070007832123 0.746617444496033
0.0562882090395431 -0.180736981818273 0.761971086909536
0.0552900495815474 -0.181875164540519 0.768800488691051
0.0503455943685738 -0.187513235140613 0.77836664998486
0.0512395035918517 -0.186493927028024 0.787572860256791
0.05550336729009 -0.181631922312769 0.79773691676769
0.0526589006393214 -0.184875414893016 0.814863013441396
0.0577552011109059 -0.179064197960019 0.817783373960123
0.0545236790770501 -0.182749042616884 0.831508224612335
0.0575751151438213 -0.17926954664916 0.840046380529645
0.0515355186841445 -0.186156386506945 0.846151495401339
0.0585036834401207 -0.180278592412175 0.856684700203854
0.0668400764431309 -0.179026784370054 0.864533759926573
0.0727645165731886 -0.182453863534334 0.867846890393384
-0.466473181655176 -0.142859028553004 0.453557411483908
-0.467515153837643 -0.140746117984508 0.461551358364769
-0.463935944820194 -0.148004035889685 0.475243083332658
-0.46428901590344 -0.147288078558222 0.479896123558044
-0.464192093274935 -0.147484618206343 0.486880885414073
-0.464049963410665 -0.147772829060114 0.497175206429233
-0.465506272206339 -0.144819726955133 0.505129213913882
-0.468148357252653 -0.139462108478214 0.516249636339135
-0.467360897294485 -0.141058919310478 0.52056047975551
-0.465815450749165 -0.144192774890883 0.532501309220574
-0.466694670035492 -0.142409894547853 0.538233017563633
-0.464422577669488 -0.1470172420889 0.551722416397884
-0.46557861241817 -0.144673035516843 0.556701623917051
-0.468112622781998 -0.139534570816437 0.562668608304884
-0.464720982305078 -0.146412137347298 0.574104761681253
-0.464086506559967 -0.147698726883811 0.580469283347851
-0.466145689880851 -0.143523116177136 0.596554501583514
-0.466209663847015 -0.143393389806808 0.59921340086231
-0.464188991180055 -0.147490908632483 0.611529691274949
-0.467004319159268 -0.141781988239833 0.623651996949838
-0.467061630902929 -0.14166577152031 0.627709656451309
-0.467471103397687 -0.140835443440309 0.639138053371868
-0.468014598619807 -0.13973334415391 0.645438625044966
-0.466670164204298 -0.142459587457693 0.653755470400923
-0.464211891682848 -0.147444471006615 0.658405874817123
-0.464720565472448 -0.146412982600257 0.668878744365626
-0.467258520509772 -0.141266518893294 0.676321616504802
-0.467938974302635 -0.139886695099047 0.693300041434991
-0.464119036121486 -0.147632763458417 0.694038697458107
-0.468064769240903 -0.139631608198454 0.698949656767363
-0.465667968373874 -0.144491839563303 0.708059166275253
-0.467285773934159 -0.141211254415622 0.719603058541129
-0.464106455605071 -0.147658274222079 0.726589861877847
-0.465415740850404 -0.145003306384561 0.731840949205545
-0.464997116878756 -0.145852191823928 0.739641607128115
-0.468017395938203 -0.139727671753338 0.756633869070024
-0.466998347021563 -0.141794098537099 0.758945692510484
-0.465277650642106 -0.145283325626366 0.770473856795015
-0.466512263391837 -0.142779778630774 0.77686760617911
-0.465369055505148 -0.145097974899753 0.7864944001198
-0.467532300702097 -0.140711347583023 0.792862994248967
-0.464028577863418 -0.147816194660033 0.803473412522203
-0.46771071834805 -0.140349552387256 0.810913345206757
-0.466696164164527 -0.14240686475389 0.819688398073933
-0.46816776973996 -0.13942274384806 0.832429437095772
-0.465063883575504 -0.145716802356188 0.837291831083497
-0.468158151300769 -0.139442248113301 0.850169495030497
-0.465208614659314 -0.145423316750989 0.849913978544023
-0.463840882918222 -0.141825671376951 0.859777833243745
-0.456904586530314 -0.144255224784872 0.865081452202288
-0.453410276757194 -0.148030848410354 0.86608734033358
-0.446566458225722 -0.144224256314589 0.868264853236022
0.0622332754103608 -0.172868000428584 0.455240094959305
0.062173834129944 -0.172956960591397 0.471098167041773
0.0598266217070916 -0.176469812229636 0.486216735434477
0.0621390353041998 -0.173009040714539 0.483072745554191
0.061822022614084 -0.173483483733405 0.496307828473125
0.0637567771084819 -0.170587919007745 0.500650835522669
0.059899012551878 -0.176361471674166 0.527054852614874
0.0647998141617461 -0.169026903743157 0.530879997684116
0.0594771956366603 -0.176992765300271 0.546732970339722
0.0637043280746062 -0.17066641453409 0.546286424445329
0.0608047389340241 -0.175005956351248 0.558333823933052
0.0628017797643302 -0.172017173536333 0.573230560864759
0.0620413180194978 -0.173155284965935 0.581660057903864
0.0593385082309877 -0.177200325670809 0.593636270972876
0.0629908692506644 -0.171734181121426 0.603383849892861
0.0600910730956018 -0.176074032757648 0.611104800067548
0.0648810050999073 -0.168905392917228 0.615248938280071
0.062380970370473 -0.172646959300163 0.633707105539855
0.0624815089664608 -0.172496492658038 0.639936295153394
0.0609056071887259 -0.17485499633999 0.657142662807612
0.0596063261136032 -0.176799507884341 0.6619490984402
0.062053358395528 -0.173137265269785 0.669455342950774
0.0592678334114521 -0.177306098013001 0.682336299283918
0.058786337909743 -0.17788841178747 0.694769132931741
0.0645325735145842 -0.169426857635718 0.70310445998334
0.0610667064088189 -0.174613894318839 0.721028216981097
0.0618597234009466 -0.173427060518529 0.720225773575774
0.0599583408675046 -0.176272680575109 0.742760689903346
0.0634960221427917 -0.170978166392042 0.746785054332713
0.0582979496482272 -0.178445311866464 0.755601576907177
0.0646731758910671 -0.169216431308829 0.767808692121525
0.0609511087698852 -0.174786898411417 0.768880904616445
0.0627327630433004 -0.172120464358747 0.784058923728776
0.0638340510200178 -0.170472270426438 0.793020038040734
0.0598000614022965 -0.176509562534852 0.811643935723085
0.063736300584297 -0.17061856429184 0.819915623911471
0.0586569006879618 -0.178036006651464 0.821771359156042
0.063784962247858 -0.170545736965733 0.832342817420093
0.0615515165331545 -0.17388832469296 0.839419079297274
0.061406724861374 -0.17474214686092 0.85286392021476
0.0673593792341985 -0.174087789473851 0.862549209737478
0.0831562055182815 -0.177577582224029 0.868145394914067
0.09082996579896 -0.176023684368256 0.866668074531019
-0.470936012910696 -0.133809302001882 0.463327831223544
-0.471533789426509 -0.132597131140593 0.46869125862754
-0.468766457944891 -0.138208724264124 0.479486817604728
-0.470001995246668 -0.135703302462445 0.490842920601989
-0.471285268837164 -0.13310108104305 0.495475764358725
-0.470399077737207 -0.134898098825591 0.507548832939428
-0.468663196914673 -0.138418116919449 0.503868175172376
-0.468622358633637 -0.138500928761312 0.514188739900562
-0.47145456407981 -0.132757784251253 0.524218317600343
-0.46884723513271 -0.138044924330971 0.532137972501665
-0.472009334934339 -0.131632820244197 0.548753027677697
-0.470935558404981 -0.1338102236483 0.553362261563627
-0.470063967516394 -0.135577635130954 0.566621835430364
-0.469892525818719 -0.135925284502977 0.571733932880351
-0.472609094957289 -0.130416627228323 0.581232039488605
-0.472311252382873 -0.131020592222609 0.586853836910863
-0.469195312156467 -0.137339093950351 0.596670428839604
-0.470464828261901 -0.134764769950934 0.610134826048905
-0.47231240277379 -0.131018259460595 0.613488058273723
-0.471563963767353 -0.132535943630274 0.625152236397504
-0.468509763436979 -0.138729249233761 0.624908205671146
-0.471783789169128 -0.132090181812013 0.643590192593352
-0.471261058316379 -0.13315017512262 0.646962099479671
-0.470238600056806 -0.135223515369939 0.660181335801994
-0.469342687814602 -0.137040245678915 0.668759800204317
-0.468388899460384 -0.138974337133224 0.677571540221199
-0.470815079644211 -0.134054530407342 0.685409674517866
-0.469193666957904 -0.137342430083013 0.691523037052732
-0.470615511317561 -0.134459214940778 0.698553331478554
-0.468582495973583 -0.138581762239532 0.703125796391143
-0.47136322454218 -0.132943002511037 0.71597695400485
-0.47136481533403 -0.132939776704276 0.727838593379897
-0.472154469905995 -0.131338515635465 0.733605388888896
-0.472654753882701 -0.130324040086676 0.744198615781562
-0.469780127884108 -0.136153204967566 0.744844847530899
-0.470125811158834 -0.135452228629798 0.757031850512204
-0.468525275135259 -0.138697794621265 0.765340061549851
-0.471463910164241 -0.132738832266832 0.778275526362717
-0.46971210183672 -0.13629114814578 0.777385696980715
-0.468311151908503 -0.139131993572434 0.787482607897748
-0.472396510708814 -0.130847705440251 0.799653241823348
-0.469315084408025 -0.137096219850266 0.806070160437827
-0.47128024210783 -0.133111274241785 0.818636121631628
-0.470872003640994 -0.133939099960706 0.824598856144356
-0.471629935531442 -0.132402166126506 0.83322047925631
-0.469384828791084 -0.136954792232007 0.841441110082934
-0.468734275692201 -0.138273983416884 0.848759649732281
-0.466134722751239 -0.136932337937185 0.859917556166971
-0.462245008007566 -0.135500293301871 0.864375941180821
-0.459280568780255 -0.134573866326728 0.866372501552761
-0.454539425417581 -0.135142845010733 0.867851351666553
0.0697062637770101 -0.161683882974724 0.444511728823727
0.069500725357667 -0.161991492957563 0.449575191857665
0.0709430726876492 -0.159832867631746 0.46690921976434
0.0655896607035047 -0.167844814857139 0.477317498049275
0.0715322774526888 -0.158951060384998 0.481450396075723
0.0701571869158851 -0.161009028806566 0.485917491334746
0.0664624370018059 -0.166538612819584 0.508398679120708
0.0704259890581408 -0.160606737971448 0.518474525585792
0.0706641434012207 -0.160250314809192 0.519565998250676
0.0679449755447175 -0.164319837092888 0.535404481312456
0.0707837224391185 -0.160071352131979 0.541832672632279
0.0664617592923072 -0.166539627083525 0.558505961963195
0.0667976638799172 -0.166036910342002 0.569228972698497
0.0688877550880334 -0.162908867795439 0.575129767454303
0.0701649776149418 -0.160997369201462 0.577664155808723
0.0712293122242296 -0.159404479891797 0.601734485926796
0.0676678416427163 -0.164734597287653 0.611750413712451
0.0654642530918565 -0.168032500611414 0.618240415525861
0.0691860886132461 -0.162462380122409 0.629440966269051
0.0712607234691625 -0.159357469641618 0.639686843683799
0.0705296843250946 -0.160451547037365 0.651167342189256
0.0651765381003664 -0.168463096525683 0.657737007298605
0.0713992850720938 -0.159150097548187 0.666613659425963
0.0679923570774872 -0.164248925617902 0.67664087090239
0.0718351348070633 -0.158497802323175 0.68674515032147
0.0717078959001217 -0.158688228804539 0.700014080276144
0.067993506264532 -0.164247205737948 0.713612650675825
0.0679794117124389 -0.164268299725833 0.716083697883737
0.0710694934608207 -0.159643665574097 0.730629306488896
0.0666277978898867 -0.166291132761562 0.740299450109195
0.0655110321465204 -0.167962490808632 0.754447436032788
0.0680908721845419 -0.164101487340975 0.760093026093805
0.0694529019397337 -0.162063065760432 0.770395623726307
0.0662482374518948 -0.166859185100341 0.779095932251836
0.0693913033946223 -0.162155254498018 0.79293210269541
0.06915793147458 -0.162504520258398 0.799966591981681
0.0659308132997757 -0.167334243915612 0.814019948432075
0.0689394204524101 -0.162831545113383 0.817502353542523
0.0685075238191531 -0.163477924103591 0.836086234341289
0.0695860782055956 -0.161863753393492 0.841460023512568
0.0663989675041022 -0.167069753373122 0.852013993620801
0.0728716350127125 -0.15918607712669 0.856396208574143
0.0793364996124336 -0.16420143466514 0.866078041766739
0.0869626052136837 -0.168154701623252 0.86835630329884
-0.474451573603615 -0.126680450131124 0.467839539168748
-0.475854084721867 -0.123087539994032 0.481562168689583
-0.472823713703812 -0.129981423462467 0.483954191165359
-0.475603542123785 -0.123825614687574 0.49150052292512
-0.476001551608064 -0.122653116555979 0.503966555855143
-0.473093809127928 -0.129433724122965 0.509055957785081
-0.475434369230338 -0.124323981961012 0.51764387443862
-0.475585198569244 -0.123879653056696 0.521519346958633
-0.472992285365489 -0.129639593947725 0.529527100648883
-0.474790001467065 -0.125994186312004 0.540698156845118
-0.476238564549094 -0.121954898946858 0.555591559930343
-0.475206339725408 -0.124995735220772 0.56000958653094
-0.474142830530528 -0.127306519150097 0.570284490327268
-0.472567536784161 -0.130500898866939 0.573836510971444
-0.47267026245131 -0.130292591820526 0.583384073377193
-0.475441290852975 -0.124303591518244 0.593068858486746
-0.472777657862984 -0.130074815468957 0.598154756733868
-0.472954548397456 -0.129716116948935 0.60233114214213
-0.473828210954513 -0.127944504538195 0.611715522301167
-0.474546266963364 -0.126488430992855 0.631404190761069
-0.476013727196161 -0.122617248430069 0.632368914953674
-0.475420653528794 -0.124364387114831 0.646361624325734
-0.476081512412263 -0.122417559622722 0.646876786482571
-0.473988848623449 -0.12761876356919 0.654944701930885
-0.475758338342209 -0.123369599733036 0.666123018769762
-0.473653533480472 -0.128298715415597 0.673295088863009
-0.47288543094907 -0.129856273269442 0.684044932025599
-0.473832100752349 -0.127936616808471 0.694802751921787
-0.474808264746208 -0.125957152045479 0.706297595065216
-0.473404008878349 -0.128804701254564 0.713068052547713
-0.473890334939177 -0.127818529559243 0.720151902262655
-0.472853064480752 -0.129921905974539 0.724035746884028
-0.474145633676924 -0.127300834931512 0.72973115175982
-0.473256564299777 -0.129103689282819 0.745822832877871
-0.475881779090628 -0.123005955014502 0.755011498612167
-0.474450566278086 -0.126682492785231 0.763175580848371
-0.47417013689 -0.12725114733069 0.774555633916372
-0.476042299761635 -0.12253307636645 0.786234534158649
-0.475018170004005 -0.125531506289243 0.78401252284153
-0.476190029634205 -0.122097878195525 0.796497870802688
-0.475290582061691 -0.124747565300719 0.810351748468297
-0.47439596028187 -0.126793222791701 0.812237872195805
-0.475432369980304 -0.124329871561693 0.818898002047126
-0.474259142956441 -0.127070660882389 0.827689459332578
-0.476217055588933 -0.122018262300238 0.839346176593418
-0.475446267705131 -0.124288930184572 0.841269199542554
-0.473879057756827 -0.127292896597422 0.852016146227118
-0.468860686915549 -0.13042936446871 0.860480906868229
-0.468558739263054 -0.123488008535805 0.864107019053535
-0.459459856386831 -0.12919522674405 0.867293245543485
-0.454800182898347 -0.127010936776664 0.868295020609
0.0754820919844593 -0.15303974519529 0.435964388267761
0.0724512644911205 -0.157575699087466 0.453507986513178
0.0738146035306714 -0.155535318024407 0.458597666956085
0.0727285659290665 -0.157160688157441 0.469138982425536
0.0724561680574211 -0.157568360381883 0.487851551071562
0.0762447453188446 -0.151898353820133 0.493880878668903
0.0753577365518043 -0.153225856252421 0.491220184982958
0.0759156126766937 -0.152390935629057 0.507231819049274
0.0760063782720154 -0.152255095316047 0.520339749759464
0.0737709339812888 -0.155600674123666 0.526084205661063
0.0752388129726514 -0.153403837966298 0.543301426283177
0.0732015036910509 -0.156452886777473 0.552176007539282
0.0734178522007709 -0.156129098351082 0.558143020718299
0.0719026137814716 -0.158396812901217 0.572850810087336
0.0747128417644184 -0.154191009507535 0.58306040280288
0.0718427934877979 -0.158486340297454 0.594937799278786
0.0722244148381919 -0.157915203585298 0.606730501709087
0.0726640311746234 -0.157257271242833 0.615865850101327
0.0753225337290484 -0.153278540999819 0.620104725441783
0.072467286228527 -0.157551720862936 0.632735868933468
0.0718911839595491 -0.158413918838573 0.644421915979544
0.0779676328449018 -0.149319870420212 0.653754717031591
0.0725479945740591 -0.157430932287917 0.665394924267615
0.0780432420955142 -0.149206713180035 0.676390010656293
0.0746054613520158 -0.154351715651534 0.685223129488848
0.0762562942704387 -0.151881069592624 0.686240179610916
0.0782273656899191 -0.148931152747605 0.702265653644423
0.073690551312147 -0.155720975289523 0.717493773223024
0.077609840595222 -0.149855344362919 0.717140615946909
0.0778636800211502 -0.149475446815283 0.72856042930789
0.0729735741630978 -0.156794007422489 0.747386791204539
0.0781722615793582 -0.149013621877017 0.751202563251002
0.0754376417981108 -0.153106269600331 0.772089794681463
0.0780228096729586 -0.149237292461376 0.773702317051931
0.0745775927373756 -0.154393423980803 0.784880339825173
0.0784203314956046 -0.148642359010818 0.797023717564309
0.0723919643700685 -0.157664447990359 0.812347596736472
0.0778681347445372 -0.149468779850592 0.81765036310569
0.0755442039756926 -0.15294678803128 0.825967895391177
0.0742509923851271 -0.154882215950066 0.838416441370751
0.0773010013844074 -0.150317554905562 0.838035491790329
0.0769446787116093 -0.153039706718483 0.856328154962448
0.0809101874081763 -0.158776846258452 0.864878726688198
0.0945594765954624 -0.156391635532851 0.868327456814852
-0.477352992462991 -0.118671900178102 0.471941100738025
-0.476396280267651 -0.121490283422264 0.478937151394152
-0.476613915888693 -0.120849149557069 0.486384497684775
-0.477975328148643 -0.116838558367234 0.492651238826554
-0.47727659230958 -0.118896967772384 0.497681973695467
-0.478799209214596 -0.114411483011891 0.510512672187511
-0.476816081081068 -0.120253590105106 0.521993648099209
-0.476797731866269 -0.120307645148812 0.528224250166466
-0.47703048710223 -0.119621970334359 0.53182418643783
-0.478476395364091 -0.115362461949632 0.546138506429165
-0.478229856365885 -0.11608874241826 0.553950704268183
-0.478837677494586 -0.114298159113353 0.563398097617351
-0.476669699577775 -0.120684816108229 0.57448396431173
-0.478976731642346 -0.113888518803564 0.580872841127448
-0.478848416727189 -0.114266522354282 0.586355528578833
-0.478984114922612 -0.113866768361278 0.596231562571668
-0.477230491283479 -0.119032777015888 0.600300657698335
-0.476375942759231 -0.121550195790101 0.607084849049593
-0.478948920898289 -0.113970446613661 0.616818410864131
-0.478050484569528 -0.116617154690824 0.628889476222964
-0.477118518649758 -0.119362637757939 0.643832626814985
-0.476473797190228 -0.121261925932107 0.640668160111887
-0.476745666249316 -0.120461025510358 0.653360758804768
-0.477092251999373 -0.119440016814763 0.66493393113003
-0.477129651664289 -0.119329840954718 0.674103940711127
-0.477746054515476 -0.117513976710589 0.684781196123683
-0.476270565056893 -0.121860628490784 0.690219183328707
-0.478627805163147 -0.114916423064855 0.698249428019119
-0.477284710577887 -0.118873052125149 0.710951586163224
-0.477052060745226 -0.119558416431493 0.712877056814344
-0.478605736187726 -0.114981436169992 0.717916284079459
-0.477383262703158 -0.118582726926107 0.727289575854741
-0.478651251478089 -0.114847352448327 0.741087546909902
-0.477283577992892 -0.118876388612956 0.747585336561256
-0.477927111504678 -0.116980600019992 0.756634584373762
-0.478018124076972 -0.116712485627796 0.762028644525798
-0.476407629956838 -0.12145684831609 0.776249858744636
-0.477650094124581 -0.117796666906365 0.78129367518722
-0.477086645725367 -0.119456532365414 0.784378343940476
-0.478251337968388 -0.116025459657943 0.795757514962167
-0.476510064282251 -0.121155086524218 0.797360042576927
-0.478712029624576 -0.114668305802426 0.813642167171656
-0.47670832379254 -0.120571032840657 0.822225092542758
-0.47714356671389 -0.119288848540461 0.82544790401766
-0.478443202037393 -0.115460246336867 0.842554393667106
-0.477836134791768 -0.117248608773852 0.849547049299229
-0.476491800049011 -0.119863075580301 0.853462455522143
-0.474554570253243 -0.11924036787729 0.859319815592959
-0.471212199880053 -0.115606183967926 0.86418640817147
-0.457873536189588 -0.120452101061438 0.868314084166889
0.0834947530116891 -0.139381404701598 0.424927922463152
0.0787566588854706 -0.148139009501003 0.435452700795576
0.0819895422528221 -0.142433670178295 0.438641180074146
0.0788040776276586 -0.148068042338186 0.45495031405503
0.0791749208950247 -0.1475130361672 0.464184681832826
0.0837276873079218 -0.138909060674993 0.474213395716072
0.0785833848098507 -0.148398332481097 0.485089106848643
0.0793787372975698 -0.147208003364626 0.489238956009961
0.0831797944001085 -0.140020077585811 0.504403770541999
0.0820711945852994 -0.142268095627326 0.515805487430826
0.0798202125365017 -0.146547288977966 0.522844416262931
0.0820338659659547 -0.142343790579312 0.528699602802126
0.0832650403574666 -0.139847215884459 0.538549939562095
0.0837546615417961 -0.138854362339674 0.556258797640357
0.0807583526405818 -0.144930275737731 0.567810722798833
0.0802486674316396 -0.14590606091286 0.57342775932177
0.0811849427143157 -0.144065236641318 0.590091708352613
0.0793475913601222 -0.147254616554094 0.591117567054343
0.0837063496618631 -0.138952329140911 0.606597067296269
0.0790906260791936 -0.147639192274336 0.615650014913064
0.0787246359805034 -0.148186935165114 0.624949064004828
0.0792915629342489 -0.147338469019128 0.642955617024214
0.0811371183471024 -0.144162214864554 0.648505934432794
0.0782844372922749 -0.148845739058635 0.660110150548768
0.0816817521873113 -0.143057806689077 0.669961654884971
0.0800915202830362 -0.146141248241046 0.685570590002641
0.0791870715583926 -0.147494851414384 0.688242836276529
0.0829654219555618 -0.140454781900666 0.697938738313101
0.0804088062301992 -0.145639085739673 0.709995302833288
0.0812214127362629 -0.143991282752624 0.71958126940966
0.0810111738102383 -0.144417605121092 0.727917609206741
0.083153467731146 -0.140073462789391 0.735720061149779
0.0835110383277561 -0.139348381347415 0.75001538710427
0.0811695727256463 -0.144096403895151 0.753333441483375
0.0785857726800377 -0.148394758780814 0.768134533065191
0.0781620260896875 -0.149028940369842 0.777597897416366
0.0825630380916223 -0.141270735659333 0.793820172441782
0.0809093819789131 -0.14462401853578 0.800925890956043
0.0792098086499732 -0.147460822952099 0.815874065310441
0.0801430758332668 -0.146064089907475 0.818350881055702
0.079317212730159 -0.147300081386759 0.839157207644732
0.0821216478212076 -0.142165786585723 0.840104060004718
0.0793606079803436 -0.147252137219501 0.850241394513874
0.0824564082641318 -0.147293988333362 0.859502107775296
0.088252536950158 -0.139773895844793 0.861897299978982
-0.480216767204894 -0.110235491834036 0.475670266763827
-0.481109078591235 -0.107606827255404 0.483249574861796
-0.480813230454097 -0.108478367763184 0.489406670793821
-0.481705070457989 -0.105851091832466 0.497637739076068
-0.481172321241983 -0.107420520414064 0.510683190685048
-0.479149900801756 -0.113378378910224 0.511236845421041
-0.480805258049884 -0.108501853708654 0.523314874059489
-0.480760665141981 -0.108633220179211 0.528678129381266
-0.47915794197145 -0.11335469038818 0.543833439776167
-0.481878500604725 -0.105340183095257 0.552118639970685
-0.48016072466584 -0.110400587830305 0.556767627693633
-0.481107324726487 -0.107611993974343 0.562819794227414
-0.48018644443272 -0.11032481984034 0.571772939970608
-0.479474826055963 -0.112421179977753 0.579707100874813
-0.480574758375724 -0.109180883852309 0.594208235095948
-0.480441452763932 -0.10957358952122 0.592154531902854
-0.480110182284443 -0.110549480884604 0.602918440715789
-0.480322462954296 -0.109924122196916 0.614683047291419
-0.48018649648813 -0.110324666490045 0.617498861251589
-0.480183321276291 -0.11033402036249 0.62846148404215
-0.47957164411732 -0.112135963166273 0.646018139896683
-0.479518964868768 -0.112291151228218 0.649940773368048
-0.481942477078163 -0.10515171448198 0.66448408349053
-0.480964966814597 -0.108031366859415 0.668644338576556
-0.480374726911635 -0.109770157543434 0.667672722399624
-0.479662234338324 -0.111869092980853 0.677617985190544
-0.479759367766481 -0.111582947128735 0.689155639883817
-0.481771596656697 -0.105655111970759 0.695881794896808
-0.481732978331068 -0.105768877889494 0.705730670115873
-0.480611862249506 -0.109071579364844 0.711013575112446
-0.4801711668403 -0.110369826176305 0.728766509189065
-0.481761473861692 -0.105684932763221 0.732592826935529
-0.480441895193976 -0.10957228616434 0.740016818247408
-0.479749834462319 -0.111611031337177 0.749139143216545
-0.479856983463084 -0.11129538055959 0.762976181871622
-0.481202733513822 -0.107330928750253 0.767913067120609
-0.480343666035786 -0.109861659933041 0.77581488472738
-0.479771620487998 -0.111546851775099 0.787105269584434
-0.480881652906318 -0.108276801718761 0.793170657815088
-0.480587959383079 -0.109141994938674 0.80031962323942
-0.480782423903046 -0.108569120936097 0.804995744685542
-0.481465634853765 -0.106556446377212 0.817246642517885
-0.480944951189441 -0.108090330989733 0.821691230030308
-0.481453869467874 -0.10659110608639 0.833342572123995
-0.480199884985697 -0.110285225248059 0.838264446976667
-0.481303791592233 -0.107033221251313 0.844629182693201
-0.478453679188773 -0.11076160828423 0.857016064867665
-0.475967454789372 -0.111113191781152 0.860984330021267
-0.47026574773614 -0.112124393161824 0.86573620414123
-0.458514259252629 -0.107777565921999 0.867970244760525
0.084428642220714 -0.137487664722011 0.426775947443204
0.0871796211539358 -0.131909231286339 0.433261763053809
0.0865463476080192 -0.133193383004045 0.438926271313156
0.0858622240021187 -0.134580648442977 0.448612128716203
0.0873089254829222 -0.131647028045347 0.458412499691135
0.0881289532155118 -0.129984176299586 0.466176309731665
0.0887942741846769 -0.128635038836183 0.478906185696974
0.0881110641804162 -0.130020451674256 0.486350297899961
0.0868839895709205 -0.132508712833588 0.500102843386396
0.0861532024506978 -0.133990602518956 0.511265333535331
0.0860218022755973 -0.134257055715446 0.520710849381833
0.0869232806770398 -0.132429038352095 0.534574692163581
0.0878757301533565 -0.130497661873596 0.540021921107422
0.0854167650958171 -0.135483949746786 0.558092490542222
0.0866312656674699 -0.133021186213873 0.559882025540098
0.0843858507198953 -0.137574437301784 0.581129462731822
0.0868895604561607 -0.132497416195829 0.583686805864226
0.0873641386351645 -0.131535066848247 0.585832811576889
0.088404519026164 -0.129425384113538 0.601755452511778
0.0872318324299867 -0.131803357291986 0.610909645510053
0.0848152942833181 -0.136703611900686 0.62957758850188
0.086336350880439 -0.133619214242653 0.630271686652091
0.0876163103058743 -0.131023713285184 0.644479615651538
0.0872664226663872 -0.131733215231299 0.654694841134013
0.084027956017316 -0.138300175965647 0.661389312062286
0.0874339546400408 -0.131393493995311 0.6782313109068
0.085994368998106 -0.134312684899138 0.679873602178887
0.0852520987984298 -0.135817859966156 0.69674268874678
0.0871790721276779 -0.131910344601458 0.705580392895678
0.0843082966501914 -0.137731701397951 0.720121769869683
0.0869318236616128 -0.132411714893086 0.72106881571388
0.0837843009779923 -0.138794259508681 0.734745130898693
0.088575445307924 -0.129078779901602 0.743768197601101
0.0860712064998307 -0.13415687385909 0.755867903590111
0.0885497077123259 -0.129130970582563 0.761562505682075
0.0849439700826376 -0.136442683191774 0.778850194297271
0.0845188765737064 -0.137304687554974 0.787147447864754
0.0867273255320525 -0.132826396077918 0.795268245536657
0.0869481562143462 -0.132378595752422 0.808760384002545
0.0867268256516456 -0.132827409735107 0.812293812142581
0.0887661511394633 -0.128692066730449 0.828528321682832
0.0853798776974659 -0.135558749991104 0.840254583181674
0.0875943666530132 -0.131068210611333 0.846345712479464
0.0864279811724026 -0.135630802788132 0.855737359670002
0.0938002942944565 -0.130346469559449 0.862949938180309
0.108309374243425 -0.139877236265198 0.867820627192868
-0.484739820008376 -0.0969110079444355 0.473225576189124
-0.484149933066761 -0.098648758837856 0.483329196977272
-0.483051524548072 -0.101884565990096 0.494780222087166
-0.482951063163213 -0.10218051568652 0.496171462477008
-0.482040401582328 -0.104863238195092 0.501779662858562
-0.484582766977949 -0.0973736712527511 0.518530284127098
-0.483013034170355 -0.10199795498644 0.5273654723684
-0.484239669752069 -0.0983844030875157 0.539120417983098
-0.484224495564407 -0.0984291048028891 0.545573353612224
-0.483228593626541 -0.101362937305683 0.551243678046423
-0.483714464117615 -0.0999316089944698 0.561051484718545
-0.484198310396494 -0.0985062438200871 0.571005954881834
-0.483725527317171 -0.0998990178595326 0.572225146103459
-0.483117278500059 -0.101690861093869 0.588880604223652
-0.483847215515833 -0.0995405359860974 0.593313742752434
-0.48480103694637 -0.0967306686604372 0.600302294228499
-0.482373649919066 -0.103881520252139 0.608780339217422
-0.483103237756681 -0.101732223790056 0.623665987570872
-0.482866795694448 -0.102428759644471 0.628344292212761
-0.482745257066425 -0.10278680089701 0.636272005551718
-0.482728041906326 -0.1028375151233 0.645765485152849
-0.483768109942132 -0.0997735734915512 0.646747474926891
-0.483004739375356 -0.102022390664541 0.660401470196262
-0.483406581206107 -0.100838602804296 0.672013086479444
-0.482491523240143 -0.103534276645678 0.678414283510085
-0.484646750556458 -0.0971851817086113 0.685462107834823
-0.484090341509065 -0.098824309905899 0.696192655909366
-0.482374667507716 -0.103878522532644 0.696218706342595
-0.484145995084586 -0.0986603597592532 0.709603028791291
-0.482515791380396 -0.103462785009854 0.712949174725458
-0.484069351847193 -0.0988861434558517 0.721454882988224
-0.484004477821193 -0.0990772561737109 0.739193809251916
-0.483502830369325 -0.100555061912688 0.743232445513051
-0.483127809868039 -0.101659836684235 0.752687171761734
-0.484700214923943 -0.0970276807608732 0.759543472384757
-0.4829241849354 -0.102259696392345 0.770525965590883
-0.482215862386576 -0.104346347333759 0.780182789512604
-0.482321233937288 -0.104035932755179 0.783229759370014
-0.483404745407001 -0.100844010894068 0.796336884477478
-0.482539309308481 -0.103393503427814 0.800155845196884
-0.483312754996287 -0.101115005905361 0.81332712660914
-0.484300601273151 -0.0982049046146262 0.815910047841628
-0.483469281880342 -0.100653892574276 0.826147958451416
-0.483663017199475 -0.100083166728086 0.837745973135141
-0.484879976116754 -0.0964981213633474 0.840649560465627
-0.482029412825314 -0.103759261499353 0.852949928473857
-0.479508216601134 -0.0991811474566597 0.861614584610675
-0.475823590616806 -0.0988050118373621 0.864981445912777
-0.47243598224708 -0.0979838582634373 0.866866774801689
-0.463198569093233 -0.10204333675087 0.86831228706368
0.0927004476425109 -0.120714102634321 0.41678660801112
0.0914199429087421 -0.123310709367702 0.424592952931528
0.0920360620990339 -0.122061343242073 0.430200414517648
0.0896832334192103 -0.126832407832002 0.444704844978721
0.0888751234627785 -0.128471092718398 0.454518813684753
0.0911227176738839 -0.123913422521203 0.460099585827875
0.0898508059201133 -0.126492604414882 0.480992447210881
0.0906376061632169 -0.124897131352431 0.485802811888062
0.0930732041749941 -0.119958227160664 0.497780951590046
0.0932279683438983 -0.11964439647151 0.505488344119181
0.0927748946424179 -0.12056313905243 0.51822840832026
0.0903327082486078 -0.125515403161345 0.530516432359586
0.090177280278908 -0.125830579905353 0.53367246385137
0.0911287258033051 -0.123901239239955 0.553725173128319
0.0896818328371882 -0.126835247931391 0.557930481795439
0.0907047801525099 -0.124760915977114 0.563048394231004
0.0892258508391341 -0.127759887954361 0.574490943819795
0.0891083842611465 -0.127998086610959 0.58831937886424
0.0905469580367364 -0.1250809475691 0.598395051840425
0.0922726287135173 -0.121581633602693 0.607718340198705
0.0894931795104508 -0.127217799034531 0.62125977536298
0.0934376207783119 -0.119219263390382 0.621491858550324
0.0899847658267701 -0.126220960596273 0.638693347586966
0.0911226206595641 -0.123913619246784 0.650322268836412
0.0920160807522022 -0.122101861405231 0.664909214855268
0.0889799163040335 -0.128258593857568 0.673880521012139
0.0929868130378811 -0.120133411056839 0.67719037068681
0.0936847790283085 -0.11871807603884 0.688345101320406
0.092325310716887 -0.121474805067765 0.697351538612761
0.0887592772256757 -0.128706005648716 0.710562921853039
0.093058269944835 -0.11998851078365 0.716794228029167
0.0935299127676768 -0.11903211374954 0.727399756303648
0.0935270938845061 -0.119037829879147 0.73904722394997
0.093281415651299 -0.119536016053526 0.74936548671509
0.0899484447848527 -0.126294612383353 0.761019460259499
0.0912253310513466 -0.123705343175748 0.779788461191679
0.0914868959226562 -0.123174942086127 0.785644554906462
0.0924047362960439 -0.121313745925847 0.799358620535519
0.0929364022545371 -0.120235634013158 0.800441167429466
0.0909515866862144 -0.124260441835663 0.814209081658506
0.0894823259338751 -0.127239807910622 0.829255962409569
0.0927515949967305 -0.120610386060022 0.837278158338833
0.092310393017946 -0.121505055168757 0.844409874710807
0.0907345417793677 -0.126761664176676 0.855591511647647
0.0982455201696435 -0.128469514380506 0.865419081488219
0.103698102033521 -0.124926353880701 0.867041329182495
-0.485449682952911 -0.094819819143589 0.483019353061111
-0.48663177990636 -0.0913374738125654 0.481842820302197
