ply
format ascii 1.0
element vertex 859
property float x
property float y
property float z
end_header
-0.40671708860638 0.274626210785737 0.644509110175477
-0.409147801911637 0.271458443532224 0.658369291442597
-0.410761609448149 0.269355288603761 0.676567413561447
-0.410945569078173 0.269115547746332 0.684174812362772
-0.409280434843081 0.271285592930693 0.685225967371057
-0.405646465295351 0.276021474249426 0.702652110622203
-0.412362217109185 0.267269336087933 0.71608843252726
-0.411018436386705 0.269020585221004 0.728300233177729
-0.406784472946885 0.27453839380346 0.744049911003468
-0.406516065398765 0.274888189330433 0.760498455076858
-0.409987367690891 0.270364300106532 0.766610402015638
-0.406666989614672 0.274691501062885 0.774790364163801
-0.411680515329964 0.268157747143326 0.786952692572126
-0.411590863097103 0.268274584207921 0.79627162060051
-0.410131258648839 0.270176777759212 0.799636502469509
-0.412276570679364 0.267380952688369 0.818726632942747
-0.409659136858115 0.270792058855953 0.827146542726379
-0.407908110521303 0.273074040806601 0.84636745438197
-0.409686090902375 0.270756931661573 0.849927524363435
-0.40476979816411 0.277163969098395 0.871933165482189
-0.40589054137869 0.275703388104715 0.876986854276383
-0.408022056112811 0.272925544020624 0.890375694145887
-0.406874861679202 0.274420596914085 0.896841336870404
-0.408276607560077 0.274983483587739 0.906819323132635
-0.416152841677196 0.277964743412671 0.91577060510708
0.0673924403340966 0.241826566839865 0.054075699125701
0.0679916824253438 0.240379868456031 0.0715525571902522
0.066216534897837 0.244665453692151 0.0694329565522974
0.0656534588396511 0.246024839548471 0.0923222205305452
0.0643542514866094 0.249161403560518 0.0930299686294106
0.0663927025404404 0.244240147380126 0.108394720048302
0.0656741138584537 0.245974973921947 0.12123275212277
0.0683506870225821 0.239513154688423 0.123605053928179
0.0651885330126656 0.247147269785476 0.138472722274905
0.0668296992827676 0.243185143918088 0.144168108004736
0.0654174370537648 0.246594646544974 0.155156094675628
0.065609312445939 0.2461314183709 0.169590673698939
0.0650796759026113 0.247410074096931 0.172358788692389
0.0679959277965389 0.240369619223314 0.184075296052293
0.0646373570299263 0.248477926318263 0.190503978637948
0.067790597255289 0.240865331000771 0.205021238164726
0.0653098461812648 0.246854393888553 0.210451634110444
0.0655641642911781 0.246240415658442 0.217272216148852
0.0663987927475497 0.244225444319527 0.234892068854671
0.0646687874059756 0.248402046678134 0.248221635552492
0.065118436292062 0.247316498239039 0.25204298770174
0.0657038915853113 0.245903084129913 0.257826327817672
0.0648273171348144 0.248019322056732 0.269019612456379
0.0654634640769888 0.246483527481273 0.279244423171526
0.0671622234236419 0.242382359627375 0.287092957983656
0.0666771234909581 0.243553494463965 0.30020356034912
0.0655350864075874 0.246310615879372 0.308957237324782
0.0649383741893362 0.247751206609508 0.32219519322319
0.0682405544366868 0.239779038270955 0.32684400338664
0.0649513576975793 0.24771986164782 0.336929166887472
0.0677839778772856 0.240881311592921 0.351125106666264
0.0650219876806503 0.247549345784781 0.355427325360652
0.0662336263469532 0.244624191283898 0.37154156853269
0.0651535025717616 0.247231840751007 0.381178887326435
0.0669271639996792 0.242949843276668 0.391713645680521
0.0645043737540502 0.248798976346452 0.401385508450041
0.0673247761101933 0.241989922726902 0.40482624101084
0.0662489689801425 0.244587150890768 0.420228324346671
0.0661208709835177 0.244896406811532 0.424764756363672
0.0666506977345494 0.243617291883484 0.433918942561207
0.0661701666897027 0.244777396449094 0.441560404318614
0.0652654449428318 0.246961587960565 0.455440345023205
0.0642452257311747 0.249424615017939 0.463232415643962
0.0673094070411362 0.242027026941861 0.472100722529906
0.0676375134281147 0.241234908052517 0.488598077634932
0.06484581572227 0.247974662516013 0.496091199851555
0.0645423335555073 0.248707333278951 0.505344143662
0.0676584279323437 0.241184415972758 0.518658565878143
0.0644210880021538 0.249000045938233 0.523028623843337
0.0667925166346611 0.243274910771436 0.531818789180786
0.0647034300570339 0.248318411920115 0.536517946063773
0.06596741445155 0.245266883652246 0.549859759944782
0.0658732785667557 0.245494147782022 0.569319874708102
0.0684354418909537 0.239308538335727 0.580556130960936
0.0656427242303206 0.246050755187908 0.58082477122727
0.0664323933999947 0.244144325168692 0.594908190726991
0.0648747373927782 0.247904839426827 0.601283178852791
0.0656529020705873 0.2460261837079 0.614875979400438
0.0657506363883309 0.245790232192493 0.62034081104621
0.065680382836512 0.2459598392701 0.62962153815696
0.0644630472538397 0.248898747343746 0.641865968708999
0.0660231741240434 0.245132267894679 0.655942835598605
0.0658441275115035 0.245564524654969 0.660092892166601
0.0678001022765607 0.24084238384951 0.674510499894709
0.0668367985123855 0.243168004861667 0.682656625190794
0.0657025291690801 0.245906373293657 0.690868662054584
0.0652281441796364 0.247051639968957 0.70121486909491
0.0660009875208417 0.245185831093032 0.708323273201612
0.0669840083159139 0.242812608957474 0.715539643333731
0.0649744845283496 0.247664028539321 0.72781679837043
0.0651297379174403 0.247289213701776 0.739251311846392
0.0650609913529656 0.247455182590097 0.747663133345205
0.0645149234168426 0.248773507207465 0.76630387778566
0.0659617982302559 0.245280442409864 0.773951481766067
0.0674706561745266 0.241637737097111 0.777472026918258
0.0676930461107842 0.241100840296863 0.790116815200057
0.0675734327225177 0.241389612561057 0.804870615246446
0.0649556677316886 0.247709456305023 0.806153287930125
0.0663426907918076 0.244360886421959 0.821128792143486
0.0668176093247553 0.243214331658695 0.827194261552542
0.0663404724110428 0.244366242066888 0.841219512911364
0.0663190917039756 0.244417859659864 0.853455983478315
0.0651937938686818 0.247134568955538 0.859930548432457
0.0649353518162612 0.247758503263581 0.866085275201218
0.0669205549221453 0.242965799001289 0.877127707570375
0.0652991691024955 0.246880170636928 0.884737436887973
0.0683790082947364 0.23944478108909 0.897362260704389
0.0656244384161239 0.24391631844996 0.905341097715369
0.0581830909782958 0.244301571007729 0.914482736685229
0.0580931408563875 0.246601517885596 0.913879742095022
-0.402614617494676 0.279972655229859 0.612737032270123
-0.39677911948574 0.287577624298269 0.630925475430281
-0.397831894251702 0.286205621511379 0.634040804538733
-0.39937130656347 0.284199420327421 0.642743630111534
-0.397819736098116 0.286221466325621 0.660837797524147
-0.39979327823056 0.283649496144248 0.670442522825206
-0.400693851777611 0.28247584584762 0.675671353527422
-0.402939696801793 0.279549003628638 0.690966947524465
-0.399595117992826 0.28390774359395 0.701271374161345
-0.397861260510737 0.286167350657501 0.715402977376
-0.40123154508524 0.281775110286313 0.723078250515086
-0.403752632607961 0.27848956505955 0.72738263493669
-0.401966266335178 0.280817602911429 0.741827785884593
-0.399166689275236 0.284466082769168 0.755698308384764
-0.402679026560802 0.279888715700642 0.765995998892951
-0.399748533796772 0.283707808225654 0.775172802855456
-0.39892740965887 0.28477791803642 0.791876615319263
-0.400881143792948 0.282231762141103 0.803202975073825
-0.402547353708947 0.280060315102095 0.805100924598837
-0.402016295934777 0.280752403067838 0.830558164858991
-0.400255556897976 0.283047042855548 0.835245768952844
-0.400999332822851 0.282077735198542 0.848341225959947
-0.399043207102287 0.28462700787005 0.85910787606577
-0.403159215161012 0.279262921733099 0.867139052974319
-0.397658611990249 0.286431447351169 0.878442601438831
-0.4023525149369 0.28031423393344 0.888739609079537
-0.404121815136873 0.27808262848553 0.900573867413239
-0.407321071344336 0.278314027188085 0.909488083983643
-0.4199126266177 0.280825353965558 0.917434274538226
0.0610357652509329 0.257172938037239 0.0572598371874864
0.0607087004502602 0.257962542314797 0.0671622985275463
0.0613728619693715 0.256359114567752 0.0669882940862297
0.0624989125650566 0.25364058794773 0.0891944552541595
0.0640817970530459 0.249819166749157 0.0912016111286678
0.0624283208419365 0.25381101144308 0.108113812367457
0.061294941664189 0.256547230825308 0.113217898734137
0.0626744310304993 0.253216848888012 0.121494543303356
0.0628045479208243 0.252902718926696 0.136800850594153
0.0638295361582851 0.250428178422545 0.144345019595261
0.0608387658715658 0.257648536610686 0.152940135523143
0.06393020755471 0.250185136171954 0.159278500387162
0.0607925623846986 0.257760081695309 0.160608293032788
0.0622265180086155 0.25429820658021 0.181910225527338
0.0599245659991462 0.259855610341402 0.183082241255561
0.0621076402815982 0.254585202801039 0.203437467693596
0.0634899981319094 0.251247895730765 0.203213435069342
0.0625094137471124 0.253615235851593 0.212042513580618
0.0620214820378949 0.254793207201498 0.225687438251618
0.062494102574211 0.253652200292867 0.245008371065212
0.060581926069479 0.258268602744242 0.254674596264288
0.0610515249928999 0.257134890654443 0.254314322186941
0.0626042679908088 0.253386237450013 0.264741839209426
0.0634363805704504 0.25137733997482 0.278713476461797
0.0599190227510259 0.259868992926194 0.279801638071893
0.0609077621945098 0.257481964752082 0.296113239217636
0.0608213445367337 0.257690595433513 0.313390719425506
0.0602800223851919 0.258997462713379 0.316791330914583
0.0608120416125266 0.257713054679304 0.326849119543171
0.0633529648015655 0.251578723455378 0.334440383067046
0.063411424627248 0.251437588951361 0.344699139389077
0.0600804279554917 0.259479326292535 0.346732904724684
0.0603146594826174 0.258913841363014 0.366272983941764
0.0637934860066276 0.250515211187604 0.379458683915243
0.0633320261695518 0.251629273784763 0.382273927164852
0.0615387988822832 0.255958507422105 0.388910190526439
0.0601303234359431 0.259358867946928 0.399332838716869
0.0607988915290752 0.25774480178912 0.411859834944594
0.0608243048294599 0.257683448654666 0.417767386217455
0.0640119045734232 0.249987902121372 0.432157431008
0.0610886134282476 0.257045351250821 0.439304983005326
0.0628073152216444 0.252896038071527 0.458834123442518
0.063718185501416 0.250697002688538 0.467529624480048
0.060042232973768 0.259571537135427 0.473424356303476
0.0626063180424834 0.253381288187458 0.475548979829032
0.0636574544356479 0.250843620451177 0.494491488415697
0.062888509360474 0.252700018080381 0.507360966975618
0.0612659073495642 0.256617325861454 0.515620886978419
0.0634453766197594 0.251355621590572 0.522695244085519
0.0640046834342775 0.250005335493434 0.532752486805759
0.0631400676480368 0.25209270265082 0.54563293437395
0.0638288623790356 0.250429805069552 0.559938293999748
0.0598726806821967 0.259980872577271 0.558385465533685
0.0606035451080562 0.258216409768106 0.571964861701434
0.0617001280555428 0.255569024344018 0.580189336501199
0.0600973657064411 0.25943843494448 0.589242600033208
0.06364207348199 0.250880753358099 0.598502544118187
0.0629620959393585 0.25252236436363 0.606552085494614
0.0614409542262814 0.256194725317631 0.617050679346043
0.0638922642792936 0.250276739342069 0.634424778105315
0.0610320643135654 0.257181872890428 0.639227973095278
0.0633886914276768 0.251492471750084 0.642839872477773
0.0601522528543569 0.259305925647579 0.658891803769825
0.0629256739104721 0.252610294919736 0.671840297753686
0.0625366369621486 0.253549513196643 0.680345118280556
0.0636520662382905 0.250856628710314 0.688118414306198
0.0626773043381119 0.253209912109809 0.696904371144202
0.0635214327299798 0.251172005897778 0.714854285501495
0.0630511981196787 0.252307252671465 0.720357380105696
0.0603152339086003 0.258912454576016 0.730550814725026
0.0628438911110245 0.252807736063331 0.741003401689466
0.0628957581162515 0.252682518035874 0.751759349522349
0.0636433815471565 0.250877595409435 0.757731684024784
0.0610428106333343 0.257155928979498 0.769316160428103
0.0612981832389402 0.256539404971586 0.773120408252736
0.0625044012467708 0.253627337097903 0.789977343377055
0.0609230814852521 0.257444980712609 0.797797328095746
0.0621773800676256 0.254416836063778 0.804020669369898
0.0601461941421538 0.259320552672754 0.817517983893834
0.0601850937634428 0.259226640679466 0.82524223913958
0.0610557228502843 0.257124756130216 0.831086126409329
0.0632546037601193 0.251816188015651 0.84468231369141
0.0614083495562614 0.256273439954192 0.847333090650651
0.0610771888673824 0.25707293258061 0.857628240893047
0.0619926583240271 0.254862793802439 0.875959401227995
0.0643317258812418 0.249215785182503 0.886368379806762
0.0612488966893536 0.256658393228041 0.895808193626605
0.0636425189168481 0.250803433410845 0.900454139322794
0.0544229736827366 0.250607985659481 0.915285067884971
0.0518521518319651 0.252316013107053 0.9161075089516
0.0320079462752049 0.25595563476757 0.916018000543046
-0.393625697348483 0.291687244038821 0.627501223000828
-0.392853769408711 0.292693240115938 0.639382045061947
-0.390426553456351 0.295856449530417 0.648486035065077
-0.389891494652683 0.29655375173932 0.656496067706553
-0.389191609188345 0.297465860234528 0.669833893170454
-0.393879557593519 0.291356406926335 0.675437965642727
-0.395988550982925 0.288607913230106 0.694364758930884
-0.395295806805896 0.289510715018497 0.69962121882819
-0.3933358593097 0.292064968324979 0.722805804915441
-0.394277886872996 0.290837294102574 0.723193126824683
-0.394262009567188 0.290857985810355 0.739475296851482
-0.395794324516297 0.288861034089493 0.752311886988765
-0.391513161305042 0.294440354611675 0.767216376351058
-0.39278651619267 0.292780886213488 0.772692775612289
-0.392719328266517 0.292868447223598 0.789621857665534
-0.394696928652875 0.290291188222755 0.797519272002274
-0.392846553491517 0.292702644082313 0.808478035773486
-0.395332456461715 0.289462952257129 0.819353764586091
-0.390070799806287 0.296320076713662 0.828782554925305
-0.389863238729039 0.296590575575945 0.840590876401918
-0.392367246731626 0.293327288813178 0.851151534331795
-0.388254547626462 0.298687062637888 0.864787329782454
-0.387999035195751 0.299020052920667 0.882481810092385
-0.393118855940021 0.292347772622336 0.879510767390609
-0.388951913058095 0.298795473964404 0.904873172526474
-0.395284022943728 0.292728688601139 0.907997278990199
-0.401421310351527 0.293254340167348 0.914163083511359
0.0583935717944025 0.263227760851969 0.048257850167149
0.0582075587275631 0.264085533670785 0.0576811014457181
0.0589784309317731 0.262139782452889 0.067272851941898
0.0576983566422201 0.264749138748307 0.0765244224479716
0.0590814774787575 0.261891006081604 0.09392161672563
0.0582200422305811 0.263970694740859 0.0980731793957152
0.0588437718999142 0.262464878113901 0.105880897137305
0.0551547790501548 0.268063993604078 0.118013776881885
0.0594304954145193 0.261048402247578 0.123338320127249
0.0596664559865377 0.260478743034425 0.138357170687097
0.0558856465346155 0.267111508554144 0.139837523080429
0.0535379343048211 0.270171106700142 0.154795503607212
0.0589308425244661 0.262254671031222 0.16948083083964
0.0557773566326137 0.267252634702055 0.167670192542564
0.0590202883216426 0.262038729774582 0.195611195179988
0.0551890377827654 0.268019346754498 0.191879203400701
0.0588494568171833 0.262451153509528 0.2066135172973
0.0592030236679746 0.261597567623144 0.217083371854408
0.0576983809029087 0.264749107131163 0.227797836230948
0.0558505599835687 0.267157234237713 0.230714308134145
0.0540023518661831 0.269565865950581 0.236913191223079
0.057662381017614 0.264796023095098 0.251396697630178
0.0592989667664567 0.261365940493571 0.258533012209107
0.05813131931437 0.264184890808468 0.271017861070713
0.0586809502380518 0.262857964378218 0.279947006103516
0.0581313193143702 0.264184890808468 0.298078830889179
0.0555891241948398 0.267497943990954 0.299888819375151
0.0599319907172914 0.259837685486159 0.308408006060273
0.0542024691916453 0.269305067974494 0.325013242619815
0.0559418919639209 0.267038208083566 0.334071622232944
0.0590190045107272 0.262041829168307 0.343929428408226
0.0565536018085281 0.266241012293257 0.351985264670445
0.0581313193143704 0.264184890808468 0.353046825727409
0.0557710983995076 0.267260790590228 0.369118907185289
0.0588213450971537 0.262519021205286 0.380309515651768
0.0597507007867924 0.260275358095092 0.395360783001649
0.0545276264225185 0.268881314821058 0.398236808220552
0.0572558447195728 0.265325831513688 0.406033108792656
0.0551226254841242 0.268105896947157 0.413018363691465
0.0598196384838016 0.260108927772014 0.433846733282243
0.0575432380905618 0.264951293180628 0.438514158916333
0.0586976936207619 0.262817542276598 0.450920948461445
0.0559970083450501 0.266966379017221 0.460827608961565
0.057817986865476 0.264593233606003 0.471264215044919
0.0547817886214034 0.268550084194654 0.474206400979639
0.0537033926022948 0.269955477248728 0.48972016068447
0.0594481356331097 0.261005814992616 0.49992288858176
0.0583318265104269 0.263700823616398 0.512043991282043
0.0584249073432212 0.26347610660747 0.52458051795356
0.058211187404996 0.264080804686286 0.535294594799642
0.0575142485745136 0.264989073053488 0.534699588796684
0.0586966684615882 0.262820017229782 0.550739284821345
0.0558926588600997 0.267102369913651 0.556926617681465
0.0590736365070333 0.261909935861886 0.566403398993966
0.0592129063200218 0.26157370879054 0.584317545964029
0.054547314010576 0.268855657456772 0.585077981868968
0.0572220852407151 0.265369827723109 0.597489568557347
0.0538977058627794 0.269702243277385 0.60462492248434
0.0564062609445755 0.266433030645618 0.61877024909234
0.058391428742694 0.263556931098912 0.629193698065189
0.057919526127548 0.264460905063332 0.631655848385433
0.0581313193143715 0.264184890808468 0.641398392145131
0.0590444712745998 0.261980346961578 0.658808158311915
0.0562598006555197 0.266623901410429 0.660944791555444
0.0581963543474003 0.264100135503302 0.673829264824603
0.0587183048351714 0.262767782403237 0.681579222496709
0.0593191076422337 0.261317316118114 0.700314516966055
0.0540203407587799 0.269542422369321 0.707424390184933
0.0597264229517601 0.260333969973694 0.716754116254041
0.0589007411380498 0.262327342206559 0.726007105109778
0.0584950329901415 0.263306808319603 0.738529505824546
0.0592347180083621 0.261521050716732 0.744413277706249
0.055108418384846 0.268124411999411 0.75590198675795
0.0583576020177485 0.263638596037046 0.76896797280294
0.0543273534643744 0.269142315621606 0.767781186047483
0.0549822093131795 0.268288890863891 0.782049480322693
0.0601247951746865 0.259372214350233 0.798212747929686
0.0546084725564409 0.268775954088035 0.802165066593955
0.0582136836207877 0.26407755155453 0.811083155845436
0.0587490489148936 0.262693559629011 0.820973724366229
0.059531271483128 0.260805107295985 0.833203189095709
0.0582691027522072 0.263852252164177 0.845088171270114
0.0582034111294805 0.264090938925845 0.849878969520108
0.0544921983413126 0.268927485595398 0.856188558652053
0.0574593397279283 0.265060631655553 0.871954361794406
0.0586434438942346 0.26294851270214 0.881314087502191
0.0551864463120742 0.268022724024858 0.887699117190501
0.0560665640238426 0.266875732291795 0.898820197224113
0.0536882046197147 0.264747518470539 0.910076928043187
0.052481118599742 0.266572935431561 0.909879571071545
0.029730295815944 0.268372528248728 0.917646299286664
0.0328057787117765 0.26486904252601 0.917686168589669
-0.377989294021082 0.307332437071241 0.64767117679113
-0.377409951416575 0.307776982286965 0.656480710457757
-0.37569823759447 0.309090426498363 0.670460834362674
-0.381125567603889 0.304925889709467 0.680454901226299
-0.382661880996799 0.303747034981094 0.682457203921418
-0.381522592843162 0.304621241528464 0.700445935126365
-0.382564060563855 0.303822095239267 0.709445737024653
-0.38078867850141 0.305184393809755 0.729651996165931
-0.3861633944207 0.301060229232163 0.732937882939672
-0.380325235910963 0.305540005816784 0.741596161942103
-0.381197785899934 0.304870474661885 0.759541511918696
-0.387420504403742 0.299774008927783 0.755174625968626
-0.380880097245621 0.305114245740115 0.782611796471047
-0.381039855812872 0.304991658679902 0.787452358998789
-0.385523216610146 0.301551454943306 0.802524298350357
-0.381560358446059 0.304592262962143 0.806596302679916
-0.382601211172852 0.303793588574363 0.821759354994834
-0.384087767447052 0.30265291382602 0.830861060193861
-0.37771708783171 0.30754130822664 0.845833717767751
-0.378379724338963 0.307032849351405 0.861007429012115
-0.387144552361676 0.30013363663069 0.863433902068123
-0.385996583942825 0.301188227413715 0.879784894739303
-0.383695586607708 0.302953844768218 0.888506677446418
-0.378720354327948 0.307541533698534 0.90481082725224
-0.387798344420454 0.302833445452195 0.909074231303583
-0.393182038223342 0.309058181771281 0.916219678649088
0.0450400046239038 0.280664623585851 0.0448007249267908
0.0516306795845607 0.272656689444055 0.0597695320497489
0.04854834765797 0.276673662618307 0.0692679330097364
0.0508622028522763 0.273658187820007 0.0789566296143604
0.0521348753864591 0.271999608682142 0.0897277507249076
0.0496464816985033 0.275242546473904 0.0951209226615638
0.0458184358512011 0.280231352950507 0.104017266704439
0.0481155824899168 0.277237653165796 0.112879193904029
0.0522447437213622 0.271856425480424 0.130946213836196
0.0535079931334674 0.270210126794343 0.140319550726116
0.0491012592196594 0.275953094242176 0.152169043838272
0.0501574651698239 0.274576619848977 0.153837191501108
0.0481242647907779 0.277226338171019 0.16932423157007
0.0463096642880601 0.279591171587731 0.169846669444659
0.0491077148762588 0.275944681066698 0.184657193805271
0.0524503517232308 0.27158847191553 0.193362913246318
0.0520082088274744 0.272164683755701 0.207581191492689
0.0503133413142613 0.274373478102525 0.214974340443876
0.0500032561458021 0.274777588961803 0.219688605825384
0.0496016826950126 0.27530092967193 0.235375209319885
0.0459458200882795 0.280065342580647 0.235765602413198
0.0511221760803652 0.273319384112902 0.257898033503191
0.0458007289058278 0.280254429090993 0.26068480161041
0.0490644510460913 0.276001063587898 0.269988805007119
0.0495120888750401 0.275417690611369 0.280392009070686
0.0525637624952145 0.271440672119927 0.29415297988088
0.0517762710389883 0.272466950966577 0.308649446872919
0.0459859811776126 0.280013003630028 0.312022674719822
0.0469441298827618 0.278764319926522 0.325648508775558
0.053575849908483 0.270121694123422 0.343566892501358
0.0497179943381587 0.275149349387426 0.339499447532018
0.0488597529602634 0.276267831327121 0.354008753370731
0.0497265678264395 0.275138176199966 0.364667838879861
0.0493349981500052 0.275648479737531 0.364589567394556
0.0507860914485669 0.273757378132485 0.387287419746018
0.0486854010544859 0.276495051154534 0.389819799588881
0.0506026027304597 0.273996505285552 0.406169033129292
0.0484657349268707 0.276781325625597 0.418670398349401
0.0494132693977489 0.275546474661506 0.430696428039352
0.0459326394351886 0.280082519942187 0.430520285571594
0.050405666557227 0.274253157503339 0.449603345563722
0.0514816398833373 0.272850921764252 0.461654333370145
0.0461177330834695 0.279841301203395 0.459334480234346
0.047000148982911 0.278691314413844 0.469357694729001
0.0516679344205474 0.272608137996538 0.483965488707307
0.0485725723271597 0.276642092414772 0.496402568507878
0.0494964680421563 0.275438048077129 0.498289148161699
0.0451618288151681 0.281087059899852 0.508381264519033
0.0497538454814744 0.275102627267813 0.519683120595408
0.0490196728607574 0.276059419655176 0.533601194019004
0.0525535720586475 0.271453952555423 0.537926371117956
0.0477592531997759 0.277702030537796 0.547954594152229
0.0538002345287672 0.269829270392994 0.571036559921933
0.0476301547419554 0.277870274923622 0.57048982322871
0.0522685685393955 0.271825376373061 0.582305860065837
0.0460628344132018 0.279912846543424 0.593282604361302
0.046825070782027 0.278919480767468 0.595704330666404
0.0493061558486202 0.275686067756506 0.615670611823965
0.047656764824283 0.277835595989159 0.615999831435179
0.0498905498388959 0.274924470680643 0.629362280861539
0.0490848049784734 0.275974537826782 0.639406807217868
0.0462426310896571 0.279678530952715 0.652151163907513
0.0470312715208827 0.278650754732693 0.656880370478199
0.0515458446927571 0.272767248427558 0.669697359646935
0.0487558688928564 0.276403215679601 0.672890498409595
0.0488400148674687 0.276293554510464 0.684655508675258
0.04950241539412 0.275430297337149 0.697022495645583
0.049789750796609 0.27505583455011 0.712449493552255
0.0476137199861962 0.277891693114324 0.720371032448437
0.0504449440941141 0.274201970020685 0.727083566349902
0.0467423782498579 0.279027247773535 0.730869018983714
0.0469262229911847 0.278787656641975 0.744979945263085
0.046162344187737 0.279783162880404 0.750050516749438
0.0528216613434592 0.271104571797269 0.768458196523936
0.0523347068168532 0.271739183291763 0.779581003295074
0.0507923482929299 0.273749224054157 0.790462902432746
0.0491387397862587 0.275904248616797 0.794784794234737
0.0504079610736818 0.274250167231278 0.810212210705695
0.046703282475591 0.279078198378532 0.81178891227858
0.051853922783173 0.272365753243312 0.826922218468558
0.0477831455763329 0.277670893386451 0.836031965806555
0.0522079015579271 0.271904439122606 0.85308561952081
0.0484738796066231 0.276770711272291 0.852358945777815
0.0507669647073978 0.273782304586877 0.8667565482573
0.0496183818902815 0.275279166856952 0.874005630631604
0.0493870132964358 0.27558069227893 0.88419018214528
0.0478270437356546 0.277400474265148 0.901207647665051
0.0495991405575828 0.271310032224919 0.90914430544837
0.0416618627728573 0.277396861954986 0.912442042533013
0.0400819644837078 0.272148402015571 0.915751566639299
0.026771245335749 0.273273537387966 0.917728849045013
-0.361981473147353 0.319615670046386 0.658654115615122
-0.363485659052822 0.318461467606181 0.66834760287093
-0.372712238349602 0.311381664305034 0.67083319245641
-0.36209564444529 0.319528063328226 0.686029944517745
-0.370484230652355 0.313091274740556 0.696042032870527
-0.363344571101816 0.318569728198667 0.713946856892889
-0.375825589650726 0.308992705828622 0.724150543696017
-0.371713052830331 0.312148366319968 0.727307571748483
-0.372873564504063 0.311257874392849 0.741152989366314
-0.366078063678924 0.316472245572812 0.751167118640983
-0.367588087985299 0.315313563170025 0.762740149505819
-0.364779574265595 0.317468611543264 0.775045998334297
-0.370033022966183 0.31343749857534 0.787615169379782
-0.374049567944788 0.310355495214824 0.79543137206897
-0.367312674945624 0.315524895028209 0.813548257222832
-0.36942355950835 0.313905156334722 0.819793764611004
-0.37421216425269 0.310230730679625 0.828524885861459
-0.369445150203494 0.313888589211649 0.845532335423738
-0.374814774977065 0.309768331207567 0.849131420685668
-0.368523891308082 0.314595496025014 0.864273835282741
-0.372079097129882 0.311867490650127 0.879031087857689
-0.3678198075923 0.31513575846193 0.887590984844029
-0.372061581813864 0.311880930624811 0.896996085704586
-0.367017796321373 0.317589744915532 0.906828609348938
-0.389122241518088 0.310597842303861 0.915709213456038
-0.397561941863613 0.321806139186857 0.916972355711245
0.043104946251277 0.282019370585893 0.0404611060048929
0.0371335134318063 0.290440147018917 0.0423881824987289
0.0435670367443506 0.283165433390947 0.0673510590404878
0.0428976132360456 0.284037843092147 0.070585650081717
0.0379647947017909 0.290466417365608 0.0767967529705122
0.0377361300006631 0.290764419005992 0.0825598693700574
0.0378529118167822 0.290612225980139 0.100243115769543
0.0394421413197741 0.288541101768572 0.112636769515471
0.0376438336354947 0.2908847019709 0.124306640871527
0.038208972973139 0.290148198046892 0.126295098313731
0.0423787896892486 0.28471398710236 0.14284122901858
0.0453086910477545 0.280895665312033 0.150432624015601
0.0415038761152118 0.285854196671088 0.156373106637451
0.0404260117755869 0.287258896826968 0.172825705225743
0.0423245760094007 0.284784639745492 0.187000193817052
0.0450579707637253 0.281222410347665 0.191909421371292
0.0375378179386808 0.291022864316907 0.191400458966523
0.0404596386507998 0.287215073429981 0.211966577463746
0.0418019652336704 0.285465719368544 0.221613780094163
0.0434032824318559 0.283378842165902 0.233503802934605
0.0400668735559006 0.28772693486722 0.238949600499991
0.0441157449505467 0.282450342934346 0.244769927585973
0.0398640205456796 0.287991298057097 0.255764502527035
0.0420656833200237 0.285122035267132 0.267124545533758
0.0384061352581081 0.289891251154552 0.267723648203606
0.0453637175537659 0.280823953373221 0.290531101653057
0.0414259625309992 0.285955735630923 0.29649629245673
0.0431033798990253 0.283769682756067 0.314858971140979
0.0398327979014108 0.288031988199315 0.310248403960071
0.0374292684158873 0.291164328809222 0.323584606495011
0.0437896111518937 0.282875368775693 0.340097913051348
0.0414512308203858 0.285922805355066 0.34242886968512
0.040396485501835 0.287297376216087 0.358771090316793
0.0427215746664143 0.28426726102269 0.367863227973657
0.0408050203920706 0.286764963181441 0.38045602057609
0.042776475038233 0.284195713465157 0.388034972321961
0.0373932159794189 0.291211313259181 0.390650338563544
0.0407737643621812 0.286805696832647 0.402055167063878
0.04064019431109 0.286979768712281 0.420292671857891
0.0453114275552104 0.280892099026085 0.431361538020233
0.0408401813237083 0.286719140563199 0.438862859212212
0.0407177547605018 0.286878689966679 0.441389525399063
0.0442570964199292 0.282266130112959 0.461805055578267
0.0405257626505375 0.28712889895577 0.465176619841276
0.0381780842277442 0.290188453043627 0.475224913638263
0.0401758923823323 0.287584858766498 0.48178625680048
0.0452441148570636 0.280979822642224 0.500140682191568
0.0392780639851899 0.288754931514111 0.500799508912372
0.0439429372494756 0.282675550315005 0.517550177910118
0.0414137066157712 0.285971707850616 0.530131632320362
0.0374614834715415 0.291122345331306 0.526276553206925
0.0402092304470778 0.28754141175464 0.543625608785269
0.0447828227022531 0.281580990282665 0.557662091729566
0.0411533600706542 0.286310998073944 0.562580625033429
0.0428379858686757 0.28411555099022 0.577370518774938
0.0436059388532873 0.283114735175525 0.586739201211806
0.0418651420243448 0.285383385771964 0.596845167967609
0.0390581810416848 0.289041488545142 0.599108597465387
0.0385038095034268 0.289763959599781 0.611549043988687
0.0426604407141872 0.284346932340374 0.627513016293099
0.0418458643753073 0.285408508893319 0.6351602126103
0.0385371281287504 0.289720537921872 0.641174953029713
0.0408801968808178 0.286666991273865 0.645941896128571
0.0386526323156454 0.289570009934841 0.656715387913063
0.0382343710720402 0.290115098599983 0.671446506791126
0.0400216671850488 0.287785848956729 0.683265598724104
0.0398015927403658 0.288072655556954 0.687306948041808
0.0430758897942526 0.283805508558109 0.705575634893078
0.0391169173187235 0.288964941938599 0.710540109168444
0.0411962527673045 0.28625509922336 0.72300937505698
0.0395574243253816 0.288390862030608 0.728405742676754
0.0378234428717883 0.290650630656967 0.740877518096212
0.0397128006708219 0.288188371634891 0.748263319535973
0.0397666602810507 0.288118180424269 0.763268035384463
0.0416172371999012 0.285706461629229 0.7688832676719
0.039024354647696 0.28908557196006 0.777544893628966
0.0383691778165506 0.289939415030107 0.783484741200427
0.041500441105461 0.285858673262953 0.805594106406697
0.0372676075310255 0.291375009376171 0.801971760374104
0.044157689222272 0.28239568009519 0.828685178613461
0.0388790626843416 0.289274920133175 0.825358455066973
0.0382485263693957 0.290096651057309 0.839820092433419
0.0451799976166153 0.281063381856814 0.854827145217802
0.0417542754260336 0.285527869935885 0.853908034935464
0.0422887061103064 0.284831386308116 0.863218087597045
0.0396404423007207 0.288282670898744 0.875696244751727
0.0426444896696056 0.284367720146397 0.888903433199481
0.0421248540305627 0.284782953289017 0.901429939501714
0.0378177350838164 0.288701550826689 0.906191671788435
0.0342665043259702 0.289033906030684 0.910878259146168
0.023703478618688 0.289111413963727 0.916840940103594
-0.35635612176592 0.323932153978224 0.666152290286407
-0.358707536069102 0.322127850323472 0.676613991871855
-0.360301751212296 0.320904566019455 0.676041174030261
-0.351536107189633 0.327630681245061 0.692845512049054
-0.359975133491368 0.321155188611475 0.701760000915699
-0.352257623623611 0.327077042212998 0.717985221947146
-0.351456920803713 0.327691443096057 0.734784763321164
-0.350318239935428 0.328565183656987 0.739767896502703
-0.351904403655512 0.327348077427213 0.74719822012533
-0.35621991363259 0.32403667015491 0.758478987567212
-0.353284781561098 0.326288876206649 0.780265014399844
-0.360850813241732 0.320483255906193 0.782579292730205
-0.354649853532193 0.325241419642693 0.795424628518227
-0.35414205197599 0.325631069481305 0.813501749400684
-0.360836496642136 0.320494241419439 0.818731328097365
-0.35603114005401 0.324181521216371 0.832224246220263
-0.361746596702515 0.31979589708135 0.834665202388827
-0.35221067078539 0.327113070392927 0.860895654214504
-0.351108496511114 0.327958798459036 0.865953599111878
-0.353087941565476 0.326439916847603 0.87155468135576
-0.35374378155335 0.325936673125111 0.884893764368761
-0.350315760653272 0.328567086077097 0.896927827341935
-0.360178065535997 0.320999473376905 0.898045658675721
-0.368996215345808 0.322834098348985 0.913924769153584
-0.377500288480395 0.324457975418829 0.917310495465779
-0.393610527261758 0.321846741928701 0.91751107259993
0.0355840150056855 0.291696785828533 0.0400867873625041
0.0302520655246058 0.298981208262201 0.0410997016571008
0.0293377448235841 0.301709407659654 0.0504519320712999
0.0297726406564515 0.301142640375718 0.0641995120743184
0.0330983322664494 0.296808514687324 0.069853633590477
0.0308287788035315 0.299766254345218 0.075723791601324
0.0324894447866688 0.29760203230018 0.0928939254791406
0.0358272934641826 0.293252063212939 0.1066686730963
0.03629749712433 0.292639281872632 0.116789881020513
0.0343680861374559 0.295153739225365 0.123009544334015
0.0350226897794276 0.294300643149993 0.140245603744892
0.0350243114311154 0.294298529772368 0.139131488988453
0.0322393001921918 0.297928027082581 0.150450194677702
0.0329995282368632 0.29693727860562 0.156491421129963
0.0316120706278271 0.298745448565457 0.177408101630492
0.0294955435535814 0.30150376035092 0.177866117149467
0.0328786212883587 0.297094847608664 0.194003755097024
0.0341923281846295 0.295382791448967 0.199431683053151
0.0371596790443798 0.291515664518419 0.215932970135401
0.0334655630646082 0.296329930193475 0.22838909169322
0.0338700850490588 0.295802746879467 0.222877263537139
0.0356257659543776 0.293514698977042 0.248311275547573
0.034940500386661 0.294407754452025 0.252103417808911
0.0326281867935811 0.297421220196492 0.255528659120072
0.0350144255475221 0.2943114133067 0.275466241858779
0.033980953059403 0.29565826087535 0.286537885181876
0.0367735368504455 0.292018894823079 0.296101560334106
0.033755709892105 0.295951803486032 0.296121917515161
0.0323395112958874 0.297797429429606 0.311232271567983
0.0344639832892192 0.295028763624004 0.314330282754013
0.0339601112343306 0.295685422470601 0.336004530734554
0.030186587681213 0.300603174110038 0.342452314614069
0.0330694077258647 0.296846209882512 0.340911914508846
0.0363081146923265 0.292625444788622 0.363268237309897
0.0352101193478241 0.294056380180839 0.372631279661207
0.0356837372906252 0.293439149260748 0.385100598845835
0.0317403653643512 0.298578251609619 0.383022295585681
0.0365137014859323 0.292357518862874 0.40302371996569
0.0314604885423443 0.298942994185328 0.411655817259609
0.0360535093693744 0.292957252905554 0.424721874222702
0.0369531137526527 0.291784865647747 0.433177751560121
0.031793837285108 0.298508565645753 0.44075184549338
0.0355252386402437 0.293645708723487 0.446621395146496
0.0325973762116344 0.297461373328639 0.461421518813658
0.033488130221237 0.296300520102365 0.46135290077464
0.030542677806918 0.300139108423201 0.476201667546246
0.0296901092692131 0.301250197373625 0.487965212356856
0.0352806726283922 0.293964433355465 0.50040990036669
0.0311090005273501 0.299401062284717 0.506984856708005
0.0344045278806183 0.295106247421047 0.515103338333233
0.0373495335757053 0.291268241276047 0.527904554855558
0.0372540803486539 0.291392638343461 0.543261342656257
0.0320012976324813 0.298238198057198 0.550541498602698
0.0324188620878922 0.29769401746411 0.552614046071243
0.0323815614298962 0.297742628628034 0.568353841010842
0.0288928958659165 0.30228914610837 0.57388133881716
0.0352635630817754 0.293986730950735 0.589758308393571
0.0315229445292528 0.298861599958503 0.602163456364594
0.033175641590367 0.296707763214838 0.608807693800588
0.0359104821286733 0.293143649634644 0.62505557800887
0.0351903575681506 0.294082134233523 0.631905527450582
0.0369604816115264 0.291775263667119 0.633233773123989
0.0294398266936796 0.30157637197644 0.648561467413055
0.0325062891427323 0.29758008030797 0.651635229838009
0.0297922770616977 0.301117049714172 0.657989075175069
0.0348997319920509 0.294460884858292 0.678309007247537
0.0303926297786367 0.300334654820803 0.684305723222947
0.0300829969254086 0.300738176211395 0.701221198955025
0.0364727947403344 0.292410829571659 0.713646511300909
0.0325564170349062 0.297514752367003 0.708454842419474
0.0299245654893768 0.300944648078687 0.71714972733909
0.036278877000356 0.292663548090642 0.733266440163875
0.0360853232751944 0.292915792216281 0.741455464769754
0.0314929444463764 0.298900696827695 0.751552692924792
0.0353106573509681 0.293925356504208 0.772298678516975
0.0327896760192404 0.297210763340174 0.777346303483723
0.0364705129264154 0.292413803289453 0.782583875880171
0.0294429872812381 0.301572253018541 0.785575750308942
0.0352607028358641 0.29399045849578 0.806007708263565
0.0299209677875559 0.300949336694984 0.810434631268744
0.0341838863806732 0.295393793022078 0.822930204111014
0.0338209927540272 0.295866725203966 0.835679612887954
0.0365490425588437 0.292311461479955 0.851083836543461
0.0338513314981668 0.295827186982823 0.849118717926616
0.0363814047821931 0.292529931283932 0.868978513370005
0.0317376554293128 0.298581783265719 0.871242840224595
0.0364439400446632 0.292448433743183 0.886897660714273
0.0334745784767475 0.296318181079629 0.891963659444119
0.0334723333968707 0.294499433602264 0.905996280140472
0.0336732189509699 0.293539146093702 0.9070083958939
0.0240209682829502 0.297848387713974 0.913731752355354
-0.000103090189785014 0.299932353783279 0.916547243173589
-0.343217161443923 0.334014032827276 0.685394753340787
-0.336184321963211 0.33941052036295 0.691674209715019
-0.340926144880214 0.335771991666518 0.700845442779543
-0.345525203109322 0.332243010168035 0.713492732585628
-0.349098647440329 0.329501009892813 0.729913502939145
-0.338884676142692 0.337338465723933 0.740660071818301
-0.348780511501237 0.329745124184725 0.746971950423276
-0.34370402273738 0.333640451017404 0.757634491977861
-0.337344232789981 0.33852048948192 0.772205323086317
-0.340406169603524 0.336170982729403 0.77621277914044
-0.342611734218611 0.334478593476515 0.795049190724495
-0.34897397252297 0.329596676321627 0.809067385951784
-0.341306228080963 0.335480343568904 0.819219073817177
-0.338885825786741 0.337337583571028 0.832177137323416
-0.34166407558257 0.33520575752334 0.84079142927989
-0.345596054381446 0.332188644074802 0.852209561246457
-0.348667421045429 0.329831901543549 0.854041134995463
-0.34972183885467 0.329022818301913 0.873969920566369
-0.343295976476995 0.333953555925341 0.880447859151148
-0.340309185676139 0.336245401114285 0.89291587888763
-0.342952617858059 0.337060179200275 0.908886051916054
-0.351056351254067 0.331477191540664 0.909533585692816
-0.352065258772163 0.338134252749788 0.915310373445748
-0.373853624399332 0.333105337473421 0.917912831459958
0.0230298756065128 0.30925224195044 0.0439166801223101
0.0262473031042641 0.30573694972156 0.0510729153426389
0.0219115879837256 0.311387363676056 0.0674269726464946
0.0229317230403513 0.310057897786537 0.0736454610466744
0.0241279976717864 0.308498882333965 0.0824608770391483
0.0208931394111018 0.312714631696833 0.0857459540967558
0.0254069132003949 0.306832167167361 0.113189081283357
0.0290924114290204 0.302029132364255 0.116173325982698
0.0259285224605935 0.306152392744761 0.128490091937461
0.0245054685988627 0.308006952644288 0.12825555604132
0.0289636440961734 0.302196945219615 0.152402737840919
0.0279986277342066 0.303454579027736 0.15607566743294
0.0224637045433316 0.310667831366812 0.160381971031248
0.022959128049291 0.310022182883543 0.174488733562012
0.0268183908843944 0.304992693636374 0.185889662294437
0.0239780665052227 0.30869427643441 0.194758396785459
0.0281985763677017 0.303194000895301 0.210240163248905
0.0269688894407054 0.304796560099214 0.220120954699224
0.0231259440846731 0.309804783993637 0.227601979889726
0.023178732002341 0.309735989439953 0.231660750353317
0.0209781497119524 0.312603844115812 0.236650264609034
0.0272193691682289 0.304470128562922 0.249830402061777
0.0274609459632139 0.304155299554209 0.263208418942141
0.0223550986642226 0.310809369304106 0.270410318502085
0.0223599517989656 0.310803044575772 0.274698320718787
0.0231809695217033 0.309733073447948 0.29534702761801
0.0229935697098664 0.309977297637599 0.295130179601453
0.0270593166603264 0.304678713052208 0.312049887333528
0.0210165923609398 0.312553744680253 0.320461247490472
0.0273401606778361 0.304312710002778 0.334017976256198
0.0279281685869618 0.303546403176175 0.342982060149324
0.0282411032577278 0.303138578773192 0.36143185644143
0.0218914388343614 0.31141362255875 0.362335108611006
0.0212112306692548 0.31230008709833 0.367281269061984
0.0275193167058541 0.304079229321369 0.382113024966857
0.0271985507557716 0.30449725964626 0.392645700807398
0.0286225485580044 0.30264146957952 0.405339444032155
0.0242773805497078 0.30830420277719 0.416470444874487
0.0272229006809869 0.304465526205893 0.416931723733163
0.0254313716316291 0.306800292319198 0.432074315015105
0.0262932097865845 0.305677122968378 0.441774464145261
0.0242141968430351 0.308386545386877 0.448258759405527
0.0269600723363718 0.304808050773297 0.456371008835987
0.022128809697397 0.311104274827269 0.468457971523591
0.0233690060568866 0.309488019464277 0.482040712421468
0.0287856108976537 0.302428962601134 0.494238912113083
0.0233950803657071 0.309454038763442 0.492079126549845
0.0229619732076143 0.310018475001028 0.50763148913943
0.0230600701601616 0.30989063256347 0.512215169507861
0.0209839704963904 0.312596258321844 0.528574717450157
0.0262221667950632 0.305769707997491 0.541444894376552
0.0283042351980363 0.303056303626745 0.559788695048147
0.0219799528108677 0.311298268898716 0.560766608380875
0.026097270165896 0.305932476453603 0.575404966715202
0.0277845974778761 0.303733508688343 0.586074262294913
0.0249673062827733 0.307405074056484 0.588176894722241
0.0242005422075899 0.308404340454245 0.603859091205982
0.0216846908023823 0.31168306183981 0.604530125801679
0.024024344678814 0.308633965544378 0.625081502450043
0.0279594837658941 0.303505592440436 0.630738899307484
0.0288665144995383 0.302323526974405 0.641759327889363
0.0256912111938289 0.306461662808871 0.650094324463045
0.023901613496778 0.308793911934847 0.661179562937674
0.0237081945247075 0.309045980446837 0.664322966849377
0.0241326899961315 0.308492767177821 0.67934218547802
0.027040956526882 0.304702640443962 0.692180885184845
0.0233158190506893 0.309557334120259 0.702446833320898
0.022525396017168 0.310587433472822 0.705153904608891
0.0288127997384473 0.302393529413954 0.723491893808731
0.020870083026161 0.312744679362695 0.722368244272162
0.0262114050728219 0.305783732946972 0.743065405674813
0.0245840121102994 0.307904592747314 0.746139912724294
0.0229671173082569 0.310011771078551 0.752468744139783
0.0241728177481349 0.308440471673256 0.763566287502409
0.0226816123730002 0.310383848354248 0.779852339591763
0.0206870501192136 0.312983212491095 0.781601629404136
0.0257080594957485 0.306439705674322 0.798836257210455
0.0221254599382473 0.311108640318387 0.8029307697148
0.0218534224471082 0.311463166479203 0.809312801732102
0.0229463273715313 0.310038865051591 0.831020249356396
0.0276544501666474 0.303903119966545 0.839522111286614
0.0287972233233349 0.302413828993348 0.855853620307583
0.0283747995388585 0.302964342387369 0.855247318734041
0.0217840754202405 0.311553541284148 0.869007620836315
0.0265612799181409 0.305327767171233 0.882549698427744
0.0229755112782801 0.310000831843837 0.887392604386632
0.0251056045826252 0.306946325250534 0.901505370971767
0.0212237200666218 0.31228381059879 0.897431527494582
0.0167279402034291 0.307965191096567 0.913449737899672
0.00848045419817615 0.313440739268458 0.915724605508666
-0.000628590526532055 0.308092269386024 0.917658568379244
-0.336389440980187 0.339253127005477 0.700586671850385
-0.335393491433639 0.340017345971209 0.714378763846403
-0.324195746543222 0.345724979570618 0.725243786223052
-0.319119017973357 0.347827829396742 0.739125527874822
-0.325483167833909 0.345191712211527 0.741842045383325
-0.326473777020121 0.344781388451587 0.760372412840524
-0.333379651976591 0.341562619336058 0.7743157184011
-0.334642791550983 0.340593378251043 0.771822745854569
-0.321395466901728 0.346884893376562 0.801233096797528
-0.334770073927299 0.340495711048601 0.80434921737009
-0.335629920689805 0.339835927422204 0.81563519955236
-0.328183272278103 0.344073292330918 0.817428894613538
-0.328055087116299 0.344126388363433 0.839280834456001
-0.33293848369628 0.341901139663781 0.840743777451286
-0.320918473758051 0.347082470405831 0.862921916599953
-0.331559285751588 0.342674901763446 0.867954539299461
-0.325762906086308 0.345075840833469 0.885532476961504
-0.334202292135528 0.34093138534071 0.884370453224075
-0.333274612749096 0.341687419563043 0.900498243900105
-0.338305955333456 0.344170547271404 0.912499595413933
-0.343534103449779 0.345741391041717 0.915761875729242
0.0122961007532279 0.322254319747682 0.0407148093821867
0.015284807696325 0.319595624715992 0.0462042916956818
0.0167143037061581 0.318160596416451 0.0539349224247429
0.0154603829355285 0.319794737780268 0.0663477996324166
0.0199974585933033 0.313881905664556 0.0779140250677388
0.0136099441629332 0.322206276539603 0.0892871880097808
0.0136430290651681 0.322163159455553 0.0927852491417281
0.0170253697134621 0.317755207303105 0.0971613101005185
0.0126893677693869 0.323405995053312 0.108862473645451
0.0136162944221346 0.322198000720688 0.124959443718782
0.0181894537879595 0.316238143401098 0.130232988831886
0.014693379927808 0.320794315560975 0.145458547323768
0.0199644116121041 0.313924973328951 0.165065988934488
0.0176779380932053 0.31690476363311 0.166314823906247
0.0129554928781355 0.323059174059241 0.179541268751768
0.0196119393787882 0.31438432408663 0.191589640095301
0.0178903614568005 0.316627928115888 0.197327263329112
