ply
format ascii 1.0
element vertex 843
property float x
property float y
property float z
end_header
0.102467510741967 -0.143591696818285 0.668626267048861
0.0994555567197613 -0.149187449784625 0.684319968575746
0.103280832076696 -0.144181510118371 0.694874647715354
0.103177471015259 -0.147694794873661 0.701604946920602
0.109884888531693 -0.140161042330879 0.707245829444876
0.112993096664144 -0.146704838666309 0.716225902523562
0.11835745938775 -0.148460559748329 0.721922753678032
0.128224915327676 -0.148004614540968 0.727765599703485
0.136754518426797 -0.144107433101668 0.730112582974859
0.151482427919727 -0.151174571951263 0.733003002103925
0.159443066023041 -0.142201269929101 0.732639911532555
-0.481781129428433 -0.11025241620015 0.472113128289137
-0.481852756433774 -0.110013796908254 0.479595512255826
-0.480931047995995 -0.113084390376562 0.484911166394605
-0.483147329828523 -0.105701035467408 0.505448896467717
-0.481514110241615 -0.111141967968741 0.501142330004036
-0.482017048662888 -0.109466471284518 0.514841062750114
-0.483240580577621 -0.105390378507616 0.525952294523297
-0.482991457748089 -0.106220310080132 0.53002379400236
-0.482349397360991 -0.10835927979124 0.53954552014495
-0.482054659791816 -0.109341172999196 0.546745698944108
-0.481515280559476 -0.111138069154073 0.559103730164983
-0.483131041385495 -0.105755299033545 0.568288409677013
-0.481001785795009 -0.11284873340011 0.570085802960685
-0.482936657364765 -0.106402872908244 0.576191942513279
-0.480909724391385 -0.113155428156351 0.584218775575909
-0.482745027218801 -0.107041272482782 0.59568398098715
-0.482880331065826 -0.106590519194777 0.604549684629559
-0.482117798359548 -0.109130832217091 0.617709992856391
-0.481593102653351 -0.110878811450283 0.627469633758435
-0.482811845455943 -0.106818673194198 0.63432297579029
-0.482323220074536 -0.108446487200338 0.639044295030446
-0.48096790552721 -0.112961602638086 0.649447075979302
-0.482545575507659 -0.107705728938177 0.656901764677307
-0.48245759331489 -0.107998834149513 0.667701070373555
-0.483163971418809 -0.105645595421144 0.681573544875039
-0.482691716373353 -0.107218873041824 0.686407606035482
-0.480816217273135 -0.11007444544367 0.694719820729541
-0.480364797185218 -0.109722974065686 0.698773268727601
-0.476931885626493 -0.113431318426864 0.70440842036464
-0.474687970850024 -0.111695320476062 0.710534906012185
-0.471521740075546 -0.111035397343734 0.71473613364034
-0.469252108949578 -0.10800441148637 0.718706501576236
-0.458489968530494 -0.110702223019533 0.726435893453319
-0.457913660307018 -0.108058532760668 0.727234511702727
-0.449607511139067 -0.112248265915487 0.730032078898324
-0.442446167563018 -0.109328878923703 0.732093316232276
-0.438142557335224 -0.112588431743647 0.732512788840443
-0.423643360280736 -0.115567254511332 0.732028163977441
0.108809871502724 -0.131808554121234 0.277526031289453
0.10828656528193 -0.132780777573426 0.282481728538475
0.109455749623974 -0.130608610700372 0.295566045200572
0.105471909541064 -0.138009980308615 0.309556844356294
0.108011014082613 -0.133292709837195 0.313063112016462
0.104840219746344 -0.139183563974416 0.333771091778088
0.104524609815946 -0.139769919274403 0.333578973905549
0.104754896457132 -0.139342081682584 0.356723537042017
0.10822520627989 -0.132894773276929 0.354984297787034
0.105667897420955 -0.137645864604264 0.370498922643981
0.109118961479042 -0.13123431190535 0.378541685072918
0.107878092442859 -0.133539658049041 0.388548257923425
0.104964044887689 -0.138953515674582 0.404657965097722
0.104860606595804 -0.139145688305499 0.418047717360127
0.106574673394574 -0.135961212611975 0.42179236938116
0.104862838297726 -0.13914154214239 0.432911743322304
0.108526646316816 -0.132334743486179 0.441242359740267
0.108282405856149 -0.132788505154583 0.447675684377994
0.107963136812728 -0.133381658530635 0.465578028846458
0.109556980011673 -0.130420540019987 0.471230643161022
0.104963191774863 -0.138955100628598 0.486931858193937
0.105715440605073 -0.137557536591419 0.496280275929719
0.10518174842163 -0.138549055584271 0.513326191929994
0.109596942300425 -0.130346296158966 0.510990386849433
0.105787149969462 -0.137424311487207 0.527224866223015
0.106190458002319 -0.136675026436847 0.532903117920467
0.107888517931833 -0.133520289074473 0.542480831716917
0.105350301939727 -0.138235908756025 0.551441274462203
0.107490697755624 -0.134259378520953 0.562719924592414
0.107463922620841 -0.134309122653427 0.571547322909675
0.10567514145174 -0.137632406295653 0.590299676036584
0.105521061954765 -0.137918662591695 0.6005132542968
0.104801106056488 -0.139256231267617 0.611151834511114
0.107788802720685 -0.133705544787031 0.621349760374949
0.108811387648821 -0.131805737352134 0.626497431035896
0.107375379301659 -0.134473622688058 0.641472933986047
0.105170218326355 -0.138570476749522 0.647053403358476
0.106178510895532 -0.136697222346131 0.65711758455545
0.105685818594441 -0.137612569786694 0.672144785756765
0.109078912406266 -0.131308716997904 0.677464323411753
0.106372439651402 -0.139012144868797 0.696943355379384
0.109084295889731 -0.133721924953095 0.696035719400478
0.111804327982836 -0.137780670904203 0.708603108719881
0.116224884044985 -0.138554497438181 0.714899672256089
0.120772901959559 -0.137001032399141 0.719161105282228
0.133784309343318 -0.132714687784381 0.726621755250282
0.133005163242164 -0.134689684587067 0.726813669159276
0.153334058472288 -0.134586058186807 0.732433426473122
0.174040125073129 -0.134931070724328 0.731043490580777
0.181180359611714 -0.138666972835134 0.727704283586278
-0.485227331129924 -0.0987716875864936 0.47753648311395
-0.483735558220839 -0.103741402480137 0.481579081531759
-0.484563192447653 -0.100984209264976 0.491179399909965
-0.483841112137499 -0.10338975856134 0.505659375640268
-0.484118060526585 -0.102467128497724 0.516466886269986
-0.484504062016794 -0.101181197279115 0.51405642450246
-0.48457984738355 -0.100928724758942 0.528026533851798
-0.484869225585383 -0.0999646858286269 0.528832170516936
-0.48489234516095 -0.0998876649239515 0.542607825432834
-0.483990239636748 -0.102892952948665 0.550507776777502
-0.485303126113993 -0.0985191830270512 0.562588319107505
-0.484756579968088 -0.100339955146473 0.569643882896289
-0.485897908740623 -0.0965377151641857 0.576788820986642
-0.484699313107158 -0.100530734835491 0.580075882959607
-0.484331326024151 -0.101756652584732 0.588580534536676
-0.484104866117912 -0.102511084550882 0.602424262074143
-0.484292161302731 -0.101887126531647 0.606114497070317
-0.485025497975611 -0.0994440776177834 0.614879030083604
-0.484826390643994 -0.100107386802009 0.632367584304951
-0.483963306523561 -0.102982678330407 0.634643214828494
-0.485006800946656 -0.0995063651836038 0.645419878517127
-0.485112221005204 -0.0991551672017491 0.650505846778618
-0.484371135215918 -0.10162403163953 0.663386225393828
-0.484641843486319 -0.10072219000194 0.669666211588226
-0.483535359953436 -0.104408346024384 0.679640022599716
-0.485395411572938 -0.0976138363235642 0.688614350312429
-0.48298833844024 -0.104355307202684 0.69140534170716
-0.482836311925817 -0.101985398778831 0.697689488752785
-0.47969163313992 -0.100304889676956 0.707139170084629
-0.474910077060789 -0.10314972135882 0.713460810773675
-0.473246660811136 -0.104557701718528 0.715010244864209
-0.469239808705447 -0.0994175961115693 0.72102255578256
-0.465124030182822 -0.0973837788756409 0.724497586354503
-0.460214217113714 -0.0982253970686369 0.727492927734814
-0.454829681466722 -0.103374565760957 0.729016593763528
-0.445192937833039 -0.0987663188326363 0.732146781537416
-0.4259963274617 -0.105187073893268 0.731931926437819
-0.412274690416921 -0.107141561095929 0.727501178698584
0.112609320692443 -0.124749754777989 0.27704158621272
0.114188868422076 -0.121815195077407 0.280128239326601
0.114310952073251 -0.121588382201723 0.293574055902049
0.111364104852344 -0.127063176622943 0.297693387297152
0.114060555211417 -0.122053581528153 0.313095338534998
0.113645357209955 -0.122824956333735 0.324041539219415
0.114849604839955 -0.120587647198836 0.333856164062269
0.114164860721342 -0.121859797737875 0.347990946818749
0.113425612106705 -0.123233209349644 0.353689839930308
0.112104433846125 -0.125687757830864 0.364323112019868
0.111928244785699 -0.126015090336688 0.36877294619755
0.110061261918365 -0.129483660853027 0.380279109312574
0.112718797448015 -0.124546363598966 0.400696152425565
0.113868250612615 -0.122410854255841 0.407845308005085
0.112383706720376 -0.125168911260501 0.410692919369728
0.110243971940196 -0.129144213391645 0.426868097493638
0.114749303834687 -0.120773991227866 0.43784174941379
0.112030317752072 -0.125825454273138 0.446754126466929
0.110953525289624 -0.127825971071022 0.464400731902998
0.115113633275301 -0.120097122479866 0.468133756961714
0.114992106278288 -0.12032290117669 0.473070972487951
0.110922850252502 -0.12788296062953 0.491963631697602
0.112009555278772 -0.125864027794082 0.499585946811058
0.112127771513357 -0.125644399990845 0.510224583624852
0.111820589048143 -0.126215098340905 0.520446187243187
0.114241253394893 -0.121717871756774 0.530816027703131
0.112342667958701 -0.125245155044667 0.54208517303516
0.11110741894911 -0.127540060032799 0.554069816497835
0.114591055284249 -0.121067992991837 0.557896879826876
0.111727677442923 -0.12638771398732 0.569852099744481
0.110224231212271 -0.129180888664915 0.586189656952855
0.11136599559319 -0.12705966391371 0.586439431473045
0.113683615230931 -0.122753878743312 0.600136606141396
0.110708966666409 -0.128280323837104 0.616736456159816
0.112994630127409 -0.12403390838798 0.625349219448252
0.111377705725745 -0.127037908266546 0.629635288587526
0.11111732837599 -0.127521649823198 0.638094442003467
0.111968379385719 -0.125940526347511 0.657756120754986
0.110179483177713 -0.129264023714545 0.666187406680724
0.111720642659073 -0.126400783546918 0.679367615104581
0.111295729287968 -0.127190208033237 0.68582163690619
0.11455139081665 -0.123157859165917 0.694569710365712
0.116835258459321 -0.119942252049778 0.698270342469362
0.122730968195324 -0.122391065239057 0.712380829103123
0.123323769195099 -0.128396817823561 0.716772665711194
0.133964764096683 -0.121959901733706 0.722830669820905
0.137161017586585 -0.128653864878893 0.727225707420238
0.157711068491039 -0.12288162249037 0.732210403048236
0.164703549741614 -0.121466501444443 0.732933034567727
0.179841110150457 -0.128307039177712 0.730227745499571
-0.486158068062856 -0.0956710164525059 0.482848962552619
-0.486158881356175 -0.0956683070348115 0.483967238109432
-0.48778756313082 -0.0902424918700678 0.499854971401115
-0.48794565988749 -0.0897158059371934 0.502155121619058
-0.487133413215736 -0.0924217368180574 0.515761910936134
-0.487058850472155 -0.0926701362728476 0.520983320329422
-0.487443857850794 -0.0913875168526018 0.530586262711524
-0.48707706631634 -0.0926094517332659 0.536674169279247
-0.48615269143391 -0.0956889282357209 0.551926363313585
-0.486720662494086 -0.0937967808319671 0.557207426637115
-0.487311025756615 -0.0918300357056874 0.566752221073586
-0.487561256982625 -0.090996411604337 0.566832911218596
-0.48712971631382 -0.0924340527331692 0.571837403696958
-0.486431412309334 -0.0947603932842319 0.591045644746973
-0.487395160847345 -0.0915497467884329 0.594583073202714
-0.488345440390647 -0.0883839711058798 0.605022062039332
-0.486755580941613 -0.0936804529862988 0.613766306378689
-0.487935580888444 -0.0897493832674703 0.629785526283385
-0.487507783334366 -0.0911745545271317 0.634213381504801
-0.487713891571949 -0.0904879224185974 0.63558949217055
-0.486592611331445 -0.0942233724172189 0.648798003561894
-0.485964278372205 -0.0963166103669678 0.647833832502495
-0.487065121553383 -0.0926492446977369 0.659458683137133
-0.487413212324212 -0.0914896098246308 0.673173878690022
-0.486244731411295 -0.0953823048591774 0.675986531075792
-0.486696829626099 -0.0938761780098306 0.681285058800334
-0.486778994066197 -0.0898181576691208 0.69557581088497
-0.485888396796034 -0.0912586789466855 0.698910671020657
-0.480948123693347 -0.0953673741052466 0.707661093364461
-0.476951107528595 -0.0929100846459152 0.714750316075991
-0.471842923043597 -0.0965201246814779 0.719748080189551
-0.469610406426256 -0.0911924344320799 0.722565399838027
-0.461416326880442 -0.090259481879342 0.727964860610534
-0.456993494557478 -0.0929923279620113 0.729394703266965
-0.45580878278915 -0.0905764046062673 0.730152749155048
-0.437670330118527 -0.0903933486167167 0.732844413113073
-0.435395646389325 -0.0959768679664046 0.732768891541117
0.120551357239776 -0.109994657508616 0.258040002133228
0.116985128121695 -0.116620169391941 0.2655339298584
0.117234394620091 -0.116157070109042 0.272475137552586
0.116427879554448 -0.117655452566972 0.288998770701561
0.115543633304868 -0.11929824775494 0.29486262098171
0.116786719939225 -0.116988781650764 0.31046514442751
0.117705586860755 -0.11528166651424 0.320621278961265
0.12090110900722 -0.109344871862577 0.320344154808186
0.120168475958856 -0.110705992757318 0.336599695218868
0.119902994301227 -0.111199217342499 0.342527871482165
0.119237223670351 -0.112436118023969 0.354047670826123
0.116393939009375 -0.117718508943123 0.369402090550741
0.119986479094854 -0.111044115279805 0.373437881113182
0.120319852593736 -0.1104247579684 0.397212741847131
0.117208857475023 -0.116204514244713 0.407211892619869
0.120359841976706 -0.110350463770438 0.414557364765775
0.116056163661583 -0.118346044221027 0.418221732434196
0.12086999687932 -0.109402673469342 0.427362780341258
0.118951626889284 -0.112966713452403 0.443616291511407
0.120316770625823 -0.110430483796537 0.449164617442511
0.120698670729546 -0.109720971425998 0.461190301459259
0.118948336437036 -0.11297282661276 0.474715207178363
0.116604536665519 -0.117327250494161 0.485272911172672
0.119462594044847 -0.112017414108732 0.495694042235769
0.116998868783493 -0.116594641329941 0.509421068638869
0.119023678136956 -0.112832853180993 0.512939970218453
0.119475908407518 -0.111992678045744 0.526047398135052
0.116993097854166 -0.116605362839851 0.538302473902384
0.11780411845165 -0.115098609788288 0.549529476326088
0.115571105534838 -0.119247208525519 0.566705285323204
0.115516837572093 -0.119348030155355 0.566108356730941
0.117446052347112 -0.115763842209447 0.584107707810307
0.117901176525742 -0.11491829063268 0.583032194826847
0.117260697282827 -0.116108203757848 0.597630608272349
0.118621868746655 -0.113579353981171 0.613730272721644
0.120280682100211 -0.110497530794185 0.615951866218921
0.118111882879062 -0.114526830240881 0.627857028528771
0.115489769671465 -0.119398318202288 0.638299941125125
0.116328647797162 -0.117839810095706 0.654459998031856
0.117495190894665 -0.115672550253724 0.662812533510135
0.120545273439507 -0.110005960285202 0.663956607470455
0.119838672960354 -0.111318716621484 0.686774320530122
0.119789294721916 -0.112801595541681 0.692318533876679
0.12164792784376 -0.111589855868239 0.699556260311676
0.123274219080854 -0.114514528569767 0.706363030348021
0.126047838287752 -0.115536900744552 0.71195325359281
0.135614759648393 -0.109798499379633 0.719390602446608
0.139897522188624 -0.116250319388644 0.724763621747387
0.15735918084904 -0.112095855791101 0.731343817090874
0.172565852164254 -0.119059156310499 0.732562626561367
0.183968448041031 -0.118210811456963 0.730514074697654
-0.490456247647885 -0.0813519957964823 0.482327687435634
-0.48937219258884 -0.0849634332610306 0.495061139966218
-0.489093891114924 -0.0858905710119732 0.494053298938199
-0.488870362054044 -0.0866352391154443 0.50511425876561
-0.489704276194173 -0.0838571249018271 0.519368726196912
-0.489728639012038 -0.0837759622409005 0.52736418679053
-0.48985305350575 -0.0833614859096735 0.537449665156192
-0.489521558167301 -0.0844658345076604 0.540953874729229
-0.489481839764157 -0.0845981529982652 0.550448709669495
-0.490959056302838 -0.079676931417745 0.558367330880137
-0.48947885817501 -0.0846080859095672 0.558217835519907
-0.490420386729306 -0.0814714634045062 0.578592085392874
-0.489029545806019 -0.0861049319499232 0.583290430796373
-0.489975063501184 -0.0829550199604716 0.587309820013246
-0.488999698875298 -0.0862043644675865 0.60156883238588
-0.489884128654923 -0.0832579616864304 0.609225213422663
-0.490987434008957 -0.0795823934972031 0.612774850767799
-0.488886819759549 -0.0865804116657247 0.615677987298494
-0.489549873381293 -0.0843715047743349 0.634175394359031
-0.489178291155267 -0.0856093994375584 0.641886837502515
-0.489494646555484 -0.0845554882594103 0.646228905024187
-0.489116826488202 -0.0858141637615956 0.659304037973947
-0.488542396595854 -0.0877278282168045 0.663124956541327
-0.490654392361884 -0.0806918934911915 0.675403579528776
-0.489545283942863 -0.0843867940991262 0.682613766697004
-0.490193449434249 -0.0822274857510066 0.686178764812858
-0.487035179351326 -0.0843063280277663 0.701260540043352
-0.488385662977882 -0.08273267454445 0.699229181316097
-0.484600962248368 -0.0834525519951548 0.707484509157215
-0.479977467144021 -0.0844909811275141 0.714126967596076
-0.475098066955412 -0.0835927035416639 0.720207848246521
-0.469644838572314 -0.0877018882438005 0.723310462044248
-0.465965616509117 -0.085860256942177 0.726422094802531
-0.461255186516805 -0.0875116605089639 0.728356190845803
-0.451688696362008 -0.0834670025209644 0.731906677041987
-0.441124191790439 -0.089387758861129 0.733015191847871
-0.429150589559907 -0.0859593403703246 0.731601743272739
-0.408841304627027 -0.088567327737293 0.721313263069147
0.125500157309199 -0.100800538852043 0.257042107574107
0.12430407231982 -0.103022683040823 0.268658352806407
0.12119500655719 -0.108798854866659 0.280386661963727
0.122050481762016 -0.107209511908651 0.290327344084077
0.12267205049064 -0.10605473164596 0.296848178279079
0.124454945722662 -0.102742383180575 0.315504192168945
0.1222585408 -0.106822969826538 0.323304810632666
0.12099689838673 -0.109166909748752 0.329999389948591
0.121649226638527 -0.107954982965305 0.351068126783756
0.125498512284794 -0.100803595057456 0.348783589020146
0.123909100726523 -0.103756480253036 0.36984986567781
0.124858705796603 -0.101992258306559 0.376575353777412
0.126120905673082 -0.0996472827024002 0.39095996035666
0.126210869657092 -0.0994801432883596 0.397525761376773
0.125601359801051 -0.100612519997902 0.407580779159684
0.12133612895868 -0.108536670885452 0.422532471687812
0.123184726228159 -0.105102258016601 0.430240420130197
0.124896354116346 -0.101922313448396 0.438684009639076
0.123494160899397 -0.104527375409925 0.446740835398811
0.125650989343056 -0.100520315849085 0.45245844840741
0.121311684324255 -0.108582085302335 0.468947874618641
0.121005381714538 -0.109151149014559 0.479741969449244
0.12181070130538 -0.107654987567178 0.492375632235108
0.12166752514442 -0.107920987121451 0.506100264910908
0.123734988999194 -0.104079953389575 0.511685696952997
0.122257276208463 -0.106825319245486 0.523367379528123
0.122853423559091 -0.105717768040832 0.528330266448936
0.120958081587249 -0.10923902546474 0.540678015628081
0.121158925408186 -0.108865888159692 0.553803406525788
0.122015466962553 -0.107274564086246 0.569210374263627
0.125693867334265 -0.100440655055881 0.57231743021616
0.125574281306257 -0.100662827727187 0.577400803492016
0.122040539715335 -0.107227982720887 0.591394188289359
0.12452329902208 -0.102615393135189 0.603084743934818
0.122285991599882 -0.106771970410966 0.617420126241221
0.124959645551888 -0.101804727577042 0.623585993090232
0.124044766352603 -0.103504434131492 0.635957210862338
0.124689375651651 -0.10230684798951 0.645633926284025
0.12304446227448 -0.105362847132198 0.658567624597921
0.121516993635326 -0.10820065179506 0.666967276878233
0.122815504728822 -0.105788215466455 0.680488823476158
0.124856836296196 -0.102991628931727 0.690894987835318
0.128248887864125 -0.102288484527227 0.702947250115558
0.129585674882789 -0.104693907718094 0.708543899756761
0.133345273805823 -0.105064647160792 0.713859803340339
0.13777753489392 -0.106667725249793 0.719844007953113
0.142341629795976 -0.100631163557626 0.721418269915527
0.153093633078228 -0.105922190754607 0.728822570106528
0.173001137460064 -0.108695403952904 0.732926519857591
0.179386344024279 -0.108636916819954 0.732109817278838
-0.491618169095877 -0.0774811530628677 0.480474594522786
-0.491368430459115 -0.0783131361449315 0.493341534788182
-0.492567489659471 -0.0743185721398588 0.494403532026201
-0.493449564639675 -0.0713800141732017 0.506823536476244
-0.492803290482498 -0.0735330217018559 0.512333099471932
-0.492767711138427 -0.0736515512682945 0.528265598554436
-0.491545848196548 -0.0777220840037186 0.532195467954228
-0.493564794292976 -0.0709961363586182 0.543833826036052
-0.493492739064251 -0.0712361822403819 0.550489922440425
-0.491049912958988 -0.0793742501755107 0.557223560708885
-0.491304955410473 -0.0785245978846427 0.568167831038256
-0.493005129991061 -0.0728606105019201 0.572972696288443
-0.492511773735352 -0.0745041850144593 0.580805815375098
-0.492511512117499 -0.0745050565721427 0.597375086075324
-0.492594535138066 -0.0742284724222952 0.600612289352303
-0.493265600387294 -0.0719928754736004 0.60932427618253
-0.493176098832022 -0.0722910423122177 0.614041514325534
-0.491519287875667 -0.0778105674595149 0.628456316840558
-0.491203172257865 -0.0788636798228914 0.635615155156844
-0.491428760560725 -0.0781121515294548 0.642196799630935
-0.492155489390939 -0.0756911160828672 0.656618770925095
-0.492880270509754 -0.0732765692715707 0.664389016121684
-0.492796832059883 -0.0735545373889026 0.660320130484465
-0.492647582933191 -0.0740517481930884 0.678612783549586
-0.493267254398361 -0.0719873652760454 0.682320733198544
-0.492294238861093 -0.073670757311201 0.690712191356148
-0.489432529284416 -0.0793342357862182 0.699167305561048
-0.487900376901568 -0.0735114491781252 0.706754966650765
-0.485444175488198 -0.0767996285438318 0.710153642533215
-0.479193512449949 -0.0776284792795549 0.717678302150044
-0.477249171758322 -0.0771947048409793 0.720038297769469
-0.470875052020415 -0.0767223188475976 0.724829176680352
-0.461991094592116 -0.0720348276235856 0.729908005007229
-0.457762646379018 -0.0764140450635734 0.731064548800104
-0.447386829706655 -0.0797365122104445 0.732590620815799
-0.446278011190208 -0.0730279392489714 0.732984531319924
-0.430144169963618 -0.0736646068859294 0.730605196110636
-0.417968730611994 -0.0781070939319902 0.725715655188043
0.128206371243417 -0.0924291528834972 0.254475879893466
0.128489470113497 -0.09123078279908 0.273848779807103
0.126821647169337 -0.0982907513599592 0.278541764663135
0.128358928235367 -0.091783372364242 0.283866622985852
0.127035521400885 -0.097385412243478 0.302071672635725
0.128462581387408 -0.0913446039702656 0.309403421404932
0.128582573385936 -0.0908366725137889 0.319731109527576
0.127973042722747 -0.0934168428694495 0.332071127216853
0.129037712229848 -0.0889100495829225 0.341632473983268
0.127247107653186 -0.0964897582447211 0.350453622388738
0.129063445180043 -0.0888011208624039 0.353813260463245
0.127265583327209 -0.096411549896407 0.370801518990012
0.127251232974855 -0.0964722955749643 0.389351186409173
0.126798634290058 -0.0983881658995342 0.399496437425543
0.127031406427186 -0.0974028311098176 0.400221110709511
0.128395984344862 -0.0916265122077466 0.415557538555479
0.126900831724539 -0.0979555596226187 0.426376260005581
0.127375812324245 -0.0959449456586486 0.440717674119917
0.127824393335339 -0.0940460823252108 0.441390242641294
0.128353766561303 -0.0918052219596931 0.457666753996557
0.127893371645532 -0.0937540940760729 0.465623656992031
0.128710656981735 -0.0902944889668678 0.471831874645397
0.126904330693529 -0.0979407483315551 0.485087138567588
0.126792765762253 -0.0983990687325894 0.492913474639739
0.126555044791466 -0.0988407181793057 0.511436723372575
0.128442781114088 -0.0914284194062054 0.51698035854156
0.126668926748058 -0.0986291428060715 0.530225868858746
0.126824733787035 -0.0982776855702241 0.531808327858939
0.126905912899683 -0.0979340507826646 0.548421405751603
0.128426090188397 -0.0914990728356006 0.554899262514699
0.129112916966481 -0.0885917045942517 0.569029355317517
0.12787965694126 -0.0938121490280773 0.579898810513043
0.126616363597596 -0.0987267971536982 0.591003730583112
0.127725885308131 -0.0944630711773652 0.599664446857311
0.128820527168264 -0.0898294035899161 0.609795376907635
0.127011516852085 -0.0974870245641633 0.624149357653913
0.12905530135081 -0.0888355940530687 0.631829560246617
0.12888726237771 -0.0895469104858117 0.644924166287769
0.128254333893666 -0.0922261248558273 0.649389870215914
0.127648501424225 -0.0947906405931761 0.659713635905643
0.128658404035483 -0.0905156780079723 0.67247683057942
0.128311984612293 -0.0940702105217257 0.690956246564404
0.127945132647515 -0.093848949371118 0.687856601614716
0.130617840076571 -0.0987705984618206 0.704587739567214
0.13295283116249 -0.0976513399378332 0.709454821034202
0.140169249666196 -0.0929851885208786 0.717564241225081
0.14795714773956 -0.0909403058333582 0.723903274671518
0.154930448444675 -0.0894024184911204 0.727989455584166
0.163232567462867 -0.0959266313781775 0.731691892391571
0.171802119247765 -0.100000207077445 0.732913715386486
0.185480878440216 -0.0970887426800555 0.731678298463517
-0.49452825711808 -0.0677864416911292 0.484518843791277
-0.494267522904119 -0.0686550556058276 0.50064198092255
-0.495494053194159 -0.0645689739959524 0.509142743766232
-0.495266835856297 -0.0653259292812999 0.505728410526079
-0.494240065238238 -0.0687465284903706 0.51947459231844
-0.495794245542044 -0.0635689086554728 0.528899263166285
-0.49377216335883 -0.070305303907658 0.539340852968133
-0.494957530848217 -0.066356352676156 0.541845748807343
-0.495392855376237 -0.064906105941351 0.546131084047875
-0.493755107483716 -0.0703621241086811 0.564676541156905
-0.495546502742589 -0.0643942427748625 0.572007390036849
-0.494135941995416 -0.069093406240646 0.57602226387279
-0.494268319536167 -0.0686524016937427 0.583285762075082
-0.494775455105451 -0.0669629225669788 0.59094586233346
-0.494023109964483 -0.0694692965797119 0.602534480340657
-0.495532649705025 -0.0644403929942964 0.609842402001028
-0.495369654210608 -0.0649833986563985 0.623119457522201
-0.494386328848716 -0.0682592636801798 0.630075151567782
-0.494802910776624 -0.0668714563276396 0.641988672838323
-0.494358397538054 -0.0683523144721299 0.643514662356117
-0.495945664340092 -0.0630644697752291 0.658354305892478
-0.494271862151185 -0.0686405997723419 0.666259296338429
-0.495744315766943 -0.063735245465481 0.672847500206027
-0.495630945738551 -0.0641129280974456 0.678257844821088
-0.493593294658638 -0.0690482519303217 0.691356279461867
-0.492537888969893 -0.0701800009557043 0.696565254517436
-0.490497138457614 -0.0673150620880909 0.705050573447718
-0.490369315126264 -0.0692779929346598 0.703983221303614
-0.487120154273781 -0.0698206682900278 0.710706542251783
-0.483217924924914 -0.0671246503115289 0.7165900716941
-0.475530687238021 -0.0695133020733111 0.72299714588772
-0.471917299697955 -0.0650198027065229 0.726645652103627
-0.462887533137931 -0.0671561078170561 0.730133453430226
-0.463885144022135 -0.0682301106210602 0.729609543648347
-0.452414572660971 -0.0694288925303156 0.732346686945808
-0.441767237225842 -0.0644577341020721 0.732379138375904
-0.428589026412403 -0.065623267469303 0.729029917401974
0.13104606987704 -0.080408582507042 0.243596506748753
0.129272474904714 -0.087916288758591 0.253638447553947
0.129944015193347 -0.0850736289056908 0.272155036998318
0.129487777325355 -0.087004904054281 0.276330513023471
0.129911681475169 -0.0852104989701013 0.293181885863273
0.131450414377905 -0.0786969742851628 0.299913586420197
0.1294003512874 -0.0873749823539731 0.313908163317526
0.130546376590497 -0.0825238063714378 0.312031128074816
0.131262193842657 -0.0794937201663795 0.331139993512392
0.13152319067249 -0.0783889089994852 0.338461253329568
0.129605361773988 -0.086507163863392 0.349357886833769
0.131288486873594 -0.0793824205992145 0.350512713629043
0.12909272387593 -0.088677182842973 0.376320246203098
0.129650423545241 -0.0863164153852885 0.388367137004697
0.129840608366354 -0.0855113545948057 0.400410229769952
0.130337726689816 -0.0834070306634399 0.404868583699853
0.130006862295653 -0.0848075943317123 0.415413889929589
0.129150631552719 -0.0884320570764767 0.432945054428278
0.129680710949692 -0.0861882074577279 0.430841788632256
0.129448976268813 -0.0871691506490909 0.4415350332612
0.130997204963942 -0.0806154298534041 0.455308063212974
0.130978460688205 -0.0806947752046994 0.469472462563873
0.130260219789322 -0.0837351208139284 0.483660782494546
0.130470936192505 -0.0828431489250995 0.481687012736116
0.130985437663313 -0.080665241359341 0.488730773628586
0.129559333484528 -0.0867020036559748 0.515477420745532
0.129169889503941 -0.0883505373140537 0.520062596454298
0.130941516059204 -0.0808511634593132 0.531126645935922
0.130914138142729 -0.0809670553951146 0.544552026447091
0.13007618238233 -0.0845141593275418 0.546391045651203
0.1306573999664 -0.0820538394926713 0.561668595483313
0.129045377745602 -0.0888776011144452 0.56237656177959
0.130884474969819 -0.0810926209228546 0.571046124369806
0.129407810128087 -0.0873434087502344 0.590483517114144
0.130576441880011 -0.0823965386662631 0.596974082082786
0.130110081353585 -0.0843706634773671 0.606401305515207
0.13153480332131 -0.0783397521415153 0.623063667902257
0.129865608007938 -0.0854055300021929 0.63362466350126
0.129409218618552 -0.0873374465475654 0.635853213995862
0.131081654976471 -0.0802579492014518 0.651183375119824
0.131162320760508 -0.0799164873566971 0.661468157373626
0.12947159403445 -0.0870734086430917 0.674123103674693
0.129922467915317 -0.0851648394901238 0.681417476265306
0.132340195464239 -0.0814424072581197 0.698685070846037
0.131729305917525 -0.0841021113598677 0.698813974845701
0.140280922710734 -0.0856728709678591 0.715514032410535
0.139758271183544 -0.0884758108878619 0.715691047945613
0.147101736357494 -0.0836903067284365 0.721984616818211
0.157170229235656 -0.0857203623605158 0.728541950010964
0.15899090619859 -0.0884481428618185 0.729536108733594
0.174306879462025 -0.0848208809546317 0.732775130279908
0.198229820565428 -0.0864120978817014 0.727792081181262
-0.497140496078994 -0.0585837483201389 0.487639938503085
-0.49716518490898 -0.0577559504857569 0.502448837630088
-0.49629778714525 -0.0618914025218099 0.50496501361351
-0.497157306286561 -0.058020114748701 0.511269681979835
-0.497269371200152 -0.0542626627823334 0.523841851991574
-0.497206092560294 -0.0563843478142076 0.531477589644881
-0.497221639421193 -0.055863073302983 0.546681189789093
-0.497168930721492 -0.0576303562195541 0.550824435234023
-0.497244097307999 -0.055110077309526 0.552937586596346
-0.497165972766487 -0.0577295342182394 0.565119709897729
-0.497247117288879 -0.055008819630133 0.569120508936657
-0.497146196545987 -0.0583926159645444 0.579190397995617
-0.497170406065067 -0.0575808890630696 0.59521579199344
-0.497157494777342 -0.0580137947950814 0.591629364075607
-0.497146636255637 -0.0583778728318776 0.605533509785394
-0.496260052138293 -0.0620171134962775 0.611240622525964
-0.496359903536348 -0.0616844670344469 0.618462086116229
-0.497253866391622 -0.054782527309334 0.634815306571737
-0.496925855205841 -0.0597990470594369 0.640818414880922
-0.497262260013361 -0.0545010955079173 0.647558748655156
-0.496135988728528 -0.0624304202211231 0.659372365926079
-0.49717181472972 -0.0575336576005175 0.663678731728385
-0.496817850887822 -0.0601588542824884 0.669056165326314
-0.497221934887491 -0.0558531665410274 0.677751980216244
-0.497019805781096 -0.0559854069897479 0.688813442626221
-0.495081951611127 -0.0548085144691754 0.700639596156846
-0.49396089213274 -0.0560599038722555 0.7032559690894
-0.493651427286695 -0.0585273692573011 0.703825417868987
-0.487699483999215 -0.0579079990182729 0.714448485091846
-0.482655989332699 -0.0626159850378393 0.718981837612244
-0.482378677582953 -0.0606385728665265 0.719920798853885
-0.47279911931281 -0.0558114193459268 0.727551120529333
-0.465433890614482 -0.0630296666294648 0.729614419552318
-0.462441771614856 -0.0603815122095071 0.731117497134896
-0.456985030966795 -0.0598254030350953 0.732133776456654
-0.445320892902191 -0.0608809214861994 0.732691990357712
0.132863800686318 -0.0727140472983887 0.236498957511159
0.132374675352725 -0.0747845365488134 0.24165244538041
0.132556257156857 -0.0740158927111157 0.250003717168134
0.133089772232086 -0.071757499713791 0.264525045657092
0.132086722134936 -0.0760034553025781 0.272892942754281
0.132468605978187 -0.0743869240414531 0.287523911058334
0.131988149279061 -0.076420718577359 0.291470261787517
0.132913520807478 -0.0725035798183352 0.310612688150485
0.131744977747324 -0.0774500744661052 0.315914988915786
0.132661741033295 -0.0735693747794981 0.32761122511512
0.131828262823902 -0.077097525039748 0.338800212274371
0.131658129618381 -0.0778177064512954 0.349025665281261
0.132979436495711 -0.0722245557839038 0.363817805827659
0.133285984814827 -0.0709269231407511 0.362318664926421
0.131732421872519 -0.0775032240415377 0.374563590157172
0.131858766723301 -0.0769684006794576 0.393580578682748
0.132199348015765 -0.075526704949322 0.399490817872891
0.132197904930884 -0.0755328135916861 0.414873599663947
0.133177294995779 -0.0713870119697539 0.421516909311475
0.131880983909846 -0.0768743543425465 0.440370196454599
0.131791490695624 -0.077253183091146 0.442330347599709
0.132036526403613 -0.0762159360615663 0.454313299107308
0.131850123936136 -0.0770049859811993 0.463593869491566
0.133954170523001 -0.0680984633758478 0.46863471199324
0.131888985780222 -0.0768404820700245 0.484271136950603
0.132436554256531 -0.0745226004020662 0.492611484233221
0.132414690772338 -0.0746151495012208 0.504935665663524
0.133127039281926 -0.071599746637455 0.514431563840358
0.132065760409099 -0.0760921872185816 0.52907186507563
0.133599174208376 -0.0696011785347067 0.532686386815987
0.133590108008769 -0.0696395561601107 0.546972488973041
0.133750038158314 -0.0689625647374413 0.55794917666761
0.133104624543856 -0.0716946292187422 0.566273463522513
0.133052108686467 -0.0719169311743612 0.576663286736296
0.133564301199969 -0.0697487975273817 0.583023895993258
0.133667482849139 -0.0693120250259896 0.594255053110765
0.132040901575185 -0.0761974157660748 0.609336142032038
0.133436551243796 -0.0702895687629536 0.614066713424756
0.132730484196848 -0.0732783819165231 0.635492723190195
0.133937439902866 -0.0681692848335895 0.637701111835148
0.132804490270051 -0.072965110923366 0.654036425150557
0.132904624630979 -0.0725412377283747 0.663392765626268
0.133540034923234 -0.0698515177540303 0.67128829018756
0.1323130145347 -0.0757871200094837 0.688603678195567
0.132654599250156 -0.0745268781296458 0.688928117802647
0.135044127468276 -0.0708493933300183 0.699487616630718
0.141230040390177 -0.0766803861099417 0.714022799812316
0.14040526552038 -0.0707095821643035 0.711186478254684
0.151120990219921 -0.0716237806670461 0.722857756502815
0.158211331699633 -0.0784854053549607 0.728272523774049
0.161329716223766 -0.0709540277909429 0.728812618084751
0.182127827918502 -0.072995548491597 0.732837679165063
0.197272351527822 -0.0705617341782895 0.729688345254094
-0.497471877369396 -0.047472783778789 0.485169542654009
-0.497490034435438 -0.0468639910593082 0.492333003713844
-0.497431752161986 -0.0488181516968162 0.504755792254819
-0.497353254852356 -0.0514501072391371 0.5141126203131
-0.497499459764199 -0.0465479669001697 0.523955104029022
-0.497413999646194 -0.0494133801517837 0.530519313661062
-0.497391430078283 -0.0501701207283616 0.540048073596883
-0.497352290942676 -0.0514824264031527 0.547688725526284
-0.497281553369763 -0.0538542038303384 0.553968704257688
-0.49741171522788 -0.0494899749735844 0.564415027312955
-0.497501356206849 -0.0464843806095475 0.57748929418865
-0.497415990868098 -0.049346615984306 0.575002755865243
-0.497308630418151 -0.0529463308355943 0.588246611560005
-0.497386987623998 -0.050319072867395 0.602751828447068
-0.497306262929313 -0.0530257109493618 0.602867037782058
-0.497401799059103 -0.0498224566279517 0.610976159689002
-0.49727167173016 -0.0541855277476359 0.62350733108906
-0.497326352986638 -0.0523521064911578 0.631415980301555
-0.497295333889096 -0.0533921534186209 0.641433153305816
-0.497387042025237 -0.0503172488348895 0.646652583172162
-0.497414638886775 -0.0493919468975842 0.655653538906082
-0.497271374217496 -0.0541955031226728 0.661055924204678
-0.497393556262712 -0.0500988313693129 0.67217837451596
-0.497312610662556 -0.0528128762449825 0.6749243928713
-0.497272301916597 -0.0474366201790587 0.688832196149947
-0.496341582904517 -0.0509370942246685 0.69510870746179
-0.494221173310275 -0.0542313873956791 0.702759253811627
-0.492953891376956 -0.0476689879894882 0.706291256919538
-0.486992144132796 -0.0475081391669716 0.715874202372985
-0.484260237367727 -0.0541857506475735 0.719174945057354
-0.476684943398405 -0.0541924624937847 0.725206753539049
-0.472952678947872 -0.0485975608896365 0.727642372910713
-0.471559006914652 -0.0546770346821521 0.728144546169932
-0.457644425269205 -0.0512209489780322 0.732324894087918
-0.450228306829799 -0.0535955795909697 0.733035188912821
-0.428719611775703 -0.0498658731731687 0.72720442347166
0.135507641777612 -0.0615225505931486 0.233405014590228
0.13425859648628 -0.0668098147591647 0.241330795709404
0.135610702111604 -0.0610862916242922 0.249600082720665
0.135654916175442 -0.0608991315293066 0.259104384827673
0.134799380282672 -0.0645206529424845 0.270801680031973
0.13522843593323 -0.0627044413269678 0.287054640094664
0.134751687690053 -0.0647225378042161 0.289264764323121
0.134863091587407 -0.0642509601612538 0.297268836881198
0.134577168420008 -0.0654612856216022 0.318937507438313
0.134175739786063 -0.0671605508493721 0.32421974556846
0.135526279343162 -0.0614436569508146 0.335644046876565
0.136380096247316 -0.0578294120927636 0.341889485956201
0.135885704712002 -0.0599221934088509 0.359621377701412
0.135036268098025 -0.0635178963041331 0.365507138294213
0.135428283448422 -0.0618584779234964 0.372475478544854
0.136263675811393 -0.0583222249661802 0.393963637344769
0.134861118304425 -0.0642593131557166 0.395884610373019
0.136066674273671 -0.0591561412206791 0.404059777065173
0.135458189983663 -0.0617318822322065 0.419105489386639
0.13497513207304 -0.0637766878118567 0.429582302879525
0.134736208858813 -0.0647880603839898 0.439859186107785
0.134362252934157 -0.066371032413769 0.44471285337562
0.136072696564623 -0.0591306485957349 0.459088336063687
0.13536649088374 -0.0621200485929053 0.471483128166208
0.135620911210192 -0.0610430760567673 0.485433445610539
0.1356967883471 -0.0607218847678844 0.488275087142951
0.136043284461152 -0.059255151335393 0.502532513053222
0.136324378955158 -0.058065265863877 0.51277051399019
0.134450193087909 -0.0659987778390846 0.52637687033068
0.135144840739576 -0.063058303492671 0.532155858983602
0.135334322311843 -0.0622562195857781 0.538001739984292
0.134078856667672 -0.0675706613903688 0.558464299689687
0.136169051953134 -0.0587227719587467 0.565711154018696
0.13569292716702 -0.0607382293145669 0.572022636034524
0.134027644700179 -0.0677874439221737 0.580987496660638
0.13592869361814 -0.0597402194607992 0.595533092093912
0.135864190933152 -0.0600132621897642 0.601942764522272
0.136248048159626 -0.0583883775098532 0.613417306477805
0.136480668750797 -0.0574036842208968 0.628196880819095
0.136271574722706 -0.0582887885239395 0.638317450666444
0.136236179335966 -0.0584386187672884 0.648446385530998
0.134730699722906 -0.0648113808008496 0.658296459216409
0.136143580914997 -0.0588305919938958 0.668321385015701
0.13526630310881 -0.0625441478917325 0.679890151209519
0.134467375252499 -0.0679078388634247 0.690770477311795
0.135453977637857 -0.0657059529662185 0.694220039203235
0.138918729078766 -0.066843004466714 0.706370478514594
0.14182653296199 -0.064423928558224 0.711105734448611
0.152464770547365 -0.0649803267283615 0.722689174986169
0.161232163756677 -0.058695320454869 0.727605345455252
0.167757980098465 -0.0651156976639831 0.73084887929192
0.180204037993499 -0.0689605636165311 0.733050770873893
0.186180543571505 -0.0683788961865904 0.732457989736394
-0.497638040681207 -0.0419014533534353 0.48712016648878
-0.497712970063203 -0.0393891277316756 0.503674143223871
-0.497566819173209 -0.0442894567587971 0.503398855317401
-0.497718848189804 -0.039192038583523 0.514783343680236
-0.497756552441729 -0.0379278434755274 0.52440638014683
-0.497695584850506 -0.0399720407910629 0.529616896850893
-0.497667139487105 -0.0409257923554196 0.537527239862623
-0.49752123282478 -0.0458179326131159 0.549406316297801
-0.49770142096416 -0.03977636030536 0.559483351216968
-0.497713935686861 -0.0393567510992449 0.563773884396407
-0.497679817868089 -0.040500695810619 0.572728975976168
-0.497729189359708 -0.0388453069621203 0.585411370264319
-0.497589553271119 -0.0435271996154935 0.585440416862596
-0.497550167772362 -0.044847765660734 0.595755060193673
-0.497601769755575 -0.0431175901126872 0.601627724771946
-0.497579361360391 -0.0438689266893849 0.61207047335073
-0.497621972006329 -0.0424402238934885 0.629410739389842
-0.497554812930324 -0.0446920170204542 0.628490040714273
-0.497686734832206 -0.0402687752246705 0.643271350763796
-0.497705075329629 -0.0396538321894407 0.650004960663243
-0.497690653765857 -0.040137376337369 0.658754554857778
-0.497752533526094 -0.0380625946833205 0.665451372216486
-0.497627868778252 -0.0422425095817839 0.669893480358826
-0.497660442416987 -0.0411503400614999 0.679538308801031
-0.497079156324363 -0.0394632339457766 0.692105582745472
-0.494833695653584 -0.0398254495544796 0.702317767950626
-0.495796234494772 -0.0436899086272469 0.699715740135619
-0.493217776188002 -0.0387321792082852 0.706297661623557
-0.489695979446897 -0.045320870983357 0.712435511023501
-0.483852211104855 -0.0405009819887701 0.720020449298996
-0.482043281309335 -0.0435897979694343 0.721337801456023
-0.471894487940605 -0.038122359492766 0.728210098512083
-0.470059242585947 -0.0452451278134294 0.728882288778722
-0.459834447856572 -0.0439275927637558 0.732065209489488
-0.454092674861502 -0.0408517687051459 0.732833205460356
-0.44618959611854 -0.0416762459523256 0.73238680387707
-0.429019223865492 -0.0394482054617298 0.727005909131745
0.138412598307679 -0.0492257406441094 0.241284623734918
0.137714861764835 -0.052179290403993 0.24644869835484
0.136955241632587 -0.055394796144969 0.261974471956945
0.136598370237138 -0.056905448604193 0.269604668863308
0.137813777147636 -0.0517605771975289 0.28225200341853
0.13831059350954 -0.0496575314828423 0.293037516242595
0.138103974970948 -0.0505321569289444 0.30430472146172
0.137735033241768 -0.0520939036466829 0.31964618418619
0.137151077250277 -0.0545658152817257 0.321440073048544
0.136713923782691 -0.056416305316198 0.34141297876666
0.138016395973054 -0.0509028827148489 0.346280686748911
0.138658349149859 -0.0481854664197538 0.351859261488165
0.137452542295223 -0.0532897003637869 0.369343870029452
0.138779007389723 -0.047674714734132 0.36754800265893
0.138747989131036 -0.0478060164001193 0.383282949489504
0.138707006415191 -0.0479794980556014 0.399102606858711
0.138877898898883 -0.047256102585849 0.406845871066158
0.137514408748603 -0.053027816920241 0.413909771753095
0.138386338138437 -0.0493369011062538 0.423869621152302
0.136792143143173 -0.0560851992909538 0.443624448146268
0.138630261016156 -0.0483043647366097 0.448664603248422
0.137713696386296 -0.0521842235030828 0.454981175692944
0.136704332649939 -0.0564569050069105 0.462886966732232
0.137275144257602 -0.0540406341321145 0.480636008934781
0.136476022171571 -0.0574233533970326 0.491693938369384
0.137030123685752 -0.0550778170897483 0.498674241388437
0.13822130779313 -0.0500354818839899 0.510556883294293
0.136540700165542 -0.0571495685773602 0.524479492301665
0.137979216569231 -0.0510602647817087 0.531249536595191
0.137845141741302 -0.0516278094802003 0.543972258909934
0.138863557154729 -0.0473168118255139 0.557280905571705
0.136898355616782 -0.0556355971751641 0.560586829034765
0.137881857608944 -0.0514723895825765 0.578510225065834
0.136947808970483 -0.0554262589336111 0.586801664201938
0.1374290238127 -0.0533892551443416 0.594336253987538
0.138430069256282 -0.0491517853431008 0.602820753346524
0.137700972730495 -0.05223808330292 0.613092038144927
0.137416215034078 -0.0534434752728568 0.632826139294817
0.137890509764522 -0.0514357646239258 0.630539729150773
0.137880824745558 -0.0514767617391412 0.648668492601223
0.137408337671289 -0.053476820499236 0.658334272521751
0.138534929095157 -0.0487079089901877 0.667275747524953
0.137671467978522 -0.0523629782277996 0.680953845120612
0.138990662675154 -0.0495241747710753 0.692104587431065
0.139684978472199 -0.0477540676864173 0.69414688634851
0.144570595830674 -0.052803461934955 0.711104317598069
0.14672183265497 -0.0547556443674656 0.714419154309487
0.149480281185083 -0.0566916477835446 0.718499619394636
0.164411724237761 -0.0550518220713925 0.728540523720894
0.164613246191601 -0.0513860298556045 0.728272544042523
0.17959988567485 -0.0577322458170576 0.732633318987913
0.188498447492459 -0.054404598032824 0.732584036589494
-0.497945085299537 -0.031606479057452 0.490393337933794
-0.497981483738692 -0.0303860668660107 0.500419882149744
-0.497861867137037 -0.0343967212331751 0.512018165947172
-0.49776878711788 -0.0375176240189039 0.512364069471428
-0.497827091273963 -0.0355627296732878 0.51779213764751
-0.497810201866531 -0.036129018756401 0.528934362516961
-0.49797304631213 -0.0306689674101005 0.537608332389091
-0.497891734115701 -0.0333953039820812 0.54563877868447
-0.497970713744537 -0.0307471766408602 0.558937480798268
-0.497989323413449 -0.0301232084887951 0.568025189657716
-0.497773433803577 -0.0373618241548119 0.576061793209366
-0.497933494863407 -0.0319950976324444 0.586158358368783
-0.497861382749013 -0.0344129623979801 0.59020854549887
-0.497817721522212 -0.0358768903772563 0.592327774222791
-0.497944648610036 -0.0316211209267725 0.604426373165227
-0.497909682114521 -0.0327935211287785 0.614812554822806
-0.497780318887922 -0.0371309724735701 0.622620949978328
-0.497924035686001 -0.0323122567110745 0.63159323404904
-0.497859220172081 -0.0344854719702141 0.643440789871015
-0.497889509298274 -0.0334699004311355 0.65065245128568
-0.497881084110588 -0.0337523906149285 0.653568724539939
-0.497811686975698 -0.0360792241669924 0.665416800643393
-0.497786698042672 -0.0369170842297588 0.674194009850126
-0.497881674079928 -0.0337326093882569 0.679535946824251
-0.497622393962335 -0.0325514080981999 0.689545096270085
-0.49708653927024 -0.0304880980911896 0.694082741394478
-0.493292510725342 -0.0359891417313428 0.706314744016243
-0.492468662841582 -0.0346128654837902 0.70840278506967
-0.486344466296643 -0.0342610544068901 0.717233164468684
-0.484811592138466 -0.0296002318400459 0.719412003299777
-0.480690215878922 -0.0298994451198613 0.72268935297172
-0.474984535836008 -0.0370473097055638 0.726903894195453
-0.469571053179782 -0.0298923864641869 0.729274168135477
-0.465242471311838 -0.0326596643479232 0.731032939055731
-0.454653619593749 -0.0310386782774775 0.732797886760415
