ply
format ascii 1.0
element vertex 855
property float x
property float y
property float z
end_header
-0.134824162703648 0.219713390542831 0.591942662205604
-0.129529352126565 0.226613722031279 0.597124125767102
-0.133190386495895 0.22184256915032 0.612343112095598
-0.134615920328804 0.219984777289428 0.619875149384509
-0.135396754873323 0.218967173899019 0.623588684229052
-0.131539618738619 0.223993891576272 0.6418117247421
-0.133991429625851 0.220798629418621 0.639196085120864
-0.133701567919702 0.22117638454869 0.657258655239111
-0.130620503692312 0.22519170562518 0.668289792177829
-0.12928330309279 0.226934379375057 0.678457898978412
-0.132805712443232 0.222343886136024 0.675750360046385
-0.132908995225461 0.222209285393647 0.68791607512589
-0.132149110305435 0.223199586701864 0.705658941778592
-0.131844611933305 0.223596416706413 0.713702751406135
-0.12889555581933 0.22743970146008 0.719589586769588
-0.132356011408021 0.222929947935304 0.722260967469044
-0.132873854079938 0.222255082226123 0.739733232313426
-0.132377162829994 0.222902382865518 0.750971701424095
-0.129908194657271 0.226120004832951 0.757841878352095
-0.134487839564589 0.220151695391126 0.76629963585846
-0.131919862323706 0.223498348488326 0.772192199048525
-0.134875086694842 0.21964702510542 0.784533302745072
-0.131004314675757 0.224691513413179 0.792278001407762
-0.127662442469813 0.224793874144346 0.803750110703507
-0.127587473798464 0.225045593881009 0.803580753917516
-0.121709056010571 0.221951332258903 0.810566156626679
-0.124175316439591 0.213114662652916 0.812895183094722
-0.106549782466897 0.202783478409752 0.816379826517304
-0.101509393507965 0.198143180591282 0.814021588078448
0.0661498776715706 0.0421062923186855 0.651749903851266
0.0701052526877214 0.0342835969459312 0.651749903851266
0.0793982558069437 0.0227874702141196 0.651749903851266
0.0855324979103936 0.0181027277459273 0.651749903851266
0.0944197912744699 0.0116728883168095 0.651749903851266
0.10774248199618 -0.00989558341761554 0.651749903851266
0.120814414680704 -0.0195789899532658 0.651749903851266
0.126426903690656 -0.020573102504216 0.651749903851266
0.128416679273008 -0.0297470545562529 0.651749903851266
0.136505945325845 -0.0351226618436767 0.651749903851266
0.153913422728606 -0.0473459980097331 0.651749903851266
0.158356289509939 -0.0574594135104112 0.651749903851266
0.174347714038468 -0.0743322985259593 0.651749903851266
0.180954434526736 -0.0805048695030185 0.651749903851266
0.196109138843254 -0.0943024061683281 0.651749903851266
0.205619249817751 -0.103155286803202 0.651749903851266
0.22060325137973 -0.110972063169296 0.651749903851266
0.217453774776285 -0.119916712932582 0.651749903851266
0.239991895187789 -0.13100068094598 0.651749903851266
0.24448039804017 -0.136528974371877 0.651749903851266
0.253554101484617 -0.151622920508902 0.651749903851266
0.275621459057924 -0.162263078710486 0.651749903851266
0.27819573738453 -0.165919953645561 0.651749903851266
0.293735367632257 -0.193421667639536 0.651749903851266
0.303401868427073 -0.196627887758058 0.651749903851266
0.324220004332123 -0.211412630294602 0.651749903851266
0.337542255774955 -0.219831005637876 0.651749903851266
0.340265991769236 -0.226430803544012 0.651749903851266
0.334734096875109 -0.230809870298319 0.659871231432593
0.33766401869359 -0.228561662214329 0.676297232327289
0.335043106010843 -0.230572759248939 0.689139281041117
0.341956796178935 -0.225267698196433 0.692152523133121
0.338163659005754 -0.228178274718524 0.714344647933941
0.342562956585138 -0.224802574957709 0.725060531907935
0.341013679456956 -0.225991377110022 0.729771826535213
0.342634700792703 -0.224747523691013 0.749457393254164
0.338811045953226 -0.227681517242062 0.756219967221541
0.341462074732778 -0.225647311313601 0.764798936111783
0.34304035213517 -0.224436256468228 0.776058545279725
0.338484812297987 -0.227931845130114 0.786259631671131
0.340062896920004 -0.226720938210324 0.79909170010269
0.346303404244978 -0.230817081932689 0.808954741832656
0.34767496585054 -0.238644135953202 0.813755241513933
0.361602642807382 -0.250497486014932 0.816451826693108
-0.125900758445929 0.231342597383619 0.247400650388137
-0.127879875477408 0.22876336185237 0.25216112521771
-0.126177139512333 0.230982410565308 0.260609751904081
-0.125431190807179 0.231954549844702 0.270836829458517
-0.127294197515809 0.22952663223224 0.271140876666277
-0.129403134667881 0.22677821182593 0.289167857459099
-0.124780107000594 0.232803058781292 0.299227945586727
-0.126184310593188 0.230973065030786 0.307780856049372
-0.123138423308817 0.234942542622596 0.320872814451007
-0.125221806032222 0.232227425396114 0.326389080953945
-0.127459930671518 0.2293106445786 0.329714323228539
-0.125463319130615 0.231912679398413 0.343316152471279
-0.128080749494026 0.228501577737169 0.356990974266653
-0.126031297565139 0.231172475491315 0.362704293263116
-0.124323707596494 0.233397850064863 0.369587778704382
-0.12608240338494 0.231105873090251 0.381197046497504
-0.125357525460562 0.232050552393513 0.396638879582228
-0.123641575944336 0.234286821341575 0.397025853372737
-0.123712256888428 0.234194708141858 0.408554480696343
-0.12959889230403 0.226523095507575 0.417784021130157
-0.126334254138398 0.230777654798175 0.430946420272317
-0.126457205332947 0.230617421681817 0.434824580000184
-0.126690168992208 0.230313817530118 0.44476876495357
-0.12850466185292 0.227949124395197 0.459067032705857
-0.123147812932601 0.234930305826639 0.464065763932225
-0.125638970779004 0.231683765713452 0.474045967921693
-0.127254049812617 0.229578953737702 0.476369504308766
-0.128781259135791 0.227588655798101 0.491259593551199
-0.125358260506466 0.23204959446304 0.498570836752413
-0.126795633140208 0.230176373976519 0.502448902584811
-0.126286278033762 0.230840178475027 0.520741771364314
-0.126506259418572 0.230553493152789 0.534686344225789
-0.128489928897984 0.227968324755886 0.538584482374363
-0.127207508517822 0.229639607533964 0.543374809901076
-0.124467919554483 0.233209909382145 0.559220318687981
-0.126010037097506 0.231200182672173 0.563491471788547
-0.126461593320857 0.230611703144637 0.570373208646347
-0.125071236063058 0.232423652000316 0.585170046707889
-0.125440082800711 0.231942961573117 0.587597186359178
-0.123247881915969 0.234799893388479 0.601846959956199
-0.127973745440851 0.228641028134263 0.612980707647984
-0.127159143655382 0.22970263784985 0.623748275271581
-0.124807145641426 0.232767821338511 0.635659372721181
-0.130257820945605 0.225664362982981 0.639032987425124
-0.123910991685538 0.233935711911798 0.649529058840245
-0.124479450246339 0.233194882291952 0.6515839485752
-0.127831964076244 0.228825801206016 0.671424299714024
-0.127307400923724 0.229509425216038 0.670110978760901
-0.127036530259706 0.229862430738145 0.679045043166978
-0.127383374503859 0.22941041451874 0.692568604739578
-0.127800066578387 0.228867370834553 0.702724132315039
-0.126275868429931 0.23085374453486 0.711569648475112
-0.126373305122374 0.230726762565022 0.724385159535733
-0.127617192565275 0.229105696888474 0.733159536946667
-0.128802699442131 0.227560714246876 0.738974480340711
-0.12629067278491 0.230834451123822 0.745725654397264
-0.125859751623662 0.231396038514856 0.755228836954808
-0.127517727639359 0.229235322103636 0.764890272719406
-0.128356955500986 0.228141619060767 0.773843029800603
-0.123424817515992 0.23456930642517 0.781837023915311
-0.126039719131356 0.231161500292542 0.793050556279036
-0.127592783924753 0.225362986421858 0.803224144022326
-0.120773925508315 0.230248612032546 0.806421927119036
-0.12117030301685 0.219926289496411 0.811907894841417
-0.113516053763668 0.223386619815202 0.814059291119943
-0.107462581080612 0.204681284769265 0.816560927660316
0.0547594095537432 0.051360793855829 0.651749903851266
0.062250027116811 0.0431874428813138 0.651749903851266
0.0734458847743568 0.0436811204669771 0.651749903851266
0.0803492998492627 0.0334686312468932 0.651749903851266
0.0941307542244678 0.0202241835316344 0.651749903851266
0.0982733425625994 0.0141229223082907 0.651749903851266
0.118674139796724 0.00497665223585446 0.651749903851266
0.12474071877705 -0.00504473353027402 0.651749903851266
0.135386866954896 -0.0158944796327429 0.651749903851266
0.139253265462875 -0.0304455085254808 0.651749903851266
0.15515359572 -0.0326599429056642 0.651749903851266
0.158795915505218 -0.0488572079766272 0.651749903851266
0.171065024569191 -0.0549383742490928 0.651749903851266
0.187658602836533 -0.0641628550041871 0.651749903851266
0.196156405944404 -0.0784080401564125 0.651749903851266
0.203080727784627 -0.0881115373189938 0.651749903851266
0.206364179857383 -0.0862235297695672 0.651749903851266
0.222863084609872 -0.10064872953315 0.651749903851266
0.225826878263697 -0.105954502962611 0.651749903851266
0.241194971254367 -0.120688523543763 0.651749903851266
0.259145697948332 -0.131262908404929 0.651749903851266
0.260088830891552 -0.144997018216435 0.651749903851266
0.272647852782725 -0.155364339685612 0.651749903851266
0.284056384597543 -0.159232365071434 0.651749903851266
0.306327572817872 -0.180409369656958 0.651749903851266
0.304316817634699 -0.18335521927392 0.651749903851266
0.331726052912492 -0.198407955491167 0.651749903851266
0.329815486008591 -0.206762958492132 0.651749903851266
0.35013266149381 -0.214742022790909 0.651749903851266
0.348885164056586 -0.21995137454126 0.66891416532566
0.352063465246988 -0.217512578261938 0.668995104459318
0.351237812746131 -0.218146123708539 0.679158641851171
0.342775823309653 -0.224639236575145 0.699891780010675
0.344099243477716 -0.223623740563754 0.714776162181892
0.347350711649125 -0.221128801285276 0.7275644022264
0.348696000426076 -0.220096524900095 0.7353524411828
0.352798189667329 -0.216948804385482 0.741036470920021
0.345229785230874 -0.222756245365518 0.75291250099122
0.348709613790853 -0.220086078997904 0.764461293460178
0.348299673462693 -0.220400637275163 0.776258030415966
0.350944294405678 -0.218371348252634 0.784207842228682
0.35269212281253 -0.218233573583856 0.800798189288944
0.352286139193998 -0.227741961103326 0.809926502776198
0.36087625831734 -0.235641380714974 0.815877005332342
0.375566933642667 -0.247639686730758 0.814735910020354
-0.120194537882405 0.238779088805036 0.238671801127588
-0.119371171667464 0.239852120547489 0.248808616248025
-0.124014960340438 0.233800217322752 0.26173852610167
-0.122812227039719 0.235367649877011 0.276800298446644
-0.120092824085905 0.238911644805403 0.278297655367317
-0.119880144955867 0.239188813643942 0.284592294943337
-0.121630340829541 0.236907913973927 0.295296238271622
-0.123724941999787 0.234178176582878 0.306833601768716
-0.122642988101646 0.23558820635518 0.32566576909963
-0.12156134211431 0.236997834850309 0.328468302156983
-0.121434694391681 0.237162885375852 0.331035355680191
-0.119947628820928 0.239100866958738 0.345102871531598
-0.123249977701274 0.234797162107893 0.356640149647482
-0.118884277249352 0.240486653707069 0.363704604818882
-0.123490128717873 0.234484191209748 0.370291992043545
-0.121209183004956 0.237456777536898 0.382002463122173
-0.12165321235563 0.236878107220812 0.389415473214764
-0.119880352315889 0.239188543407101 0.402269116071499
-0.124041276571867 0.233765921342235 0.405628058484
-0.120475928216247 0.238412373782302 0.423847446139876
-0.118676113781384 0.240757937620223 0.431219241657365
-0.12186763058285 0.2365986719467 0.43745871043872
-0.11941087689332 0.239800375689719 0.447794815040153
-0.121636218635037 0.236900253868668 0.449097192496757
-0.121301517753561 0.23733644454972 0.471642759935687
-0.120332262190286 0.238599602992549 0.471506877397483
-0.121435466391381 0.237161879286256 0.479995789143818
-0.12112713594642 0.237563703345348 0.50048779508882
-0.12205667201934 0.236352308350147 0.500148556010538
-0.121825407830271 0.236653697709171 0.510281706080048
-0.123491887539084 0.23448189906932 0.515720852345568
-0.123183957127266 0.234883201795071 0.525379109962578
-0.120384181665138 0.238531940215578 0.54133984719155
-0.120680207590038 0.238146151719229 0.549930064446023
-0.119795097167916 0.239299650079105 0.562770636373078
-0.120612847915605 0.238233936556056 0.564412407791076
-0.119513687168873 0.239666390730029 0.574126670609238
-0.121229893344066 0.23742978729749 0.589217406021759
-0.117759766442407 0.241952144722714 0.595944094853282
-0.11948817275885 0.239699641756544 0.603363184247255
-0.122660804634547 0.235564987397449 0.608325794585172
-0.1222869205606 0.236052242609117 0.624780629562086
-0.12086283899101 0.237908141843604 0.623392544303878
-0.120093151039672 0.238911218710959 0.645765589064015
-0.120922583926514 0.237830280727755 0.652271741544848
-0.121128228773738 0.23756227914506 0.647536597246872
-0.120129847013096 0.238863395587311 0.671450069069111
-0.118198953011933 0.241379785641896 0.675445899066219
-0.120664599807489 0.238166492177461 0.678052184999336
-0.120631826750743 0.238209202856557 0.696754848801449
-0.12183188193081 0.236645260497083 0.706135372944213
-0.119592664444995 0.239563465539909 0.706641162813391
-0.122160146436164 0.236217457864702 0.718611043662978
-0.122308848105414 0.236023666076351 0.735380811535021
-0.120647521490549 0.238188749073421 0.738824030419631
-0.122188489759514 0.236180520126561 0.752133894676278
-0.121650878599873 0.236881148630529 0.759707860211586
-0.122628682892699 0.235606849266444 0.765606351818159
-0.121332088890277 0.237296603468675 0.777801901616638
-0.120276408980839 0.238672392312254 0.78137098715432
-0.121399955657939 0.237208157775085 0.785582874415243
-0.120665029389411 0.238165932335399 0.798602441604871
-0.115630858384399 0.238161280664833 0.805543855562881
-0.11262974601417 0.23216963689704 0.811360270915571
-0.106190301786089 0.228724455041886 0.815121008110044
-0.100423905645784 0.222391336063703 0.816791434206808
-0.0912388293734812 0.209240053752096 0.813285715785303
0.0686220940862207 0.0609171414331012 0.651749903851266
0.0795041906352898 0.053379371602459 0.651749903851266
0.0806749629687547 0.0432210738887185 0.651749903851266
0.102332858560665 0.0267522680916651 0.651749903851266
0.105943323127795 0.0201983606854171 0.651749903851266
0.124719779034236 0.00912882457391124 0.651749903851266
0.123663131443225 0.0014567509069453 0.651749903851266
0.140403983268953 -0.000133948211196912 0.651749903851266
0.146739631988791 -0.0143785173139736 0.651749903851266
0.158400559990444 -0.0232953440486012 0.651749903851266
0.166998761302577 -0.0290820173346604 0.651749903851266
0.174840128580836 -0.0426392305758106 0.651749903851266
0.190697638394951 -0.0567366288484283 0.651749903851266
0.19972896245616 -0.0731103076159304 0.651749903851266
0.207426645439975 -0.0691927878320608 0.651749903851266
0.216858532331925 -0.081179293253011 0.651749903851266
0.228122455535569 -0.0906972185362585 0.651749903851266
0.247323487787527 -0.113627823461643 0.651749903851266
0.248565742480746 -0.115706855344017 0.651749903851266
0.265399965426863 -0.129577677417188 0.651749903851266
0.273965494458041 -0.136445770535357 0.651749903851266
0.289208055341992 -0.153758568671643 0.651749903851266
0.293487838454349 -0.155961041642687 0.651749903851266
0.317791566240014 -0.168997994550077 0.651749903851266
0.326271399159225 -0.179163625876664 0.651749903851266
0.341160215560035 -0.195236054340337 0.651749903851266
0.348760738880921 -0.206796003188123 0.651749903851266
0.355586018902713 -0.214809627775293 0.652324391778436
0.357025826465559 -0.213570120681969 0.671494938445167
0.356961901940414 -0.213653428745085 0.669770821655588
0.359779468008937 -0.209981505154927 0.680817591141792
0.359676202407693 -0.21011608350661 0.697000010783129
0.355972507118039 -0.214513064937138 0.702506029949086
0.359697237676832 -0.210088669810143 0.722868170158849
0.359089954193826 -0.210880097053704 0.728897489163752
0.357277526112244 -0.213242099316075 0.750100419904346
0.354782338038738 -0.215426313791944 0.755433918901619
0.360737725705062 -0.208732679411615 0.763340855983256
0.359743652448014 -0.210028180902664 0.773136027101097
0.361587220017093 -0.207625596870093 0.790097597009023
0.361652347486797 -0.210043550633913 0.801825810344034
0.366546850795138 -0.214952805673406 0.810043035923652
0.366233632957296 -0.218518219699798 0.81159636046529
0.378459010064804 -0.232190577204597 0.816806864802666
0.381431093175063 -0.234890185159031 0.816416182672345
-0.115423457248574 0.244996882142921 0.243580428886043
-0.113931445297475 0.246941309974177 0.255362898574721
-0.112652564961245 0.24860797927718 0.260582390543933
-0.114840260862289 0.245756918470878 0.277841510024946
-0.115361112880208 0.24507813090563 0.280217282112565
-0.117450073250443 0.242355744748278 0.288093265762938
-0.117610426038504 0.242146768926271 0.303021271618041
-0.117183788809282 0.242702773388392 0.310696306078071
-0.117770446103229 0.241938226717757 0.317255859335945
-0.116721445634191 0.24330531074513 0.331639126542085
-0.115440018516304 0.24497529907861 0.339167378125834
-0.116165402788953 0.244029959889433 0.345205050479436
-0.112564600432622 0.248722616882791 0.355732794813794
-0.117615992170436 0.242139515001908 0.368478843925806
-0.115333067949245 0.245114679771241 0.370834585495804
-0.118951993107559 0.240398404682507 0.37826613132146
-0.115334030357829 0.245113425535954 0.393682861664243
-0.117882071235106 0.241792754013647 0.398003620364577
-0.115569564823257 0.24480647104443 0.409443082074263
-0.114960925711041 0.245599664978373 0.419219234252981
-0.113611353437588 0.247358461807621 0.429335754551076
-0.11503046914287 0.2455090342135 0.441485173180504
-0.115330037535225 0.245118629083681 0.449888168267844
-0.113608049377802 0.247362767742168 0.453374497420763
-0.11472442564711 0.245907877862367 0.464539285727524
-0.116713466026939 0.243315709971766 0.476826021222523
-0.114738884361421 0.245889034899018 0.487106435514262
-0.117592246045794 0.242170461554047 0.494194168742097
-0.114559067714909 0.246123376515213 0.503026992889132
-0.116848897426404 0.243139212335705 0.504410322438057
-0.114353128654771 0.246391761523643 0.52800049696597
-0.116317878667072 0.243831249456321 0.525148746367607
-0.115742231251097 0.24458144777463 0.540763177492237
-0.113668580554447 0.247283881976917 0.545079102158195
-0.11888372081282 0.240487378869275 0.557593670991271
-0.116147765295817 0.244052945517999 0.561501920183928
-0.116498031323366 0.243596469943654 0.578278439204956
-0.118044155442794 0.241581521761652 0.589379589887574
-0.114329020932823 0.246423179318568 0.593501925711276
-0.113240416746574 0.24784187591507 0.603483265792606
-0.114829078366723 0.245771491782831 0.607472260120488
-0.113280675445617 0.247789409757 0.620107535713472
-0.11439691374252 0.246334699686337 0.627238426823976
-0.116634482878583 0.243418642814732 0.637869832245853
-0.115898227869374 0.244378149023614 0.653105595537275
-0.114040192025498 0.246799588479004 0.658780202430836
-0.115300000108216 0.245157774620695 0.669023913125025
-0.116557929614081 0.243518408971405 0.675326694968684
-0.1128192236592 0.248390785433402 0.683480969712117
-0.115062347614889 0.245467489379917 0.691919415700591
-0.117577489207711 0.242189693039862 0.701785948763704
-0.114966803540562 0.245592004841805 0.714261262818506
-0.114625847732811 0.246036347101485 0.717996276140254
-0.118108073059499 0.241498222701791 0.727421098504698
-0.1169671778153 0.242985066331786 0.735534573228937
-0.114458279769066 0.246254725923512 0.752282866243648
-0.115880629557969 0.244401083589556 0.755166457291837
-0.117226447098741 0.242647180023206 0.770816946694622
-0.113517947241031 0.247480191132956 0.771836049586901
-0.113984580421489 0.246872062932373 0.78351243647782
-0.113360199809743 0.247562640986267 0.799209126380336
-0.111863214171518 0.241592993086838 0.806616600240094
-0.112394657091122 0.241183394619703 0.806411255103418
-0.104316466159296 0.241225477806035 0.812177877862373
-0.103107898247242 0.229935193093238 0.81563428461625
-0.0980562226176648 0.228375570147748 0.816619145784343
0.0700680358967449 0.064402621424599 0.651749903851266
0.0822434469808998 0.0639438462057087 0.651749903851266
0.088050321728921 0.0528031585785669 0.651749903851266
0.102503269658542 0.0377269126454718 0.651749903851266
0.112341631459848 0.0410747947572064 0.651749903851266
0.11962615766886 0.0293461755504047 0.651749903851266
0.129393045473659 0.0130349790470866 0.651749903851266
0.130057468643718 0.00945856632911397 0.651749903851266
0.141943139944584 0.00311468372830154 0.651749903851266
0.153965104362044 -0.0097357331745205 0.651749903851266
0.162344760777767 -0.0177543593426804 0.651749903851266
0.180164373055556 -0.0365058869301911 0.651749903851266
0.180145004441581 -0.0383561471831038 0.651749903851266
0.203772806651674 -0.0513961151549234 0.651749903851266
0.203669274427616 -0.0511507864331208 0.651749903851266
0.214657927298515 -0.0696340498844988 0.651749903851266
0.23095064045486 -0.0775930255295334 0.651749903851266
0.234989164838097 -0.0809764296803516 0.651749903851266
0.245993857480062 -0.0890643673799269 0.651749903851266
0.263573224169422 -0.112358065743582 0.651749903851266
0.274276241809623 -0.112845772827062 0.651749903851266
0.279922153533994 -0.128062727991968 0.651749903851266
0.293063507066572 -0.143860815076851 0.651749903851266
0.309118773644281 -0.147975866410053 0.651749903851266
0.312117314232088 -0.150441238022375 0.651749903851266
0.331037818840711 -0.173436336408162 0.651749903851266
0.34550296624837 -0.186846643416785 0.651749903851266
0.347132899852975 -0.190204228694775 0.651749903851266
0.362671529034562 -0.199514460602047 0.651749903851266
0.363750271783249 -0.204806652925665 0.670598544600089
0.3663595330992 -0.201406197374343 0.678696890263819
0.364573217882872 -0.203734168688155 0.682183559437959
0.362584043019128 -0.206326511841607 0.698683081336655
0.365863665602161 -0.202052424478053 0.706021211223579
0.366420390435308 -0.201326886549803 0.720448880802117
0.366852343694191 -0.200763954102945 0.734227662663412
0.367749101931612 -0.199595276014633 0.742800062876182
0.364763371129587 -0.203486356152309 0.756537738253752
0.361449680398224 -0.207804841991173 0.769791019636439
0.361395090461115 -0.207875984982315 0.772814407584437
0.360798260960182 -0.208653788331193 0.792791961726565
0.367257946881561 -0.200235361737858 0.795357454460456
0.367944248069068 -0.205718012274534 0.805407253085486
0.373979248040324 -0.206348913617389 0.810575467064089
0.377831554783805 -0.224018218192373 0.816518571289645
-0.107410814389696 0.254240527468868 0.248569510877684
-0.107845983959451 0.253906610113648 0.251372068037698
-0.113203407445199 0.247890107375652 0.263247484240086
-0.105136252409603 0.255985860262025 0.272717445390263
-0.109035731435661 0.252993684766271 0.288277547174795
-0.106225539566867 0.255150020828597 0.289349250387145
-0.110776993133288 0.251052272071961 0.301780404103852
-0.109334290236518 0.252764592540874 0.315624484627195
-0.109768546563448 0.25243137594152 0.324068660625255
-0.109486414536244 0.252647863460167 0.335171375613085
-0.105424156114194 0.255764943979553 0.333285910891147
-0.111948770979931 0.249525181450883 0.345848023592232
-0.112764843408347 0.248461655156094 0.352997914862581
-0.113232888824572 0.247851686494027 0.361935720619658
-0.111864147527201 0.249635464881619 0.375992626242015
-0.111089126637262 0.250645491769869 0.385820738565594
-0.106043170370093 0.255289957635058 0.391494471924941
-0.112787467343532 0.248432171069728 0.397151416353322
-0.107298404884906 0.254326782315598 0.415918973362721
-0.110020694169592 0.252037900070905 0.413935726699768
-0.111022395967193 0.25073245687225 0.425482506655831
-0.111167300185719 0.250543614018034 0.439830264413327
-0.112096233666961 0.249333004335598 0.447231574306062
-0.110960051853579 0.250813705302959 0.459848366133521
-0.110975628960892 0.250793404821474 0.466977045047573
-0.111353129677812 0.250301436308917 0.475166074585648
-0.113008466886902 0.248144158857421 0.479721008498747
-0.111367636100215 0.250282531171173 0.493753110539764
-0.113164179826195 0.247941229804055 0.503376010024587
-0.108784505615127 0.253186457118444 0.50578777076412
-0.110573026297811 0.251318086827174 0.522996962458223
-0.110935602070771 0.250845568880276 0.537288216850515
-0.110408638490656 0.251532321188444 0.547981483731645
-0.110171083335681 0.251841909093858 0.539184373707395
-0.106662562418369 0.254814681400275 0.559490351123286
-0.107985737462878 0.253799373478802 0.568558721664622
-0.108591585200608 0.253334490159036 0.582860895009009
-0.112873714710635 0.248319771312578 0.584076987972298
-0.110221698288522 0.25177594640307 0.598635468450759
-0.109910442957904 0.252181582247364 0.605667862380717
-0.110168132380523 0.251845754853494 0.614921183007031
-0.110340880941806 0.251620624545308 0.624942468841906
-0.111200948274032 0.250499762975599 0.631564204847802
-0.110602301577875 0.251279934539399 0.641688739321297
-0.11065273380323 0.251214209983707 0.64800883207571
-0.111676344693247 0.249880214299918 0.663230724564191
-0.106703499517718 0.254783269259136 0.671331389921128
-0.106697087800424 0.254788189142854 0.671082596748847
-0.110094529541885 0.25194167594032 0.679290301603775
-0.111742758267774 0.249793662444494 0.698852308705717
-0.106612421328555 0.254853156011697 0.705836173720492
-0.109147808224511 0.25290768522146 0.72078670554145
-0.108537699492314 0.253375838117276 0.718639588185577
-0.11157412341831 0.250013431659061 0.73407118168242
-0.10746234017126 0.254200990346097 0.741047999457078
-0.109464050102598 0.252665024293675 0.74900499371159
-0.108526433454573 0.253384482852083 0.757897325147866
-0.1073783003044 0.254265476404005 0.767878763468794
-0.109889650485657 0.252208679524761 0.778399700086291
-0.109451671473427 0.252674522749912 0.789953675908054
-0.107290136753836 0.254333126675708 0.797673106326453
-0.106132096629943 0.254916057999276 0.799511752972116
-0.105677837169837 0.247338116274649 0.808297010742744
-0.0971584759506497 0.241323128559492 0.814898110289629
-0.100190660987976 0.238861697529847 0.814667454615565
-0.083919713482161 0.226401916456055 0.815305539411979
0.0769539884686292 0.0776370815382847 0.651749903851266
0.0846911166642937 0.0679092389705777 0.651749903851266
0.0936845055470689 0.0703683363996365 0.651749903851266
0.102265940770337 0.0506722243866973 0.651749903851266
0.106361972186873 0.0435635611403492 0.651749903851266
0.127469485296387 0.0341794057720423 0.651749903851266
0.131800063673464 0.0253768905740645 0.651749903851266
0.143319350154878 0.0179603821175651 0.651749903851266
0.148514825233891 0.00606618890806268 0.651749903851266
0.173168331417212 -0.00693583635029157 0.651749903851266
0.17049585273873 -0.00621872457055084 0.651749903851266
0.180558226565622 -0.0181708603426117 0.651749903851266
0.194927467325696 -0.0313740772495077 0.651749903851266
0.197862304454892 -0.0389283313612661 0.651749903851266
0.219311834568616 -0.0531554805065081 0.651749903851266
0.224421152830343 -0.0611471787269449 0.651749903851266
0.243878237498979 -0.0687782003050411 0.651749903851266
0.241594276938001 -0.0799203944744683 0.651749903851266
0.259124015188022 -0.0876902773943614 0.651749903851266
0.275782752317038 -0.0975302269460039 0.651749903851266
0.278138180541819 -0.11216771127169 0.651749903851266
0.285439744832067 -0.117209715105592 0.651749903851266
0.308569707515508 -0.129682687561571 0.651749903851266
0.317440474084981 -0.137472477204189 0.651749903851266
0.326525219442608 -0.156266272865204 0.651749903851266
0.340154132295067 -0.159971275805651 0.651749903851266
0.350749269335041 -0.174343616102317 0.651749903851266
0.358641631753543 -0.182060018068145 0.651749903851266
0.370232064665677 -0.196359415979778 0.653948917440476
0.372921549478336 -0.192854411132047 0.67328182930054
0.371876748644241 -0.194216022088606 0.678855842684734
0.370482455504189 -0.196033100285903 0.691050867688803
0.369339182255096 -0.197523042992212 0.697761417756889
0.372168312489657 -0.193836048687456 0.708497022829954
0.371702552011474 -0.194443039560292 0.717119259471127
0.370584111180077 -0.195900620029791 0.732910850480276
0.371367161659058 -0.194880128777366 0.737499786865896
0.370873593102249 -0.195523359843838 0.759308452466347
0.370268507936077 -0.196311922185123 0.761797245379952
0.36911337177014 -0.19781732494566 0.779605547425128
0.371683951321764 -0.194467280451074 0.790240612010358
0.370089994448527 -0.200778030545382 0.803728793173782
0.377074513681023 -0.199517896287925 0.809199275065799
0.376508979000326 -0.204598441049623 0.811336251162013
0.386840189039808 -0.208866801090435 0.816190276919871
-0.102979375207074 0.257640890349284 0.253429494880474
-0.104749556377614 0.256282582563515 0.253228648868682
-0.100933486403154 0.259210756042936 0.270126948470421
-0.102008042266322 0.258386220329036 0.271766420790139
-0.102565073703503 0.257958795074134 0.28351231450846
-0.100146577573815 0.259814572424768 0.289038219312849
-0.10346444038742 0.257268686745475 0.294217762261834
-0.104796102363496 0.256246866572365 0.315545888022627
-0.101404347154424 0.258849451880907 0.314855908466798
-0.103467052752957 0.257266682206896 0.330292498867117
-0.10159764767234 0.25870112717672 0.339092333135855
-0.0999386657865802 0.259974108750232 0.342125385837749
-0.101230914392277 0.258982531519902 0.353904367909148
-0.101164297903279 0.259033648149754 0.361504682703804
-0.104101616909949 0.256779764003631 0.376537120928918
-0.103535713519679 0.257213996947574 0.385021147370605
-0.104954910680478 0.25612500866483 0.392413629232065
-0.101142263217994 0.259050555958446 0.401403502955232
-0.106652380368238 0.254822494362134 0.416135175564458
-0.0996227092357573 0.260216550738707 0.414840529516227
-0.102176749915894 0.258256766396441 0.424560076131109
-0.103917000894518 0.256921424854685 0.440560535316623
-0.099812006411042 0.260071297907363 0.441454304714817
-0.101147170601993 0.259046790390263 0.455002932070531
-0.100884068108844 0.25924867603386 0.463343242648355
-0.101813829607925 0.258535244943231 0.465103951034781
-0.10112779659859 0.259061656585939 0.486127940174486
-0.10101743996968 0.259146336205604 0.490304316062475
-0.106281451382203 0.255107118183743 0.506205279419766
-0.103087416780089 0.257557987134485 0.511014485441257
-0.105631062753629 0.255606178931123 0.522476047044821
-0.101911238727389 0.258460500296991 0.529696008922132
-0.103918092591686 0.256920587165985 0.539728526339715
-0.102988917933095 0.257633567958068 0.543081930371129
-0.103725543622347 0.257068335186667 0.558586514466706
-0.101704515930519 0.25861912427806 0.561011439976388
-0.102851612088481 0.257738926438248 0.580731918413224
-0.101766950897853 0.258571216242631 0.583217496083407
-0.10584782245242 0.255439853364334 0.595031407535621
-0.0998001271669339 0.260080413171964 0.605206624123254
-0.102861793197158 0.257731114198793 0.60624484526694
-0.0996367916214794 0.260205744944088 0.620189796716582
-0.103997398043845 0.256859733952249 0.631639617155016
-0.107149947745943 0.254440697484883 0.639847487968884
-0.100157589756164 0.259806122480055 0.653415563110081
-0.10340048544777 0.257317761096683 0.659421220898133
-0.102308574916315 0.258155613515927 0.660994732896393
-0.101678652549124 0.258638969948605 0.677286148542045
-0.101567941377421 0.258723921618523 0.689190339896822
-0.105351881515822 0.255820402229429 0.69365681437739
-0.104260707849065 0.256657689232505 0.701363287777776
-0.103436823112292 0.257289878226015 0.707796171658032
-0.103073218726542 0.257568881684149 0.723060081665875
-0.10246189090019 0.258037970023811 0.731006728731445
-0.103293814823248 0.257399612345702 0.736021705735135
-0.103838459409276 0.256981691855986 0.751455809401756
-0.10210022766578 0.258315483984134 0.76107849844742
-0.103150612941244 0.257509495014494 0.769800166167961
-0.102355134576075 0.258119887032443 0.774007966513645
-0.101894833934405 0.25847308813738 0.784245913300599
-0.101505924146655 0.25877150911341 0.797436459602916
-0.104383179336868 0.252416327528277 0.804701891528504
-0.0968279947940061 0.2558701655574 0.806917984717352
-0.0955413076632415 0.25458028798737 0.808879967270154
-0.0858616064421862 0.245370726551675 0.815999520510721
-0.084061270821012 0.238024380894889 0.816929895426738
-0.0739580167149432 0.225386949862982 0.812069762351077
0.0917654399151769 0.0798729364915121 0.651749903851266
0.103404752563968 0.0730690990513608 0.651749903851266
0.106018619945539 0.0649736937419019 0.651749903851266
0.117607162870326 0.0578062118055901 0.651749903851266
0.129255404120235 0.0428866830261618 0.651749903851266
0.13876450456869 0.0287206228132655 0.651749903851266
0.142790126526335 0.0266916657912362 0.651749903851266
0.154476276414497 0.0202638230418881 0.651749903851266
0.171738825449316 -0.00127110336837955 0.651749903851266
0.18367510250977 -0.00033078136335791 0.651749903851266
0.187607110416275 -0.0133135426121452 0.651749903851266
0.209920728057287 -0.0241964182793466 0.651749903851266
0.218820173071829 -0.035171446425649 0.651749903851266
0.2209547016903 -0.0385052147266418 0.651749903851266
0.23646250341802 -0.0593022272796367 0.651749903851266
0.247737110994254 -0.0585314809677402 0.651749903851266
0.250303062803413 -0.0675227860649953 0.651749903851266
0.266463276913992 -0.0810236100501313 0.651749903851266
0.26942516916778 -0.0851773113545654 0.651749903851266
0.291175694812918 -0.10468365325963 0.651749903851266
0.29925711091549 -0.117943505531543 0.651749903851266
0.319360028611378 -0.129138216423286 0.651749903851266
0.324221027819508 -0.13536153267483 0.651749903851266
0.337816264100045 -0.147477312133317 0.651749903851266
0.346543534511686 -0.157937089432614 0.651749903851266
0.357804475259105 -0.166901114444083 0.651749903851266
0.366196895036086 -0.171987221533618 0.651749903851266
0.374975087940652 -0.180571660811129 0.651749903851266
0.379717140219249 -0.183998224855038 0.659734448919011
0.376490884397778 -0.188202763300859 0.679196111439964
0.378944860254174 -0.185004679700461 0.68642091712321
0.374427217874535 -0.190892185875034 0.694834724397627
0.376427557686011 -0.188285292278412 0.712472191485494
0.377506792312991 -0.186878806329282 0.73031426528546
0.378231783661433 -0.1859339792089 0.736494529903931
0.379296833506885 -0.184545979226966 0.741706538329678
0.381258263662773 -0.181989793680755 0.75995265636697
0.378287949909911 -0.185860781928787 0.766218723686772
0.378043093438825 -0.186179885094611 0.774303629867812
0.377890277288841 -0.18637903897865 0.78473914520608
0.379756264685898 -0.183947236857402 0.795748349637237
0.383657749030257 -0.186821170417256 0.806554747237506
0.394640874329931 -0.196942320691182 0.815868660788033
0.401414000416135 -0.202906884356685 0.816769309722112
-0.0917998458004788 0.266219244975875 0.245869407584684
-0.0988387864420297 0.260818075854827 0.253674277402905
-0.096108765749912 0.262912894409631 0.257878889655311
-0.0941998540338415 0.264377653887043 0.267584198819189
-0.0917870659071637 0.266229051332919 0.284148343868148
-0.0966541741173285 0.262494387849843 0.289037096538479
-0.0902366887256559 0.267418697585838 0.301003051434956
-0.0985051580335682 0.261074077936596 0.311019695698683
-0.0942780078813883 0.264317684330606 0.322425617343678
-0.0939894130759486 0.26453913091341 0.323164671601471
-0.0945854447305083 0.264081779739176 0.330612134707039
-0.0953193771263435 0.263518613604499 0.348858289247799
-0.0950932417175244 0.263692133406624 0.350789365028417
-0.0935572578438879 0.264870735285966 0.362554620511911
-0.0905070440376213 0.267211246658623 0.374245667401102
-0.0956308634834102 0.263279601716335 0.385543726280904
-0.0981852267834142 0.261319569819137 0.392436482722554
-0.0965455585518475 0.262577731504551 0.406334470865229
-0.0986495528378567 0.260963279906341 0.413976088394414
-0.0968376223318183 0.262353623083968 0.414186188467653
-0.0955763993453922 0.263321393519313 0.433349082428713
-0.0988683196383049 0.260795414236283 0.434320547731942
-0.0915830372597305 0.266385608020416 0.445847300371491
-0.0931624211243317 0.265173704156727 0.458198281011009
-0.0920346477660393 0.26603907509087 0.464362723858038
-0.0958031946821736 0.263147367336653 0.478942294860076
-0.0978940764570153 0.261542977322142 0.488297334018811
-0.0960603691620154 0.26295003041765 0.498387621046325
-0.0972744101338016 0.262018464015486 0.496742693170309
-0.0968735941008089 0.262326020974817 0.506820964952945
-0.0983886239219283 0.261163497705477 0.519797261562066
-0.0950587944015846 0.263718565761808 0.5352452253569
-0.0937403243015904 0.264730263452378 0.534245930588467
-0.0936390100735335 0.264808004593832 0.547454760729435
-0.0971866751486006 0.262085785437421 0.557976851289392
-0.0908025633586871 0.2669844867081 0.559383968008399
-0.0942496482640621 0.264339445430349 0.577382383260462
-0.0965714952920292 0.26255782954383 0.582433931615029
-0.0937352255069314 0.264734175895126 0.586702963831035
-0.0955386216936834 0.263350381331012 0.603994276625452
-0.0927253079791961 0.265509112869791 0.617270122113313
-0.0969566764233373 0.262262269666516 0.615901307744347
-0.0935797322493817 0.264853490068092 0.631371366527062
-0.0945105709180863 0.26413923243614 0.633345804646187
-0.100166088056797 0.259799601504627 0.645520189069434
-0.0936271783062693 0.26481708342817 0.661441557869831
-0.0933788283022299 0.265007649088734 0.664523969937994
-0.098212475802996 0.261298660911016 0.675220943880313
-0.0957258112037404 0.263206745768078 0.687024374234189
-0.0959892974564538 0.26300456565541 0.692021330835778
-0.0942320110330136 0.264352978953725 0.701163970494576
-0.0939157469679898 0.264595656906147 0.710090822040883
-0.09340206243583 0.26498982091098 0.722324936010115
-0.0933659534822556 0.265017528285566 0.72744489545935
-0.0949951981836372 0.263767364856173 0.738383623241481
-0.0936748237891387 0.264780523763309 0.752311085457257
-0.0982344583976995 0.261281793072834 0.764399172297365
-0.0918479932161226 0.26618230016445 0.763671814445127
-0.0982370717336744 0.261279787789612 0.77699884468611
-0.0973501269749711 0.261960364439812 0.78347446021034
-0.0958854457973045 0.263084253836222 0.795610938613977
-0.093434103087228 0.26496523525445 0.796773071356211
-0.0918262945570729 0.258367451061739 0.808185774936267
-0.0865717904848302 0.256271264643475 0.812160574069254
-0.0829170305766987 0.250336761487426 0.815354380958834
-0.0750703283639238 0.248781758059739 0.816631019179422
0.0880480907938106 0.0943512281237364 0.651749903851266
0.101026923885454 0.0824276473189268 0.651749903851266
0.114636331722731 0.0699014276052647 0.651749903851266
0.116246034054064 0.06111480422465 0.651749903851266
0.124495954334453 0.0630339124708231 0.651749903851266
0.133044131061004 0.0554545661591667 0.651749903851266
0.150271603876805 0.0411865646147555 0.651749903851266
0.159194879669973 0.0380556638911791 0.651749903851266
0.17392628944903 0.0243159202740216 0.651749903851266
0.173545268403052 0.0144591100863885 0.651749903851266
0.188162560582197 0.0068086151706208 0.651749903851266
0.193559133637344 -0.0042340653038067 0.651749903851266
0.211632511551121 -0.018370324519646 0.651749903851266
0.224982011167829 -0.0273388400737818 0.651749903851266
0.234358037320365 -0.0346920188965114 0.651749903851266
0.248233807107204 -0.0469436486891954 0.651749903851266
0.252302665791012 -0.0621455926448907 0.651749903851266
0.255406754915987 -0.062969514903929 0.651749903851266
0.279218179177001 -0.0715774310554192 0.651749903851266
0.290422347400456 -0.0921944693968077 0.651749903851266
0.300707217411357 -0.0954818495508769 0.651749903851266
0.309454565554967 -0.105784304618733 0.651749903851266
0.325546371427298 -0.121050584575258 0.651749903851266
0.333788649470591 -0.123932685717928 0.651749903851266
0.333023747472518 -0.135161927449154 0.651749903851266
0.35874567858899 -0.148360231316394 0.651749903851266
0.364893476611093 -0.166588577406332 0.651749903851266
0.381289610582177 -0.171629063819076 0.651749903851266
0.385259840176163 -0.172316445725818 0.651749903851266
0.386537283522426 -0.175110041055918 0.665116260940729
0.3871261015451 -0.174342678468782 0.674717431131414
0.382950294366511 -0.179784696336016 0.687874047396276
0.383489773512812 -0.179081633424437 0.704516864458914
0.387711335275347 -0.17357998702248 0.711670361715455
0.383792443801341 -0.178687185824821 0.719327421583713
0.38473012500065 -0.177465175894244 0.741292019920877
0.387362585151872 -0.174034487032175 0.746695208474613
0.382669329328032 -0.180150857103044 0.760766295166451
0.382744958590488 -0.180052295129281 0.766207368034336
0.38680004518261 -0.174767603393355 0.771827637160033
0.387829712050561 -0.173425715405468 0.790183061611932
0.387814830694435 -0.175298476443269 0.801111670646961
0.389905200276855 -0.18118063382876 0.808369748741101
0.39962736292418 -0.187678196369967 0.815362832428771
0.410990376166993 -0.192933560754045 0.81662030668378
-0.0839044125430018 0.272277623996128 0.238046317352936
-0.0899502144879102 0.267638516999821 0.252830183933198
-0.0864398747151559 0.270332095444434 0.264146478059194
-0.088025224576319 0.269115613710573 0.268225545613935
-0.0881656275047277 0.269007878754414 0.284868170596295
-0.0862101199867735 0.270508392448136 0.292685903673954
-0.0872207097008288 0.269732939686768 0.303804255040354
-0.0881342327544788 0.26903196879356 0.313531972853797
-0.0902110204990831 0.267438393508821 0.316487110391778
-0.089332679817422 0.268112368018499 0.323886097865355
-0.09025309000564 0.267406112441068 0.338195778870428
-0.085161178492311 0.27131327356565 0.343796731017389
-0.0864569866166183 0.270318965020625 0.356086748230117
-0.0912419128234348 0.266647362006645 0.362741987992803
-0.0873893721540844 0.269603520434526 0.380024360467132
-0.0891340531315948 0.268264779635067 0.376727506063942
-0.0865987991164729 0.270210148462255 0.384815875291871
-0.088719647952761 0.268582763912745 0.391991945233245
-0.0923299686646473 0.265812467395254 0.410819077531838
-0.0858079239119455 0.270817008350812 0.423174039145095
-0.0892026830583385 0.268212118040094 0.4302411513723
-0.0900652850163475 0.26755022027783 0.43643594622541
-0.0874811305290372 0.269533111757051 0.449686698456946
-0.0859774226088205 0.270686947426272 0.453126451883706
-0.0908330444806268 0.266961097720612 0.465762821890889
-0.0894631663866633 0.268012242152352 0.47485842410643
-0.0845894577138063 0.271751970348585 0.48138246453457
-0.0883616144263887 0.268857492700133 0.48906926074311
-0.0866983669091315 0.270133747407814 0.503609568716838
-0.0883042353884187 0.268901521184511 0.513942556051279
-0.0896398994858464 0.267876630075679 0.516513144133781
-0.0860502464413398 0.270631067734212 0.52481794417265
-0.0865387814047652 0.270256201672204 0.527674593791054
-0.0837722271836601 0.272379053389767 0.545127189991715
-0.0866774669579462 0.270149784504405 0.554048290021583
-0.0898753806640114 0.267695939012512 0.568442647486844
-0.0884903542090738 0.268758707190452 0.572038697011264
-0.088899368382259 0.2684448595769 0.582971754391373
-0.0879575981075124 0.26916750532519 0.598250181617275
-0.0878698560171312 0.269234832199122 0.597116120991946
-0.0884629237115549 0.268779755351491 0.604647163515461
-0.0864771659821436 0.270303480848858 0.6132973766606
-0.089646890873474 0.267871265395269 0.625360529036021
-0.0861754523084278 0.270534993893342 0.632234925640069
-0.0904599452721218 0.267247386812491 0.643013977149907
-0.0858302807001805 0.270799853383834 0.651865429828205
-0.0864349356835177 0.270335885296704 0.658342583926769
-0.0856324907072873 0.270951622983334 0.669645548345847
-0.0891174737191051 0.268277501465716 0.68872498472836
-0.0862401381777629 0.27048535868006 0.693356750469262
-0.0888302805203667 0.268497872557872 0.700020780594019
-0.086780770691756 0.270070516761494 0.705540193157413
-0.0853307587289919 0.271183150073416 0.717781363405313
-0.0886406087612295 0.268643412817515 0.723148469055856
-0.0877751101216774 0.269307533281703 0.742463724503238
-0.0848204867564305 0.271574695529172 0.744066797024762
-0.0880378093650495 0.269105957062542 0.760184114683002
-0.089037685830324 0.268338724866091 0.767393093761064
-0.0842876236119154 0.271983575800858 0.776588702489486
-0.0915033953714255 0.266446719390686 0.784742896265304
-0.0860659974444862 0.27061898156441 0.789746782881829
-0.0873712800467568 0.269286806302851 0.799547481568643
-0.0829326185440027 0.265339541638475 0.80804607119598
-0.0813057769697318 0.263485975163488 0.810173615255205
-0.0785867067414083 0.256838980977522 0.814490813969067
-0.063234629410738 0.250587635129887 0.816665163789674
0.101346405998802 0.0970843369790364 0.651749903851266
0.108589763869831 0.0913273776018658 0.651749903851266
0.121409007525025 0.0825944860374454 0.651749903851266
0.127418851887025 0.0784359166325298 0.651749903851266
0.132267461962804 0.0641790520498167 0.651749903851266
0.138785039550904 0.0627206652838221 0.651749903851266
0.154091581411856 0.0446414683472145 0.651749903851266
0.159833109909002 0.0400729653397642 0.651749903851266
0.180080359570379 0.023658403951578 0.651749903851266
0.186257791898428 0.0199579822988741 0.651749903851266
0.203005574898333 0.00745327078728012 0.651749903851266
0.205623446384299 -0.00533013344061619 0.651749903851266
0.219997225412271 -0.0141257096604409 0.651749903851266
0.226734203343604 -0.0208980601548057 0.651749903851266
0.236745658754827 -0.0305080436665109 0.651749903851266
0.250061286632461 -0.0339394683030445 0.651749903851266
0.25734949403973 -0.0443773302240264 0.651749903851266
0.273212632816374 -0.0598564366085085 0.651749903851266
0.282542821578552 -0.0666005435226323 0.651749903851266
0.287541498471103 -0.0741331741326908 0.651749903851266
0.297656441782024 -0.0834047032537904 0.651749903851266
0.314881083987722 -0.0944916257421316 0.651749903851266
0.330139091402335 -0.115509294324119 0.651749903851266
0.330139506388053 -0.109731908918204 0.651749903851266
0.35131054404277 -0.128466240583867 0.651749903851266
0.358153067431714 -0.136242535331036 0.651749903851266
0.374898799670491 -0.147407237877885 0.651749903851266
0.390594277179607 -0.167996187514107 0.651749903851266
0.39558135819227 -0.163323573472298 0.657325136134318
0.389791450167768 -0.170869128516251 0.673780925317416
0.392403011098116 -0.167465676049097 0.681400229694471
0.391963657040315 -0.168038253404886 0.681766835401913
0.387153764304868 -0.174306627658368 0.704609236156114
0.391520629428722 -0.168615618229184 0.719776682814991
0.391475224275716 -0.168674791376639 0.724978110651724
0.392572056684366 -0.16724537155193 0.732477710250992
0.389477535348616 -0.171278230273481 0.743956125264281
0.391848369347861 -0.168188499250868 0.755291149738249
0.39094214137913 -0.169369518533297 0.767773031866007
0.393677879158699 -0.16580423564552 0.781889111708473
0.393505427779727 -0.166028978658179 0.785839860421484
0.392922217853606 -0.170674041924708 0.803345636048918
0.39758504847682 -0.175916852378831 0.810738619607743
0.400651821136781 -0.178795359269504 0.813410800771959
0.418088817808765 -0.187788586907117 0.816376259237624
-0.083588351455389 0.272520146198504 0.24168760564878
-0.080380970911842 0.274981255850288 0.26007367962644
-0.0812653012354475 0.274302685326697 0.260857547001854
-0.0767582896766132 0.277761036930926 0.269863454488348
