ply
format ascii 1.0
element vertex 867
property float x
property float y
property float z
end_header
-0.291486506026937 0.116279591030973 0.856867923964087
-0.291085291025092 0.120172143678384 0.856056682547683
-0.298288787780062 0.123369066023764 0.87062187797577
-0.30156426906049 0.116533572206717 0.877244776075581
-0.307471661061632 0.117325123053436 0.889189297173281
-0.311167284085289 0.122964530170806 0.896661705837998
-0.314867864788486 0.119412290847458 0.904144138741476
-0.316551097782805 0.120053233445114 0.907547571594603
-0.322633978009841 0.119018939205993 0.919846923185383
-0.326649702358612 0.125087508446423 0.927966564508861
-0.33194767039443 0.118529405143557 0.938678853614871
-0.333196722835143 0.121328431518517 0.941204389964473
0.348391187873827 0.109610276991044 0.339163442018193
0.347949256458369 0.106253474624545 0.344194746426372
0.347949596775665 0.106256059591044 0.360516280713806
0.347569077869335 0.103365731543315 0.365570599961187
0.347995905978749 0.10660781291082 0.373053001447728
0.348131562861453 0.107638229235542 0.383986724348612
0.348113142659242 0.107498313908834 0.391742824391808
0.348205644678598 0.1082009365028 0.403690055849383
0.34762258120269 0.103772129707689 0.414334824909941
0.347565687407419 0.103339978428272 0.412480133348189
0.348462911420893 0.110155071418658 0.424826096333242
0.348006543178542 0.106688610464896 0.435187291974913
0.347615602287412 0.103719119583265 0.444841335027817
0.347464470860171 0.10257116242324 0.455384700703202
0.348172123739808 0.107946319694118 0.463017552745485
0.347951086866662 0.106267377955863 0.47209085633906
0.347769132937297 0.104885300648558 0.480302146352295
0.347653585596683 0.104007631460875 0.484614080098197
0.348309223226441 0.108987693683567 0.505615042936922
0.347748470778761 0.10472835597288 0.502550262172079
0.347568021990276 0.103357711345614 0.517891282004697
0.347489549458774 0.102761653291717 0.52281712246254
0.348449681263833 0.110054578398758 0.534925476221447
0.347913865871085 0.105984656425627 0.541540217054109
0.347388555897082 0.101994531030139 0.551228896929065
0.347852997633548 0.105522316260018 0.552994578627699
0.347708647178885 0.104425865700338 0.571652124589487
0.3482068097979 0.108209786462528 0.572536301272145
0.34796699410156 0.106388205400764 0.592381570794911
0.348159976104437 0.107854049242796 0.590006465520229
0.347607308754793 0.103656123948769 0.606081430700048
0.347365283049657 0.101817756203592 0.613045140366552
0.348503349713807 0.110462230748368 0.616963376614326
0.34820146672606 0.108169201802623 0.633700574101599
0.347594237515784 0.103556838031306 0.638628556375463
0.347326974077917 0.101526770673949 0.649557875857357
0.347596482860354 0.103573893116554 0.657965134174908
0.347493481928734 0.102791523366591 0.669964335192722
0.347388950821595 0.101997530779634 0.670431114829393
0.347928247300502 0.106093894227266 0.686718597658502
0.347404557534775 0.104002862168568 0.691917616711748
0.344609874530705 0.104173365017676 0.69766634165701
0.338108936263911 0.107051986345274 0.700851070503475
0.209364775467279 0.113919478191091 0.607884302688326
0.209326229878743 0.113343840539579 0.607884302688326
0.198180583004549 0.115208988899547 0.607884302688326
0.180341960643811 0.108266636258669 0.607884302688326
0.171447827836489 0.109067459208891 0.607884302688326
0.161213032405554 0.109277939749361 0.607884302688326
0.151710501409975 0.110292017423591 0.607884302688326
0.143152272870713 0.114310115573849 0.607884302688326
0.129230750837486 0.117975840787694 0.607884302688326
0.120663082011909 0.118444481114379 0.607884302688326
0.102098505051208 0.113148414028752 0.607884302688326
0.0943293272400157 0.118271702982593 0.607884302688326
0.0848734123107652 0.117959102167632 0.607884302688326
0.0694003504504932 0.113534350315154 0.607884302688326
0.0600053351049325 0.118123046168282 0.607884302688326
0.0409891138795435 0.115896192903747 0.607884302688326
0.0415294822598364 0.120123138396552 0.607884302688326
0.0178163988868192 0.117008548977623 0.607884302688326
0.00575881882164486 0.122265303766243 0.607884302688326
-0.00639814174769415 0.11685976993915 0.607884302688326
-0.00974453221084278 0.125328258175221 0.607884302688326
-0.0350613213179145 0.120278844528669 0.607884302688326
-0.0403599984900297 0.120855010101017 0.607884302688326
-0.0566784382986869 0.125002407826606 0.607884302688326
-0.0588711063791511 0.119082324783325 0.607884302688326
-0.0840636261314936 0.124861540962289 0.607884302688326
-0.0923109520893982 0.12378456637666 0.607884302688326
-0.10386601489532 0.12302070540373 0.607884302688326
-0.120432960813565 0.123060477251408 0.613753797850552
-0.123192945371533 0.128143332533311 0.617636490309334
-0.125513135675945 0.126805244812618 0.620900488787831
-0.133579899562749 0.124667064337007 0.632248654928707
-0.136901707482863 0.1297960243982 0.636921709538274
-0.142007490283964 0.128187636915174 0.64395799668302
-0.146290238280469 0.128810007473762 0.649837146452915
-0.148990560058037 0.128666248546077 0.653544017875232
-0.158156420385457 0.121821843587556 0.666080988958983
-0.161866029911422 0.130033455916521 0.671086877828283
-0.168399723775641 0.130166962826012 0.679903694035323
-0.174174490313158 0.130574031859956 0.6876963847028
-0.17659082792593 0.122413030963046 0.690933113267891
-0.178653908109046 0.12367004869023 0.69368886497339
-0.189151090316583 0.122164171979495 0.707710437187635
-0.195903671049982 0.126956228912573 0.7167189771883
-0.196389516708242 0.122753314976625 0.717365789075664
-0.203267323880771 0.12846527506369 0.726522292509508
-0.207531193526954 0.12296714584952 0.732198830987161
-0.215205629505248 0.131479393711405 0.742434525343947
-0.220068693197238 0.127768803295931 0.748933867913573
-0.225262073046743 0.129340940268686 0.755874668378866
-0.227393931635675 0.12803510835973 0.758723835109356
-0.236207650525595 0.129339193446447 0.770613656596694
-0.239131069943796 0.125743683890293 0.77456721883368
-0.246139097815183 0.130478492516395 0.784044707481243
-0.251271342751348 0.129240308251643 0.791133882535273
-0.256349294480262 0.131171431476129 0.798148062327922
-0.26189864436918 0.127593203951907 0.8058133848696
-0.265873954162873 0.125354419493817 0.811482167723217
-0.271675783207897 0.135093347512341 0.819763099796232
-0.276933696980688 0.125906677320766 0.827442699660345
-0.282897049045879 0.126481180450444 0.839500369871147
-0.284877879185782 0.132571362787369 0.843505532791172
-0.287853874539473 0.137006717726975 0.8495228817807
-0.292274644579628 0.12881282760733 0.858461510028581
-0.298703630092105 0.132442077865803 0.871460673293141
-0.302920671709161 0.128119362478576 0.879987370447326
-0.304970438700472 0.132149009731464 0.884131921049072
-0.311269646875737 0.132660301629175 0.896868679492346
-0.314214367654322 0.128071435924737 0.902822792484987
-0.319635885366266 0.137288398069096 0.913784894319328
-0.321912290695873 0.127270841022507 0.918387698988654
-0.324848225354682 0.127728957497061 0.924324046782543
-0.329584719365126 0.135296278511079 0.93390105684484
0.349157253869035 0.118653653077508 0.338388176836752
0.348778816013352 0.112554605026046 0.352905237417141
0.349133952654006 0.11883064337739 0.362706191688037
0.348947915637277 0.113839044189942 0.372743065038362
0.348920420808569 0.113630200231704 0.378445516534328
0.349287086269251 0.116415300912675 0.388850866791563
0.348935608238545 0.113745560215402 0.39735898679013
0.349176584824311 0.11850681989447 0.40672006897132
0.348506554559896 0.110486573971226 0.414233557772389
0.348626511805227 0.111397739710806 0.420603240669286
0.349374775533884 0.117081367005148 0.428026220649127
0.34903193938173 0.114477267892441 0.442703906585368
0.348945939339258 0.11382403271614 0.444826307428793
0.348822756841129 0.11288836874936 0.451078245656875
0.34921276702853 0.118231988767962 0.465676288871307
0.349277949802905 0.117736876441427 0.476019028229181
0.348862382391643 0.113189354687648 0.48117355040092
0.349253358665915 0.116159114330919 0.491456517286281
0.349285722561328 0.116404942522609 0.496641333589119
0.349179948422211 0.118481270831883 0.51359627522122
0.348798561058588 0.11270458353461 0.519847091045859
0.349095153062086 0.119125355537297 0.528460804614392
0.349297754761153 0.116496336153917 0.537868708872056
0.348978338683966 0.114070130171953 0.55048967750017
0.349305437076888 0.117528089867018 0.552051778232674
0.348530829280291 0.110670958778508 0.561275096571255
0.349150637467441 0.115378869365149 0.565577022434552
0.349141856496278 0.115312171267323 0.57799779683671
0.349386571315413 0.117170964861217 0.588254396118994
0.348743781325735 0.112288490153493 0.60438919827686
0.348904370307183 0.11350828456979 0.60449874114721
0.349252770544529 0.116154647105489 0.621127187633882
0.349133215740294 0.118836240792752 0.626030089463657
0.349142121165752 0.11531418163157 0.634709545691842
0.348800850554682 0.112721973983981 0.645297421052897
0.348714386313831 0.112065212870934 0.648999900384963
0.348826680379185 0.112918170979683 0.660230492599342
0.349043306821015 0.11456361216614 0.663487542308354
0.349061449685499 0.119381358098618 0.674061116011354
0.348533355820637 0.110690149757726 0.68621918009153
0.348812842863383 0.112813064612117 0.686330557851997
0.342436161908559 0.11747999222124 0.700095850113777
0.224056789900379 0.123570373921481 0.607884302688326
0.21610181211862 0.119382416094459 0.607884302688326
0.20905892009635 0.122711973385216 0.607884302688326
0.191393454020244 0.118801747571244 0.607884302688326
0.18822378856156 0.117765866820137 0.607884302688326
0.179111587641102 0.123469726208967 0.607884302688326
0.166470716599329 0.124589580697507 0.607884302688326
0.153867486816623 0.126281963716394 0.607884302688326
0.140058679734132 0.123170110464842 0.607884302688326
0.122745953864982 0.121933059117429 0.607884302688326
0.115350968370251 0.126690152204851 0.607884302688326
0.101954583161973 0.122745193016104 0.607884302688326
0.0981282598599924 0.126074504673301 0.607884302688326
0.078728190886149 0.124018868862918 0.607884302688326
0.0775730843248442 0.12952095279758 0.607884302688326
0.0653760338485335 0.130975743504995 0.607884302688326
0.0472011385754062 0.124519451846113 0.607884302688326
0.0403731131350322 0.127963055252122 0.607884302688326
0.0226541658623795 0.130719798235996 0.607884302688326
0.00629469115767967 0.132891875464982 0.607884302688326
-5.27291347462668e-005 0.134115504351129 0.607884302688326
-0.0159710921979406 0.130500264947226 0.607884302688326
-0.0252233948707596 0.132561982708869 0.607884302688326
-0.0333952653659478 0.134854683452557 0.607884302688326
-0.0479150428403539 0.131112749644163 0.607884302688326
-0.0625502661435727 0.132714148718476 0.607884302688326
-0.0697056433041083 0.135153126535489 0.607884302688326
-0.0988034526343099 0.133140097042422 0.607884302688326
-0.107785315765963 0.13825655607728 0.607884302688326
-0.119565113217364 0.134665837349778 0.612532926774512
-0.122712400681147 0.134461777165226 0.616960469409115
-0.127091120016457 0.13112428500622 0.623120366388701
-0.133904434219976 0.136151158507834 0.632705203956342
-0.134836338522077 0.131758986900706 0.63401618875719
-0.142959438675126 0.136089097727197 0.645264785494645
-0.146699572540824 0.134716586836225 0.650399060771605
-0.152802083454162 0.141825694771484 0.658776293254397
-0.157672154848303 0.140242339989307 0.665427502535343
-0.159751846791414 0.133545475174286 0.668233918325663
-0.166730196791702 0.133435888889265 0.677650770516715
-0.172656438486348 0.141481734476134 0.685647867550345
-0.173429814247152 0.134819376377947 0.68669149035908
-0.179962611824192 0.132786273433478 0.695436961108729
-0.184429156367026 0.142916254543096 0.701403131421609
-0.189129870199055 0.141877517647806 0.707682092494323
-0.196992287955097 0.138382477713092 0.718168265337821
-0.205418089835147 0.13934460553357 0.729385631849013
-0.20804037468667 0.133838135096957 0.732876709694783
-0.215532265135703 0.144653316142795 0.742871064322712
-0.220656968875275 0.136288208933384 0.749720081173176
-0.224418444124666 0.139192410313257 0.754747182967715
-0.225624699521464 0.140320382633081 0.756359308069667
-0.234397359189643 0.138888421952937 0.768165462054644
-0.239539966265493 0.140481913176958 0.775120200402537
-0.245435987230458 0.137055374404172 0.783093837606436
-0.250703146894295 0.137771233880543 0.790349033030673
-0.255617486274953 0.146425314486512 0.797137214923337
-0.260375454323653 0.139680040919919 0.803709400939057
-0.265929159869428 0.143010742522254 0.811560962651934
-0.2696530502317 0.145530560777635 0.816876059477095
-0.279436701925837 0.147405072306629 0.832503680101327
-0.283069587713196 0.138928500088711 0.839849236469391
-0.286753731109978 0.145509028199555 0.84729843376683
-0.290297727383288 0.138767222171014 0.854464258931054
-0.292099414811201 0.146288687403327 0.85810720212663
-0.299285392209859 0.147707913923494 0.872636974085099
-0.301776548267596 0.139396161029229 0.877673996528089
-0.305643747918925 0.138799365707978 0.885493326583618
-0.311887819042805 0.144647496516999 0.898118600013976
-0.313451522175537 0.140022522544125 0.901280348050309
-0.319373891127449 0.138767251144285 0.913255151970686
-0.322849758923745 0.139505685755295 0.920283223955352
-0.323070604531471 0.141718706555675 0.920729765342874
0.34862535580425 0.122693819990644 0.333472018541881
0.348165127099985 0.126189604063866 0.342927767106827
0.348975075632494 0.120037434166961 0.35869780837081
0.348307627249846 0.125107207964493 0.361455912176125
0.349039956061435 0.119544618382003 0.36892285534462
0.348049113671799 0.127070813538137 0.389123432271594
0.348354244911322 0.124753111670614 0.39053937117097
0.348113941684339 0.126578395895266 0.399968792505768
0.348441635662826 0.124089313010461 0.408942357071042
0.34835434021651 0.124752387755837 0.424446016412023
0.347965820748181 0.127703486105271 0.428568191604404
0.349045022425531 0.119506135526077 0.439851292462769
0.348587788773155 0.122979169921591 0.446725470727337
0.348785556160817 0.121476977473392 0.458706524173277
0.347944733944458 0.127863656281373 0.461041556982937
0.348275186753535 0.125353617997763 0.477148348945477
0.348001727283806 0.12743074888962 0.481223768193816
0.348073366577805 0.1268865944276 0.487565789135281
0.348579187631989 0.123044502074976 0.499913632594311
0.348953322674525 0.120202664286915 0.511443533413232
0.348333937661654 0.124907360545794 0.517169482632012
0.348178332234045 0.126089301112516 0.520926837848897
0.348029810353207 0.127217436799726 0.541780895510179
0.348067718973521 0.126929492241066 0.535095316204668
0.349033047182953 0.119597096524145 0.551557083495243
0.348510945212431 0.123562854713992 0.559193237463402
0.348872007440246 0.120820314812123 0.573678471441103
0.34795023446392 0.127821875688046 0.580160374039492
0.348539951929996 0.123342526819758 0.587481976084226
0.348861209190807 0.120902335659704 0.60259507306158
0.347988167896607 0.127533742660704 0.609168931992605
0.348072519685164 0.12689302721586 0.612598201166495
0.348361214923922 0.124700169168731 0.624197490129448
0.349009758998562 0.119773987846507 0.633260407011821
0.348619302055438 0.122739802778079 0.643373275547445
0.348517224899163 0.12351515575767 0.649844455541384
0.348164046061842 0.126197815363783 0.664738476384496
0.348252770187166 0.125523888723958 0.665909743631658
0.348055316637499 0.127023697335914 0.670688454368062
0.348469179429948 0.123880097328066 0.686784056039631
0.34870023068887 0.121343313616933 0.690812605239567
0.345955889843581 0.124544371806601 0.69675631528947
0.338846915951833 0.125292864517392 0.70078403606553
0.219835244796792 0.131381633474154 0.607884302688326
0.210472347659806 0.127585005207891 0.607884302688326
0.194382316323022 0.130896695575919 0.607884302688326
0.182712149926656 0.133539042390013 0.607884302688326
0.168526841943591 0.131563570753754 0.607884302688326
0.159543587232672 0.133862276193784 0.607884302688326
0.152604608821195 0.131392643841157 0.607884302688326
0.150039403083891 0.133347491605261 0.607884302688326
0.123169796609316 0.133817100899087 0.607884302688326
0.109745249279626 0.135920855649329 0.607884302688326
0.10868690855235 0.138743081049976 0.607884302688326
0.0933100409475732 0.138585572153923 0.607884302688326
0.083944550266293 0.13733190731577 0.607884302688326
0.0615605848529736 0.133342435235211 0.607884302688326
0.0652564749775379 0.140943780598732 0.607884302688326
0.0436292212775099 0.136449577086972 0.607884302688326
0.0298445462554225 0.141127221112875 0.607884302688326
0.0235885828076966 0.134201801504136 0.607884302688326
0.0102331708203267 0.142429303601448 0.607884302688326
-0.00759936586653681 0.135919522383017 0.607884302688326
-0.0192506529663325 0.141216617964767 0.607884302688326
-0.0306384327640753 0.139239462774501 0.607884302688326
-0.0413694521207318 0.141002961882251 0.607884302688326
-0.0539694945777504 0.139758226484433 0.607884302688326
-0.0718004914908831 0.145815087728975 0.607884302688326
-0.0717041263365907 0.145239507773132 0.607884302688326
-0.09497777761479 0.148407683948925 0.607884302688326
-0.1056696088347 0.145903360136802 0.607884302688326
-0.117991615266661 0.145344361249857 0.607884302688326
-0.127418808533144 0.146639951807669 0.607884302688326
-0.152091956684352 0.150497644992445 0.607884302688326
-0.134866229685506 0.14309991302255 0.634058239063049
-0.18257251458775 0.152402907108683 0.607884302688326
-0.181001852280439 0.149382331657862 0.607884302688326
-0.193508815680393 0.153236584782105 0.618214576060012
-0.193913512893023 0.150162604264865 0.627639966061755
-0.15489641365104 0.145584702080912 0.661651288679088
-0.158168782196854 0.144462874456626 0.66609767045973
-0.193556500536362 0.152874382341266 0.656344721378313
-0.170703496339982 0.148865763728723 0.683012492779913
-0.175042421555538 0.143407557369577 0.688864835199529
-0.183897174396709 0.143291573221829 0.700692538477142
-0.185119156291838 0.147096101617321 0.702324796262926
-0.204069210342568 0.15482570684341 0.700959573264549
-0.199804983744948 0.14799887467845 0.72191283944583
-0.214938340094921 0.151085140729499 0.742077300854823
-0.216265889118234 0.151870363854249 0.74385153134551
-0.22925749431534 0.145220975011404 0.761214432194288
-0.234692721810464 0.151272639196454 0.768564903372103
-0.24508620373633 0.151528606775253 0.782620798806429
-0.252977466010204 0.153986382947505 0.793490552296014
-0.262831298831679 0.151545188096419 0.807139395482999
-0.265964109338356 0.155641052098708 0.811610845917354
-0.271646320272515 0.152759300362464 0.819721047442627
-0.274524365128174 0.15042487641433 0.82382887167665
-0.280807426824276 0.155992058921708 0.835275233515316
-0.287526123549231 0.149750797868565 0.848860181791097
-0.290552517686238 0.152640854540111 0.854979435196398
-0.293431891648411 0.15018161334952 0.860801419421027
-0.298812785878893 0.155175381776233 0.871681382126745
-0.299848094580985 0.157093318710096 0.873774736797027
-0.305297273665328 0.157888787695171 0.884792768870318
-0.307126638398974 0.156078461512903 0.88849167452144
-0.314158472433982 0.149789458399347 0.902709774483391
-0.314774237841402 0.154757334896509 0.903954828628901
0.347262824750585 0.133043270845245 0.340346387834447
0.347296172693776 0.132789968068596 0.345166646358627
0.347151347378924 0.133890025549514 0.362223436154732
0.346981166198704 0.135182679949078 0.365601571698361
0.346875646967134 0.13598417808624 0.367964465596126
0.346835863293727 0.136286365087149 0.385043351709051
0.347361463471412 0.132294035375849 0.394794259084134
0.347787733489425 0.129056193133394 0.401009513267871
0.347444250522852 0.131665205289385 0.408818032069628
0.346905872496435 0.135754592397741 0.414553215007167
0.346806904190677 0.136506331313242 0.422789903796794
0.34769252814463 0.129779349522672 0.434850036526137
0.34738565702743 0.132110267073217 0.445460070686868
0.346849018852453 0.136186438697846 0.448062518628053
0.347338137888815 0.132471210765786 0.465778313050282
0.346794645046954 0.136599448754591 0.474339535014855
0.346823572699032 0.136379721422347 0.482820098625483
0.347501216384487 0.131232506611586 0.484977415703531
0.347633005645242 0.130231467792202 0.496941619371925
0.347025472593614 0.134846139467714 0.50268696893883
0.347464152998986 0.131514030974439 0.508862123745366
0.347592706051025 0.130537573600713 0.518884029344593
0.346940502262985 0.135491553206053 0.536105577333433
0.347776495118717 0.129141557033913 0.540768536329713
0.347636764538684 0.130202916161881 0.552464729935685
0.346949852900789 0.135420528060494 0.560800264737862
0.346732928949553 0.137068229055247 0.570523822804607
0.347789594861908 0.129042054605695 0.580466883988909
0.346937846102211 0.135511728750176 0.584012847299591
0.347209213805701 0.133450486400332 0.593849262142416
0.347528783200639 0.131023115854429 0.60378144385728
0.347607019342509 0.130428853358054 0.618368138519525
0.347407397653086 0.131945130626478 0.618105402103244
0.347490282655705 0.131315556526955 0.632136120867268
0.347192450351747 0.133577817474646 0.639012616459678
0.347575983425387 0.130664594553179 0.643675376030301
0.346973038808517 0.13524441360651 0.66029627705364
0.347075045929259 0.134469592599608 0.663731680256926
0.347334094942379 0.132501919992806 0.673889884173383
0.347628858506484 0.130262968438477 0.680735837513789
0.347261176999253 0.1330557867592 0.686280457353894
0.346284434654729 0.130175212898069 0.695238251133566
0.335195963530136 0.133070363252395 0.700837510288744
0.217044910741343 0.139718064806179 0.607884302688326
0.207401246765778 0.139752152962413 0.607884302688326
0.198602995043658 0.14277509424288 0.607884302688326
0.186380337184997 0.140487683497175 0.607884302688326
0.170905641970606 0.140027107234992 0.607884302688326
0.164745182229786 0.141656065217118 0.607884302688326
0.145543243779889 0.14299298446101 0.607884302688326
0.13387809085873 0.140011703467756 0.607884302688326
0.136066549806767 0.145263126618134 0.607884302688326
0.113400160655274 0.143241858066358 0.607884302688326
0.104644495506113 0.149043426306957 0.607884302688326
0.103616895720908 0.146231848246272 0.607884302688326
0.0863916849147364 0.148540861869265 0.607884302688326
0.0718005962638096 0.147323322376876 0.607884302688326
0.062584230959777 0.14578776168044 0.607884302688326
0.0499901659129756 0.150840168429154 0.607884302688326
0.0371057654634103 0.144792079058131 0.607884302688326
0.0159389038954195 0.150490894738075 0.607884302688326
0.014998387347949 0.145287710468906 0.607884302688326
-0.0111071340263132 0.145745551965816 0.607884302688326
-0.0186484789922594 0.150502509678679 0.607884302688326
-0.02647288407914 0.155730784819317 0.607884302688326
-0.0448822554642302 0.151068143909488 0.607884302688326
-0.048570137428138 0.153276406011119 0.607884302688326
-0.0585161853807607 0.14960287432236 0.607884302688326
-0.0753306643503196 0.155648345973202 0.607884302688326
-0.089439775695217 0.157108803242467 0.607884302688326
-0.0983899432353669 0.153577939212597 0.607884302688326
-0.120746552081386 0.15207028035278 0.607884302688326
-0.132133909878892 0.159169655010375 0.607884302688326
-0.148188870242248 0.160130006243851 0.607884302688326
-0.151066993752272 0.159095524208909 0.607884302688326
-0.182607835295582 0.162171220753994 0.607884302688326
-0.18802772352402 0.1601763995251 0.607884302688326
-0.192349193294257 0.162044791290803 0.617771447707464
-0.192919561046854 0.157712418088248 0.627910009157716
-0.19261610933566 0.160017362671563 0.632220926250513
-0.192815989282148 0.158499123745977 0.647489211312858
-0.192195165774446 0.163214746457881 0.659982606458289
-0.193210817570891 0.155500105147938 0.664514376619076
-0.192179810361606 0.163331382398112 0.682385994125081
-0.192780057142327 0.158772055444801 0.688309103261829
-0.194941035145439 0.159367066813457 0.696513233188594
-0.203062553555749 0.163864050792945 0.700983700397349
0.345570862891002 0.145894997098742 0.337014805216332
0.345690503998914 0.144986232661267 0.34758676086763
0.346034862850007 0.142370567501825 0.352866166659871
0.345723795209801 0.144733360809254 0.368653923157511
0.345829562540001 0.143929978175899 0.377831404628171
0.345747988204691 0.144549596768817 0.377767895938843
0.346291609478514 0.140420383242419 0.384991855233054
0.346235078573684 0.140849778095276 0.406115602103431
0.345623227848807 0.14549724575513 0.412155484334246
0.345766488993674 0.144409069324816 0.415857627835464
0.346217773805429 0.140981220859921 0.427113418455438
0.345867030257701 0.143645382605079 0.435193880396126
0.346331608652942 0.140116559348751 0.442919843968192
0.346035836767567 0.142363169863511 0.458028066961734
0.346088633011203 0.141962142578775 0.463163966716523
0.345832399511886 0.143908429235037 0.469053234397067
0.345620525393786 0.145517772938971 0.475730361178601
0.346470390829921 0.139062404057188 0.490148506662592
0.346351307840335 0.139966929165092 0.498335606620885
0.345709347510574 0.144843101980078 0.505196639026917
0.346329553919249 0.140132166600643 0.508322196239485
0.346561754819066 0.138368425660882 0.524345822129924
0.345581556768823 0.145813769032297 0.527483253914484
0.346368560912777 0.139835879069129 0.539346765836123
0.346169796447034 0.141345645077259 0.557295921363793
0.346275943496972 0.140539378186146 0.559083917812636
0.34664807214897 0.137712780447263 0.565547034147204
0.345938541617748 0.143102199897899 0.582571565425265
0.346478195557958 0.139003121262097 0.586666938795689
0.346019687739687 0.142485833908452 0.592864927994349
0.345729470165772 0.144690255239097 0.60065978444665
0.345934366717786 0.143133911411458 0.609072651453778
0.346224692095863 0.140928671226901 0.620542499448965
0.346699304894909 0.137323629106596 0.627337073310091
0.345854856148414 0.143737854145768 0.633112376677017
0.346734622832877 0.13705536273402 0.64517338086018
0.346477818011803 0.139005989009866 0.651769489576323
0.346120877962945 0.141717217853968 0.664887642762507
0.346132175018204 0.141631408200026 0.674641743563829
0.345689920536302 0.144990664499805 0.682343291621132
0.345586786698114 0.137002299961989 0.694752619747083
0.341666726730592 0.138534787053488 0.699053358769047
0.341637898809711 0.138573071854118 0.699071611660492
0.219457299727563 0.150489712245349 0.607884302688326
0.210105511002456 0.151667842729482 0.607884302688326
0.197238810253303 0.153717509516271 0.607884302688326
0.186248265112707 0.145758749180698 0.607884302688326
0.17574241567082 0.152106449964527 0.607884302688326
0.165817552735668 0.151271369726796 0.607884302688326
0.150185107939597 0.147290703470425 0.607884302688326
0.142264801297309 0.150526838455497 0.607884302688326
0.128799030714884 0.152045477789742 0.607884302688326
0.110595308361154 0.149678543935035 0.607884302688326
0.109088282919222 0.150882331204478 0.607884302688326
0.0935119566404652 0.153154369176488 0.607884302688326
0.0836512540610114 0.158266618633296 0.607884302688326
0.0787819266302522 0.158688262807572 0.607884302688326
0.0546901852936985 0.156587847682744 0.607884302688326
0.0426191671551788 0.160990323466654 0.607884302688326
0.0384863194811622 0.153253138218322 0.607884302688326
0.0308811583189705 0.156007868494718 0.607884302688326
0.000102378605839534 0.163931280187192 0.607884302688326
-0.000804191130176382 0.164417391918089 0.607884302688326
-0.024443261560756 0.162778092433984 0.607884302688326
-0.0298189207390055 0.159374656737066 0.607884302688326
-0.0378103624122629 0.162425493750441 0.607884302688326
-0.0552862098554921 0.1601230306335 0.607884302688326
-0.075754292348994 0.16269897848308 0.607884302688326
-0.0820877656222753 0.167473017915029 0.607884302688326
-0.0884309378167103 0.169757232778943 0.607884302688326
-0.106069230484922 0.169867898140208 0.607884302688326
-0.116494759260516 0.167075973092456 0.607884302688326
-0.127202119771131 0.161769180524606 0.607884302688326
-0.143843991620953 0.169354301956678 0.607884302688326
-0.166901907656968 0.165006709218929 0.607884302688326
-0.167417431123393 0.166768421939203 0.607884302688326
-0.191151492279681 0.171142233698079 0.61028495148978
-0.191910927445914 0.165373750910817 0.619928706742618
-0.191944853607049 0.165116056132852 0.631888024042328
-0.191153645372684 0.171125879333056 0.638317799777311
-0.190645863636573 0.174982864543489 0.647628216044655
-0.191784496062311 0.166334092612799 0.660236540510602
-0.190587661513845 0.175424953556569 0.670849806113471
-0.191816604343436 0.166090206004391 0.678451191519088
-0.192135715771287 0.169510501124007 0.693822133173469
-0.198183518477271 0.174856727371585 0.700363200622247
0.345288523180442 0.148039580116415 0.33365986153893
0.345204624202904 0.148676856120104 0.350739361518622
0.344625654772769 0.153074565550195 0.358072656570036
0.345258324845834 0.148268959240711 0.366042078920582
0.344803839388211 0.151721119024625 0.37290851982649
0.344460315524369 0.154330441826223 0.381835378533405
0.344796156422994 0.151779476939264 0.396149115976617
0.345121829589005 0.149305743649134 0.396692021224958
0.345067867148566 0.149715629078033 0.406678454604144
0.345311761325625 0.147863068879568 0.411418425021489
0.344593161871199 0.153321373640928 0.42759697679975
0.344529381748929 0.153805831766968 0.430991237667179
0.345255815121601 0.14828802248887 0.447255812762632
0.344617494132867 0.153136551764294 0.449317718211765
0.345389764398392 0.147270576718799 0.458963789808048
0.345183301138969 0.14883882087068 0.468890332826448
0.345316512653027 0.14782697896492 0.483711486240594
0.344814992062577 0.151636406052442 0.48945465864769
0.34493964977162 0.150689536746291 0.497418514588548
0.345077895045818 0.149639459636236 0.503237276152622
0.3453217951734 0.147786854239062 0.517001805753116
0.344927886476066 0.150778887846879 0.519167887264668
0.345296136205304 0.147981753451501 0.531688023063861
0.34529806617012 0.147967093913317 0.535539738739555
0.345094782235494 0.149511188695805 0.542500654066395
0.345476377294398 0.146612686457744 0.556894934308247
0.344519961999593 0.153877381866727 0.560891315031484
0.344846140977687 0.151399806552386 0.577454700718146
0.344883791403599 0.151113823174921 0.581561705596724
0.34500766655686 0.150172897970075 0.594551826494186
0.345105016228779 0.149433453799222 0.604543559243849
0.344911012429848 0.150907058952839 0.612763913430853
0.345474109674554 0.1466299107405 0.61911183641437
0.344804782845021 0.151713952758678 0.632812048191334
0.344740903952616 0.152199161118377 0.640491581691323
0.345349750020304 0.147574516095727 0.642603674894138
0.344770842561019 0.15197175481047 0.652944366220386
0.344973672910157 0.150431105351823 0.659747106823458
0.344862912435895 0.151272414679724 0.678104027078659
0.345305650421297 0.147909485806249 0.680150551895942
0.344506485953516 0.15397974259914 0.689231768437692
0.341307400651167 0.150551884823587 0.69811510596854
0.337046353283625 0.1541763282527 0.700327248173498
0.215017455305643 0.160864383290315 0.607884302688326
0.202930298517969 0.157223041913668 0.607884302688326
0.196532462368127 0.159416643966824 0.607884302688326
0.187798869823026 0.157594435126673 0.607884302688326
0.173455129644892 0.1624467471738 0.607884302688326
0.167198647352725 0.16252004276929 0.607884302688326
0.155028722225347 0.157766599443801 0.607884302688326
0.136763995041797 0.165786537235653 0.607884302688326
0.13102078302816 0.166860472839437 0.607884302688326
0.116752949871899 0.159177595735294 0.607884302688326
0.10438617188001 0.16671183128101 0.607884302688326
0.0954058992599486 0.168026674548173 0.607884302688326
0.0899556043656962 0.164249638238344 0.607884302688326
0.0639956912007808 0.166033443754799 0.607884302688326
0.052463139369387 0.164207099831026 0.607884302688326
0.0552129488885815 0.164201656623724 0.607884302688326
0.0269472919260848 0.166580468646515 0.607884302688326
0.0160900062840378 0.170760275776445 0.607884302688326
0.00754198514587858 0.166785070270438 0.607884302688326
0.0064813427982951 0.166589969978714 0.607884302688326
-0.0126789466169547 0.165938717566399 0.607884302688326
-0.0238055269877099 0.169029691119309 0.607884302688326
-0.04137782236433 0.174920999048474 0.607884302688326
-0.0522931893840773 0.169948143544549 0.607884302688326
-0.0688568775776128 0.177985374248022 0.607884302688326
-0.0814429498616514 0.170150641860652 0.607884302688326
-0.0913516822827368 0.179551764845343 0.607884302688326
-0.10968049709216 0.179912834813466 0.607884302688326
-0.11532746033057 0.179532900899086 0.607884302688326
-0.135610016473313 0.179249465623751 0.607884302688326
-0.144530429827171 0.179534181487134 0.607884302688326
-0.157986793167654 0.177505657453126 0.607884302688326
-0.176007266173061 0.183827104410298 0.607884302688326
-0.185203057415582 0.185794288542122 0.607884302688326
-0.189041642402736 0.185741547672424 0.624940980512999
-0.189316963398844 0.185076863989615 0.622136204027058
-0.18990195309189 0.180633426122758 0.638883907283687
-0.189899559191511 0.180651609601413 0.65302906729808
-0.189940414053852 0.180341286112758 0.666696722616812
-0.1892317560278 0.185282572780402 0.670692410874542
-0.19052063336961 0.175934082858808 0.674756983166955
-0.191713286064039 0.175831512455753 0.694811350473614
-0.190819595730768 0.186116435514932 0.695942651559434
0.343514399070898 0.161515390617966 0.335017113659307
0.343945438960631 0.158241317602784 0.342156061222692
0.344218925351756 0.156163982222613 0.360030682433027
0.344280006667183 0.155700023569754 0.358399846189747
0.34352061618912 0.161468166916661 0.372328326911236
0.343584807490251 0.160980585577099 0.380797499299064
0.344294557086123 0.155589502165243 0.395441636639733
0.343340820318216 0.162833852142532 0.392938266122403
0.344376702603511 0.154965545013703 0.403524508329671
0.343783279445576 0.159473041406176 0.410662358274638
0.344251494540431 0.155916594673788 0.426747911439709
0.343557987481069 0.161184303772143 0.431411526546457
0.344146135886246 0.15671687310463 0.437320905218256
0.343390722712809 0.162454805823573 0.447537923195831
0.344058808474469 0.157380190651784 0.457806625248743
0.34416630787338 0.156563651650385 0.468573314250507
0.343276797608822 0.163320152900715 0.479220407488603
0.343697731660969 0.160122841342937 0.478828349909612
0.343882885869052 0.158716455505404 0.498272941522709
0.343603402381582 0.160839343354796 0.505097927505136
0.343382916367679 0.162514100901695 0.515081286064541
0.344113228115505 0.156966832439576 0.522832948407829
0.343893086938408 0.158638970690888 0.530743948360319
0.344231491347285 0.156068534010399 0.542048478758873
0.3436620814724 0.160393631409384 0.549426718978278
0.34325033564817 0.163521151447174 0.554256058348877
0.344356273587561 0.155120718795623 0.565021991982461
0.343598316396125 0.160877975249741 0.576047075489876
0.344361163964989 0.155083572691168 0.580439963401862
0.343823792096165 0.159165317273848 0.587505234000391
0.343432351297734 0.162138605328413 0.602071381845476
0.343404600964071 0.162349390039465 0.607598553882315
0.343431520597702 0.162144915121604 0.623035662264484
0.343452630617269 0.16198456860366 0.628522440249578
0.344177794525713 0.156476401863694 0.64080189136364
0.343828442157066 0.159129996554635 0.6463064311362
0.343512395258352 0.161530611085354 0.646887976424201
0.343784535929083 0.159463497466407 0.661106362911214
0.34426160305015 0.155839812919522 0.670418353530139
0.344213279856781 0.156206864014289 0.680060636416044
0.343779003332434 0.159505521710162 0.688141946997822
0.342878964564529 0.158021704196664 0.69460913112887
0.331279272122551 0.161667030352913 0.700817516387037
0.330941973099141 0.162226569293939 0.700782808269789
0.203815436389034 0.168346528165961 0.607884302688326
0.194262790014195 0.169216306693766 0.607884302688326
0.185679142070835 0.168468273329357 0.607884302688326
0.172255770972936 0.169917632769999 0.607884302688326
0.160600101101979 0.174726038311857 0.607884302688326
0.152126897558327 0.168382047669046 0.607884302688326
0.14551987384268 0.174987179907616 0.607884302688326
0.136602068056841 0.17336089984624 0.607884302688326
0.120154299015265 0.168560742485365 0.607884302688326
0.102290531588117 0.169188478804238 0.607884302688326
0.0939850483929597 0.172425031753935 0.607884302688326
0.0928110248401106 0.177863095930556 0.607884302688326
0.064769694945187 0.179198576161187 0.607884302688326
0.0580267136062922 0.173642334039578 0.607884302688326
0.0472115919580199 0.17792053194527 0.607884302688326
0.0313896389303075 0.174268818367897 0.607884302688326
0.023748461496064 0.181637071961216 0.607884302688326
0.00447462739902119 0.180430262200199 0.607884302688326
-0.0106894486939194 0.184951813478325 0.607884302688326
-0.0167978484359055 0.180234409179323 0.607884302688326
-0.0287783112658769 0.183046716949968 0.607884302688326
-0.0427223267426092 0.183129434688016 0.607884302688326
-0.0590263456827638 0.184534472540436 0.607884302688326
-0.0694677733340821 0.183784038957802 0.607884302688326
-0.0876620857381218 0.189577586688569 0.607884302688326
-0.0976007189557708 0.188023230105402 0.607884302688326
-0.110546473202201 0.184779655763896 0.607884302688326
-0.12866114241496 0.189382818722312 0.607884302688326
-0.121718530382587 0.191210658195988 0.607884302688326
-0.141952419466579 0.189633879102547 0.607884302688326
-0.154961680542343 0.19105804565531 0.607884302688326
-0.17883899787121 0.189668946029935 0.607884302688326
-0.182196727446351 0.194204972401549 0.607884302688326
-0.187147283078191 0.190314935645749 0.626207981836472
-0.188702059481297 0.186561373366913 0.630327586629049
-0.186463395738113 0.191965985737302 0.641180133676049
-0.185739529684129 0.19371355298217 0.653209618441187
-0.186196244215114 0.192610946567336 0.656853133947281
-0.1862912049766 0.19238169100906 0.669529915466799
-0.185050542525077 0.195376915125855 0.679040979026288
-0.188031200941787 0.19310187712138 0.696070249737972
-0.193180392095829 0.196126304350177 0.700505697806402
0.342889036262639 0.166265492740742 0.332963458891776
0.342081945823902 0.172395953260119 0.342304835357011
0.34242084173035 0.169821783284935 0.35425943322245
0.34264134611264 0.168146886216286 0.358402543400793
0.343001069421627 0.165414516412605 0.372771889360086
0.342515767694052 0.16910074900574 0.375854833534081
0.34259154844127 0.168525137083395 0.387961464380722
0.342260718670133 0.171038038678122 0.395234385496137
0.342456891486158 0.169547958203996 0.402069242798298
0.342910087363133 0.166105593757592 0.41044136376823
0.34290407967598 0.166151226671995 0.424899059765337
0.343020096198089 0.165269993697041 0.425750363261443
0.342976491432525 0.165601204774411 0.438912210005063
0.342119683828028 0.172109304660078 0.444218352769038
0.342318172920372 0.17060163032058 0.449866444635269
0.343047677973764 0.165060489311017 0.462770427517766
0.343181158126676 0.164046606890569 0.476023448135917
0.342421985587287 0.169813094828901 0.491181957312053
0.342712362122992 0.16760746606358 0.487663882778344
0.343074078236943 0.164859959403398 0.502765270248218
0.34250061977648 0.169215808862942 0.509956515457326
0.342164423212876 0.171769475293614 0.512430264329958
0.343124601663985 0.164476195874658 0.531708335611096
0.343127139621816 0.164456918171025 0.538968447276237
0.342953540040908 0.165775537901674 0.548955089039588
0.342616142801613 0.168338324369668 0.559719058364862
0.343045558084083 0.165076591471778 0.567829453161961
0.343059396918944 0.164971475084972 0.575096310350144
0.342907077375945 0.166128456880148 0.587668002658362
0.342804565209794 0.166907114087799 0.595283662605093
0.342760653898614 0.167240653610289 0.596998977162728
0.343211857120174 0.163813424884452 0.611941782468789
0.342975649334032 0.165607601147501 0.616825914463779
0.343095516438036 0.164697120099277 0.62816216115705
0.343027828437641 0.16521126150666 0.630106718887842
0.342705306449734 0.16766105922275 0.643134290083374
0.342378051533045 0.170146807102101 0.655807941994856
0.342987463041247 0.165517867132335 0.660796635666617
0.342860590616507 0.166481558874341 0.666062821494401
0.342235634755038 0.171228569929365 0.676333882154216
0.342162995756107 0.17178031790424 0.687947040169036
0.341471822240316 0.166943333239034 0.695170647214689
0.338158036716586 0.165083114289788 0.699063745634482
0.327399283252515 0.17215911927645 0.700226862109555
0.203509005825426 0.179251701514034 0.607884302688326
0.189153822050346 0.175961003281025 0.607884302688326
0.179795656783116 0.178658187467863 0.607884302688326
0.176601769448393 0.178826129930075 0.607884302688326
0.16387517075206 0.180401532356895 0.607884302688326
0.156471966719112 0.179333029821463 0.607884302688326
0.136341125501599 0.178880627652021 0.607884302688326
0.12790476909416 0.178859828155912 0.607884302688326
0.115190342250075 0.184589290869941 0.607884302688326
0.109557177206405 0.1803314667315 0.607884302688326
0.0996929789321565 0.1791089739073 0.607884302688326
0.0746946764003198 0.187282372178382 0.607884302688326
0.0768592737808295 0.181922550150823 0.607884302688326
0.0576264893894775 0.181115587546866 0.607884302688326
0.0508840173414267 0.183368990750119 0.607884302688326
0.0356245827471336 0.191649293983251 0.607884302688326
0.0121366594454262 0.190909558711092 0.607884302688326
0.0123806971180999 0.187249587964841 0.607884302688326
-0.00278787366768306 0.192587920088689 0.607884302688326
-0.0259986899976671 0.186844472535425 0.607884302688326
-0.0317003653313794 0.191605839380328 0.607884302688326
-0.0404032449730735 0.193755420048322 0.607884302688326
-0.0551744237937174 0.19300518257955 0.607884302688326
-0.0575509600618938 0.19611999158259 0.607884302688326
-0.0814522702662726 0.198362783700875 0.607884302688326
-0.0869637850357251 0.200007420198756 0.607884302688326
-0.102578635894904 0.195759314660964 0.607884302688326
-0.117457290208353 0.192180886764404 0.607884302688326
-0.142669176027111 0.19999901510214 0.607884302688326
-0.149895828752322 0.196066297239348 0.607884302688326
-0.159898451613697 0.205109273660886 0.607884302688326
-0.182780563403772 0.198814621648814 0.607884302688326
-0.183967380259098 0.19799190015863 0.613116298911983
-0.181097084897043 0.204921406149721 0.629224522477744
-0.181826837096299 0.203159628493107 0.635435342324484
-0.183205306561416 0.199831708815102 0.642884033547775
-0.182913120476261 0.20053710842462 0.652546066534775
-0.180974661223056 0.205216963043815 0.673252673167982
-0.181889950888037 0.203007258321121 0.672815078201825
-0.184383755388396 0.196986681674445 0.687450443106506
-0.190381117467714 0.19921404425725 0.699918887429546
-0.19023250183111 0.205417138040044 0.70068765716703
0.341084724424029 0.179970601809503 0.33380746355217
0.341606824791568 0.176004855795518 0.349470853815803
0.341876970828456 0.17395289292479 0.351141768871929
0.341971519669533 0.173234723176323 0.361463792096899
0.341453002442258 0.177173252537919 0.365664815011242
0.341145570952318 0.179508426542016 0.375682062069699
0.342006034180659 0.172972559436492 0.384768910541008
0.341071372599089 0.180072018988702 0.393425287761058
0.341826722753025 0.174334564950398 0.40644657754191
0.341171336830281 0.179312715268504 0.413690409423028
0.341104023483663 0.179824010897914 0.420422882368458
0.341283192599917 0.178463086346259 0.425756299986245
0.342023960167862 0.172836398045468 0.447368813025604
0.340994353817202 0.180657034717982 0.447394444250487
0.342006997741326 0.172965240466588 0.451740251298779
0.341994821072876 0.173057731446053 0.473301121071973
0.341169587675271 0.179326001419863 0.475596724580166
0.34190588615607 0.17373325920614 0.48722807602876
0.341195974054657 0.179125576970126 0.49373074974866
0.341646797166234 0.175701235466251 0.504270686596065
0.340966488842374 0.180868690215134 0.506838791849146
0.341772172178796 0.174748917698948 0.520683674679397
0.341937233092245 0.173495155586771 0.524679291561541
0.342056829598744 0.172586729930662 0.541539776151912
0.341760730192926 0.174835828210178 0.546534735549701
0.341549221728772 0.176442394496654 0.550030873299801
0.341692946715483 0.175350694837742 0.563689350404481
0.341680887964202 0.17544229014738 0.568509915701351
0.342034955351438 0.172752881334595 0.588632186629136
0.341854306598021 0.174125044846329 0.590684692435933
0.341438636020157 0.177282376347679 0.603771860026228
0.341853921670121 0.174127968664009 0.607401651060944
0.340935097180673 0.181107133558602 0.61218062712913
0.341568795186886 0.176293719321685 0.624287695320176
0.341947493324657 0.173417221384234 0.640081366440336
0.341850658361078 0.174152755957089 0.6397959669381
0.341233162576557 0.178843102101957 0.655045410272163
0.341831552429605 0.174297879914655 0.667602993569433
0.341255361509088 0.17867448446889 0.66638052086891
0.341960361175885 0.173319480350343 0.675371598421739
0.341822218514304 0.174368778040184 0.68229327854181
0.33971444754005 0.178797114209897 0.69564575196131
0.339855823152835 0.175635274408456 0.695940263918161
0.216475849189178 0.186653370539294 0.607884302688326
0.206752986766957 0.186453509626386 0.607884302688326
0.190886162301119 0.1875743493788 0.607884302688326
0.182779589972762 0.187243136877737 0.607884302688326
0.174545855184386 0.190814356459655 0.607884302688326
0.166004830047811 0.191969090560686 0.607884302688326
0.151837264620729 0.192977624512555 0.607884302688326
0.141007237216687 0.190110050774588 0.607884302688326
0.130882264301007 0.188736112355178 0.607884302688326
0.114225678766943 0.192137524221778 0.607884302688326
0.107632306528685 0.194018380459785 0.607884302688326
0.095809174490888 0.196542075675272 0.607884302688326
0.0796169794748915 0.198098266548144 0.607884302688326
0.0623460661347023 0.191739030084291 0.607884302688326
0.0623724193052081 0.198855218382638 0.607884302688326
0.0515583237959472 0.193082125354939 0.607884302688326
0.0309594808579599 0.193636821702535 0.607884302688326
0.0216561855771537 0.197077715144049 0.607884302688326
0.00739655901492003 0.197593607448627 0.607884302688326
-0.000751421998469681 0.200721602150893 0.607884302688326
-0.0210206275443655 0.20072006693863 0.607884302688326
-0.0213535699261639 0.204472707155152 0.607884302688326
-0.0423817724727815 0.1995636087101 0.607884302688326
-0.044657893941442 0.198364060681186 0.607884302688326
-0.0720334133903882 0.206416137065542 0.607884302688326
-0.0809883691188418 0.201174146085114 0.607884302688326
-0.0892765870342533 0.210537994367112 0.607884302688326
-0.115847933637141 0.202364151742094 0.607884302688326
-0.114439517029231 0.204504858830367 0.607884302688326
-0.133067696806077 0.209943757304295 0.607884302688326
-0.157739137545794 0.215293563877036 0.607884302688326
-0.151088241019447 0.206714463411412 0.607884302688326
-0.179767545144268 0.207361991568559 0.607884302688326
-0.179702683010689 0.207431671902736 0.607884302688326
-0.176206147559061 0.216729173403796 0.624141021515594
-0.177049872543358 0.214692241103792 0.643335607178302
-0.177458220648644 0.213706401569842 0.646554930240186
-0.176348521644955 0.2163854519547 0.656160346330044
-0.179681925698989 0.20833790267858 0.671415615172894
-0.178815216445721 0.210430323912455 0.676791126529521
-0.180015197480216 0.208015818903861 0.69144546456601
-0.183421254650374 0.214565323779825 0.699686850399838
