ply
format ascii 1.0
element vertex 854
property float x
property float y
property float z
end_header
-0.491622961444546 0.178263979587697 0.492771042710933
-0.491493339639322 0.17924855494783 0.506708400968701
-0.491060352818041 0.182537416376325 0.519479838893051
-0.491079299470271 0.182393502264729 0.521564419343573
-0.490826819100786 0.184311281069628 0.538921634245056
-0.491537569453072 0.178912596158129 0.537865000339438
-0.490937593424651 0.183469866543543 0.547303151800594
-0.491517253766415 0.179066909118609 0.559937452869145
-0.490813659144309 0.18441124086316 0.570255983737747
-0.491392212383116 0.180016692720065 0.569140634520828
-0.491226917092493 0.181272235103621 0.591661366058966
-0.49127273786356 0.180924191793342 0.586076520376708
-0.490779334549088 0.184671962048477 0.607209276641783
-0.490502675089007 0.186773399280205 0.6103556577909
-0.490471475832326 0.187010381162454 0.626146911706073
-0.490378161974376 0.187719170282757 0.629292145495931
-0.491759605297522 0.177226066479475 0.636963764268474
-0.491467765681889 0.179442808440176 0.640988697742144
-0.490595801920272 0.186066030768621 0.655900734644759
-0.491126059597953 0.182038323832576 0.657311507388852
-0.491011321864458 0.182909843443649 0.675234632249147
-0.491506228188173 0.179150656699884 0.672277884516805
-0.491042571058705 0.182672482247931 0.68513187991
-0.492067522847926 0.174887200479615 0.692251571981052
-0.490924390479577 0.183570152867883 0.701631497681761
-0.491137016589117 0.181955097221878 0.712677739973453
-0.490985979805103 0.183102335495222 0.724002399093462
-0.491024139000336 0.182812487631099 0.729308979171497
-0.491155847599588 0.181812061496642 0.742350928703685
-0.491224748078298 0.181288710402117 0.742359843752501
-0.49105277731778 0.182594958013586 0.761019504814899
-0.490476737090938 0.18697041793572 0.761265506702993
-0.491492068982357 0.179258206545689 0.766605739934268
-0.491338983784412 0.180421004067579 0.77427027857239
-0.491515303664017 0.179081721616915 0.784618771757486
-0.491023275275195 0.182819048274888 0.796580071481687
-0.490634562739617 0.185771613115667 0.80491770589386
-0.49097422842285 0.183191596105298 0.813310044128425
-0.491541263354144 0.178884538193869 0.820862128596605
-0.491772001301781 0.177131909479141 0.822510351433586
-0.490632067340037 0.185790567557297 0.84010734308745
-0.491182815308939 0.181607221407433 0.848091882759432
-0.491264442070053 0.180987204600993 0.850272407138653
-0.491290103342327 0.180792287886581 0.864109806990911
-0.49084281274637 0.184189797270404 0.87482757450425
-0.490424450369673 0.187367575013809 0.882319917609001
-0.49134275452283 0.180392362465735 0.881619937487377
-0.490733908009395 0.185017010874178 0.895713566313695
-0.48994711571339 0.182029341582133 0.906141632497907
-0.485712718649443 0.174209656007935 0.913595843086037
-0.488200486840485 0.173936795397549 0.911073430964089
-0.479543850806945 0.175130567231819 0.916941251524029
-0.47469208168538 0.155671779636956 0.917678472634611
-0.21029100631572 -0.147062863617588 0.59806552834501
-0.215485566213261 -0.146378986833209 0.608859695282605
-0.224691956014188 -0.145166942622154 0.627579695272561
-0.215306214890732 -0.146402598882765 0.626554078192776
-0.223719162953465 -0.145295013258234 0.641993797106301
-0.212072326317472 -0.146828348390355 0.642759616898697
-0.210860234755483 -0.146987923271795 0.66177520303103
-0.208135749736613 -0.147346608529169 0.664446404538898
-0.210012500565323 -0.14709952959522 0.681017230780762
-0.214542984306995 -0.14650308009535 0.693033833295819
-0.211805296379816 -0.146863503548578 0.693353835197251
-0.215556335375852 -0.146369669896201 0.704967989493121
-0.210732466648833 -0.147004744262148 0.717267377508885
-0.214080121785621 -0.146564017102328 0.725721410066941
-0.214946048697609 -0.146450015661636 0.740217968354249
-0.220881689459907 -0.145668573730499 0.752662118144367
-0.213153347747826 -0.146686029219104 0.754289113666026
-0.219092193799707 -0.145904165303586 0.767359788769794
-0.217479002986333 -0.146116545903252 0.784715108688648
-0.212873615496117 -0.146722856668696 0.788674648603126
-0.217422222103028 -0.146124021248354 0.80087807221317
-0.215301907017392 -0.14640316602505 0.808277531202424
-0.219111481014709 -0.14590162609356 0.817058981228585
-0.212240948626798 -0.146806148842183 0.825203833434075
-0.218302465149823 -0.14600813505276 0.835860225291927
-0.209594023387793 -0.147154623160825 0.844418400003058
-0.217836256111546 -0.146069512637047 0.852274362330945
-0.216903695367116 -0.146192286588202 0.870444988669359
-0.217645015501591 -0.146094689940987 0.877639596543522
-0.216813727607118 -0.146204131068509 0.889427361279915
-0.211656300536535 -0.146883119223476 0.897251319774848
-0.211413882190956 -0.147197910823355 0.902335947513079
-0.211984760032772 -0.149995173130124 0.910007349110382
-0.206415040247338 -0.156441619975187 0.915414347063039
-0.205328797535699 -0.157414705558283 0.915810351905558
-0.490359635315065 0.187859894231411 0.472342055072711
-0.488287887822961 0.195718002690839 0.483574042297226
-0.487340006710384 0.198006390128339 0.489328649725499
-0.488358456009643 0.195547636017478 0.501423720008225
-0.489702548287206 0.192302710211906 0.50225634875741
-0.490125430853121 0.189638853736441 0.516309933917607
-0.489974563195841 0.190784807364704 0.528472655712384
-0.490078231850275 0.189997365756425 0.532973327743748
-0.489162581971017 0.193606304215674 0.540878932268521
-0.490564404605131 0.186304517054231 0.543552224541924
-0.488395821521708 0.195457427691486 0.558569664042295
-0.490270219424198 0.188539075352209 0.564514952138388
-0.487988241832301 0.196441412105402 0.57952093177854
-0.488583954132872 0.19500323539009 0.58823039577267
-0.489120420564292 0.193708090855598 0.585909432055649
-0.490017327805022 0.190459977908636 0.597251578032738
-0.489996613277346 0.190617320367423 0.607200326788741
-0.490223629404865 0.188892961683169 0.615112173568033
-0.488221844284971 0.195877445895961 0.627255352517292
-0.489730398843476 0.192235473021237 0.628099553115465
-0.489871514687528 0.191567538495528 0.639212459733547
-0.489410624263634 0.193007477148795 0.645659270828201
-0.490265666486514 0.188573658347348 0.658069264152089
-0.488892540370343 0.194258242310425 0.670565642373509
-0.488961780443969 0.194091081985619 0.67800230276754
-0.490209202982061 0.189002541243511 0.685300561811271
-0.487227874506451 0.198277101215854 0.696725021668817
-0.489695490412989 0.192319749427561 0.702634087716919
-0.489595751894826 0.192560539510801 0.710204857888111
-0.488276469148219 0.195745569810264 0.716257882748273
-0.490167840099199 0.189316723531128 0.718811097546443
-0.489857280618535 0.191675656983629 0.732167229321682
-0.489138759982605 0.193663815583181 0.743989414223825
-0.490502096274052 0.186777795816285 0.747981527911604
-0.489430773091503 0.192958833575289 0.75805384314719
-0.48907542233731 0.193816726185463 0.764281652386084
-0.489249084747335 0.193397468039904 0.776720621411424
-0.490332984105277 0.188062330267764 0.783665433933069
-0.488996999849844 0.194006054818295 0.798189488632845
-0.488807280835306 0.194464077036234 0.799366149451557
-0.489220144426516 0.193467336154926 0.818176676550727
-0.48945585744066 0.192898274599352 0.818462933829311
-0.488583372188706 0.195004640327588 0.828883909487767
-0.490027640435302 0.190381645704774 0.8326934650516
-0.489079581963057 0.193806683960568 0.844899976464048
-0.488228607897496 0.195861117090874 0.851147200099786
-0.489933052922074 0.191100109197391 0.86263542753979
-0.489189236877966 0.193541953577814 0.86481182892389
-0.489494381005297 0.192805270487132 0.876953987039754
-0.487850230182609 0.196774601701853 0.882914036936799
-0.489943249059882 0.191022661841706 0.892082738305248
-0.488835372469266 0.194396257832539 0.898076462206751
-0.486334844425404 0.189315660233495 0.910870850417364
-0.485878976321776 0.182951205464501 0.912518980600443
-0.480587426677894 0.176340649309852 0.916454210411486
-0.46952363037366 0.173511798363415 0.917326542343854
-0.467939253189459 0.158556920583379 0.915887864049274
-0.464242825823323 0.161163362405315 0.913665378030256
-0.200124599705289 -0.148197570062308 0.598816302787668
-0.19934330749704 -0.148094710991746 0.606076701457475
-0.201918498975867 -0.148165125119948 0.624735784489242
-0.20363966409591 -0.147938529433134 0.626667387818947
-0.196721868427684 -0.147749591990992 0.634922915193112
-0.204904014706151 -0.14777207451747 0.650466953069709
-0.203135361926497 -0.148004922073276 0.652454816865372
-0.202657048602902 -0.148067893216957 0.666247264595659
-0.204208663439251 -0.147863619248458 0.681066405752933
-0.196233173391954 -0.14768525406898 0.688671554044109
-0.205272394108346 -0.147723576449111 0.705953115503214
-0.199818482164714 -0.148157268923536 0.701950802922214
-0.20223805971047 -0.148123054151107 0.721903188670027
-0.198819747075136 -0.148025782954565 0.721402800986433
-0.197680630801 -0.147875815452032 0.738616317649776
-0.194799069995349 -0.147496450775019 0.747226418913143
-0.19779716295773 -0.147891157201515 0.756396736185405
-0.200509965499382 -0.148248304431584 0.76708163436119
-0.210292180653526 -0.147062709013082 0.779586370063701
-0.205807312586104 -0.147653153095508 0.792070161833228
-0.201615895160214 -0.148204963668058 0.795196508400233
-0.206793787051802 -0.147523281268293 0.811494096416238
-0.196733003449049 -0.147751057944365 0.81956623267527
-0.2089059190066 -0.14724521382121 0.826786155088148
-0.208193890108236 -0.147338954204034 0.843487763925704
-0.20590445061468 -0.147640364631436 0.856370941826559
-0.194380428173921 -0.147441335533633 0.859058712701103
-0.200898327438394 -0.148299433250823 0.864305351264949
-0.203129063910056 -0.148005751222871 0.88126945400078
-0.20518076724233 -0.147735639354868 0.887570498123058
-0.199377384785951 -0.148099197351942 0.895780143612188
-0.196177946949716 -0.149051359448054 0.906597681159078
-0.198172151484071 -0.156466307462586 0.915157305526883
-0.190638919466941 -0.160352341434843 0.917310495465778
-0.485873750240887 0.201546246382919 0.479559254604876
-0.485976644067147 0.201297838712075 0.486593445279253
-0.485198232844669 0.203177089642486 0.493604826151947
-0.484871576018241 0.20396570898309 0.500564980555497
-0.485179990908145 0.203221129573046 0.512086159813818
-0.484606760455093 0.204605030307168 0.521205515584589
-0.486097810559116 0.201005316923861 0.530761094333647
-0.487939444418914 0.196559219482608 0.531404694213374
-0.486261538243077 0.200610043328706 0.54625046757562
-0.485496113076668 0.202457943146431 0.553026757915038
-0.486136586025438 0.200911704667176 0.562622804631717
-0.484770286910442 0.204210242520858 0.572786451410201
-0.485073279611467 0.203478753432746 0.580871103746493
-0.488083546981323 0.196211325122069 0.589713835776704
-0.487093986252283 0.198600336054909 0.58927048891891
-0.487249043974777 0.198225993598312 0.599350070730627
-0.484941703390199 0.203796406530616 0.613896882926104
-0.486571985972129 0.19986055621082 0.621156959826568
-0.486232398335873 0.200680393287882 0.628412813808438
-0.48575282593567 0.201838183480592 0.645381789963608
-0.485363765343018 0.202777458839958 0.650401093816365
-0.486482516104355 0.200076555579023 0.653753015487088
-0.485665053606989 0.202050084626896 0.660803441163625
-0.485024391393763 0.203596780030967 0.673529434926715
-0.487764364513443 0.196981899764896 0.680696781287734
-0.486149377261817 0.200880823890832 0.683774860291988
-0.485904352246122 0.201472366606844 0.702625303230154
-0.485810532758158 0.201698866887101 0.70741969765031
-0.487265510211712 0.198186240585783 0.709875136610054
-0.486748876637187 0.19943350436818 0.714861774555809
-0.486292840340502 0.200534473380571 0.730445100726742
-0.484968396345598 0.203731964035673 0.734514007196395
-0.486776819315609 0.199366044774964 0.742140253484072
-0.486074321541455 0.201062024428863 0.753130020042345
-0.486212255768098 0.200729021748187 0.759595460653911
-0.487228941939069 0.19827452420555 0.770529611584908
-0.484769768301581 0.204211494553405 0.779814310453486
-0.486598006193559 0.199797737839346 0.783074366903865
-0.484835175087931 0.204053588602728 0.801171212192768
-0.485166570438354 0.203253529453228 0.806161435309098
-0.486691543148424 0.199571919654329 0.81229558837093
-0.487236348109397 0.198256644128699 0.822043287063145
-0.487765874633974 0.19697825401143 0.83230446247855
-0.485766095739785 0.20180614733953 0.836327439628746
-0.486244862903766 0.200650301159027 0.848118387538286
-0.485876357447048 0.201539952030443 0.853669696640139
-0.485317317165849 0.202889594659228 0.867071866959859
-0.486834947712646 0.199225710410477 0.865005513724148
-0.487340130940476 0.198006090210369 0.877427758361171
-0.48630130559467 0.20051403644915 0.888896010133298
-0.485856421768847 0.201588081015132 0.894680771671775
-0.482499141900988 0.201728803350082 0.90990400193599
-0.48218200134462 0.204683296612578 0.908617585116605
-0.48009346602301 0.195920070807606 0.914431401419291
-0.476050647878232 0.195095039244132 0.916597948172763
-0.463490714117167 0.175074089839073 0.914474897813946
-0.188893340324995 -0.14671894671384 0.580406979913412
-0.185666657329463 -0.146294145838556 0.579365925021511
-0.188523563969961 -0.146670264733151 0.60130471580709
-0.196242817752842 -0.147686523773178 0.607918739363052
-0.186049642572106 -0.146344566802288 0.619362872791423
-0.188264834880285 -0.146636202402297 0.619244950144121
-0.191796163027972 -0.14710111057274 0.637462376885465
-0.19133062672958 -0.14703982155634 0.643674638772409
-0.194351433802741 -0.147437518352251 0.658732083431633
-0.187969828848057 -0.14659736412135 0.665776041782346
-0.189955419371509 -0.146858772072949 0.677233592632396
-0.194231658604331 -0.147421749648231 0.686048550342862
-0.195204794234668 -0.147549865384456 0.693879767973273
-0.185825160172801 -0.146315013133756 0.697409176662466
-0.189089706150106 -0.146744798765157 0.710025358877739
-0.190599315787212 -0.146943542644263 0.723969089309439
-0.192126411978931 -0.147144588671959 0.731946767594463
-0.192460232913743 -0.147188537031775 0.745342515252089
-0.185594168346515 -0.146284602482903 0.753843084223124
-0.181654484739556 -0.145765933296343 0.757110079683239
-0.182663298516389 -0.145898746149663 0.767372957614558
-0.188546796084082 -0.146673323298999 0.785388407102017
-0.189663452437215 -0.146820333896837 0.785554281558665
-0.188982900385759 -0.146730737519524 0.804814468936632
-0.190005602314785 -0.146865378782768 0.810720807705075
-0.187612885613483 -0.146550371653022 0.825922567339503
-0.184699032346027 -0.146166755592758 0.827702905922021
-0.19018625863311 -0.14688916263828 0.844752722551755
-0.188216787221795 -0.146629876808053 0.848194931310747
-0.184479426683877 -0.146137843958852 0.860359518736915
-0.191020687429002 -0.146999017273318 0.870815101795562
-0.193396363857543 -0.147311781008595 0.880302770391696
-0.190935436362248 -0.146987793757457 0.885789171185321
-0.188105756238166 -0.146776416445732 0.901432198710528
-0.182321262777185 -0.147836183000563 0.908035070339357
-0.18794875699435 -0.15608084794535 0.915724394266647
-0.174227076301137 -0.166124354558584 0.917494309221637
-0.483657663169333 0.206896353846464 0.474611362643597
-0.481297700062354 0.212593808786032 0.496834179001774
-0.483383444793349 0.207558375568816 0.498534485244982
-0.483703257650624 0.20678627903136 0.507084427534428
-0.482398452133062 0.209936358208119 0.51424623158911
-0.484118462178433 0.205783886629165 0.524637774795923
-0.483310215547023 0.207735166608458 0.529913262235538
-0.482452202184416 0.20980659410516 0.535944535043835
-0.479995631462982 0.215737280457776 0.547841986175475
-0.482293325428398 0.210190156524285 0.554569421288227
-0.482785144254182 0.209002800844849 0.562429108663174
-0.481420724603686 0.212296801269844 0.577929924371774
-0.480437404880733 0.214670745081146 0.587474063186479
-0.480451720504896 0.214636184107139 0.597624461567638
-0.480603876918224 0.21426884603048 0.597701611020746
-0.482283582240824 0.210213678659867 0.599146784934745
-0.482270090887908 0.210246249667052 0.617268728446538
-0.483654182368987 0.206904757241867 0.623015444791491
-0.484255817119742 0.205452282466999 0.626994352412293
-0.483036156876516 0.208396802767684 0.640957566773494
-0.480944358016832 0.213446851944488 0.653756759753294
-0.48255411471031 0.209560555502972 0.652708307658003
-0.481868425985592 0.211215954521752 0.668365838506
-0.48120049081278 0.212828492674743 0.675943222841793
-0.484230400994428 0.205513642421434 0.677131318192144
-0.482400426789587 0.209931590965555 0.68922261649112
-0.480996651162047 0.213320605124092 0.703970730870469
-0.482626426739913 0.209385978820382 0.707114185729172
-0.481857067826104 0.211243375544431 0.71360670243843
-0.48109943705839 0.21307245801912 0.721437943703041
-0.482159253919006 0.210513833780587 0.734464803144248
-0.483804816882414 0.206541093356588 0.736089969352345
-0.482297181702403 0.210180846655284 0.745399053431457
-0.481093768229607 0.21308614378245 0.760605607506459
-0.482042081543787 0.210796712917978 0.761149018086396
-0.484214505559772 0.205552017395361 0.77178653214744
-0.483307075463789 0.207742747439991 0.783498449547029
-0.48252185937757 0.209638426764734 0.795288773201309
-0.482883103886526 0.208766305371878 0.79702688781307
-0.482468973729045 0.209766104014657 0.806763047441886
-0.482110829082103 0.210630741678596 0.823899393350854
-0.482188901662649 0.210442257795791 0.823024827158354
-0.480361199545131 0.214854721035882 0.83740851443733
-0.484855483294633 0.204004560254679 0.835092673954004
-0.484233480306799 0.205506208303746 0.84996938482371
-0.481673058575241 0.211687613173468 0.863014081685317
-0.480965175717306 0.213396593569665 0.866503519721491
-0.481071310586201 0.21314036132974 0.876952223704011
-0.480613012602665 0.214246790537202 0.886946995781204
-0.483284035018891 0.207798371994544 0.895381137201896
-0.482317494951646 0.210131806133465 0.894024795150754
-0.48330793073562 0.20744417546368 0.901085386587961
-0.477246984726958 0.209763307820661 0.912188145804023
-0.477748667412444 0.199947105789989 0.914904410832657
-0.475203161713087 0.200378160493276 0.916092042613114
-0.176316528759824 -0.145063178059599 0.559447549117989
-0.178512664328058 -0.145352304792198 0.56995659031579
-0.17497176583841 -0.144886136662333 0.574521680413462
-0.183096896907871 -0.145955830460851 0.58870473951303
-0.182380129998936 -0.145861466307103 0.604051774107896
-0.178965089791431 -0.145411867734423 0.610967481087873
-0.180630951688054 -0.145631182613749 0.618503743261623
-0.170938603883457 -0.144355160817788 0.62906466916886
-0.176333378307922 -0.145065396344689 0.63565924910192
-0.179518533947106 -0.145484730039792 0.653185986605313
-0.175244195699803 -0.144922002734002 0.650250828575507
-0.174707026499846 -0.144851283067201 0.66523525163372
-0.175402363247387 -0.144942825886679 0.670841003763171
-0.177631311612846 -0.145236272505985 0.682323083521879
-0.174236172544998 -0.144789293968046 0.696392369562887
-0.177522172562258 -0.145221904077391 0.708630865468204
-0.172560197945926 -0.144568647726185 0.711074502531066
-0.17361346202673 -0.144707312573042 0.723824823515703
-0.175383212281189 -0.144940304614148 0.744505047576206
-0.178633448296241 -0.145368206303278 0.752346720673525
-0.177427761659241 -0.145209474646209 0.758739242174369
-0.17757011599669 -0.145228215950277 0.762525053442403
-0.17750802953636 -0.145220042112707 0.781475775247841
-0.181173066519473 -0.145702553385285 0.784689760030966
-0.176177536548124 -0.145044879387783 0.79716804603047
-0.177909367740421 -0.145272879289649 0.801820527456329
-0.174945211815995 -0.144882640758961 0.815166449949131
-0.176853105400072 -0.145133819714435 0.826474154903909
-0.172625612452054 -0.144577259709295 0.83372990729183
-0.184967387316012 -0.146202085194797 0.848522485479819
-0.183286515024454 -0.145980794159487 0.855758100224923
-0.182086959700469 -0.14582286970509 0.873845762669968
-0.172426791139971 -0.144551084386986 0.874150851490161
-0.17722250767544 -0.145182452446602 0.885935209684218
-0.173696389879031 -0.144718230231917 0.889913164418626
-0.17990102945515 -0.146505926998817 0.905647739890571
-0.174809848737626 -0.148685348634462 0.910854790456289
-0.169478469893313 -0.155126202144038 0.916322427863425
-0.153383311866496 -0.16796507329154 0.916032444030143
-0.47848452544156 0.219385413108879 0.493199720674552
-0.478746906063041 0.218751970253996 0.491402512977157
-0.48025832097624 0.215103091872176 0.496444388813766
-0.480043617759612 0.215621431289644 0.510394617085404
-0.479531998233633 0.216856590088038 0.515399227492259
-0.478819669832279 0.21857630297545 0.527135269247442
-0.476475784292399 0.224234943234478 0.535481506338111
-0.477192601797033 0.222504392693044 0.542960316275296
-0.47920507571812 0.217645850858836 0.55729199010557
-0.47879060079294 0.218646481844468 0.566375668932177
-0.477252801286272 0.222359058269677 0.567990544089232
-0.477191026861714 0.222508194923254 0.580207987927958
-0.478779773671149 0.218672620828736 0.582351050118916
-0.478272790909458 0.2198965854879 0.589590051740116
-0.477694165460944 0.221293510893237 0.605737214884379
-0.478196616819906 0.220080486007999 0.61004363374541
-0.479115347880054 0.217862473022415 0.615896514766563
-0.477221092187272 0.222435610806533 0.632939505641796
-0.479293694206379 0.217431906902604 0.636612421383676
-0.476611384413007 0.223907575584249 0.645132604424193
-0.478544622078988 0.219240326991745 0.658679813438576
-0.478728247339237 0.218797016398058 0.655732895005917
-0.478167406854784 0.220151005101952 0.669905865630168
-0.479459854507865 0.217030760449228 0.677114401963553
-0.47864638109762 0.21899465898887 0.691022090350572
-0.477796071274455 0.221047488496174 0.698114091733474
-0.478524803287047 0.219288173788041 0.69692313822966
-0.479861080640722 0.216062114877704 0.710662831870015
-0.478625066377944 0.219046117274189 0.725229190689846
-0.478555348185121 0.219214431880848 0.730252997302081
-0.47966129090288 0.216544449972427 0.730688874298462
-0.478649097251198 0.218988101614064 0.744136429346471
-0.480353409291381 0.214873528372139 0.749574705149903
-0.477106272136823 0.222712810929559 0.762182316212443
-0.478025724228677 0.220493057219454 0.773851129366391
-0.478667349782676 0.218944036105025 0.775635810679965
-0.480460669295828 0.214614579814705 0.787121763067603
-0.478692550154548 0.218883197025471 0.78878508961682
-0.480074433712139 0.215547034999116 0.80189945071423
-0.477343123086439 0.222141002154737 0.81249061363148
-0.478368724990022 0.21966498012951 0.821878928636392
-0.477430376046297 0.221930354875688 0.829929046018745
-0.477742769164108 0.221176171173878 0.836415310885747
-0.478465016287022 0.219432512374353 0.848103444274294
-0.479264788115544 0.217501692379132 0.853588619891097
-0.479792284098888 0.216228204422046 0.861203716295387
-0.47969365784057 0.216466309272482 0.87357810852524
-0.478936141030054 0.218295116630157 0.878101845154581
-0.478390494000284 0.219612425089696 0.885323985733097
-0.478024797692762 0.220495294075025 0.894344298370736
-0.478522740889864 0.218474752133275 0.902581073492559
-0.476584514032325 0.219766914933871 0.9071874150349
-0.473426623512119 0.214473706131567 0.913719646675841
-0.468518526479972 0.211977610284105 0.916801362984159
-0.161067216345992 -0.143055567993828 0.546044350124632
-0.163084493920868 -0.143321147624887 0.548000496912326
-0.164829919085279 -0.143550937207134 0.560302186288133
-0.169935800540008 -0.144223139253034 0.573228119692764
-0.16479805227723 -0.143546741862264 0.58835586944928
-0.165680947372867 -0.143662977206713 0.590953346594907
-0.172889331436826 -0.144611978972301 0.611043167475384
-0.160878311625242 -0.143030698215535 0.608486069792454
-0.166515666477828 -0.143772870061664 0.62085028683493
-0.165974707010602 -0.143701651396711 0.627532459415941
-0.166728943879673 -0.143800948564297 0.638402313775384
-0.166968563912228 -0.143832495140054 0.650846532610689
-0.1674472149823 -0.143895510748902 0.660324088829964
-0.15957818264476 -0.142859532988069 0.673405967808562
-0.165984873505357 -0.143702989841137 0.680952986230725
-0.165207329356867 -0.143600624212004 0.693813561112845
-0.165124236332623 -0.14358968480783 0.7080042829645
-0.163025737428481 -0.143313412185915 0.716896918671801
-0.169746854402505 -0.144198264022122 0.721800631375565
-0.160282655390964 -0.142952278584589 0.731171915539417
-0.158220780817715 -0.142680827647309 0.742040699757206
-0.169921526572592 -0.144221260049573 0.75683414540041
-0.172390857455847 -0.144546353627724 0.765130447765317
-0.167027436688205 -0.143840245888052 0.771622038963128
-0.167082627319526 -0.143847511872508 0.781929426708552
-0.160156330291155 -0.142935647569691 0.789169211513032
-0.170451298145578 -0.144291005800308 0.810026986191621
-0.170887092392499 -0.144348379201349 0.815127627028905
-0.161708797020033 -0.143140033691969 0.819986509286481
-0.166925225009785 -0.143826789465305 0.824976019195125
-0.159283375441252 -0.14282072088342 0.835463036994387
-0.166135983732492 -0.14372288387995 0.851903550088458
-0.163169987306733 -0.143332403042664 0.858142284773177
-0.167554359282189 -0.143909616563584 0.863473553106423
-0.160773675685541 -0.143016922632736 0.882262167111098
-0.166959241668288 -0.143831267843356 0.889026819238159
-0.170732694819457 -0.144653653393964 0.902653169755577
-0.158517468593517 -0.146794366534757 0.911178298630701
-0.165201156438716 -0.149280913616852 0.91302361878473
-0.158558788966356 -0.15698262458393 0.917420359991388
-0.473762416678333 0.230785592128063 0.48773277567751
-0.475632825233285 0.226270026427519 0.500990267401177
-0.475916546572702 0.225585062521962 0.50649586344134
-0.477449560270325 0.221884040061856 0.508669826146212
-0.473750946587033 0.23081328337804 0.522550906401205
-0.475110892514186 0.227530083476612 0.532433659972002
-0.476494996251059 0.224188561463322 0.538319966220337
-0.4774715987319 0.221830834509029 0.542324790637809
-0.476733085799586 0.22361376244621 0.552518987304374
-0.475275674589018 0.227132264356719 0.562088435426658
-0.474438095601528 0.229154358907876 0.570958494289095
-0.474712720305452 0.228491356223097 0.588975085957008
-0.476469972569303 0.224248973975199 0.586026046140117
-0.475235362211311 0.22722958704571 0.588722342908673
-0.476446932618382 0.224304597337189 0.609770956492073
-0.474700311856898 0.228521312867886 0.613817230892355
-0.476226646800594 0.224836414346093 0.619657001406741
-0.475119472275128 0.227509370101386 0.630237093543075
-0.476214561061439 0.224865591901471 0.630942363664071
-0.473077365099804 0.232439452939874 0.647195342645398
-0.473965394696202 0.230295559844459 0.659271412524233
-0.473733984326019 0.23085423389863 0.662408648700542
-0.473805446963389 0.230681707830288 0.670508197685438
-0.475548318176345 0.226474044510499 0.683231560512871
-0.475104159722311 0.227546337874071 0.687010962396825
-0.475349278405949 0.226954569023638 0.694838583093744
-0.473715051105868 0.230899942735496 0.711010407558406
-0.473463766675405 0.231506597015535 0.713247661854134
-0.476458212464792 0.224277365379004 0.724106623865774
-0.473775753897016 0.230753393233833 0.733524123678514
-0.473561337538177 0.231271040115338 0.742425855210793
-0.475771640091924 0.225934897713132 0.75162348139556
-0.474887050766104 0.228070485260658 0.755629862436983
-0.47577717179013 0.2259215430123 0.762149367118003
-0.476376676276773 0.224474211149944 0.77313839399861
-0.474507235768176 0.228987439779848 0.781742659705065
-0.474690348772236 0.228545365881999 0.793286937805654
-0.474870372229885 0.228110750808997 0.805344442811076
-0.476939805970895 0.223114695805019 0.802089709753019
-0.475897850736848 0.22563019826244 0.812951203892172
-0.476029852007502 0.225311519004577 0.818583957072759
-0.476573991718721 0.223997849533925 0.829667607293072
-0.477018656025938 0.222924334932739 0.837949001191257
-0.474458381463788 0.229105384504082 0.848207296808149
-0.474769903023377 0.228353304929951 0.859422810118163
-0.475821819397514 0.225813754153025 0.865743866479275
-0.474544299254838 0.228897960607679 0.874051043103328
-0.47590913725085 0.225602950207266 0.874161714531529
-0.475961250394438 0.225477137949237 0.885453241025308
-0.474967092477416 0.227877247475654 0.900284186391883
-0.474796576402677 0.226692475742551 0.904810827252241
-0.474179938370039 0.220721111289503 0.91044096002225
-0.468827438989495 0.224065464418627 0.914157290821148
-0.462744118526859 0.218069204859754 0.917538557452379
-0.153310731279865 -0.142034407362373 0.541170531477012
-0.457121549177044 0.20508254464288 0.916232171891937
-0.154823515529764 -0.142233569187183 0.560064749102681
-0.155933544755978 -0.142379707307209 0.562975717376424
-0.150625667361088 -0.141680911991284 0.570389178000331
-0.154228660493005 -0.142155255035891 0.590037066492174
-0.147745686414469 -0.141301755306657 0.593373068390733
-0.158255362518422 -0.142685380414578 0.609996835312274
-0.154015868494065 -0.142127240437764 0.616580505251452
-0.154297284500793 -0.142164289557911 0.623665802297696
-0.15094035239581 -0.141722341062059 0.629758272333743
-0.159495289387738 -0.142848619883749 0.652782763706096
-0.1496174648274 -0.14154817960965 0.650898257633951
-0.157170759865252 -0.142542589766398 0.674480937990843
-0.153609519903109 -0.142073743630874 0.682389922392444
-0.161815872262364 -0.143154130415052 0.68902699822416
-0.153679199104225 -0.142082917071731 0.69651204535567
-0.148257577413495 -0.141369147035172 0.697347562460908
-0.155391605733283 -0.142308359681332 0.722809192003929
-0.152903607063958 -0.14198080844252 0.72575394158202
-0.153825115492215 -0.142102127328649 0.732609417943028
-0.155410589776903 -0.142310858978088 0.745873212730621
-0.156230667328781 -0.142418824236008 0.752545429640313
-0.161200011515579 -0.143073050809572 0.773450253924697
-0.161492321126136 -0.14311153409987 0.784090902059951
-0.1536948163871 -0.142084973126026 0.779005362352793
-0.153149737541823 -0.142013212134664 0.793283378384904
-0.155545576526597 -0.142328630320827 0.810493774514976
-0.153517913890498 -0.142061683470519 0.811913623611161
-0.15520394883721 -0.142283654182274 0.82812325174704
-0.154077414914363 -0.142135343177714 0.836289033750989
-0.160698438475344 -0.143007017466102 0.849269905371713
-0.157165614493704 -0.142541912365382 0.85967494791346
-0.15591557484647 -0.142377341523741 0.868731450881074
-0.157071306039912 -0.142529496421897 0.879331812886794
-0.160325166386871 -0.142957875263375 0.886670823122993
-0.153155149469473 -0.142323399804892 0.902533437801167
-0.15441278702598 -0.142179495753829 0.899794525609834
-0.145477427386537 -0.14879447522065 0.914606429741951
-0.146691660419506 -0.151720565167089 0.916158163843702
-0.141929814681247 -0.157443719211347 0.917761433164884
-0.132773011069719 -0.16425218811691 0.916437130319278
-0.470600308688011 0.238419596123987 0.494473636954722
-0.471850831477828 0.235400567044755 0.497912944399991
-0.471381902358114 0.236532662085358 0.509077942051847
-0.470768311779894 0.238014000781042 0.51653731454241
-0.471643360058813 0.235901447358344 0.52914903928686
-0.471002218728469 0.237449299453459 0.542315205944884
-0.473237286814429 0.232053367767505 0.53834326625253
-0.472170601978033 0.23462857276631 0.547313152463378
-0.472359477614218 0.234172586643832 0.555684291721698
-0.47113683955685 0.237124296023804 0.564807508568755
-0.47272477904098 0.233290670984987 0.574214676219878
-0.470918279285377 0.237651947195389 0.583008581272621
-0.471313467438748 0.236697878595833 0.59110233340404
-0.472342906247816 0.234212593461347 0.601570890505994
-0.470560945923283 0.238514626244445 0.616685054651103
-0.47265134378746 0.233467959369993 0.611690367361901
-0.472317736741933 0.234273358023808 0.624514668469448
-0.47147209681335 0.236314913408278 0.629732138101073
-0.472474291551334 0.233895401279697 0.642417968320189
-0.473616051377109 0.231138949223338 0.646453069010112
-0.473924931955465 0.230393245541918 0.660601872287018
-0.471478944142184 0.23629838249414 0.661504724667635
-0.471144887269691 0.237104867126316 0.676713281452906
-0.470888618600942 0.237723554422021 0.686798519018375
-0.473281552877874 0.231946500036783 0.692486703969587
-0.470272053882036 0.239212073328483 0.697028640731476
-0.470944562955801 0.237588492801783 0.71263843891744
-0.469673358407862 0.240657452061969 0.717022344636311
-0.472235309858686 0.234472354123247 0.721088347949681
-0.471477214439949 0.236302558364735 0.732846017491641
-0.47367703403324 0.230991724067837 0.736289023969889
-0.470646672700789 0.238307663495532 0.752839860453515
-0.471820838200693 0.235472977221192 0.755619029504838
-0.4708964690487 0.237704601764573 0.766616072596235
-0.472856900590759 0.23297170134763 0.77721750241048
-0.471736468726216 0.235676663150726 0.789575399250986
-0.472592274588213 0.233610565031933 0.788312624249981
-0.469830272514049 0.240278627898683 0.804336792536733
-0.469722254619721 0.24053940616415 0.812571893895538
-0.471798563003159 0.235526754305184 0.813313077335303
-0.470099122604553 0.239629566363945 0.824864837309721
-0.469956537893511 0.239973796307128 0.833637719035654
-0.470217054663235 0.239344853188435 0.84465565363672
-0.470945047960032 0.237587321897991 0.849675264949562
-0.472452894238595 0.23394705896231 0.859381656265137
-0.471470047969072 0.236319859755919 0.868248452021997
-0.472086373203605 0.234831919015878 0.874292551931812
-0.470008841775046 0.239847523566962 0.88529020899426
-0.471280688017252 0.236777015119774 0.890610233243567
-0.471481351792059 0.235350665647144 0.902935020445571
-0.468965592549678 0.236504790308612 0.908695684088332
-0.471295865195583 0.2282426086533 0.910166228534322
-0.461115520759982 0.222777250679912 0.917499998444462
-0.459109488996409 0.225200660736245 0.917620185245423
-0.144589959949275 -0.140886296035812 0.539461645695781
-0.14097484770982 -0.140410357480429 0.539120581791583
-0.139845672051806 -0.140261698684837 0.555163626361901
-0.142256693949736 -0.140579115739437 0.5536384462993
-0.143360710485208 -0.14072446227371 0.574788128096213
-0.136962866771973 -0.139882170169689 0.576655079058565
-0.142780732717152 -0.140648106752 0.586539637044171
-0.141655512078966 -0.140499968644646 0.592064578829016
-0.143525177809207 -0.140746114807686 0.613895503932339
-0.139176846652883 -0.140173646150619 0.625676651743803
-0.142086413654708 -0.140556697913307 0.62930703782056
-0.144277043418098 -0.140845099792947 0.635170641118837
-0.142881069507586 -0.140661316341061 0.645983528203542
-0.144549444662436 -0.140880962097109 0.67012002310017
-0.143247885297785 -0.140709608555995 0.668021163235926
-0.142117178634242 -0.1405607481997 0.673902739039946
-0.146027148088728 -0.141075505443874 0.692699234474901
-0.139720594474412 -0.14024523190938 0.701559262041173
-0.136836302336933 -0.13986550764571 0.710844782223141
-0.140484130432685 -0.140345753325285 0.724440835680695
-0.142098548334037 -0.140558295474148 0.730637673519759
-0.140020805579636 -0.140284755451187 0.736210641718875
-0.140607370731362 -0.14036197821841 0.754726412624671
-0.144628944393996 -0.140891428435326 0.761983145304091
-0.143300197768299 -0.140716495623393 0.770701705303148
-0.140441384592726 -0.140340125728693 0.777379450909423
-0.136702291031442 -0.139847864722637 0.789900617664468
-0.135718903163435 -0.139718399253717 0.799894246988498
-0.1455453406708 -0.141012074293948 0.808302282872744
-0.145489823756709 -0.14100476535355 0.819695679957207
-0.143032274483528 -0.140681222853791 0.823094418236543
-0.138925888191035 -0.140140606842326 0.836044937121052
-0.134210576136417 -0.139519824233431 0.849834098963802
-0.143771951895773 -0.140778603232522 0.859592508001103
-0.135632631733683 -0.139707041404519 0.871670749411817
-0.141934565550113 -0.140536706731083 0.882918003402102
-0.144545312008737 -0.140880418022928 0.896949692026747
-0.14758930314712 -0.141399830039706 0.901116685937916
-0.135617290160393 -0.143158639565485 0.910387381702211
-0.134078468390583 -0.148444441487193 0.915504031479937
-0.127281707266272 -0.158463427584901 0.917670415630148
-0.467005089649411 0.247099222686677 0.497441037804165
-0.467960919065563 0.244791646346886 0.505562832859081
-0.466943875204829 0.247247007429 0.513871181226657
-0.466532117354586 0.24824107881547 0.517361629173705
-0.466465819894046 0.248401135043857 0.533899523127482
-0.467672320351412 0.245488385276675 0.540571773344339
-0.468738964054088 0.242913279583455 0.551061784381107
-0.467011246390108 0.247084358999786 0.558753346176443
-0.468286046009784 0.244006720468657 0.564129333415695
-0.468452039924892 0.243605975707532 0.571089996191556
-0.467687196849336 0.245452470233625 0.581638357476855
-0.468626022529685 0.243185944543424 0.591828199962523
-0.468229742056132 0.244142650237179 0.596358437973738
-0.467949429365484 0.244819384936646 0.61162062429471
-0.468587907976051 0.24327796121573 0.608657017023522
-0.469123375929796 0.241985227219582 0.619277263803259
-0.467557885985945 0.245764654273786 0.629293921974197
-0.470272170309638 0.239211792247389 0.6375755336972
-0.468680010579732 0.243055605860794 0.647924388242185
-0.46909492684076 0.24205390939617 0.655025023136172
-0.465774684507637 0.250069683467163 0.666548604266066
-0.468409876210388 0.243707767918927 0.668982542382934
-0.467375304303136 0.246205445448663 0.680102196300501
-0.468288649566899 0.24400043492576 0.685600943228448
-0.466119185686095 0.249237984049875 0.695922967927256
-0.468195985409066 0.244224145992345 0.70749207933105
-0.466848499667188 0.247477264345491 0.719100992716328
-0.467830543527377 0.245106400739378 0.72365539164561
-0.468347795163493 0.243857644824306 0.734120451198044
-0.4684944164087 0.243503669825597 0.735469249782939
-0.468917420035179 0.242482448733619 0.742180548901073
-0.467092766693437 0.24688755157788 0.751679250080205
-0.466183452537396 0.249082830145853 0.75903475634851
-0.468028238872147 0.244629121956816 0.766323853175423
-0.467150709503811 0.246747665259233 0.781702663379112
-0.467472145067177 0.245971651162727 0.780627846529361
-0.467631371867878 0.245587243660979 0.799410004927867
-0.468635232373522 0.243163710013523 0.803634049693825
-0.46973428303029 0.24051036701222 0.806801970395357
-0.466792506751041 0.247612443203051 0.8213407423847
-0.470063133647343 0.239716451392536 0.824792316136503
-0.468745946512204 0.242896422438371 0.835953608142184
-0.469086554523851 0.242074121957202 0.845578669153427
-0.46861973085378 0.243201133992723 0.856612753057987
-0.467882863047152 0.24498009024516 0.867463159905402
-0.469340198817972 0.241461770462314 0.864377125000894
-0.469534233994523 0.240993328107507 0.877628733378462
-0.469566883374551 0.240914505531441 0.883627748563431
-0.469880549593972 0.240157248290457 0.89100147733605
-0.469410409078691 0.240587500973245 0.902255412100508
-0.468144437995597 0.240239856692968 0.907099245262983
-0.465870573824991 0.236573416001795 0.91260276499264
-0.460836694278523 0.235511325914953 0.91602180194567
-0.448840993773162 0.229652256897906 0.916947742940137
-0.448837962964265 0.22068095278692 0.915544535685835
-0.132846133206091 -0.139340191913839 0.532279718606257
-0.129924335697949 -0.138129943759459 0.550115779265497
-0.129058091513156 -0.13777113366979 0.551216369206099
-0.132846133206091 -0.139340191913839 0.570900744281029
-0.132340524966674 -0.139130762123825 0.570694915309231
-0.132579277061278 -0.139229656479454 0.59100581462621
-0.134282008187017 -0.139529228441301 0.593725556300882
-0.129733607058435 -0.138050941370239 0.606642716696951
-0.130519728426873 -0.138376563502717 0.610750280643445
-0.133018232533935 -0.139362849220182 0.624316756619716
-0.126174267439812 -0.136576614627112 0.635831519413893
-0.130681363871378 -0.138443515095991 0.640505144348977
-0.129859814739045 -0.138103218303223 0.658130926066074
-0.128130483304628 -0.137386905769249 0.668116027510032
-0.132132208957607 -0.13904447480761 0.675339974472952
-0.133084718175678 -0.139371602220972 0.691693691987711
-0.130305183118047 -0.138287695926058 0.697319192620427
-0.135543380975128 -0.139695291319244 0.706236247057877
-0.127231750297459 -0.137014638368727 0.716021947175942
-0.134026131927469 -0.139495541692658 0.726049159931979
-0.127880454384871 -0.1372833403997 0.735153048381899
-0.129848309681914 -0.138098452752523 0.75007726754554
-0.127806392147327 -0.13725266281645 0.751716477620241
-0.135496108718097 -0.13968906780854 0.767240641069907
-0.130029918249576 -0.138173677484291 0.775893598552236
-0.13430600211649 -0.139532387302043 0.789692138201551
-0.134556126799294 -0.139565316841242 0.793228158058304
-0.134512789712467 -0.139559611405523 0.803297998378616
-0.131191596589794 -0.138654860407925 0.810548003923878
-0.131305141023133 -0.138701892052146 0.829658019633727
-0.124077007426168 -0.135707901085639 0.836179143850637
-0.127185835303538 -0.136995619755529 0.839312484493155
-0.128907145573779 -0.137708609814515 0.857165228133139
-0.129621390048918 -0.138004459562967 0.866168668990338
-0.13163772238236 -0.138839651761731 0.871473877235337
-0.137558778447656 -0.139960623430134 0.883747808687918
-0.129473159184702 -0.137943060328647 0.899892812372061
-0.128628228148178 -0.137697770597378 0.900959981402132
-0.122794945129026 -0.142423593991657 0.913827524142993
-0.119874941448924 -0.148351166682893 0.917310495465778
-0.463947464789206 0.254480982092835 0.50394256260292
-0.464150032991254 0.253991939192145 0.509138643049639
-0.465273024475851 0.251280797919601 0.512092132114788
-0.463725898872341 0.255015889534289 0.528762451355951
-0.46412759200035 0.254046116536737 0.530265484207539
-0.46634090803978 0.248702698936527 0.539774791846577
-0.464573989174158 0.252968418425524 0.552228102575351
-0.465395577219727 0.250984929423228 0.553620140639347
-0.465152683677819 0.251571326306316 0.558074399112365
-0.464677076838115 0.252719542789086 0.575728135130051
-0.465858658321825 0.249866952746065 0.580328853079781
-0.465374411963583 0.251036026871664 0.582238751884984
-0.462830784660729 0.257176886403836 0.603578616146689
-0.464718445114227 0.252619670935845 0.606421655900758
-0.464207250637787 0.253853803573877 0.616444257701504
-0.462533197805451 0.257895324625832 0.624097713784139
-0.46453220805233 0.253069286976494 0.637273100930937
-0.46461919460912 0.252859282851347 0.636477404741783
-0.464977767102079 0.251993612275752 0.649868788228078
-0.464455580199092 0.253254282979038 0.663640560567207
-0.464806804295279 0.252406353002591 0.663400613150695
-0.463718287283011 0.255034265536481 0.673956408743441
-0.463661173868387 0.255172149516661 0.682658803546309
-0.464689202192212 0.252690269594778 0.69233156356893
-0.466442941018341 0.248456369535876 0.693822424853468
-0.464842159458125 0.252320998088948 0.706652866953028
-0.466015779915496 0.249487627663684 0.71497994520937
-0.464045504210645 0.254244293991949 0.721137081917295
-0.465547128433957 0.250619052426442 0.73024394995591
-0.464826906594082 0.252357821760184 0.741927032143121
-0.462581967924478 0.257777583143039 0.749138655562474
-0.465069099012166 0.251773117539742 0.753700235409626
-0.464063095629317 0.254201824550409 0.770713703912205
-0.465428798612715 0.250904725885715 0.778477920379742
-0.463239834208896 0.256189353436969 0.77788717025372
-0.465174223372513 0.251519324883257 0.794325338993858
-0.465248716667993 0.251339482159003 0.796076039058963
-0.465561666008851 0.250583955615968 0.80441290873116
-0.465475090410965 0.250792967598555 0.806996730061243
-0.463636475989976 0.255231775469684 0.827840502875602
-0.465994681008303 0.24953856493158 0.828343746425766
-0.465446081274763 0.250863001848605 0.84257268209638
-0.46471962432974 0.252616824057761 0.848947074798223
-0.463408972187986 0.255781018233938 0.857979429695315
-0.46601264133799 0.249495204860063 0.86576401979655
-0.465812256314212 0.249978977102165 0.870140295093183
-0.463692045921363 0.255097617787666 0.877178127776379
-0.464825694393117 0.252360748272194 0.889159817429956
-0.464276214290459 0.253687310588285 0.896713765759555
-0.46409661662505 0.250730969278407 0.90644449445091
-0.461230253422464 0.247237813841501 0.912774903040281
-0.457371484465833 0.241970910561693 0.916319704504459
-0.452712435622597 0.237390092281114 0.917781840847459
-0.449707363330438 0.232594960953449 0.917445266270818
-0.118438320539231 -0.133372280503094 0.520423642026906
-0.123724132510749 -0.135561735509851 0.530112205219048
-0.118881805964627 -0.133555978181008 0.547800180677413
-0.116101949441799 -0.132404523907801 0.552011421640092
-0.11978602457564 -0.133930517793039 0.562324281719839
-0.122894291289218 -0.135218004021277 0.571742315574623
-0.118471830367543 -0.133386160728454 0.58489382135347
-0.120325421982072 -0.134153943514293 0.5966127810895
-0.123760151199097 -0.135576654939063 0.604252497012147
-0.121029033470049 -0.134445388935255 0.611192282168232
-0.123951106849258 -0.135655751359172 0.621094754650959
-0.124149079681881 -0.135737754391426 0.630071397742678
-0.119464506997929 -0.13379734085181 0.651178825834133
-0.123427567442277 -0.135438894236364 0.657485006017352
-0.117159106203282 -0.132842412575962 0.656689345354554
-0.124874363138491 -0.136038176635718 0.671255687772811
-0.115962590042696 -0.132346799354648 0.680129293826831
-0.118240846105563 -0.133290483914446 0.689109879093093
-0.123535647701459 -0.135483662545542 0.710929546954517
-0.115413955466008 -0.132119547472198 0.708914513053925
-0.119787571939202 -0.133931158732013 0.722859376577782
-0.121734183649281 -0.134737471703002 0.732059871556044
-0.12291352838767 -0.135225972288356 0.742740511062688
-0.123182893306344 -0.135337546890898 0.756346611754767
-0.122819787017662 -0.135187143341543 0.764264589309913
-0.122537178282086 -0.135070082970422 0.769848755356601
-0.116141796228397 -0.132421028987227 0.781858460387026
-0.120497149627412 -0.134225075434026 0.787667672988173
-0.1154656680581 -0.132140967529187 0.802925282508763
-0.124304281078778 -0.13580204091492 0.80794007135868
-0.120397303070699 -0.13418371763608 0.822276369697231
-0.12285100949457 -0.135200076114929 0.829783042896531
-0.120308103142583 -0.134146769816091 0.839279438943172
-0.116966629867738 -0.132762686267344 0.846504512250463
-0.126940044967518 -0.136893810064849 0.86917590293831
-0.1206869942633 -0.134303711656955 0.868327057952796
-0.119627171360156 -0.13386471863676 0.879996924045021
-0.126329374436007 -0.136640862048556 0.894047381938878
-0.118764787859117 -0.136588180004433 0.909644838619673
-0.115842214977636 -0.134525740868482 0.908257954236553
-0.11350826398374 -0.144062436999138 0.916687358277022
-0.107262882661064 -0.146431385247637 0.917706748583548
-0.461308605313485 0.260851752428318 0.503926536302592
-0.462744038385261 0.257386310438556 0.511676200790785
-0.463083280020086 0.256567308682839 0.515979984022219
-0.459379629041612 0.264899508120433 0.532675721301251
-0.460895831803174 0.261848275835099 0.537111266470885
-0.461152178623678 0.261229399864367 0.548796834700035
-0.459650123213195 0.26454699325282 0.552883756398399
-0.462118915883767 0.258895489659809 0.560864657177728
-0.458394672312712 0.266183128720686 0.571918464036682
-0.460447993728693 0.262929452588258 0.579050855772886
-0.459713578348432 0.264464296910542 0.585692281874222
