ply
format ascii 1.0
element vertex 854
property float x
property float y
property float z
end_header
0.117799393446063 0.152022303713042 0.429293909812643
0.106407481116097 0.172198983103326 0.416802162886038
0.119035840066276 0.149515037995984 0.455059079797253
0.125192732861957 0.137030094466789 0.469369684535104
0.124289105281417 0.138862469934229 0.481951955049558
0.125732251651248 0.135936058588503 0.493036606063423
0.296481612293075 -0.0519293649910151 0.716289557225114
0.298205868318428 -0.0519890072271276 0.724420170306795
0.29457686182429 -0.049833957898472 0.733577819272234
0.293406299614925 -0.0456829058792723 0.741273850320145
0.287193949438572 -0.0450852966291197 0.745157843249541
0.289433825927387 -0.0387954612223052 0.750146973467635
0.283674470950663 -0.0363487869045337 0.754588902626626
0.276905716612636 -0.0295665749427835 0.761314276054983
0.276604005399217 -0.0238179864073724 0.763702071607183
0.276185474970003 -0.0255825170049514 0.76324882000718
0.272401872570818 -0.0173943070174425 0.767287874600512
0.263592463282885 -0.00592509757951957 0.772103717004992
0.254550616893617 -0.00598958866402859 0.775381250404482
0.250881920005489 -0.00268078314793423 0.776749462150668
0.235808077381984 0.00922153583407413 0.780246599911521
0.233201272727852 0.0176835865231878 0.778669625786425
0.227999528546081 0.0295859861361229 0.774360024432208
0.119020406712625 0.149546333741286 0.671646514427494
0.112810571032353 0.162138634820193 0.663574589167846
0.117705734141018 0.152212225995803 0.682573039020592
0.126743266597659 0.133885923084768 0.706650165378745
0.105017062824628 0.174279891130854 0.686653881878252
0.116641004953803 0.154371283204919 0.703233232478081
0.117541788678504 0.152544674506649 0.722156080498388
0.109538905420882 0.167512475443434 0.720735645008713
0.117396894750034 0.152838490328151 0.73803437748986
0.117028632252975 0.153585252799463 0.757268033631303
0.121850003594398 0.143808478876558 0.765327297260564
0.120004670556387 0.147550444107506 0.771804437368274
0.117559183879073 0.152509400529338 0.774833400948362
0.123972994574139 0.13950347903741 0.807017444233574
0.117397180981683 0.152837909907785 0.798081781052823
0.119455707379971 0.148663631308356 0.820811512945272
0.111978331517602 0.163826249610518 0.813310756073884
0.117070323836744 0.153500710630829 0.834872609189769
0.117730037016392 0.152162944639653 0.842112350286258
0.101927287313547 0.17890406696608 0.830488943964978
0.102917769353111 0.177421705837852 0.844686530754909
0.10364691305774 0.170019776682157 0.86067657400633
0.0974454871952152 0.17841242779821 0.861321213268193
0.0884079394417929 0.190337754489596 0.862482383806853
0.0820947182202179 0.201130791371154 0.860680307963368
0.0777544662966522 0.198044370569814 0.865729536981874
0.0654857121738168 0.212329749560163 0.865579689348887
0.0553420127644082 0.226735059813553 0.864140444847729
0.0396349659162087 0.240674759580617 0.864093737709117
0.0247962072044789 0.256407626537604 0.862151175508619
0.270614430926811 -0.0347752575027129 0.212330856435495
0.26946782979975 -0.0317832771151067 0.213574742447008
0.26187145755034 -0.0297689773723983 0.212125138232311
0.260969880105012 -0.0193510349229153 0.215314451807701
0.249490992438338 -0.00852171322624009 0.214354001039088
0.240585046461552 -0.00188113211172525 0.21249329015905
0.231968135392344 0.00327477809197359 0.210846259703498
0.227585527461054 0.0118827569404486 0.208799517949743
0.21485004046275 0.0342254479429505 0.196568076461037
0.13251048135681 0.120697357546084 0.0860486094209785
0.13514583736437 0.112933849094654 0.105998994984337
0.129025814956972 0.129257372886742 0.0928819264148177
0.127867947486194 0.131605295851568 0.107286867096763
0.132876609793136 0.119618777953204 0.130747733503773
0.133502590101797 0.117774699429173 0.138555579466737
0.132772433246953 0.119925672161962 0.147643973803276
0.123031544466781 0.141412551002113 0.140571151110079
0.132353100641883 0.121160986181805 0.170446120111391
0.13417037732765 0.11580746169856 0.189843103796001
0.127756551382287 0.131831184804455 0.175260355041285
0.135353248210373 0.112322836445415 0.207729041922213
0.131658784294578 0.123206376184067 0.198755725638506
0.137061689761749 0.107289929929243 0.229067672620077
0.134165987920999 0.115820392473579 0.234413141672828
0.122510101252705 0.142469933239789 0.211466317285635
0.126686897622351 0.134000228059189 0.234132224422282
0.132253336651622 0.121454881419989 0.248634499780583
0.124944330265118 0.137533805104113 0.252681165361581
0.133313012409578 0.11833317730143 0.275734309456905
0.131390619933314 0.123996362917957 0.281984131463586
0.130830508670118 0.125597816054451 0.295227478074509
0.132726835152972 0.120059999815218 0.305789407697454
0.132721130162312 0.120076806175754 0.322351976536484
0.133262620188865 0.118481627996618 0.32584499017913
0.13306010482249 0.119078219027919 0.341963799708835
0.133168505406326 0.118758881205503 0.3517521915799
0.128360595803113 0.130606303889129 0.353573808961417
0.133456254589932 0.117911199445462 0.370271561478795
0.131478023538629 0.123738880199645 0.372236315257563
0.130289663078488 0.126694542421727 0.374988801461462
0.13748234759629 0.106050711909265 0.407384967976247
0.136876681273912 0.107834947359445 0.422086355231126
0.133663273263638 0.117301342098559 0.425461752522715
0.134583142540295 0.114591494592929 0.434939639383939
0.128947817031407 0.12941553703356 0.42593494258652
0.124081174330393 0.139284112192371 0.430845240304695
0.129170051522256 0.128964890065915 0.458579511458725
0.132971061910938 0.119340530986681 0.468994262780558
0.129284506733488 0.128732797857023 0.473169515872882
0.12763873242795 0.132070098009603 0.476346207589771
0.133152172657391 0.118806995932327 0.505501194241664
0.122225452010968 0.143047144801959 0.491398657526989
0.132008048613323 0.12217747667957 0.509151231322638
0.289601862773947 -0.0522018808124333 0.723159890268121
0.284273299041534 -0.0520648622861773 0.730747835648779
0.284253999375662 -0.0506258044154574 0.73715178648208
0.288028786564218 -0.0479195820704918 0.740701935761833
0.278026012751614 -0.0432017523527033 0.751471039293689
0.279382185356906 -0.0369118263942196 0.756105904451589
0.27582612867753 -0.0358888854988554 0.758317948899061
0.270240846951422 -0.031989958402937 0.763046316610349
0.263097478748756 -0.024838897287613 0.768914430649924
0.260509848368728 -0.0297638645938131 0.76791972116889
0.253776771216538 -0.013116585723006 0.775057147480138
0.248077516013575 -0.0139620442482873 0.77700507852946
0.243459961717241 -0.0116265531352739 0.778837331759557
0.238296907795164 0.010697296813066 0.779171500783233
0.228303673474135 0.0140661683182746 0.78128643109739
0.228250775470264 0.0161632058712317 0.780635942563002
0.212606040930627 0.0353091617918956 0.773736994702604
0.133700389757334 0.117192000434029 0.697536528998357
0.12794864586154 0.1314416557343 0.694839048921411
0.128534077334108 0.130254518144322 0.713707762128484
0.13538988963605 0.112214894286139 0.734880315102949
0.130564344873103 0.126137542842871 0.733354906162641
0.131706789725928 0.123064956743611 0.747348256747433
0.133752565205235 0.117038296520944 0.751046361162815
0.123760137513281 0.139935110458127 0.747692107541364
0.132286161527111 0.121358182455011 0.779818045532656
0.132368112211514 0.121116763523703 0.781875516085485
0.133440076587971 0.117958858302405 0.797411951863258
0.134109752598923 0.115986056390316 0.814001507667507
0.134002725560919 0.116301347877192 0.814438579182524
0.131729569009369 0.122997851138521 0.828130591276603
0.136626681640099 0.108571422531829 0.846362135632076
0.132375936749164 0.120901022610759 0.850640973002464
0.131201277569681 0.123477843329473 0.852803011181556
0.127708419602073 0.124074299849975 0.860618722154985
0.119231767772842 0.137230930180768 0.862963899948617
0.113593108971215 0.143268622184495 0.864835277578775
0.104378740244146 0.160824717819625 0.865113556274099
0.0975346010246659 0.158737897877319 0.867949018783959
0.0914878866802722 0.171094759384792 0.86757769771972
0.0777903135160795 0.182771886431411 0.868353294803344
0.0650927137667228 0.2013635193904 0.868118174837404
0.0563993803466557 0.206650913329563 0.868254278975893
0.0466445178004503 0.212827599649871 0.867823970173681
0.0307706992123863 0.227270510221226 0.867803813514788
0.0294862091103006 0.245105299561257 0.866341378758126
0.011297925414527 0.250696003859395 0.868218202779655
0.00841528451666664 0.253874059071455 0.868080865476009
0.260035309102329 -0.0378488219329236 0.207358829240037
0.262468631247992 -0.0391961225410632 0.206901236978152
0.261295506745881 -0.0338657818946441 0.210035362132487
0.244663512538016 -0.0272523836374589 0.209340007109257
0.246182820159063 -0.0175616273119849 0.212439635131218
0.237202467741518 -0.0105805176322068 0.211611933746581
0.229032760614054 0.00489225213132439 0.210242387353755
0.22617426644761 0.00372470111408741 0.210023003158226
0.212689195708772 0.015357358509451 0.206264993540409
0.196049083126978 0.0327206875578793 0.196897923907124
0.144207646984893 0.0862386187833149 0.133236885063166
0.136980587834794 0.107528848501736 0.125512981078682
0.141435083167361 0.0944063284088019 0.138393183943349
0.142869223878016 0.0901814861120623 0.160715850660864
0.138970588741433 0.10166649487182 0.149795134879515
0.134877457935233 0.113724469398062 0.149112137509437
0.142841757411853 0.0902623997121887 0.186951687886062
0.135937646106983 0.110601255757144 0.172863317234885
0.14037054645435 0.0975423524391845 0.199106393305397
0.137276806485256 0.106656216496903 0.201451318336888
0.143819786661392 0.0873812184513785 0.225268815662027
0.139732905806646 0.0994207812143581 0.2199627368266
0.143793639989359 0.0874582440633756 0.249161801877127
0.13881315829284 0.102130270018196 0.238851811018059
0.142147586402041 0.0923073615640046 0.264714692182922
0.14117505317332 0.0951723520695795 0.270130718099474
0.13713647497993 0.107069619780738 0.274702237636715
0.140905638581435 0.0959660218641116 0.289807005616623
0.140465962771567 0.0972612650327804 0.292329431320002
0.144105036215171 0.0865409003633566 0.322443296791961
0.139772618896755 0.0993037902234579 0.316400354063426
0.141366293268822 0.0946089769151701 0.325920493019816
0.139978786678548 0.0986964395233016 0.345425066786433
0.138312855082004 0.10360411575079 0.33942296330385
0.140777394442236 0.096343816915584 0.363910135915127
0.143021916051823 0.0897316694730885 0.36856015465022
0.144231792406677 0.0861674886644437 0.38534917594453
0.14088820000903 0.0960173942418319 0.381533394524173
0.137687064463822 0.10544763546469 0.385930018785351
0.140370395015038 0.0975427985650109 0.412507072437014
0.141112064728241 0.0953579100451667 0.413158684202227
0.138925003855681 0.101800783614888 0.419006110434293
0.140122693839837 0.0982725026966683 0.428843694636651
0.13576953717399 0.111096488704157 0.432061993967272
0.143626815983219 0.0879496917379394 0.466582169694486
0.138299209646535 0.103644313907428 0.466734382919123
0.13643805659426 0.109127093998349 0.464111996453631
0.139215199058232 0.100945896115397 0.483643944280921
0.140595949938238 0.0968783351879565 0.490421840059601
0.138576915258161 0.102826219556346 0.500401531597029
0.139916425951247 0.0988801483019435 0.510802092030411
0.144707616396558 0.0846903115835658 0.532836179039589
0.139608504827823 0.0997872546804423 0.531235958595983
0.138551364229632 0.102901490459163 0.535228073496081
0.138975989286999 0.101650585377609 0.549328667012122
0.272696119977221 -0.0512176363160612 0.725957688587228
0.272393873498592 -0.0501674578745299 0.743624390068074
0.270424172755998 -0.0495942607767773 0.745721155956275
0.264768839484963 -0.0501002562144375 0.747105545744632
0.26439639942785 -0.0423255935514439 0.758393716852854
0.261183148613482 -0.043588831681899 0.758241266030822
0.260222563434092 -0.0353071805472663 0.765100994301754
0.252332992462096 -0.0300979695697156 0.770727320663911
0.254842664393767 -0.0220551079593122 0.772843334541412
0.246670356411613 -0.0226265615014076 0.775652085761061
0.237869162889392 -0.00662790702208521 0.780823267403738
0.232279536669167 -0.00997454359995723 0.782299555797714
0.227643160183129 -0.000637061827119979 0.78377621775688
0.213966123054728 0.00802135615154824 0.786246196013493
0.209772049484589 0.0258647377181689 0.781167312613633
0.136360091842402 0.109356770751027 0.708480471593078
0.139376516115173 0.100470671390036 0.718720796640636
0.141091857594906 0.0954174383403856 0.74165715842148
0.139577439217907 0.0998787710161623 0.737761383125903
0.140776048721871 0.096347781279939 0.747895546604812
0.136670652871371 0.10844188746157 0.752463865953496
0.140886570226689 0.0960221954257855 0.771413268648293
0.143426030664104 0.0885411862143609 0.786289359270318
0.142335465919932 0.0917538863519977 0.795178971446777
0.141423619053744 0.0944401005984807 0.807270076397411
0.140684057125787 0.0966187797832196 0.817276436637758
0.137806163315295 0.105096781562098 0.820736403123854
0.137138642758951 0.107063233709669 0.820762425067398
0.138446416127976 0.103210657597047 0.842120734668259
0.140658440423945 0.0949835691366664 0.854355198537401
0.134439431058943 0.0942469646484768 0.864090498625936
0.132724576041753 0.100463977592022 0.86380248314382
0.126043822969688 0.113806381701956 0.86536921352503
0.119236944543105 0.122725012961482 0.867017266708909
0.105863961206948 0.130139658621392 0.868096615091224
0.0923245519361464 0.146958830250458 0.866852079074305
0.0993009734211268 0.151382385392235 0.868215217251251
0.0685716556777084 0.171821279144402 0.862221091844875
0.0681573324447944 0.175646822315259 0.863932001338957
0.0595686590915712 0.195173076304075 0.867148518520643
0.0484808261259153 0.200486861962699 0.864456899077918
0.0382820466891742 0.21643578822668 0.866557983652397
0.0251707532818022 0.223910640079509 0.864752985988669
0.0169377909371632 0.238376818650202 0.867563732752057
0.00749698530213207 0.242535222985846 0.866558888727613
-0.00778054057488513 0.260049480017648 0.868184263135683
-0.0185170525100775 0.278489338550003 0.866130738956285
-0.0244723387367695 0.271505285059567 0.868354201280816
0.256950147265786 -0.0449630434089138 0.20052370393936
0.255460777777922 -0.0400630655916899 0.204669217517589
0.251874943479039 -0.0367950514686337 0.206183921212794
0.236329529911401 -0.0288782851703457 0.207104844862228
0.230026327900309 -0.0226870940719162 0.208425540087669
0.228657216269885 -0.00897132353815432 0.210587465238059
0.222640198673663 -0.0120487266268784 0.209497416122621
0.216661157008345 -0.000758307656004095 0.209090288042173
0.207691254676392 0.00557641943239633 0.208068772517258
0.200340900931382 0.0131677320913696 0.206303783451473
0.144284656086224 0.0860117572863058 0.132668904656677
0.14567543773754 0.0798252965553119 0.141112700302668
0.147371801744055 0.0712982040516641 0.158837600601099
0.145120678755908 0.0826139022787084 0.162918240624812
0.146282829241242 0.0767721362970283 0.184474902395943
0.146586260948552 0.0752468803284855 0.190371534930243
0.146133015140211 0.0775252067042893 0.191394315412824
0.146665782999374 0.0748471509467328 0.207205707305751
0.14889120647088 0.0636606402753061 0.223695132836538
0.144412144283613 0.0856361891675982 0.215088101938035
0.148256293673714 0.0668521545930971 0.246571976697776
0.145313048277809 0.0816469352730889 0.238794717643674
0.147269860767935 0.0718106500310307 0.261853851066888
0.145132679396882 0.0825535972696849 0.256793849705806
0.146966954284692 0.0733332716766447 0.285478962329612
0.1460844655897 0.07776926796825 0.281364636062786
0.146130772782503 0.0775364967300395 0.284740278586108
0.146090078542591 0.0777410565171305 0.297218224277014
0.14536877775455 0.0813668135832014 0.305363930029254
0.145805601150512 0.0791710415373543 0.32441173936785
0.145686426089892 0.0797700994150079 0.333506726672118
0.145183688826902 0.0822972048143434 0.338708006531338
0.143584651711407 0.0880739036772823 0.343081200035355
0.147993382279347 0.0681737532527379 0.371354579104144
0.146189660145663 0.0772405059486472 0.374785227793183
0.146035941393028 0.0780132045415796 0.385321425571174
0.144903105486485 0.0837076191991291 0.383948360088906
0.146023848587002 0.0780739939331596 0.398542100426075
0.147540656530203 0.0704494745583365 0.418602775992208
0.147211662319707 0.0721032281026606 0.426902079352476
0.143020666704626 0.089735349931249 0.423843326298074
0.147609159565172 0.0701051374858083 0.451337741622981
0.147148780335981 0.0724193214704377 0.452936906611615
0.147932797179745 0.0684783141633847 0.464738076051008
0.145374887268366 0.0813361365904479 0.476126162199953
0.145676325915125 0.0798208986630955 0.479706186576636
0.145381973730735 0.0813005179277905 0.49027323829137
0.146797295082023 0.0741861394097223 0.506372410196753
0.146157645485405 0.0774014591632348 0.503935194080909
0.145980259472787 0.0782931264326713 0.518011134250335
0.142975396904607 0.0898687104616789 0.519404367262727
0.1464809561583 0.0757762853692134 0.548270029357481
0.146856124549412 0.07389043149937 0.555030227461842
0.145106398863094 0.0826857615195583 0.562148895931073
0.147341078825756 0.0714527190615846 0.567089927809194
0.146852893411912 0.0739066785873407 0.581230873746488
0.146489817824657 0.0757317484189899 0.588369916326035
0.254770393405868 -0.0523103587840911 0.740536606121925
0.259434863903576 -0.0506868866740612 0.748159687440142
0.261098774086036 -0.0473772583107479 0.753655758015662
0.253708064517226 -0.0433278817303654 0.761231713465197
0.253660247970398 -0.0359488071890824 0.767080871385327
0.247069229531762 -0.0397625648352512 0.766788744439244
0.240667333104434 -0.0371527583982645 0.770856202180424
0.236723570632567 -0.0236332168454291 0.778305616518628
0.234720591749445 -0.0190258565384329 0.780106615648221
0.228937467979147 -0.0190303031069265 0.781791336184771
0.218544624340606 -0.00201530509221343 0.786194015053658
0.21512352808806 0.00103006923205006 0.786819261321059
0.201973141619631 0.00550397547850528 0.789262095386172
0.195452415707231 0.0220138168656831 0.785976048189677
0.144233990796966 0.086161012415489 0.730273374657709
0.144772168447118 0.0843658703472065 0.745587700355913
0.147200859372234 0.0721575964376517 0.758214859783007
0.146099261356876 0.0776949904532985 0.769803928493234
0.147005767605673 0.0731382678116387 0.786342891101493
0.146043451131835 0.0779755346034224 0.78731590877282
0.146689665324844 0.0747272198691716 0.806049634199641
0.147044957250632 0.0729412777774009 0.807472145776444
0.146205406478424 0.0771614403654133 0.813122923524434
0.146606868354036 0.0751434191635049 0.829343512471459
0.14593253997152 0.0785330610721755 0.840351923290097
0.144524588092177 0.0853049403892177 0.841817534109465
0.146064877698096 0.073992663429325 0.855214611282269
0.140984330110714 0.0786453587518438 0.862407075565162
0.136718405173148 0.0883617002700507 0.863885741752785
0.12624297220616 0.101433225784997 0.867207626619551
0.115510351147156 0.110494655358646 0.868229278832164
0.114593828696155 0.119086597453019 0.86829019810542
0.105500613827772 0.123473257997198 0.867445612208797
0.0845855364832966 0.147116930865612 0.861843633693771
0.0819332152983272 0.151606192360856 0.86206284162108
0.00825426207053022 0.228721074820246 0.796981348786154
0.0225310451835789 0.21620067206285 0.825057771105116
0.050549041155507 0.192121678475273 0.860265812623322
0.0227527787272309 0.216006216964011 0.849070209819601
0.0126766554899918 0.224923329483519 0.850630712852769
0.0106166074583018 0.227973626309773 0.855794838238096
0.00633164132554482 0.233124462502026 0.858447640946839
-0.000675749433520886 0.245300859547423 0.865357537699986
-0.0112538591959828 0.25174033729269 0.864955631557573
-0.0146477198579422 0.259462014696651 0.867294107152051
-0.0204786098926244 0.267920171105945 0.868163026190447
-0.0390333255229955 0.284691232364711 0.867588497807969
0.242122195738575 -0.0470078417570726 0.19471722864837
0.243022178384595 -0.0465338084752222 0.195576420575814
0.241676479030003 -0.037562160954299 0.203461298714855
0.232181141275752 -0.0295288378822027 0.20626494681082
0.227695220608016 -0.0262247317176013 0.206939696146223
0.225843270852378 -0.0170394405424518 0.209193787743913
0.206505465077541 -0.00913225369814921 0.208492709413603
0.202259710353079 -0.00212862893288709 0.208456152258415
0.202363941274424 0.00155539148439706 0.208298768437821
0.196664597759897 0.0131815551914211 0.206140125745669
0.179802158989092 0.020921313013196 0.203476031671
0.148361051501665 0.0663255522761751 0.159309374499187
0.150282943125483 0.0566648016227014 0.173327496692786
0.148112244374556 0.0675762306556928 0.169871350579363
0.148873655847863 0.063748854455613 0.186328759268552
0.149949771125918 0.058339559822822 0.20297377070533
0.150497018402787 0.0555887192081238 0.212120574713866
0.15177907767004 0.0491442078851052 0.22826677248798
0.149995959514472 0.0581073908465039 0.232084934321005
0.151896600367043 0.0485534618488092 0.249231892373506
0.151081822506111 0.0526490999177165 0.261108143468177
0.150283918925786 0.0566599128613277 0.255990861187908
0.148259201333201 0.0668375414445112 0.260553507119367
0.149571052733371 0.0602432752327551 0.281410544732189
0.150346255200649 0.0563465762135957 0.299048002811862
0.14984857545545 0.058848256341121 0.290555095788662
0.151094428526115 0.0525857435414709 0.312777029149787
0.150403089672513 0.0560608914271977 0.321816232323411
0.151178977248907 0.052160747427723 0.333620196365536
0.151049319242573 0.0528125017130766 0.352305593493686
0.14869941712545 0.0646247287822723 0.340050191104284
0.15197773111426 0.0481456660793059 0.367745563863544
0.150767688056278 0.0542281773888979 0.367568642455676
0.148403649041182 0.0661114706767069 0.37772442177674
0.151865457480423 0.0487100363601678 0.395806700138752
0.149211099719676 0.0620526690597155 0.391113758508897
0.148911976379708 0.0635562707554368 0.398183097081022
0.150155790538226 0.0573040076728422 0.424150030558475
0.148886206791251 0.063685811313862 0.422679748112195
0.149063069473269 0.0627967796440917 0.433878422273334
0.151928359623038 0.0483938587081385 0.456313407022596
0.149766794808036 0.0592593735401767 0.449118387002249
0.151447778095344 0.0508095955718583 0.469015080559338
0.15081337497017 0.0539985462034186 0.483144845928863
0.148155458123476 0.0673590693854897 0.47876039635365
0.15026223524184 0.0567689568902904 0.493924064684427
0.151004118053717 0.053039746014163 0.514425932495163
0.151159810343342 0.0522571291831732 0.514654549316156
0.151674785297993 0.0496685124903327 0.528686472793093
0.152063312516963 0.0477155089222619 0.540463215736152
0.150865473398966 0.0537366759742449 0.546202828452448
0.150060159201589 0.0577847433424445 0.559105975390972
0.150018568637797 0.0579938082439223 0.569411775773192
0.151181999247285 0.0521456044530006 0.575628151707037
0.150950592936835 0.0533088137614946 0.583348160816106
0.14977904807894 0.0591978081037649 0.591040704368877
0.150081660151384 0.0576766730937915 0.601547514413217
0.150741103701481 0.0543618569040898 0.612268770839811
0.251540033533214 -0.0518258130111171 0.746943116359667
0.246025770905244 -0.051321811549428 0.750749710497465
0.240955789130926 -0.0494632149297488 0.757422821648174
0.239462898491322 -0.0459667867825931 0.763437412757305
0.238034063469248 -0.0446629191376105 0.765255958466998
0.233693105347901 -0.0360088956482079 0.773589258598565
0.229774666883729 -0.0276759304931627 0.778939878126751
0.223798507872341 -0.0290490348726714 0.780098383363732
0.221009457784101 -0.0206061157411411 0.7836344258228
0.216037561151091 -0.020149917306131 0.784848522560121
0.204982752910929 -0.00600373858963433 0.789209292973987
0.19828195934423 0.00308984071247536 0.790414158766392
0.18833612487026 0.0159354291264075 0.788189449144066
0.183795532787753 0.0175190573415095 0.787666206606823
0.149984674725068 0.0581642199460129 0.7598216616726
0.149367710656262 0.0612655097483893 0.773449630986141
0.150172747151431 0.0572188410471468 0.77447602289264
0.148870915671785 0.0637627468552164 0.787278016807456
0.151908529429309 0.0484936088326663 0.811083741777002
0.150789065902848 0.0541208033991525 0.803204050560122
0.150037542301468 0.0578984834946166 0.823104769615326
0.151304748975229 0.0515286302341753 0.832546929782856
0.149955827875127 0.0583092392700495 0.836736262220177
0.151466138522848 0.0502347450178435 0.850879551431782
0.148395762956996 0.0563417884285899 0.858014858489546
0.144214067517544 0.0696891753072941 0.860551983851292
0.142151153559157 0.0682328093455584 0.8633541396493
0.135875308828667 0.0753679945216696 0.86652442531317
0.123290795473599 0.0812018793800963 0.867959034156263
0.121916956701108 0.0953501771412167 0.868387412781151
-0.0289539366571463 0.253726814704644 0.723128249562292
-0.0277094661509924 0.253113109766703 0.737211444783373
-0.0407318263354514 0.259535027127801 0.742647769485464
-0.0310404071083243 0.254755748064191 0.756781669060277
-0.0289559428572734 0.25372780405306 0.768921820888331
-0.0355031152563635 0.25695651217511 0.780378862623699
-0.0281611017634672 0.253335831803228 0.789171549322905
-0.00610021002567238 0.238914994461563 0.82224484857086
-0.0186450043730549 0.247297158061574 0.823821847833635
-0.0201299264505437 0.248289351272727 0.825418610860055
-0.0214093486358158 0.249144233845806 0.847406210890592
-0.0357838573056325 0.257094958832602 0.84279321539303
-0.0349946258635014 0.256840488004134 0.851089336862161
-0.0294419388779606 0.257999337669183 0.860820289739182
-0.0407134218511087 0.265404008558003 0.862982797852014
-0.047701192141948 0.274043398842868 0.866295458338059
-0.0579911953846361 0.285730564945917 0.868149562365664
-0.0768482871281573 0.304673015365507 0.865190371902357
0.2337475762859 -0.0495766123522766 0.189459916120021
0.235334434463865 -0.042595957038002 0.198633108457724
0.223318153984307 -0.0415074333056358 0.197951424982599
0.218790659280329 -0.0359654346958392 0.201234412382846
0.219642550881664 -0.0351958124117704 0.201802678365117
0.207954464245921 -0.0199652649334415 0.206881553724617
0.207509199253578 -0.0208933695109714 0.206650829075181
0.206420640713362 -0.0148369043895276 0.207828515132175
0.19715979627858 -0.00181357161845928 0.208219636555589
0.189835780747419 0.00301369911028899 0.207752946010492
0.182177217370169 0.00520074785837664 0.207461475210974
0.173224676756028 0.0183399119280072 0.204405881846179
0.153059041376426 0.0425114575779342 0.186798212895895
0.153238181494572 0.0397779630137829 0.200573756428554
0.153107814707823 0.0417672292929574 0.204532326065007
0.15299185961823 0.0430479262093446 0.214158369206061
0.153722540823754 0.0323871358890268 0.236377174243512
0.153622547366106 0.0339129366191224 0.244280669702512
0.153527083367127 0.0353696222841671 0.251674564483343
0.153099613804778 0.0418923762151613 0.252385398060354
0.153486954733446 0.035981948676717 0.271838611427014
0.153179472215962 0.040673822411791 0.277249713535685
0.151582243003276 0.0501336445270549 0.277963557377045
0.151938697380068 0.0483418603117641 0.285260971712572
0.153140249455903 0.0412723272231622 0.303178855042704
0.152721573764097 0.0444065881492934 0.309280906703747
0.153658715607369 0.0333610620040581 0.32662809186879
0.15307859963405 0.0422130462519723 0.328625892175703
0.151880106446731 0.0486363897301536 0.340894095170099
0.153371188621992 0.0377484385217647 0.352593848188365
0.153298500575709 0.0388575868987462 0.363781235338471
0.15383293691734 0.0307026309722862 0.378421845245259
0.152295312711168 0.0465492832669701 0.374986463682822
0.153842297088628 0.0305598075753256 0.395499819488926
0.153039616410454 0.0428106360602084 0.394698552299562
0.153555569838062 0.0349349792704597 0.412950269590875
0.153217880670779 0.0400877749509212 0.413167946427003
0.152676126514236 0.0446350619939301 0.434198070205698
0.153186794558675 0.0405621220782726 0.435776408278786
0.153039616410454 0.0428106360602084 0.449769395893796
0.153223518803177 0.0400017529752147 0.465113422996487
0.151728493689273 0.0493985233967443 0.459344593113186
0.153112012778157 0.0417032242858641 0.475199117054657
0.152812289634978 0.043950621598998 0.481930633760472
0.152500499100733 0.0455178982059826 0.493327029157127
0.153328586931064 0.0383985286882976 0.511975457794366
0.15323353372233 0.0398489456836375 0.517209078364386
0.153542622187299 0.0351325694431906 0.525158545292331
0.153474554337555 0.0361712192266621 0.541115910251695
0.153265101957593 0.0393672518447441 0.545381057449329
0.153492648557517 0.0358951237725211 0.561770997836578
0.153603156324745 0.0342088892443299 0.573908576316729
0.152294556795116 0.0465531220311896 0.573004622205922
0.152843468745107 0.0437939138942765 0.58353993515174
0.153374579797107 0.0376967411571523 0.599072972116187
0.151513112491791 0.050481204571091 0.594687389351518
0.153461615573549 0.0363686667506783 0.6175487790979
0.153846318370459 0.0304984932134149 0.630781865936808
0.152938529031233 0.0433160851038776 0.633285837731403
0.236234479955381 -0.0522331470220714 0.748815946072619
0.235012359013364 -0.049891229640832 0.758391329726387
0.23546381751905 -0.0502420791550508 0.757538417353322
0.229716414625121 -0.0463412644280859 0.765748551626844
0.22717803431808 -0.0402627049661892 0.772499609454315
0.222173141147359 -0.038725235134531 0.77518202632653
0.213723114582262 -0.0290068905202414 0.78250584590528
0.212741116359127 -0.0245278972323198 0.784344916189241
0.2044286905639 -0.022602333499162 0.786848844697655
0.201967722126624 -0.0130647410651058 0.789306249309359
0.197846430000479 -0.00495340450506001 0.790846605526455
0.19184880370209 -0.00446537183116286 0.791080716107922
0.176693924069788 0.0107635726589789 0.789504614465047
0.176626481880658 0.0157959371138377 0.788235538342204
0.15351290796035 0.0355860304268595 0.788638262276253
0.152173082057145 0.0471637792196572 0.782844264607223
0.153209252488039 0.0402195083221789 0.799149194627659
0.153913126393733 0.0294791070737707 0.817746175389244
0.153793451326101 0.0313052291142179 0.824734600298103
0.153388360892927 0.0374865011145686 0.830413238157651
0.153729342250831 0.0322834718097598 0.839738971160848
0.153286351276913 0.0376467889186267 0.850862127822753
0.151106245840554 0.0470138890145958 0.855985909438089
0.146125682852013 0.0533987369207772 0.862254020917768
0.136533868430352 0.0498054679687064 0.867944568700377
0.133363273866328 0.0585127023958938 0.868130725700432
0.126789852847043 0.069086384682484 0.868065658448878
-0.055627420106034 0.266880721063784 0.687017292836904
0.102937932757705 0.102282773842574 0.859278453905824
-0.0517814816896027 0.264984114124923 0.717499300398621
-0.0583178692120088 0.268207503734366 0.71557807019251
-0.0466794632146577 0.262468077050477 0.733812936367182
-0.0594444298721346 0.268763061971054 0.743316588058329
-0.0452762372976739 0.261776082607827 0.761475596259766
-0.0441747895981097 0.261232908712775 0.77010663209344
-0.0426351972136353 0.260473665770419 0.777820505676509
-0.0445297367191848 0.261407949262016 0.787212118409196
-0.0658196354192132 0.271094049862671 0.785639700018406
-0.0634831285411098 0.270300912652036 0.804424801147113
-0.0481884765713541 0.263212240085151 0.819706186327806
-0.048589486209393 0.263409996153945 0.831005618932899
-0.0654339007672585 0.270963110592274 0.831884904384897
-0.0635571824721547 0.270326050574314 0.841776734316781
-0.0474049747702887 0.2664211847041 0.860308952769528
-0.065704636633915 0.272688722129931 0.857128812947308
-0.0765539846978885 0.283221661872339 0.865134716975316
-0.0751571023849755 0.294063498227111 0.868312193939466
-0.0947747601393719 0.310194147921484 0.865036278806441
0.224781693989033 -0.0498512850532997 0.187732720255209
0.22293915025282 -0.0468123053808546 0.192394466228095
0.218977376842018 -0.0473773368476197 0.191098598487002
0.21045769151067 -0.0418449133784145 0.196571943658358
0.212228943474588 -0.0375069285586185 0.199850271308105
0.203183972700308 -0.0298190862828943 0.203474677494002
0.198364926751387 -0.0219796517025618 0.206004288259242
0.196897487529194 -0.0161277049016761 0.20724053475305
0.188035597697832 -0.0114211242755447 0.20768202907547
0.185075093718045 -0.0101258860071496 0.2078430313068
0.173432258449611 0.00563334721811969 0.207403822137916
0.16710758007042 0.00519806443691849 0.207461832834004
0.154325779827518 0.0231823118006917 0.205186601410194
0.154049512077908 0.0273978781160386 0.202535081339698
0.154258415158317 0.0242102330846711 0.22787373503532
0.154159293606195 0.0257227279323781 0.228238788647202
0.154368737505512 0.0225268280310124 0.240783626285391
0.154337850060521 0.0229981405067287 0.247183789368986
0.154009239013308 0.0280124147673013 0.255138645431103
0.154803518770456 0.0158925112673023 0.272388007068047
0.153803273221424 0.0311552475166381 0.269274485719876
0.154360407234914 0.0226539485155549 0.286321971233857
0.154249459417144 0.0243469011083437 0.291132181782458
0.15432517688703 0.0231915322900243 0.307887854454527
0.154257682828942 0.0242214231704168 0.306470140083537
0.154244950381099 0.0244157124164867 0.331610990344644
0.154223694083441 0.0247400640243178 0.341632840863126
0.154384259660783 0.022289995457205 0.341516422454626
0.153951079557821 0.0288998884427063 0.352241350596281
0.154416283685446 0.0218013454559583 0.363207184106791
0.153989541072881 0.0283130084707998 0.372059213547876
0.15387987702097 0.0299863730726467 0.381842907017785
0.154280391049901 0.0238749350621309 0.389787988238563
0.154724962644765 0.0170912247845223 0.406325970713666
0.154421063307441 0.0217284237174205 0.416348334108768
0.154552335912609 0.0197253392150776 0.430928214420073
0.154270315845846 0.0240286787533781 0.421538021242786
0.154245027777623 0.0244145508774914 0.430389097406203
0.154207480413173 0.0249874902401548 0.453252290264424
0.154722947962828 0.0171219785087453 0.465797687103833
0.153862734520013 0.0302479665143082 0.464051035845739
0.154632701052432 0.018499058225134 0.481082307811164
0.154323171293695 0.0232221710173995 0.487627279487041
0.154086059467109 0.0268402610724581 0.503147614979612
0.154224283859122 0.0247310958195589 0.499933731143795
0.154659734298392 0.0180865670773841 0.526185872792104
0.154505956696554 0.0204330583492763 0.528106453392327
0.154356359724088 0.0227157590894472 0.538406077757791
0.154783646091209 0.0161958042297289 0.556467635631513
0.154623231745226 0.0186435654936205 0.558282806088274
0.154118184322181 0.0263500804861227 0.565383491334779
0.154316490516273 0.0233241304094763 0.576362887573836
0.154681606063027 0.0177528385947995 0.589939710615188
0.154356979634445 0.0227063119498467 0.599673952878497
0.154356925689075 0.0227071363844698 0.606187247970413
0.154200586991634 0.0250927102167055 0.622467595568729
0.154220046744549 0.0247957752205265 0.628456991797647
0.154174925262498 0.0254842849810574 0.636152935042235
0.154007523412091 0.0280386691801954 0.641395010797501
0.15453031124082 0.0200614589601405 0.661946593592098
0.221694197835669 -0.0522498711881016 0.752876348182211
0.220732293982514 -0.0522234055622469 0.753438539311846
0.221301044437617 -0.0498586495058113 0.762455143771708
0.222430608187472 -0.04370169991216 0.770808301811273
0.213292655408932 -0.0441775013356788 0.772563845416459
0.209883140927351 -0.0375958826666815 0.778821408646009
0.206583164886119 -0.0309161704929672 0.783221005147076
0.202994237982012 -0.0321872690097716 0.783437661387402
0.198152605552311 -0.0207630486640854 0.788690635175406
0.193817893227388 -0.0172658701089408 0.789816882531984
0.174677259535936 -0.00284004881645094 0.791055690334495
0.168521444135523 0.00101100534003365 0.790886574679809
0.162667292008429 0.0174009515473333 0.787705229639387
0.154318516697795 0.0232932558177049 0.794149694353196
0.154186175886283 0.0253126441429559 0.800250553924761
0.154541490693666 0.0198909009271449 0.809838889769344
0.154560348035871 0.0196031597776236 0.8242958425034
0.154319141452503 0.0232837302480235 0.832516712468339
0.153741419403069 0.0320991850355704 0.831469743395112
0.153977397092054 0.0284984060199355 0.842581639818315
0.15177669443848 0.0307691500902109 0.858339058700969
0.147198400029089 0.0344938152171318 0.863857117395196
0.145505797386795 0.0310372753500008 0.86532973776811
0.13621497719027 0.0429615611178171 0.8681619901369
-0.0844635841234702 0.277422817652361 0.647201599660053
-0.0822705486962125 0.27667838243674 0.653952910101017
-0.0666975288412848 0.271392054523621 0.680756123146605
-0.0889011605024958 0.278929171853253 0.67937455072368
-0.0768002219838638 0.27482145673686 0.695131631670347
-0.0755222061926449 0.274387628833636 0.705221799857818
-0.0750928007463468 0.274241865326111 0.721722415530487
-0.0681371862099087 0.271880752348705 0.725604320996347
-0.0837601696478907 0.27718404061288 0.737140431884448
-0.0700671973699298 0.272535902856628 0.750772351952463
-0.0681069097874488 0.271870474888157 0.768610998070637
-0.0712036973705616 0.272921692622041 0.776468608774872
-0.0802316827853156 0.275986280720035 0.775663466563141
-0.0751017717897347 0.274244910584995 0.788350561346539
-0.0817404361043296 0.276498433459749 0.792051081377885
-0.0732838710053261 0.273627816421536 0.814755789204555
-0.0679727560795132 0.271824935840656 0.83390704396005
-0.0798777328909481 0.275866130920968 0.828634263941561
-0.0732670110825581 0.273622093248949 0.842680228245521
-0.0816605757358388 0.276784362717422 0.852425899881939
-0.0818363182224691 0.281115760071009 0.861767669846449
-0.0883379854845147 0.285236111921199 0.863688816665746
-0.0942476978720367 0.293568088905869 0.86725800494847
0.215401408534959 -0.0518609563301777 0.18111453074596
0.215567128044734 -0.0506244558088038 0.185193451980992
0.203557973821628 -0.0464824677921777 0.191512174845055
0.207458519594997 -0.0450914369272667 0.193300969316881
0.197142447110131 -0.0399184851482557 0.197463758827615
0.192569152172017 -0.0338366155889956 0.20115938007237
0.193844298190438 -0.0316868711803369 0.202229932533272
0.181716835987553 -0.0229142222311333 0.205496553560234
0.183530740027184 -0.0164096650717259 0.20701719982758
0.177074501516013 -0.0141420958540057 0.207319401693647
0.171735609184103 -0.00976191240522705 0.207859014887263
0.159059843003074 0.00573447808812471 0.207390344296802
0.155450420964312 0.00602142608593094 0.216263273279306
0.155796169476785 -0.000745605200613647 0.226920679423583
0.155640122210285 0.00312677954047869 0.230866172621672
0.155501180668045 0.00524688987269849 0.244698011581413
0.155396694785087 0.00684123872308416 0.243701877208689
0.155688208812116 0.00239303193481875 0.258144747554603
0.154849598165514 0.0151893846292816 0.264222573564508
0.154989993582038 0.0130470936282745 0.270621944550347
0.155391809463995 0.00691579369176171 0.293984246753127
0.155235045030017 0.00930786040390549 0.292850190553293
0.155437400199718 0.00622012858838047 0.311646975836345
0.155752259190904 -0.00141554670194869 0.323404655032543
0.155655833779785 0.00288705707069996 0.33349726759311
0.155206148388234 0.00974880337592339 0.340595104071513
0.155084490714403 0.0116051774692302 0.344966688909319
0.155435979189083 0.00624182134029997 0.360212977841588
0.15510348537582 0.011315341347886 0.361356534270623
0.155209080119227 0.00970407432650952 0.372099357918562
0.155321135895467 0.00799421780281166 0.37945680021465
0.155038716995764 0.0123036462878652 0.386106130509527
0.155135735976326 0.0108232375788938 0.401076699559357
0.155489323933903 0.00542784601204151 0.419119163072242
0.155129940630075 0.0109116721993693 0.418796448155057
0.155242837951365 0.00918897623123491 0.434699918882099
0.155040035508611 0.0122835370468256 0.436543539340003
0.155834759051793 0.000156862275867238 0.456106836798871
0.155251124172525 0.0090625404142004 0.452720509049039
0.154832523269761 0.0154499694132114 0.462856510594148
0.1548296753506 0.0154934275237888 0.47169395903656
0.155449881043102 0.0060297185847195 0.489672545839882
0.154892914955985 0.0145284596943964 0.495451003449454
0.155275414371116 0.00869190618732749 0.501827346214812
0.154762178381383 0.0165233723733127 0.51875814192704
0.155351737091245 0.00752730440073494 0.531475763594675
0.154803282154491 0.0158961725440258 0.530105815368442
0.155486140158656 0.00547645224655723 0.546260395853254
0.1547166551473 0.0172180170033771 0.549502625816261
0.155706663095129 0.00211150067686551 0.575303369536829
0.155385264781506 0.00701571545157559 0.580943183970255
0.155134491418802 0.0108422650227342 0.587692771165365
0.155132241866817 0.0108765905968488 0.586082186651127
0.155224356401217 0.00947101911831317 0.602755398334873
0.155059171324215 0.0119915787088452 0.613657374004861
0.155155938762752 0.0105150085207716 0.629865010997737
0.155376007859485 0.00715697818710631 0.639105255315708
0.155452674473831 0.00598712427968252 0.645181495831933
0.154785134081636 0.0161731178336063 0.65210361172674
0.155223891722891 0.00947812105826539 0.660731255954527
0.209308518569782 -0.0486670475617281 0.742412377492334
0.208362706684312 -0.052045557941953 0.752201811145758
0.214039052347814 -0.0520389673983004 0.757246363502448
0.206565756228734 -0.0513248412420546 0.762145516431716
0.204741615820663 -0.0488990448355714 0.768358480851696
0.197092894137981 -0.0439343398287935 0.776423146845793
0.199474147665772 -0.0379098356940488 0.780951660954195
0.196581897764624 -0.0372637750027973 0.781985005711519
0.185052903507765 -0.0274131653417941 0.786999177606695
0.187315404220452 -0.0221441153924552 0.788707401970013
0.17491585936117 -0.00603409937487207 0.791011826818186
0.164972153162322 -0.0065339315430242 0.79098987712833
0.157678988463888 0.00427036795854432 0.790574576438676
0.155397974611951 0.00682182046526935 0.805320113281745
0.155792983029401 0.000794392789972349 0.814608265829413
0.155309231598541 0.00817595045721635 0.811590384221477
0.154965866848611 0.0134153522102773 0.824063077041417
0.155519384152079 0.00496923952592286 0.835903824141479
0.154859922431511 0.0150319616711746 0.847706283080066
0.153497891524154 0.0100113755068113 0.857468346846257
0.14637741021919 0.0157553949641466 0.865429501423063
0.146278958419184 0.0186557177097459 0.865359179437371
0.142923676097288 0.0200173656118036 0.866982372786449
0.130186767980605 0.0391288164975564 0.86770014156503
-0.0858598860953026 0.27789679830336 0.645460317320045
-0.098493891864217 0.281924237822597 0.640031466471934
-0.0963908396045406 0.281471575321962 0.659080844656684
-0.0916892450002511 0.279875599010087 0.676843651209969
-0.0908511851142846 0.279591116012613 0.685537302699176
-0.105800108807411 0.283377534731357 0.686320513818705
-0.102751741185336 0.282771176711006 0.694195483311853
-0.0936251283705774 0.280532742864807 0.710149848411382
-0.0963467597470709 0.281456612226614 0.721544068267614
-0.0874224376526161 0.278427213084183 0.739116851705402
-0.0952428586042777 0.281081888282329 0.749487077049532
-0.0826406203638949 0.27680400484042 0.766647770541721
-0.0949432434519221 0.280980182642842 0.765775079000081
-0.0938950658221808 0.280624374282381 0.777869657109976
-0.0997075743364345 0.282165654276392 0.786029029664711
-0.0901568570252406 0.279355423385739 0.811792012799901
-0.0948970954289813 0.280964517499916 0.807990565566007
-0.0922095447712452 0.280052216983237 0.826295227452962
-0.094041107246009 0.28067394866567 0.832733215890487
-0.0902442106613301 0.279385075949537 0.844420120114522
-0.0908422569921423 0.280144656538645 0.854181305699216
-0.0949110263163553 0.282509638042616 0.856915022969208
-0.10630049189609 0.295737013284988 0.867164966252946
-0.107577541738144 0.301322092754843 0.868265252417361
0.155631205571172 -0.00326246803524116 0.0997755606689187
0.1994891558092 -0.0520450925323761 0.179005025238149
0.200643361494704 -0.0513920520186501 0.1820511037648
0.20056768880987 -0.047418854997993 0.190108204547458
0.187929048933486 -0.0403869714393236 0.196918703259281
0.1911668947131 -0.0392158769625975 0.197813406062054
0.180688569468191 -0.0344388119335017 0.200805545018815
0.176467530378213 -0.0303490763006166 0.202781025627392
0.173483568420647 -0.0232823867396679 0.205374909269149
0.162449560306527 -0.0177958774588726 0.206707232351186
0.155149654018686 -0.0127539879570674 0.207504396618379
0.155334941619906 -0.00778258245307549 0.22116577897376
0.155653004772746 -0.00292987649006901 0.216259169127515
0.155198265498248 -0.00986785710576453 0.225817713679826
0.155192019388213 -0.00996315432942742 0.248978085669053
0.155768598072337 -0.00116626354338763 0.245527859578026
0.155257015147896 -0.00897151066443582 0.256271155295639
0.15522692531288 -0.00943059283255192 0.266606033288682
0.155096186839338 -0.0114252764810388 0.281519936135618
0.155812425769703 0.000497611331011757 0.282079760839965
0.155488197343821 -0.00544435195178953 0.291754311475013
0.155307749267572 -0.00819745757816788 0.306434166737271
0.155031276317933 -0.0124156196612116 0.32041633105484
0.155793572389216 0.000785302306126022 0.319807101721806
0.155428039208223 -0.00636218773607847 0.334651075986322
0.15529094201154 -0.00845388675219564 0.34326530555458
0.155152882135043 -0.010560273423978 0.359780500019288
0.155477174510743 -0.00561252788581689 0.36599074345348
0.155689603956147 -0.00237148085716925 0.367350451186094
0.155170809730572 -0.0102867511723494 0.37995041528275
0.155674259750451 -0.00260558819659391 0.391072138735927
0.155635288750043 -0.00320017076415448 0.399280985339988
0.154973849284398 -0.0132917868801762 0.420878871949183
0.155415781202932 -0.00654920875640116 0.418211433930674
0.15562473703824 -0.00336115877654737 0.429610378236162
0.155684018505815 -0.00245669836159184 0.443529762015513
0.155675754049728 -0.00258278959529618 0.450093619666867
0.155526770889665 -0.00485583336905017 0.459144114313003
0.155475101923165 -0.0056441494616177 0.47969619004233
0.155598106288998 -0.00376746549422092 0.474088776509852
0.155324688733274 -0.00793901127438385 0.493241245579388
0.155805991259858 -0.000595753748589976 0.495516264849729
0.155586733964621 -0.00394097363505269 0.512592142535422
0.155463142169268 -0.00582662004499809 0.511930723339299
0.155031068760894 -0.0124187863696922 0.53370772127414
0.15529676398837 -0.00836506055075704 0.541150762577713
0.155600323673068 -0.00373363475085077 0.54140234029732
0.155362177471184 -0.00736704366236865 0.554401725982032
0.155123767667003 -0.0110044743677341 0.571842671251145
0.155254616793999 -0.00900810247379352 0.57500776812714
0.155390919607949 -0.00692852339609898 0.588071140631186
0.155760492901517 -0.0012899245535405 0.596346892042139
0.155361062864635 -0.00738404927208889 0.605642991442255
0.15558599266184 -0.00395228372991075 0.619058851255711
0.155725681643818 -0.00182104171158858 0.626430328303791
0.155517863457369 -0.00499173452399961 0.628450562348318
0.155207389648245 -0.0097286494776585 0.644956609516128
0.155683865400983 -0.0024590342899241 0.643095252525185
0.15543249988293 -0.00629413099151749 0.670870014131807
0.155103438766879 -0.0113146334476994 0.673753538776154
0.155394589024395 -0.00687253891971641 0.690471411206701
0.155181125361564 -0.0101293650571084 0.693029798236135
0.202680211066491 -0.0522522969397814 0.755633093636737
0.19090479823604 -0.0508663305484185 0.750858131221546
0.193659074386945 -0.0490033297681953 0.770403136029559
