ply
format ascii 1.0
element vertex 850
property float x
property float y
property float z
end_header
-0.341317830594614 0.37744602330318 0.771537058831953
-0.341048488282885 0.37755758854162 0.78769388206904
-0.344376564054275 0.376179054420504 0.799071799735443
-0.328900384908662 0.382589497716333 0.793113030193186
-0.319144460147901 0.386630534065732 0.798391784946687
-0.330365439687615 0.381982652157271 0.808850502492513
-0.33046148118954 0.381942870464623 0.824723877974591
-0.340033509571476 0.377978006489405 0.837432617401698
-0.341719689515805 0.377279567887862 0.842730530509907
-0.312233334675898 0.389493215967497 0.825632560407116
-0.321191345018115 0.385782686591873 0.843593038664963
-0.325392261938369 0.384042609829101 0.854293011406214
-0.31970353201765 0.386398958914941 0.870158970265159
-0.329049158516533 0.38252787367023 0.877766873616717
-0.336343736156371 0.379506360680026 0.892871522922785
-0.310566290016028 0.390183728474697 0.881982761867617
-0.328026873822782 0.379628694244746 0.909932056209378
-0.314250375148944 0.385304250464225 0.909968685453081
-0.306910004233152 0.385914559849242 0.912853514284114
-0.296210811954443 0.391562385199871 0.911409925954743
-0.297894982938359 0.388916828101874 0.91331644536032
-0.281788981049436 0.392912318667376 0.915186710430219
-0.267488384839593 0.392459953248366 0.916948294355089
-0.255154123362982 0.390553101633493 0.917649739811165
-0.242290336177794 0.390491606884675 0.917875597038027
-0.236972446502993 0.392828601069896 0.917664946339292
-0.221050264638134 0.397679089358471 0.917310495465778
-0.216719676628999 0.395856514170029 0.917618413804504
-0.201100225721312 0.404667100480287 0.915544535685835
-0.185290989385215 0.398573192504635 0.917190729788111
-0.290160025461558 0.398636280010531 0.280322748634204
-0.299947601493876 0.394582133275188 0.306152945509455
-0.287399851939355 0.399779581317931 0.298988438680996
-0.285288652799231 0.400654068634641 0.299091947868669
-0.290395798104733 0.398538619784092 0.313517780270904
-0.288202549048798 0.399447093288722 0.324670885224072
-0.305608773983523 0.392237198851042 0.348351761640879
-0.29771730710044 0.395505951461033 0.349401236238752
-0.29638272531594 0.396058753336269 0.352621928391217
-0.290644211732478 0.398435723490402 0.370712273155876
-0.300908125398755 0.394184271246803 0.379526934611148
-0.30410851709927 0.392858625599543 0.401382960745215
-0.292592373383725 0.39762876851276 0.389364322492331
-0.295440983187417 0.396448835698162 0.401812410052032
-0.296313268995249 0.396087523086292 0.421465863174501
-0.2890838828858 0.399082032860458 0.414846589700146
-0.286785893773297 0.400033891117042 0.42238496013707
-0.281402961469305 0.402263574682692 0.421815704219513
-0.290494098244771 0.398497902532905 0.447074104574911
-0.285086673045388 0.400737731388007 0.442946543000447
-0.312860240713686 0.389233542984312 0.485819145545606
-0.280277977914329 0.40272955812861 0.461606292094814
-0.302320538458135 0.393599230601935 0.486417715150383
-0.289406472032776 0.398948412060706 0.487501366188861
-0.303729955443557 0.393015430971534 0.507809561611128
-0.303457219035495 0.393128402090706 0.514143024350187
-0.293645404573649 0.397192588712292 0.515001642601045
-0.297501330268406 0.39559541199402 0.537063260439743
-0.285393776996121 0.400610524766556 0.531130920526514
-0.306199419811921 0.391992545338361 0.557381838933052
-0.297076286107205 0.395771471050197 0.559634728966754
-0.30252653074612 0.393513905802508 0.5720212408986
-0.299763605763091 0.394658346802297 0.58020979478217
-0.288550736616615 0.399302869275883 0.576648245470803
-0.298438616179546 0.395207175457805 0.596803049560492
-0.310945610172693 0.390026608921325 0.618242736523049
-0.294128246427108 0.396992589068108 0.607444433078585
-0.302655384075696 0.39346053300584 0.628165649572965
-0.305355864439541 0.392341957414214 0.635463146976829
-0.305789990246324 0.392162136617268 0.647096463185355
-0.286031487978121 0.400346376228937 0.638208563691324
-0.293641448660907 0.397194227305001 0.655567727258661
-0.286044837431868 0.400340846704145 0.656901564713435
-0.288872289535521 0.399169677695851 0.666165822089168
-0.300321536327833 0.394427244395519 0.687114398076503
-0.297027101647072 0.395791843920643 0.694108795964345
-0.304376520435718 0.392747614982826 0.702362111999782
-0.281751373319239 0.402119257769158 0.698950477549936
-0.290966917961149 0.398302054193824 0.718970331516165
-0.307357366015053 0.391512908316525 0.739502604853107
-0.287489916400885 0.399742275396478 0.724936547600037
-0.289056854781589 0.399093228267787 0.740817035139132
-0.303863545506106 0.392960096155829 0.764743319397814
-0.285375551637625 0.400618073957224 0.756626048123414
-0.310386924983253 0.390258023903888 0.788005118827384
-0.287103594322076 0.399902295240965 0.77656579474467
-0.30070433412514 0.394268684356228 0.799452590757612
-0.282180280754522 0.401941598492461 0.785242839453212
-0.287543532836862 0.39972006674153 0.804879801681468
-0.305441724348628 0.392306393075406 0.81916678526282
-0.309200997401321 0.390749251192317 0.832884795311487
-0.307181861344992 0.391585604731125 0.850034212652019
-0.299951223709717 0.394580632904261 0.84757745474315
-0.278311536719356 0.403544084741177 0.839662414226519
-0.308274047616492 0.391133206364832 0.877442249718811
-0.297456931281013 0.395613802656755 0.877167613078129
-0.288815984538693 0.399192999989167 0.881827480468317
-0.291182042941406 0.398212946509397 0.893788405100417
-0.30365434115204 0.393013486881183 0.90046578389621
-0.283161124009301 0.401535319913769 0.899156670052587
-0.286201681723782 0.398976645988593 0.90621376650667
-0.27699160250873 0.395927613232326 0.914468084735245
-0.26551919401232 0.398755907761296 0.913617082015481
-0.246318415037275 0.401733801641714 0.913279506523158
-0.235776486105513 0.400761727103033 0.915049612507313
-0.223108472548914 0.408962933392312 0.9077195664937
-0.21472212495327 0.40797160771323 0.911012312543172
-0.205423693511692 0.407843243313339 0.912735299360746
-0.190082990852482 0.409689435740607 0.909328523065933
-0.278311536719356 0.403544084741177 0.642146343846974
0.331314084129538 0.0277545361142281 0.645559849898437
0.329370511288118 0.0268289166454924 0.65870901164581
0.331242664502444 0.0268969405938811 0.686411501189765
0.331428071458241 0.0269097459352022 0.688000434714393
0.331568437480153 0.0273163146506169 0.699340723596876
0.309906513365954 0.0270505488469897 0.603546415761615
0.313953173442782 0.0270987993140028 0.614322051252969
0.314062611663032 0.0278495548069616 0.617379606133866
0.316954776151153 0.0287225909170163 0.626690048682344
0.317384187527524 0.0323918500997076 0.641291050676718
0.317788195802985 0.0332359085446216 0.645603202819532
0.322158221439788 0.0308989560218793 0.657580394931806
0.323716240033486 0.0299381694891769 0.673101912033717
0.327584319880197 0.02741927114356 0.679061179132623
0.319418544146562 0.0340417262650485 0.695814699291078
0.319715034910142 0.0312968698335522 0.708210116101438
0.318255438637309 0.0319636325105716 0.71320350196974
0.321779069537089 0.0276050030557733 0.721622445687454
0.31670345759466 0.0278339106616892 0.733331545068623
0.316190373064567 0.0287523020716114 0.758276164000478
0.309734236867464 0.0273684651353789 0.763412782269387
0.300792919109299 0.0311091811803125 0.607477155874456
0.306041232093799 0.0309845549617785 0.613421858857913
0.310488731226997 0.0331838338424517 0.621628359434477
0.313553219094553 0.0327158980737793 0.628297911540958
0.311423178769832 0.0408647204351046 0.64384303532467
0.317814496947407 0.0340321658514075 0.648367172964473
0.316072897749712 0.03797157635939 0.656183308719812
0.316527454522414 0.0381233172707882 0.667982533494554
0.312956860664635 0.0454496677407561 0.683693766723803
0.315263285497407 0.0383481406765851 0.699380522364144
0.316000986498437 0.036179382042825 0.704543943281141
0.313293560121942 0.0383278096114455 0.710812924579031
0.306718582461805 0.0383602957256607 0.732066204807048
0.304333262414084 0.0349670643190599 0.7447413952026
0.304276984974786 0.0317399107330013 0.752253227683368
0.300866895263106 0.0269245077474261 0.772040856217489
0.285768904552216 0.0301000644319041 0.58823033833676
0.286544515040486 0.0320504985648601 0.591872495913534
0.293304862613478 0.0326832620809918 0.600818962626889
0.293371526101883 0.0333712519100197 0.601856827666539
0.298833302230844 0.036765155904882 0.612969645735411
0.30475190653999 0.0395927236776571 0.622724340911473
0.304772529632363 0.0470925953671033 0.633337969096965
0.307494697819215 0.0450862605392387 0.63885235109354
0.306915488489262 0.0483520285553982 0.644031413187591
0.310401264789337 0.0477848386346596 0.65792749415093
0.308935276216715 0.0514306994209175 0.672494891773308
0.309884261169374 0.0498583898913797 0.673089454386537
0.308309710812445 0.0502624784211385 0.698593667010951
0.306894005381294 0.0510018361470028 0.704222282342053
0.310219000287759 0.0451599777770886 0.705095507037458
0.306856864762289 0.0433467640611281 0.724121372571627
0.302442466347323 0.0441983119660552 0.733360859548344
0.294156244737241 0.0334267754163196 0.763649074560395
0.29166167218612 0.0344680519381761 0.765454294406789
0.29556301775848 0.0283887996154857 0.785930538026246
0.290537403544474 0.0298851856871039 0.792996309665364
0.262554929655594 0.0269215021708295 0.548188040860411
0.267338186562966 0.0310283270670412 0.567187808978458
0.272755548755448 0.0335193669653737 0.577320571526065
0.277314811525506 0.0339054758945172 0.583433868689169
0.278818785611101 0.037944390741563 0.59058445212198
0.285123700134317 0.0398377337753699 0.599867895626927
0.289651141042787 0.0454112647262372 0.61045515705604
0.290497270231048 0.0447485441768071 0.610847937653445
0.294168247021208 0.0544287765809036 0.623582262381799
0.298151715994812 0.0593635136815095 0.631525162521115
0.302711858198375 0.0527455911487043 0.638414492610896
0.302919283881342 0.056822797791785 0.645359590770567
0.305142691816615 0.0586925038392788 0.657477459403019
0.305602397749425 0.0587071009278438 0.667577999940594
0.307369531413804 0.0552200072002395 0.677171341015701
0.306205891295436 0.0593415333183382 0.685914164343453
0.3058379544493 0.0577597711647831 0.692757720327008
0.300685086027841 0.0620602260490239 0.7129109704526
0.295843546089499 0.0546833459147379 0.733963121043026
0.296726047706887 0.0544593278328193 0.732077856280414
0.290777527549206 0.0492053125555133 0.750469510702033
0.286020493534516 0.0367738015224108 0.76960996494066
0.269474925643099 0.0297340493033166 0.792967764845658
0.268862555667257 0.0294368269718561 0.809514207835704
0.274622647730424 0.0343693781043111 0.80940553933992
0.253057666229014 0.0277545361142285 0.531405379104878
0.25212258199561 0.0289314591354278 0.54521121902366
0.257331988921013 0.0287154189607075 0.551214568663613
0.256872090540665 0.0354555922482153 0.560604148852004
0.264326957463504 0.034603066602421 0.568556537361497
0.269052342541894 0.0368509467412126 0.577500925360396
0.267957759167908 0.0469597577200163 0.585924048986303
0.274484396855043 0.0421054133687131 0.589285290187799
0.275022262973506 0.0490287142777311 0.596368941738035
0.278389352118453 0.0544719628438088 0.604997066772453
0.284663513831709 0.0513215334471687 0.610004320402541
0.287816196816487 0.061062856151878 0.620130328339496
0.293063404277375 0.0641668180941298 0.62809337300272
0.295027429922525 0.0692963935072261 0.634454572505616
0.299562041680232 0.0636237237745436 0.642888932087354
0.300331627067168 0.069913100328996 0.654842006030676
0.300350855370278 0.0691211199426987 0.653763632052298
0.300676078890323 0.0725755756644442 0.670000381717882
0.302021093401292 0.0693312304606959 0.677484462697534
0.300835711076457 0.0704662426538511 0.693332407627045
0.301784228752545 0.0629355962334049 0.704622074404251
0.298943603006587 0.0668133082429245 0.712377778782102
0.291541085363145 0.0616472507835296 0.737340637753738
0.282924336375619 0.054470718783395 0.756281661819293
0.27405784713764 0.0423833831896111 0.776715929908761
0.258136606883376 0.0269234073145331 0.80785133803249
0.25618012643932 0.0331342885664427 0.817655444571595
0.266006994320518 0.0324793275695664 0.813400182930421
0.297931415159882 0.0724206389755668 0.792727319051499
0.240000186741733 0.0281450840447205 0.52801662579021
0.239394478280836 0.029577166111587 0.53018044448758
0.246677767088964 0.033268807829857 0.544728933276295
0.246856324038312 0.0330612344901471 0.544655137698391
0.252132475588027 0.0352263882998945 0.554350257202129
0.250911121294611 0.0460403438493427 0.564162913014767
0.257647148646414 0.0422558256186234 0.568895951017598
0.259404843015746 0.0467574855696242 0.57528761205396
0.261380241955838 0.055967815648804 0.585429649235575
0.271699974190121 0.0507186117676317 0.593977881718274
0.269608304811206 0.05987954796572 0.597783729746616
0.274420287011505 0.0603373456269113 0.603800588802034
0.280262115009905 0.0605372753223118 0.610890476187019
0.285347209314222 0.0689594573553447 0.621955247052532
0.286284584300107 0.0696842191484543 0.623479170632262
0.292568315567785 0.0800112852120112 0.63539410381386
0.293851197413707 0.0782307193360051 0.638646132906098
0.296855694266795 0.0765741880725283 0.648326899573957
0.29914498326702 0.0762975682263894 0.656512728086601
0.300158654861362 0.0752804246502689 0.671401484697
0.29759014573067 0.087778859425008 0.674019517116239
0.297662454216529 0.0838868390564441 0.694052759960894
0.296669077777854 0.0872437018382521 0.695553288246615
0.294258692027111 0.0838931444462801 0.713679847343312
0.28899985895736 0.0704147362326203 0.734727260773108
0.286246941550578 0.0709206386728716 0.740799248661514
0.2629351732108 0.0436774252829149 0.784499852290549
0.237000050305034 0.0270632425389337 0.813257594152836
0.241661543056661 0.0278106948645236 0.817905967304155
0.25532233772416 0.0417929338210559 0.819175769013667
0.258673939581782 0.0487840264201509 0.818126211662633
0.220157127770334 0.0290589120018752 0.504580321339062
0.221880816228907 0.0318034380533365 0.510878472221456
0.223934675146114 0.0356237796151146 0.519166035080748
0.232175724046324 0.0342154863193607 0.527670983972432
0.236110298663795 0.0316880742960701 0.529039778117218
0.238004866667523 0.0415151209396881 0.543700623390032
0.241545902530887 0.0414575579024939 0.548072920414805
0.243108090700778 0.0461700215963337 0.554530821328406
0.248607716218715 0.0493019283227362 0.564400784165867
0.247669590963305 0.0511710553636292 0.56501458101612
0.253604376770076 0.0539604206508902 0.574705626317252
0.261871235601952 0.0560953516735375 0.586107277673784
0.259091235269441 0.0659389212566936 0.588730502923655
0.266497674099978 0.062957491192425 0.595929692380059
0.270832194242552 0.067581981007572 0.603890714224479
0.274974465642901 0.0696465097015869 0.610077955453116
0.275447128720811 0.0739130828729785 0.61249636266921
0.282464336444271 0.0792647595767148 0.622639375607717
0.286740479143715 0.0808942145666116 0.628171823355407
0.288856958966426 0.0895124535693183 0.633543535531578
0.294443429780719 0.0902981825907688 0.650734424285878
0.294205036663712 0.0964934730237016 0.651814905957389
0.29585124414613 0.0970094210578917 0.659944256507611
0.296552163912347 0.0948946112740951 0.671957270505226
0.296405575615332 0.101912826750494 0.679406969117937
0.29489600665205 0.0908498740854449 0.701237436019471
0.292761060643624 0.0869330321458319 0.71616584969535
0.291406491914337 0.0945218522547979 0.716536924655371
0.276456104072316 0.0809644969336615 0.750573817505231
0.271207688712599 0.0775638888855528 0.758903908671319
0.226495130025915 0.0294890509377992 0.822188122926421
0.22444503917483 0.0327909581928738 0.825012781624033
0.237373599829994 0.045690203951158 0.825576807458002
0.260176209153135 0.0592394934320312 0.817872835768012
0.199817054103976 0.0270143396392519 0.470409552520938
0.203224692995024 0.02743029359023 0.477418780166881
0.207020222125528 0.0270987993140034 0.481105977293955
0.20658051187508 0.0318757088203709 0.49088312433813
0.216247795097049 0.0328006197427251 0.504964381138584
0.21695904102938 0.0373553072053837 0.512599962463707
0.221582990339281 0.0370664615400426 0.518234247121765
0.222776105790022 0.041452695265625 0.524158079834482
0.225634936435292 0.0453727636521356 0.531617056161
0.226347515408815 0.0499505949698887 0.536966416101397
0.229267102533969 0.0551477149997283 0.545038144386383
0.233614536975827 0.0576809632986397 0.55211997130376
0.241269719524858 0.051364559082659 0.557197857614926
0.244996438078897 0.0642813134565251 0.570441508447183
0.246274606668916 0.0652286068052457 0.57262671689479
0.251966567902287 0.0666338063072804 0.580453987761409
0.252817729362226 0.0701676899750777 0.583654161515979
0.257708781443971 0.0757702868937733 0.591831257592315
0.263896429459336 0.073899579595358 0.598711828377677
0.266046257344469 0.0841224031217211 0.604768166476472
0.269876898772703 0.0870970124274858 0.610354078837605
0.278316877137564 0.0920047502420889 0.621832648325837
0.280334973043482 0.0941063003194428 0.624419463510461
0.286449729888718 0.10132175605355 0.632334106796989
0.288028187932215 0.110198148658849 0.635144038680578
0.29414080265854 0.105732564372392 0.654040089941224
0.293978914233276 0.11393651866705 0.654255397404524
0.29567350865349 0.104725462855192 0.667774914033267
0.295621938796323 0.113937166396305 0.672787717535333
0.295872049606366 0.104848227668376 0.689886193277446
0.293776698154029 0.106876810626654 0.701144456405624
0.287015448328839 0.100182899965782 0.725991846655928
0.285302558319721 0.0985083024293217 0.730385998369899
0.278054462103481 0.0935556144647199 0.74446312131384
0.211298168816808 0.0318961728320908 0.825305243706581
0.223891496801314 0.0462174217099932 0.826501609117611
0.232529911594338 0.0484866422177268 0.826005961429753
0.24246295500109 0.0571189859457545 0.824825429840254
0.262500469236396 0.0831971903666674 0.817500178555982
0.192145762247686 0.0290855591608969 0.467348522772892
0.1934649340351 0.0280684885083229 0.466618455228427
0.193182855689044 0.0343129468824294 0.476547254620945
0.198248115716754 0.0366861569064603 0.486886970176315
0.201653123686922 0.03938583749368 0.494470605042764
0.203979372750126 0.0413194458212789 0.499478952812106
0.207741283236088 0.047684916601409 0.510666863957171
0.21374808461951 0.0487497475093004 0.51958529098109
0.213543180362115 0.0555230833208286 0.525133263742182
0.222039323921275 0.0517445093356651 0.533190801865707
0.222053973595429 0.0560818972298916 0.536392511124748
0.224862735858613 0.0578382778008115 0.541091531824705
0.231736515382692 0.0610324845095589 0.551849152359403
0.236396939263339 0.0669838191782902 0.561364636577761
0.238716767977332 0.0709172500861819 0.566703012835576
0.242672461241189 0.0798134922262572 0.574836775611718
0.24285206500829 0.0832924972097613 0.576282069598215
0.248332670344408 0.0804316225015766 0.581993663196704
0.250246696604516 0.0864080582982822 0.586399950308962
0.25488102298579 0.0938795787050213 0.593937477828263
0.262153976561262 0.0955540497434492 0.602943566541652
0.265619415542675 0.104891228709211 0.608112138009393
0.27615682833418 0.102073892801641 0.620371125950969
0.275577623683434 0.107316963607 0.620260936470672
0.282679318286145 0.108820815135856 0.628760220936508
0.28577283742593 0.108696712111388 0.632351639562761
0.291913446978378 0.116667302620118 0.645937431189884
0.29276820856645 0.120108893971797 0.648161822031087
0.295677842205727 0.124640146044794 0.657787117160966
0.295924967124923 0.118679612784637 0.672181922121677
0.29629085807857 0.124964942565438 0.670603501026495
0.293857120050075 0.114623629234316 0.700185970775556
0.290967775873601 0.115118551219915 0.71520825968046
0.187649701807598 0.0297654397712742 0.818575956636478
0.197470698230945 0.0294601525330577 0.820725863419592
0.20362749271741 0.0431517122812136 0.826440297312576
0.206485167290928 0.0487247572981159 0.82737557854591
0.214781339851826 0.0459527306607224 0.827102872281307
0.231222810162567 0.0653424449319459 0.826582928911195
0.254855234125596 0.0836681198235873 0.820538930216209
0.288217750925267 0.114010822850169 0.800894744986831
0.174431319408103 0.0287085200110484 0.442002434638627
0.181949641231502 0.0287196635473569 0.452427200989697
0.180278734166112 0.0364650576281104 0.462203627106459
0.18664281922544 0.0333901295683901 0.466286197775318
0.18849297308228 0.0339236786987651 0.469636392693629
0.18704830951362 0.0382653277209843 0.473758038952739
0.191830311817718 0.0455861739844408 0.487476293887425
0.195266920095523 0.0497436797881963 0.49623411240696
0.200792517363203 0.0493507968645737 0.503198724246686
0.204707468529795 0.0530216172861142 0.511960048050836
0.203563224534778 0.0536540356116632 0.510863719190966
0.212793707167269 0.0580117582461183 0.525737523656665
0.211565091989285 0.0616846771614302 0.526468790200863
0.216768579933772 0.0700120048583877 0.538381899996903
0.215739043867257 0.0745408669446648 0.538989651851393
0.222948415799522 0.069348033108104 0.545874746690882
0.2313059321433 0.07086216426425 0.557403175700653
0.230981423170882 0.0805373221983065 0.560473567950402
0.23571950314173 0.084859178896354 0.567914025567744
0.23901184279424 0.0879955696005152 0.573130923813348
0.243030736280988 0.0888751515386921 0.578441038944795
0.251089337893887 0.0938014734526384 0.589297914986866
0.252856654361713 0.101234784466339 0.592290829604837
0.259660500052612 0.101506304987843 0.600630865131996
0.260656760160857 0.106028019687084 0.602317644219445
0.265649135449922 0.115379318423653 0.608417888322737
0.273156052368036 0.116677408864312 0.617229804607361
0.276524316801432 0.125881854431689 0.620228508125767
0.288197347885042 0.127884391316238 0.633660477402903
0.288275168679157 0.130500153932762 0.633465170784324
0.291774781401768 0.137948189491997 0.636380329453573
0.296684653823484 0.141503721891237 0.651503482884355
0.298879383515338 0.146449768551911 0.655506478645027
0.29853982607584 0.141315569984343 0.664818163930917
0.300791855482266 0.150643662769245 0.670137988532443
0.294799808241353 0.130356285822436 0.701177541297552
0.181351036879188 0.028920044031956 0.816070444648311
0.185711981167494 0.0363094403747447 0.821648354474012
0.198765137409867 0.0530220713764759 0.825561232060218
0.20171340569288 0.053910314021807 0.82633377757306
0.210314750152873 0.0516800326846789 0.827594693901708
0.22741426876328 0.0760884686084075 0.827080577084398
0.235493363520563 0.0786222627234394 0.826578695095146
0.260389363080477 0.107563649853435 0.818553988475643
0.157494105620295 0.0270505488469898 0.405668700720674
0.165660485066318 0.0276338791243115 0.414660437809834
0.160768893468938 0.0272110717841683 0.417770409365434
0.163145542996433 0.0304033523403156 0.429084776349526
0.165400181488022 0.0329369601524224 0.436154238744185
0.168088089261935 0.034375796482588 0.442148855760725
0.167880244049574 0.0365988154972529 0.445276605488766
0.173282920051287 0.0375840501548618 0.454164441845228
0.177607356951225 0.041533006726943 0.464102676604505
0.176481291736825 0.050351887280177 0.471483319285075
0.183617416018654 0.0455931239717738 0.476464206287098
0.184302090994236 0.0522071792993448 0.483980180696848
0.189975499922166 0.0598304762290766 0.496830403153986
0.191408593038499 0.0559847110150865 0.496265927713988
0.199677222284937 0.0588840111383818 0.509105183007958
0.203375776503546 0.0620375900982684 0.515962153612522
0.203578886985455 0.0661972031229005 0.518879851389899
0.207379711564694 0.0708019151135261 0.526795861828368
0.210494133157096 0.0757684697395613 0.532712993681256
0.214284274918995 0.0860385401015915 0.541218411999929
0.216938092948128 0.0862179090097057 0.544679093547026
0.220450322306068 0.0897025376642426 0.55041453893621
0.223685539116771 0.0920094755838849 0.555097619490393
0.233399013842202 0.0894890178625639 0.566637290275124
0.23666769453621 0.0954676192089305 0.5717271082311
0.241623547447487 0.0982236073346497 0.578237001434514
0.246109468511992 0.111831772617371 0.585133143807245
0.247780036246894 0.11840923050345 0.586435006510967
0.255904177818856 0.113566897947044 0.596900656265078
0.261214293715555 0.117314089884046 0.602912822581113
0.266155331979589 0.131860716713831 0.607196059369189
0.273294076325288 0.125749312689143 0.616389530814084
0.277004680684266 0.138261736954758 0.617953005958464
0.281609296992426 0.141704330650676 0.622230046876632
0.287159064976718 0.148272048363228 0.626483338075663
0.295712692342327 0.155027938295845 0.634631600997627
0.300340133502131 0.162776764436306 0.640394932933046
0.300212672831658 0.157269415100299 0.647916805530433
0.302158416345429 0.155302147153636 0.664601515794824
0.159587813375599 0.0295167880709139 0.804825292634879
0.167363199270429 0.0309381498953815 0.81114246737687
0.172555910965075 0.0402567161905495 0.817219291359929
0.179184816067935 0.0435870778809002 0.820284399663284
0.191606728375415 0.0581412759318396 0.823914602012604
0.193455725364221 0.0627517877898387 0.824517804765572
0.203869689462751 0.0768294603169304 0.827470287308016
0.214617711421712 0.0793904956561838 0.827991778572931
0.232037226801159 0.0915515618146141 0.826992866303506
0.247668358471238 0.109382589159512 0.823599096324316
0.252005562145204 0.115025457184768 0.821886463920129
0.281328467053423 0.142082063998822 0.80600057591599
0.0105686633807241 -0.0968856558559744 0.082667102131123
-0.00224782619309089 -0.106720094197113 0.147134191816197
-0.00522873844230458 -0.109007428614732 0.171473881554309
-0.00278037903245542 -0.107128736363282 0.16990113579283
-0.00750184939875075 -0.110751647998284 0.206905094224846
0.0105984934941557 -0.096862766404884 0.196725582492401
-0.0100909239593605 -0.11273831478253 0.269733005893324
0.00290441847012155 -0.10276663781836 0.259213898906708
0.00283408450093358 -0.10282060697109 0.337536632257968
0.00193070982439043 -0.103513790740659 0.345560162991116
-0.0149154607051312 -0.116440312032056 0.505699946075025
0.144446376702776 0.0270987993140033 0.393709139396926
0.148745528978987 0.027736985390552 0.389742610984281
0.00431738055931753 -0.101682433874331 0.565256963739997
-0.00870538040540045 -0.111675149820558 0.593315552842849
0.154871032909736 0.0332875141740204 0.421829345725971
-0.0205313689184469 -0.120749549966147 0.62420696927135
-0.00853688581647239 -0.111545859375145 0.616069485734247
-0.0198727712552138 -0.120244190204929 0.637357371656131
0.164719343903301 0.0433231185958656 0.448117639573524
0.166304704583503 0.0485571014638112 0.455686516694324
0.170200340859824 0.0503922446245636 0.462895832888949
0.175645316843575 0.0545868393159572 0.474087643685611
0.178134295731191 0.0539301176330016 0.477075781674227
0.00113292536199782 -0.104125952289244 0.675429048422394
-0.00999922484414189 -0.112667951576651 0.701442999662508
0.18618975811037 0.0678060753153053 0.496909330315027
0.190524758553282 0.0658722131355189 0.501474773304955
0.193918898136617 0.0730963547697722 0.51008451734618
0.201138197685948 0.0740497150602978 0.519889019961419
-0.0185184832070582 -0.119205008436081 0.758300065825508
0.208825602701539 0.0825709710539345 0.532997607611592
0.212357069699994 0.0918637032865774 0.540580462407528
0.218674780687692 0.0940290460618282 0.548916944808992
-0.00667397001508901 -0.11011639380441 0.787391140716619
-0.0096359830780609 -0.112389226366375 0.791753159441737
-0.00191804745217536 -0.106467046069149 0.794836020392648
0.236035493633744 0.112711911043872 0.57259034802479
0.234342516451381 0.111934560830215 0.570562099856023
0.241279571728862 0.117358679115971 0.578613911070193
0.00783452673903428 -0.0989836326899668 0.825165441209893
0.256070618934029 0.128853448756568 0.595387815531057
-0.0119725399435574 -0.114182129508218 0.865793015519311
0.264986427526595 0.13565051923956 0.604507155727245
0.268379673120699 0.138427349094191 0.607606853390073
0.00808382870923652 -0.0987923365600742 0.875269420430784
0.284035717738541 0.15322481616745 0.620740320834714
0.290824767042771 0.165203271729562 0.621519138447489
0.294805841971822 0.162465284753848 0.627788790247853
0.14969764457068 0.0275409284524286 0.785023458393744
0.142124869745098 0.029113886103049 0.790095543056631
0.150478812616718 0.0360628331445343 0.803564178800903
0.159569013302605 0.0358126902808764 0.809099750483233
0.159533962814107 0.0353915139963136 0.809059851818797
0.169797176438411 0.0466388939102893 0.815816509930292
0.171751667856347 0.0580041284168289 0.817424569009128
0.178382981176638 0.054222118656971 0.820451577029376
0.189059467071284 0.0699592226494487 0.823579795378871
0.199435767177408 0.0748032925534414 0.826317461797448
0.21071232167783 0.0896423036411183 0.828407646681966
0.214241008501713 0.102582459441291 0.828275323592949
0.233313264427329 0.119300740207718 0.826984249141686
0.243319729676635 0.124288949073051 0.825269574442451
-0.0594089541856077 -0.147734759543873 0.131188093621368
-0.0527617171570983 -0.144981383814355 0.137466930535151
-0.058650217554644 -0.147420480541059 0.152614090603583
-0.0255810600428759 -0.124624314246877 0.124042608527251
-0.0622686278727751 -0.148919275169059 0.175070167164236
-0.0446591485661043 -0.139263446449801 0.172055731741112
-0.0513474911575932 -0.1443955922251 0.186317511980726
-0.0387587836702034 -0.134735937226253 0.179177304098117
-0.0200501577826588 -0.120380303674739 0.165721944825281
-0.0630090128557582 -0.149225952670388 0.229394079537952
-0.0552482706417262 -0.146011347991254 0.220457519854192
-0.0191610572423294 -0.119698072835117 0.194628108310664
-0.039682016300356 -0.135444358539552 0.226965006314796
-0.0551846105232451 -0.145984979106797 0.253866811281889
-0.0168223451455343 -0.117903515926133 0.219686382468754
-0.0364232718983818 -0.132943836012992 0.251407516862966
-0.0545890577665098 -0.145738293077849 0.289426238196239
-0.0186405465192177 -0.119298670909741 0.251564231949694
-0.0201690211293854 -0.120471510728564 0.260304104159433
-0.060287269203063 -0.148098569536139 0.319891956156738
-0.0348635292460287 -0.13174700338154 0.290550587392977
-0.0401006539228315 -0.135765590485461 0.312024300736273
-0.0609312601517052 -0.148365319321112 0.345318289752161
-0.0516465479602529 -0.144519465608681 0.349347173484573
-0.0526416813770119 -0.144931663366274 0.356568954252529
-0.0545196314634612 -0.14570953576154 0.371328104313609
-0.0201612035986195 -0.120465512126228 0.342170714631657
-0.0517801848605632 -0.144574819825223 0.392185154006616
-0.0355994320854413 -0.132311681490751 0.373830673038213
-0.038561877564387 -0.134584845857163 0.387837037356703
-0.0148872234515861 -0.116418644825344 0.372290880142135
-0.056976506850505 -0.146727206867915 0.429590394628278
-0.0249210257952224 -0.124117852155663 0.401572082235959
-0.0556153302139921 -0.146163389044286 0.445734627775455
-0.0606181865964614 -0.14823564000851 0.461050281325762
-0.0553339292897468 -0.146046828964999 0.468757309006218
-0.0306463950523116 -0.128511082502772 0.447757608165681
-0.0514631510156787 -0.144443500106941 0.483516755519059
-0.0513474911575932 -0.1443955922251 0.488011649131374
-0.0518099240627409 -0.1445871382061 0.503745128077127
-0.0485052970935666 -0.142214700014699 0.502510908868717
-0.0596611150591869 -0.147839207997611 0.531479948360892
-0.00315015975345021 -0.107412479090137 0.477553221920685
-0.0594606673202163 -0.147756179825582 0.541277787069835
-0.0410662793257921 -0.136506540917433 0.538194169388763
-0.0599797997399548 -0.147971211514505 0.563637959409558
-0.0361141718007496 -0.132706655166094 0.554105466239632
-0.0435154373490642 -0.138385845966514 0.567887182938391
-0.0556648762739349 -0.146183911694278 0.5930323622251
-0.0243085393201612 -0.123647874753578 0.568857263357045
-0.0268609148785405 -0.12560638140298 0.574838554897197
-0.0383747300018451 -0.134441242481691 0.603872482484315
-0.029091945406626 -0.127318311338185 0.606994922798613
-0.0334250943446602 -0.130643253461271 0.611413037024319
-0.0255464613374493 -0.124597765726457 0.616405606063874
-0.0543054153839694 -0.145620804556139 0.652226663946786
-0.0350406158983925 -0.131882886749111 0.641334347308966
-0.0582133193571637 -0.147239511382288 0.681396381382716
-0.0193289994585022 -0.11982693943001 0.651325659836329
-0.00699343096471726 -0.110361524812666 0.641760022482789
-0.0431078028620399 -0.13807305702339 0.684045294564862
-0.0609559182357002 -0.148375533033927 0.721664609280647
-0.0461728468676832 -0.140424948008263 0.71202339415693
-0.0370254038580164 -0.133405868115947 0.712288117414658
-0.0164750189773911 -0.117637003183688 0.707342873323723
-0.0150928899896974 -0.116576458310563 0.713719007114686
-0.0612466076193281 -0.148495940519063 0.760441218926055
-0.0376643873476935 -0.133896177392449 0.759347974180525
-0.0548218085279605 -0.145834701599897 0.773256333848972
-0.023482719134838 -0.123014200638162 0.761587200994547
-0.0274177479842416 -0.126033654472785 0.766970180608745
-0.0434673221220527 -0.138348925854296 0.800200811299279
-0.0407292072586578 -0.136247896423427 0.80153811152802
-0.0384502330859365 -0.134499178035791 0.815429127321125
-0.0559228039304059 -0.1462907488277 0.834586622088194
-0.0569133411499897 -0.146701042778087 0.847673056945437
-0.0471899544240375 -0.141205402085931 0.848786811982455
-0.0545150842387068 -0.145707652239379 0.861991339479021
-0.046106697814357 -0.140374190054417 0.869850381755564
-0.0516341079016544 -0.144514312767696 0.88566342894014
-0.037668937385185 -0.133899668759012 0.882334896434366
-0.0392377116983323 -0.135103431627539 0.883426223305333
-0.0445613255643847 -0.137827177292409 0.905927142257886
-0.0269941760824188 -0.125640684037056 0.900639360022021
-0.0358955315697228 -0.130178405388791 0.907814156845873
-0.0187723872542787 -0.117002488764718 0.907883773804791
-0.0176360264551616 -0.108483814519563 0.914790875474907
-0.00174362653660379 -0.10126795649844 0.911151203896882
0.00567981689589135 -0.0930233625903948 0.913332137265344
0.0255328881818054 -0.0746173035151939 0.907388643506422
0.0285570397371523 -0.0724551729447355 0.904810827252241
0.14534333433146 0.0416568200667042 0.799813149609169
0.15493502696526 0.0535365746777903 0.807005365961255
0.161726998178673 0.0639744271210928 0.811498739338746
0.164801293600117 0.0664794613107554 0.813441902987063
0.17700279174101 0.0683655582187994 0.820496836117156
0.183578709348562 0.0749876758059384 0.822315823825313
0.193003024990939 0.0875082213182197 0.824900154483665
0.201645216220514 0.0949367976271967 0.827154367141105
0.215396737910375 0.102307800572099 0.828197459807627
0.22975027621649 0.123506300958473 0.827197000454709
0.241453550013221 0.129459339283134 0.825968560478794
0.257670147554001 0.151047700232076 0.819154855860609
-0.0735483537764222 -0.153591490618201 0.14735373281461
-0.0841538579530849 -0.157984434283979 0.166232822603334
-0.0656122476777403 -0.150304247839695 0.161449676757679
-0.0714685002957416 -0.152729987098755 0.183441102191096
-0.0705186581781266 -0.152336549611525 0.181061399367462
-0.0719164644366589 -0.152915539921379 0.193715880461686
-0.072966187653135 -0.153350349514382 0.201665550902466
-0.0772495562597385 -0.15512457888388 0.219193877539849
-0.0600390270308047 -0.147995744261637 0.209825393320411
-0.0789835655549127 -0.155842829051222 0.240315034836802
-0.059275369352428 -0.147679426894243 0.228311187273825
-0.075187489819563 -0.154270442997845 0.259144076556543
-0.0713771354191955 -0.152692142527765 0.257646470633106
-0.0865425826966336 -0.158973876469534 0.288587506880687
-0.0628297299789546 -0.149151691271315 0.272553074157664
-0.0752905394673861 -0.154313127559571 0.293832742552272
-0.0687449302318068 -0.151601847440199 0.301007316322124
-0.068807315734345 -0.151627688361446 0.306220866410757
-0.0700388325372763 -0.152137799323511 0.319485770846118
-0.0698724618577821 -0.152068886331683 0.325755950793899
-0.0725431075855698 -0.153175104012426 0.340702736088046
-0.0731702806579215 -0.153434887604949 0.343599604778419
-0.0755179185461325 -0.154407311057788 0.360298679498623
-0.0751835289520236 -0.154268802352791 0.374368302035387
-0.0645536412295258 -0.149865758691629 0.370983207043998
-0.0726209795584493 -0.153207359639722 0.378812116077133
-0.0812387870717126 -0.156776972389636 0.398831761864744
-0.0673343543428687 -0.151017567776245 0.403187448434982
-0.0734991633121863 -0.153571115260775 0.418872130534711
-0.0567348121600721 -0.146627093649184 0.408428132698924
-0.066315351634106 -0.15059548303418 0.424109212523706
-0.0743310034884147 -0.153915674743496 0.438950478958237
-0.062343723372278 -0.148950380743426 0.447288219629695
-0.0678487586734869 -0.15123064102653 0.455794430287716
-0.0707857966349629 -0.152447201983378 0.472661977601075
-0.0842296497423238 -0.158015828270999 0.488342513042664
-0.0679453173846553 -0.151270636954261 0.488091669532683
-0.0860852638911762 -0.158784448817986 0.512305935922283
-0.071903997077311 -0.152910375772051 0.505864262042448
-0.0776190886969239 -0.1552776442311 0.531873810259488
-0.0639682433769931 -0.149623278961727 0.517760993410733
-0.0673996278199673 -0.151044604935724 0.531098980969981
-0.0825778554835808 -0.157331632686779 0.557227586726472
-0.077401700379835 -0.15518759904186 0.56957116649855
-0.0722050362056718 -0.153035070261823 0.559780458595808
-0.0773765982896566 -0.155177201415665 0.581106538559297
-0.0654113197190275 -0.150221020754138 0.578737636404766
-0.0798959181271196 -0.156220737860297 0.603335528864517
-0.0756163754527324 -0.154448093243812 0.609953062698262
-0.0774467552944688 -0.155206261398553 0.620372741662359
-0.06791569435379 -0.151258366693119 0.612326796117788
-0.0624595200680198 -0.148998345305282 0.622862668219601
-0.0604601948216211 -0.148170197672629 0.633197393084486
-0.0852811784760974 -0.158451385733755 0.664148152611047
-0.0745617891780657 -0.154011269306152 0.668196441909928
-0.0688413665124084 -0.151641792655531 0.665960476024108
-0.0686882329306663 -0.151578362649118 0.675448363226204
-0.068237311254059 -0.1513915847751 0.686190827504452
-0.0615103627681568 -0.148605191478854 0.693154033338441
-0.0827936911635604 -0.15742103475267 0.721033794440357
-0.0742242215594802 -0.153871444220316 0.717266388485396
-0.0777545905907456 -0.155333770953248 0.729093819033214
-0.0821660153996766 -0.157161042938497 0.745160840742703
-0.0639905558160014 -0.149632521076575 0.739276336274638
-0.0642651233066073 -0.14974625065497 0.749132373873589
-0.0839981798422979 -0.157919950299129 0.7763364151576
-0.079613505435635 -0.156103758693298 0.786984575925907
-0.0702764893198669 -0.152236239986051 0.789567433601425
-0.0744663727064101 -0.153971746509519 0.800466742601809
-0.0709602189716636 -0.152519450080822 0.803550863754955
-0.0863645157437689 -0.158900118722648 0.820911655566204
-0.075100495248448 -0.154234408666638 0.825097218107418
-0.0833322193438045 -0.157644100428648 0.843374291884825
-0.0690610683147746 -0.151732796121749 0.832977853437119
-0.0694016226568559 -0.151873858348964 0.848817243620749
-0.0710133897057501 -0.152541474120002 0.859676776215309
-0.0677074535007001 -0.15117211050753 0.867608940150113
-0.0765540274024718 -0.15483648139818 0.880595765726928
-0.0643468056568965 -0.149780084592266 0.882083240116363
-0.0707905538751528 -0.152236156335848 0.901709459804202
-0.0637237423089455 -0.147650276779026 0.907472718853791
-0.0678865912586905 -0.147783113751404 0.910098930494629
-0.0557059236288908 -0.137130162932037 0.915130414769603
-0.0468588718803173 -0.133999246285824 0.912935087635197
-0.0443866415017264 -0.122014661823091 0.917340294320081
-0.0411118184518127 -0.122249724893214 0.916513935404311
-0.0228507860049801 -0.107337505243858 0.916805543348653
-0.0233035273129322 -0.10199683499943 0.917735748369087
-0.00864579080554625 -0.0890299356243348 0.917912831459958
0.00276335342052958 -0.0765821826958383 0.917830707649351
0.0134202498383774 -0.0630844497335869 0.917861572349094
0.025568201346082 -0.0584521027955648 0.916582645658194
0.041509024275748 -0.0462629063680067 0.913513679661615
0.05408629393439 -0.0309597831655173 0.912735299360748
0.165226885585872 0.0717332468633731 0.813842778816591
0.170460673532798 0.0816364838102041 0.817245707100353
0.185706972172608 0.0927904004194717 0.823110477780604
0.189929090531383 0.0924249419020387 0.824173568557853
0.199001992129238 0.110464708985504 0.826556903519496
0.204819995946444 0.11562444349944 0.828029275414517
0.212308948105765 0.117115390699943 0.828407446710604
0.232631363140459 0.140135515184073 0.826814758483953
0.245984754903468 0.157151640901645 0.82363719871
0.265995555779982 0.170266288933477 0.815295898088791
-0.0957077143221833 -0.162770198289771 0.174056671904897
-0.106538516063583 -0.167256463262433 0.193223597165093
-0.0999639060942137 -0.164533170645807 0.194737925745466
-0.111042180305993 -0.169121942072015 0.218539521867346
-0.0979299615348997 -0.163690683224224 0.220944555287647
-0.0958225612963056 -0.16281776946405 0.223940843165486
-0.104349459984556 -0.166349726545705 0.243210477982955
-0.0973652658109805 -0.163456778596763 0.244433481688344
-0.0984253455825452 -0.163895878015342 0.247307228306299
-0.0941976820717956 -0.16214472245204 0.255628799543919
-0.0981063817366725 -0.163763758864475 0.268714986403918
-0.0843369739334988 -0.158060283406554 0.261115847534907
-0.0934752610540415 -0.161845485868742 0.285544282851745
-0.102770625739524 -0.165695751988674 0.29719290077244
-0.0997642390011265 -0.164450465827891 0.312599040529181
-0.0938871781443263 -0.162016107514112 0.312130890142119
-0.0952503296312693 -0.162580743347573 0.320447823327031
-0.0906947317928005 -0.160693752938162 0.328101888483126
-0.108820429631717 -0.168201662810518 0.35147268114126
-0.088239026957728 -0.159676566690289 0.342415426891861
-0.0868387311091766 -0.159096545158485 0.355097710806289
-0.0918774697993776 -0.16118365906122 0.364342681792056
-0.102814875427086 -0.165714080809393 0.386023678646136
-0.103023902993591 -0.165800662862349 0.398142977162541
-0.0953740576557888 -0.162631993173375 0.396146681665637
-0.0999841040555656 -0.164541536915331 0.413333814115624
-0.106005094305471 -0.167035512735759 0.422784666673741
-0.0937379094872472 -0.161954278411913 0.42137378930532
-0.0952525903363756 -0.162581679762289 0.428998633525086
-0.0910058812919035 -0.160822635280615 0.443097242516633
-0.0975275072421223 -0.163523981197921 0.457117210707679
-0.102334496959729 -0.165515101533141 0.474042311026333
-0.0882510885367548 -0.159681562759906 0.464488011478908
-0.100109907187739 -0.164593646278866 0.489809826233076
-0.0999152941506409 -0.164513034919487 0.50279866552287
-0.0970290556220767 -0.163317515776711 0.501017404571123
-0.0894662494913017 -0.160184898907746 0.512805654463926
-0.110639661845355 -0.168955213466513 0.535471317315632
-0.100980417213258 -0.164954223337618 0.532227955020873
-0.100700074078725 -0.164838101409176 0.538632036949825
-0.109860150893329 -0.168632329458165 0.556737670894774
-0.10204910379278 -0.165396887812783 0.565352673731236
-0.106195131194283 -0.167114228592456 0.576663792212595
-0.0898982504425618 -0.160363839560716 0.567952815140874
-0.0973940007903524 -0.163468681014934 0.580981179551813
-0.104468467150627 -0.166399020927911 0.607914768768191
-0.0953014996953462 -0.162601938682101 0.600445921184335
-0.0805716331711706 -0.156500628195842 0.599680447699476
-0.096950533446034 -0.163284990826447 0.629895548392409
-0.0986187979429951 -0.163976008606714 0.633505118245158
-0.10774886468645 -0.167757806077226 0.653467166218999
-0.106988092178221 -0.167442683786437 0.658600704446294
-0.0951975048019 -0.162558862586819 0.660411236592682
-0.109696220989816 -0.168564427468852 0.679891564292689
-0.0918059940817309 -0.161154052849592 0.679698777728429
-0.108713938313208 -0.168157552662117 0.697507803208918
-0.0989077527907505 -0.164095697623569 0.699106969463166
-0.0918600900774117 -0.161176460144672 0.712213686706248
-0.101349459247565 -0.165107085553315 0.72613726501164
-0.0868908459516826 -0.159118131833053 0.720801011298261
-0.0896884908989067 -0.160276954312897 0.731889282612001
-0.0928733385143247 -0.161596161389295 0.746201469741941
-0.101573582610704 -0.165199920489972 0.75668982234089
-0.0909509787049184 -0.160799893884478 0.764610688802291
-0.0870358179295851 -0.159178181192464 0.769761176631045
-0.107679761835487 -0.167729182739158 0.796621483442931
-0.0979397141663425 -0.163694722896438 0.793851247105149
-0.0948906157060647 -0.16243174496118 0.795402277265916
-0.091961175821352 -0.161218331230775 0.815468794944982
-0.110877980936003 -0.169053928466032 0.832880508129052
-0.1115912816615 -0.169349387300583 0.84619155402634
-0.0894002948830674 -0.160157579614515 0.838231150420111
-0.0843960545988405 -0.158084755419414 0.841981343385462
-0.105240527041873 -0.16671881860583 0.870347437594996
-0.0867971412245932 -0.159079318064234 0.862955695216058
-0.0919672516942262 -0.161220847939723 0.875053986648948
-0.103958102951299 -0.166187621154801 0.891727925237409
-0.0868691594736747 -0.159109148999742 0.887846258001967
-0.0949328761791149 -0.162103886810496 0.902625148926414
-0.0941933860890854 -0.157460351023029 0.911546458921668
-0.0813361004208991 -0.153663182751153 0.909732001582213
-0.0757269179185012 -0.146494524145803 0.91435356311609
-0.071161064788262 -0.143131007031047 0.915382607447774
-0.0635031135158666 -0.126534882207157 0.91749441614884
-0.0521639472503991 -0.123258903702116 0.917826709803582
-0.047206847517666 -0.111170433618992 0.916792341152619
-0.0376157777694777 -0.106198548818897 0.917391676910063
-0.0264121942407137 -0.0899942588722674 0.914723119520049
-0.0125767799303171 -0.0861971113801268 0.917310495465778
-0.00194727003903639 -0.0655002919134927 0.913916914378594
0.00737596355888298 -0.0617109006749787 0.916744527756817
0.0234796247725045 -0.0475438940168169 0.917669486379097
0.0258679047945501 -0.0455677159506285 0.917759273336331
0.0387239293075169 -0.0375606236067876 0.917375205490343
0.0549268298546987 -0.0144023544039002 0.91629858390628
0.165116768694407 0.0846152790374112 0.814039661599481
0.178711467640404 0.103653631124773 0.821424765039067
0.182005701032937 0.10430843801988 0.822257465762341
0.19124176190312 0.108755108609375 0.824595117052517
0.20278732665583 0.1251927181014 0.827454408825651
0.206341755737752 0.134069916541196 0.828254003803895
0.220608525121982 0.143749621578371 0.827559900770643
0.241587339690866 0.157454490340737 0.8253712615071
0.263342757162968 0.181042137659309 0.815935643655621
-0.120672358092557 -0.173110892319274 0.20222079190296
-0.118039432060846 -0.172020298648214 0.195739292399631
-0.119822092025932 -0.172758700582852 0.215065237987944
-0.122371368723302 -0.173814645565144 0.225894680047368
-0.120215258941312 -0.172921555651479 0.226439352193093
-0.108002939579137 -0.167863047343634 0.235413954229948
-0.126432354366411 -0.174663986693739 0.266161446283914
-0.117612329487166 -0.171843386969671 0.260415655538131
-0.12412388941908 -0.174360071517829 0.27245059374449
-0.112847771590045 -0.169869842469971 0.272121814578582
-0.125906640334249 -0.174594775128387 0.299997514228231
-0.117293887948622 -0.171711484165583 0.299740331493477
-0.122100316196155 -0.173702371932285 0.313121109329188
-0.130018004407009 -0.175136046477057 0.331732972571403
