ply
format ascii 1.0
element vertex 860
property float x
property float y
property float z
end_header
0.0823699587386367 0.205667638776936 0.845937395646169
0.0813316899990909 0.208174241249335 0.861895577773318
0.0819254685567105 0.206740733002483 0.868864131117754
0.0849528309530848 0.199432033646938 0.888247757853406
0.081217133101175 0.208450806065946 0.891942757066883
0.0814764216057115 0.207824828241726 0.897225145139929
0.0817991127179246 0.200768841504497 0.909074231303583
0.0772077239643508 0.207096311985498 0.911413347111333
0.0637525193008205 0.210112363381054 0.917597411450085
0.055990271866289 0.206889718194831 0.916765650245243
-0.429413648184727 0.244149532456695 0.585910341137602
-0.431678337633045 0.238682088476007 0.589805453266799
-0.431166972570175 0.239916632946112 0.613041966426077
-0.431327297242256 0.239529574948388 0.618610662107799
-0.429246117581457 0.244553987111227 0.626018974652048
-0.433190642267002 0.235031062118268 0.640479955010296
-0.429956805002494 0.242838235900748 0.649810639387298
-0.432452007388572 0.236814284459416 0.67401394226129
-0.430901033268779 0.240558667214309 0.68064733471682
-0.430812501838569 0.240772400993817 0.685973520847049
-0.429629683710837 0.243627976559609 0.703844112735508
-0.431392115105039 0.239373090784975 0.712771678879007
-0.432813932197644 0.235940520676792 0.723215354906258
-0.432829303831272 0.235903410270415 0.731231270656792
-0.428743238255946 0.245768045199109 0.743763368399792
-0.428693591126575 0.245887903972171 0.755465590465698
-0.430986584248504 0.24035212887878 0.767362444274066
-0.431072872595424 0.240143810381373 0.782435258145968
-0.430443214460366 0.241663939590688 0.797555288476094
-0.430509744899601 0.241503320901977 0.810877096451755
-0.432190948791565 0.237444535664882 0.819575803964022
-0.429957831737514 0.24283575714314 0.829909629812314
-0.432188292439022 0.23745094866722 0.832364681095422
-0.432376538598228 0.236996482236597 0.849343471040093
-0.433139616881223 0.23515424829664 0.867844692499411
-0.432797472025705 0.235980259047127 0.872924192726844
-0.432925777662924 0.235670501837626 0.884504980401964
-0.429724230152409 0.243399721258091 0.896420866187431
-0.434331124292116 0.245223686835485 0.912353457596973
-0.44402728584714 0.242896310341446 0.91720134900787
-0.443479687666599 0.243278941110572 0.917054538456822
0.0806834336859694 0.209739270432362 0.0642280192257698
0.0786454716959306 0.214659345908315 0.074224057488898
0.0803009376834652 0.21066269746916 0.0959807396971976
0.080423566320355 0.210366645750847 0.102872414038199
0.0767450873883135 0.219247279477484 0.101247876718768
0.0771419962614491 0.218289056692935 0.11733532811695
0.0772478174410476 0.218033581765962 0.122384218853229
0.0798756993181706 0.211689313697897 0.143965193330782
0.0775902830496431 0.217206796649043 0.147717357604856
0.0788176793679442 0.214243599810995 0.152166223088388
0.0773005260631506 0.217906331895627 0.158543934811495
0.0803656403014274 0.210506491531356 0.176978751447154
0.0784710626953052 0.215080406483024 0.178129982857795
0.079127148672534 0.213496474818718 0.198977227836765
0.0782656195172639 0.215576390189751 0.202294108630866
0.0777026233158895 0.216935583254674 0.214082096365265
0.0777404612885193 0.216844234307977 0.233413035676465
0.0777975253837802 0.216706469395275 0.232009354541964
0.0771164832249922 0.218350650611569 0.246946248973447
0.0808534141818255 0.209328901213928 0.261618543883299
0.0794201337307663 0.21278914631756 0.256341220078522
0.07853709993348 0.214920978487003 0.273536782690232
0.0769010524159946 0.218870746592402 0.276098427143703
0.0787486232149458 0.214410316112131 0.291213172309594
0.0786792710748747 0.21457774698927 0.298121963234193
0.0775829608663155 0.217224473963342 0.315991980042218
0.0769169377159732 0.218832396085753 0.323963237768805
0.0798360080666677 0.211785136855585 0.335752314544983
0.0792915543167016 0.213099564482837 0.337721189191869
0.0803047084598564 0.210653594009658 0.354404384861494
0.077303868865961 0.217898261655747 0.357626845676254
0.0797515181684463 0.211989113513755 0.369981693972014
0.267856133678958 0.196502845185459 0.541888263798983
0.328949321188433 0.196578565465431 0.618295982851767
0.33425987271474 0.191443475483493 0.63485480063676
0.335059752550294 0.191432885311959 0.637792660415372
0.337814918918347 0.196511652616369 0.652458684287801
0.33903441662462 0.190515407433286 0.662287206428021
0.335378269749844 0.199228077029511 0.661980278962603
0.339422626223523 0.194876553464109 0.674610409105932
0.336347913148334 0.199315859325809 0.684284323789757
0.339357576068462 0.192056460466843 0.69414017936402
0.338159148378494 0.195502358441344 0.700223175131262
0.336828335054341 0.19159345749042 0.708841986138141
0.330431987283676 0.19990447584493 0.714807827705501
0.331789456215127 0.198037980543262 0.726094538212275
0.333313524534106 0.195390351818933 0.727727648046715
0.325332173709528 0.199137909082754 0.738176131549619
0.325873491303232 0.196833746747713 0.743438990752006
0.32420807215462 0.196468211704214 0.748070644971037
0.321060937813936 0.192932669907938 0.757245461475876
0.316386484966537 0.199327064375392 0.758945810787658
0.308875553987721 0.198860018262638 0.770765489900642
0.307220748434529 0.196294252047645 0.777205254615439
0.304349387837338 0.199886473139347 0.773366119037162
0.0772213834336018 0.218097399105248 0.607014563797471
0.298756775031132 0.194088576792738 0.789426980605472
0.286358568529792 0.195065687612503 0.799913723471877
0.283594595365037 0.196021321527497 0.801777572111632
0.279949696420902 0.197966160876363 0.802606562592571
0.27596878759793 0.195392206415715 0.808096779457454
0.0784231534731365 0.215196069576951 0.664189871445587
0.0779170207877024 0.216417981970485 0.676224943575161
0.0782891258391944 0.215519640908547 0.683676043940666
0.0780019207077319 0.216213015432107 0.694039608469152
0.0769824817381566 0.218674158818467 0.695337871755004
0.0789418496281994 0.213943826284647 0.709097578622022
0.0771854936945579 0.218184044599998 0.719841393303688
0.078992299972626 0.213822028378906 0.727326892570683
0.0794628040212682 0.212686131123525 0.736632105496138
0.0773731791735057 0.217730931771263 0.751487850253129
0.0793094620955355 0.213056331280307 0.753904512433399
0.0799025537062442 0.211624481470006 0.767830408720007
0.0805147163882803 0.210146590020656 0.778482928518202
0.0779170475751369 0.2164179172999 0.788162388728515
0.0776116948566246 0.21715510397424 0.79771884885929
0.080651002969658 0.209817565107523 0.816620077218481
0.0789272064678543 0.21397917800095 0.816128282425814
0.0779303995947666 0.216385682673025 0.82848504036132
0.0800883877011675 0.211175838519111 0.837314437816244
0.0778018262139052 0.216696086272861 0.849923511128653
0.0802825804431843 0.21070701576762 0.860141236521123
0.0806965813927722 0.209707529060289 0.875315062538423
0.0797924402826492 0.211890318790647 0.87593866047131
0.0787517300752076 0.214402815487953 0.884102808020494
0.0805830534774654 0.209596019471249 0.901340688376545
0.0771296859317257 0.218249357976681 0.900434576530633
0.074872948181201 0.214422946084455 0.910582366896046
0.0713504258615705 0.218455499077897 0.912781073307145
-0.425362804986959 0.250326640103766 0.582783210409947
-0.421453304139357 0.255421600803506 0.60246194643814
-0.422349524917147 0.254253623146222 0.601862793671075
-0.421754343912415 0.255029278133021 0.611989714231003
-0.426380013678679 0.249000987927242 0.626683500251166
-0.423182918434865 0.253167523568371 0.643976562093474
-0.420552868028313 0.256595071990039 0.645583931129254
-0.422352492803192 0.254249755321823 0.659893947732513
-0.426091139743328 0.249377455769345 0.667062709594043
-0.422203455351875 0.254443984709883 0.683052188995291
-0.42783490840079 0.247104932210574 0.697422367058046
-0.421084148467276 0.25590269384189 0.706910782644258
-0.42241119852439 0.254173248536427 0.715457381215776
-0.428431168974712 0.246327870301813 0.726685002003991
-0.425178067738412 0.250567394373381 0.742273776068219
-0.42767192907336 0.247317331005329 0.751538730531267
-0.425958249011562 0.249550642342797 0.768645319090363
-0.422830729275942 0.253626505416318 0.779292857785402
-0.425017868179012 0.250776170503909 0.781763195066737
-0.424880650858912 0.250954995597058 0.796351853023831
-0.428447974262068 0.246305969224933 0.810043778401311
-0.421385033020227 0.255510573458188 0.829645181438495
-0.425993231249809 0.249505052602313 0.826003543531864
-0.421608623861707 0.255219184200435 0.846593199852618
-0.423946763799227 0.252172060908607 0.849582728647293
-0.424149369949827 0.251908019432452 0.865398971728374
-0.421423154563405 0.255460892495867 0.87576477068817
-0.421692751843248 0.255109546480326 0.893281532312811
-0.425489312139137 0.250161772773203 0.898506740861187
-0.427532151869544 0.254317806706986 0.91132105745036
-0.435807605564017 0.25070194699603 0.915204246177553
-0.447169827146248 0.257438686543142 0.917432460456016
0.0726998112006563 0.229013440113273 0.0673511563080262
0.0733321926977024 0.22748673612651 0.075922184435199
0.0731339231514897 0.227965401153982 0.0902895725872481
0.0759750620540597 0.221106285082811 0.101076941169458
0.0761071949759622 0.220787287990719 0.108306829154653
0.0730008915200546 0.228286567922817 0.110610629747407
0.0735350076467308 0.226997097525913 0.123435168696403
0.0767949557347938 0.219126886639079 0.140166035086524
0.0735085299757954 0.227061020278185 0.140475709432505
0.0749728700401117 0.223525790634987 0.155175437918976
0.0734833240706892 0.227121872716146 0.169365512536413
0.0754739490598941 0.222316078869608 0.171369645623191
0.0728926950411404 0.228547777329613 0.177572723733077
0.0753627889566048 0.222584443098563 0.189266185983213
0.0755949269521332 0.222024012401418 0.205679161395042
0.0755100812332883 0.222228848086563 0.216788912391206
0.0736102541788598 0.226815436327527 0.223250708117476
0.0731449526209025 0.227938773659341 0.230527844254263
0.0756619379069 0.221862233645591 0.24955396560628
0.072518445676815 0.229451295220678 0.242900292461308
0.0753958001643506 0.222504746993115 0.257164982235779
0.0734149197724715 0.227287015300627 0.274444860625829
0.0768040239735999 0.219104993973968 0.285403861513961
0.0734905970348508 0.22710431422743 0.286876643009631
0.0727694902327565 0.228845220048965 0.295694657707061
0.0762341712947885 0.22048074003971 0.309573949399698
0.0764064946964488 0.220064714546308 0.319763109801728
0.0746445440850661 0.224318439608538 0.321188785664346
0.074039273643243 0.225779691718093 0.337402567393453
0.0766238935789449 0.21953986721574 0.350931211419311
0.0767995515256224 0.219115791418532 0.364990938941049
0.0765017635008838 0.21983471530657 0.369886692001251
0.0727016209305204 0.229009071038891 0.376196299325519
0.0747152812062147 0.224147665091299 0.386783450406947
0.0737004158393769 0.2265977668239 0.387591409614697
0.0765124073542384 0.219809018771444 0.405388487688978
0.0755690932271068 0.222086380530745 0.416901249934059
0.0752420944567512 0.222875825397015 0.424998947968865
0.0754132114075523 0.22246271253364 0.435812957457493
0.0753023025986226 0.222730470084344 0.441103349233887
0.0752384521993213 0.222884618584301 0.461952628951791
0.074963893445513 0.223547462051413 0.466230541256216
0.074427142209892 0.22484329416407 0.479682015052161
0.0736101716973445 0.226815635455521 0.48178026181549
0.0732038560907638 0.227796568103532 0.496308442986832
0.0737837103130025 0.226396676176006 0.507354286514474
0.074323635012342 0.2250931826442 0.519635328301753
0.07648905520135 0.219865395855661 0.525453178914539
0.0753619323358143 0.222586511164097 0.524614967150662
0.0754745796956726 0.222314556380162 0.54107116389455
0.0763637002402185 0.220168029502933 0.549992639985084
0.0741264056209528 0.22556933651579 0.560626507302007
0.0757966204150903 0.221537081307706 0.572209875929108
0.074660622674777 0.224279622459198 0.585716308865359
0.0765026555951507 0.219832561600493 0.589668642069328
0.0764011666980309 0.220077577472349 0.597898754807996
0.0762869672126459 0.220353279418782 0.615840316014253
0.0742092759283495 0.225369269895755 0.618887887642031
0.0760575242142594 0.220907203817278 0.631064312090902
0.0747584976927675 0.224043331263347 0.638526012267421
0.07305732984494 0.228150313753444 0.642732956242705
0.0765629339812824 0.219687036703175 0.667752520169622
0.0761758581620464 0.220621520395643 0.671098395282582
0.0765508123289183 0.219716300960712 0.682114415073103
0.0760780522861749 0.220857644667651 0.688923606316222
0.076198459519188 0.220566955892703 0.70691296523361
0.0735081741270757 0.227061879372996 0.703407460154517
0.0765630967805781 0.219686643670909 0.725986521251943
0.0754864519637378 0.222285894189583 0.731440976617632
0.0756523394783163 0.22188540630206 0.735992106342742
0.0766350418944197 0.219512952801326 0.75015272537126
0.0740524316019965 0.225747925595619 0.759073383447575
0.073791692172902 0.226377406261585 0.763253177912281
0.0758251941423535 0.221468098227822 0.784560651507443
0.0759443947489725 0.221180322506681 0.789612069800808
0.0746054116877974 0.224412913572755 0.793866367521538
0.0731866205661416 0.227838178340832 0.804877077301322
0.0748001012444845 0.22394289140455 0.815774408966833
0.0763317432837955 0.220245180420545 0.82817576755515
0.0728623541016748 0.228621026837172 0.835761608483713
0.0734948094365393 0.227094144590147 0.843205028827413
0.0736611250044183 0.226692623290539 0.85291329320346
0.0735444060877656 0.226974407682109 0.861147572089711
0.075133701813411 0.223137508386633 0.871404512583229
0.0760521802046194 0.22092010539783 0.885602939451584
0.072656818891983 0.229117232727953 0.88530142760761
0.0723640366126736 0.227874079673815 0.90513287797352
0.0692500498285557 0.221421528872966 0.913371596691563
0.0640884921971805 0.227790880037364 0.915135238950019
0.046729810404282 0.221758707802082 0.915595442280446
-0.420012812550834 0.257298885991033 0.599139727181822
-0.414143128533894 0.26494840713247 0.614145148169856
-0.419228305521334 0.25832127545705 0.62130372453042
-0.417651918157612 0.260375663466878 0.627896472786734
-0.415678040333545 0.262948071130092 0.637215551853669
-0.413605949290849 0.26564847275177 0.661173307123663
-0.412801798114011 0.266696462969026 0.670195476597388
-0.419204329595547 0.258352521491872 0.677239823545953
-0.412903673578242 0.266563696279169 0.694718351692073
-0.420508885769335 0.256652390785894 0.705250393919581
-0.412849983867076 0.26663366607302 0.706134521403901
-0.416857889067342 0.261410462324092 0.721301291697198
-0.415923730846679 0.262627881019508 0.73571970031186
-0.412509335931453 0.267077607105931 0.754850493557729
-0.412258386156471 0.267404651219996 0.757213371204441
-0.41583276180814 0.262746434178676 0.764495711733564
-0.415576671416486 0.263080177674821 0.7831570746746
-0.418244629375851 0.259603227168502 0.790253147870255
-0.417443287029379 0.260647556846756 0.801857596377141
-0.417515566258021 0.26055336072206 0.815616920531229
-0.418392538370238 0.259410468414144 0.817566856613341
-0.416975390269128 0.261257331776585 0.837109263215198
-0.419714640769109 0.257687471022442 0.84544358840599
-0.417207819468843 0.260954424146127 0.864148652367103
-0.412898803940481 0.266570042514655 0.874799605712318
-0.414758383730912 0.264146590948942 0.877652842168761
-0.413638313352901 0.265606295084936 0.894672775811847
-0.415191153708664 0.263931075455785 0.901824345179132
-0.420100432845782 0.262422115534929 0.91008448904431
-0.437745441143792 0.2636415025956 0.917912831459959
0.0706893033055724 0.233867235540841 0.0591596467116238
0.0689786399214099 0.237997142283542 0.0702127349879852
0.0716534375182894 0.231539609648552 0.084152294468742
0.0716713286542464 0.23149641662548 0.0933326475732677
0.0720132889556595 0.230670851428014 0.108693326948314
0.0690005707875738 0.237944196489015 0.105789649213228
0.0712956130401136 0.232403474356713 0.124384327860021
0.0717096779003151 0.231403833355513 0.130569560339556
0.0706876507215575 0.233871225231583 0.141777480616955
0.071316847318983 0.23235221027268 0.148208886409478
0.0718259401357505 0.231123151489935 0.160576302785686
0.0714421338589614 0.232049741808682 0.167331122952212
0.0722242226902444 0.230161612345218 0.180864783202364
0.0724912420086345 0.229516970685344 0.182247294493733
0.0682323189041272 0.239798920605352 0.193619635970662
0.0699392235375842 0.235678088289582 0.198300578455859
0.0724348759125349 0.229653050479008 0.210397615062154
0.070940397954526 0.233261039433901 0.227068156928778
0.0723882963172909 0.229765503569575 0.234037752407146
0.0705945851288117 0.234095905447783 0.249135787154412
0.0684422300201465 0.239292150342166 0.254842202693092
0.0715497422370011 0.231789952202995 0.269171204365618
0.0696852586811814 0.236291213690276 0.273207516203255
0.0685372105525708 0.239062847052625 0.280547176617927
0.069601580058823 0.236493231755255 0.297020419224606
0.0705777187191905 0.23413662456264 0.308659517859144
0.068480256772473 0.239200345640966 0.3151140004081
0.0726024971428773 0.229248377031374 0.325872999480941
0.069184897640012 0.237499192101951 0.329196583817283
0.0694403111775052 0.236882569275722 0.340083040799467
0.0702234510986984 0.234991902256742 0.347413728911544
0.0711364643763035 0.23278769321932 0.366619709617929
0.0694900473910159 0.236762495434523 0.374927126726161
0.0724408988816281 0.229638509745337 0.380832488122368
0.069474102722173 0.236800989270291 0.396373141409216
0.0716617849684497 0.231519457121167 0.396074889325546
0.0706094245762269 0.234060079852575 0.411751115332132
0.0719129094470772 0.230913188999021 0.41786108919864
0.068742167134654 0.238568038092462 0.42382638164972
0.069821692067697 0.235961834358192 0.435349001606232
0.0720033252709487 0.230694905890777 0.455896169882312
0.0717162041257974 0.231388077653446 0.461866489687013
0.0720166785633408 0.230662668191181 0.471476622126031
0.0713741487689105 0.232213872335124 0.481571925077471
0.0699987675078974 0.235534336428896 0.486763078352232
0.0725033076972268 0.229487841536308 0.496699438919729
0.0693900287921652 0.237003961692359 0.510854241411819
0.0702384926032317 0.234955588852498 0.519370828419869
0.0700050171663339 0.235519248418739 0.52408110616012
0.0710776279318665 0.232929736961443 0.543967893605278
0.0714249307769041 0.232091273722704 0.545176937483767
0.0703797414852283 0.234614583885912 0.561219436278843
0.0705203116830056 0.234275217407974 0.569568071445843
0.0699742622441566 0.23559349736897 0.579860948677231
0.0706081407166575 0.234063179363761 0.584647329246003
0.0689535659814668 0.238057676129419 0.598973120493788
0.0689476832482634 0.238071878303702 0.604388499694886
0.0701830752470701 0.235089378185336 0.621845976959654
0.0725584750563929 0.229354655749611 0.626592837908883
0.068899777522951 0.238187532955468 0.636040714926258
0.071824756090493 0.231126010028055 0.643932890844752
0.0697809819011768 0.236060117394331 0.652081742239527
0.0694352168469142 0.236894868077727 0.669670705612762
0.07250390732177 0.229486393914605 0.677140438444943
0.0723107092512989 0.22995281531656 0.685921345517942
0.0712122178088133 0.23260480825516 0.695787199882739
0.0714721761463227 0.231977213311093 0.705232263556891
0.0696350516231344 0.236412424250743 0.717422480168654
0.0702760069368885 0.234865021239401 0.729193277995947
0.0719533651031442 0.23081552040547 0.730292115927075
0.0685333551969475 0.23907215470446 0.744595748142171
0.069006963482835 0.237928763157422 0.759724107509056
0.0723709986692881 0.229807263785984 0.764270810354576
0.0715199779453771 0.231861809559511 0.779849286141344
0.0706360925671518 0.233995697627206 0.783914391062383
0.0684432518137048 0.239289683514304 0.794200079991477
0.0712569839469887 0.232496733237244 0.799733951849021
0.0717261241882034 0.231364128504249 0.813386904635556
0.0715380073955273 0.231818282616436 0.819395459639061
0.0687690515912433 0.238503133272751 0.830670501606417
0.0724137899478571 0.229703956500912 0.844628728608403
0.0704243025840655 0.234507003876748 0.856017208631556
0.0708404453062457 0.233502346472978 0.854904636808452
0.0687646887607378 0.238513666077327 0.868045928640674
0.0724578919854893 0.229597484763531 0.887283620664685
0.0692899120465735 0.237245664897389 0.891601595401172
0.0718354871588841 0.231100102937209 0.89964651032775
0.0682964201943903 0.229909357592379 0.910774492775598
0.0653628565461913 0.238365204115823 0.910099083780365
0.0489398277842817 0.236845854011075 0.917779831497874
0.0347946433577713 0.24054370608053 0.912735299360746
-0.411374387271606 0.268556700996316 0.610957789319648
-0.406295543473823 0.275175579098283 0.621406418217359
-0.408693388351624 0.272050646813396 0.631431382936143
-0.406290041866593 0.275182748932418 0.644727899557944
-0.406137495074145 0.275381551782881 0.667041690101616
-0.407667714215655 0.273387331371658 0.669217437712056
-0.411856318677153 0.267928635760639 0.675813187610867
-0.410472916065452 0.269731521145061 0.698003220888993
-0.404155102162683 0.277965056524039 0.702954665181691
-0.409329192630672 0.27122205054478 0.718927545578958
-0.410828461542336 0.269268165258387 0.726683575766563
-0.405071231711226 0.276771133251568 0.746554422363757
-0.406446110970614 0.27497935571614 0.748888255229655
-0.409667932602665 0.270780596018483 0.758936029327785
-0.411699970312747 0.268132392916133 0.768490933837994
-0.408213157825322 0.272676495420085 0.783409095946803
-0.411417713851889 0.268500236697573 0.795110671689701
-0.407580092296065 0.273501522480485 0.802204402765302
-0.404357044918476 0.277701879600828 0.821124585122398
-0.41105623875603 0.268971320214147 0.831568100716329
-0.406466509058973 0.274952772409834 0.839984240538393
-0.41222100437399 0.267453368107408 0.855890063920259
-0.411943634053554 0.267814844146674 0.863882047566368
-0.408038790921915 0.272903734792788 0.872802893762414
-0.404484115977333 0.277536277372773 0.89142850243724
-0.405144475861316 0.277684860474858 0.904836451009592
-0.411767799486008 0.268942739559106 0.904332970279794
-0.414568534051358 0.275436912212751 0.91384823730269
-0.439218357849638 0.269344757729092 0.917310495465778
0.0648719023198595 0.247911683898314 0.0521157701739429
0.0684138388865594 0.239360692601921 0.0686875242990733
0.0677179574820852 0.241040698926406 0.0809572091134148
0.0668292953671629 0.243186119056618 0.0871538084323154
0.0672872083774521 0.242080619256791 0.103978311161481
0.0681951463069769 0.239888663193538 0.105919368187926
0.0660056463482426 0.245174583688731 0.116247563007945
0.065648733672352 0.24603624711145 0.123241717063363
0.0681764867520037 0.239933711344224 0.137834367723195
0.0642376778654155 0.249442837177821 0.141023518647987
0.0652751040285377 0.246938268864851 0.153461419815435
0.0645478847006852 0.248693931628972 0.159802300186212
0.0676376377152553 0.241234607996814 0.18152817220047
0.0649034870330429 0.247835431655382 0.179224989347823
0.0664711825038534 0.244050679988082 0.194058766071256
0.0656476456212021 0.246038873899293 0.207797099059551
0.0661569741837473 0.244809245975892 0.220714089998688
0.0648053788437437 0.248072285776569 0.219988682066973
0.0654389639708405 0.246542675969816 0.235806571787565
0.0647870062379702 0.248116641170605 0.246636716457906
0.0663525007975473 0.244337202973052 0.251373663251653
0.0648831075709078 0.247884632029265 0.260707691722654
0.0665186380250378 0.243936112225231 0.272878075881138
0.0660297882435061 0.245116299997767 0.280132389831531
0.0669703385953682 0.242845610582205 0.292720857927468
0.0642762080717742 0.249349817031071 0.298598882213673
0.0672168492462239 0.242250481225642 0.311857437241441
0.0640987823524885 0.249778160608884 0.315156852526836
0.0662650571966487 0.244548310500284 0.329275253151403
0.0651906521803123 0.247142153662206 0.337042808254947
0.06791176869199 0.240572797274915 0.357554329904619
0.0667855097906461 0.243291826789285 0.356425380391355
0.0660621926895817 0.24503806874457 0.377288596509823
0.065420219811423 0.246587928373697 0.375483879677566
0.0668035876638964 0.243248182942506 0.388465801503342
0.0651494208973111 0.247241694784821 0.400112199815623
0.065833813358108 0.245589425223979 0.409684269549059
0.0655894581364086 0.246179350914243 0.414903973361268
0.0681583946829945 0.239977389462599 0.433850840615214
0.0654836528651503 0.246434787435085 0.436132093840091
0.0662439843456829 0.244599184862884 0.447602925895544
0.0674452926535157 0.241698970053522 0.453316635328628
0.0680573891370259 0.240221238421551 0.464723437277484
0.0668283716335233 0.243188349146901 0.477809753383367
0.065972624049696 0.245254306569746 0.481812447847444
0.0682215188665515 0.239824994202543 0.49969539700265
0.0675206049649662 0.241517150049806 0.507667872939813
0.0643968463258864 0.249058570521854 0.513448049335774
0.0680374743460309 0.240269316980064 0.531679934039417
0.0670709151147521 0.242602797385055 0.534048863512423
0.0652047252151372 0.24710817835067 0.542024850342849
0.0680638954387866 0.240205530819601 0.552961012665576
0.0669875980799526 0.242803942500444 0.56279029741275
0.0643291019513246 0.249222119909695 0.580988051031323
0.0644490445752025 0.248932552800423 0.580111582961845
0.0665335708334954 0.243900061236528 0.591761153633537
0.0648573876579727 0.247946725391898 0.59934579894143
0.0678885298518106 0.240628900798053 0.614820633104083
0.0668101596127437 0.243232316854467 0.626218402348609
0.0680746154856643 0.24017965033704 0.635125462176093
0.0674934775851699 0.241582641338024 0.64368019511015
0.06560112388027 0.246151187317198 0.656365165360804
0.0676958520474999 0.241094066166388 0.664183220304345
0.066395029503531 0.244234529594277 0.667007081707693
0.0644522904814745 0.24892471648948 0.685281633624563
0.068127472286786 0.240052042730907 0.696762834064513
0.0675157188182212 0.241528946251546 0.705284185374361
0.0652542179587318 0.246988692297845 0.713776750668253
0.0673390653197859 0.24195542552331 0.718086606926796
0.0651793974278615 0.247169325038214 0.726115564383089
0.0666650663667423 0.243582602936774 0.740692971725674
0.0656106359945113 0.246128223041992 0.752304582718855
0.0675771617043545 0.241380610002533 0.754669106174991
0.0642059565156665 0.249519419290607 0.767427761025452
0.0648034993484383 0.248076823279629 0.78019574989426
0.0650411985689543 0.247502966597695 0.784875519749303
0.0658857375680152 0.245464069092208 0.804037131198066
0.0682984151879954 0.239639350060419 0.813062175792894
0.067497653357729 0.241572560131277 0.813506814590238
0.0647292412044697 0.248256098297916 0.827197885759484
0.0669467485181466 0.242902562066577 0.842220714791584
0.0673902135784344 0.24183194270359 0.846888273992197
0.0654171838430607 0.246595257849695 0.850825543455592
0.0671760699164897 0.242348931236553 0.865779876496742
0.0682498083243864 0.239756697409767 0.880614870097833
0.0649424542634455 0.247741356439261 0.890453441824867
0.0675910081542772 0.240033306167807 0.904001047358131
0.0646641697001614 0.246149400947416 0.905418715373245
0.0603172299875729 0.242079045184855 0.913634537913583
0.0520134900731899 0.24726440972073 0.916836116409531
-0.401990795361873 0.280785636061467 0.608330578276317
-0.399034972227739 0.284637739767502 0.614783612101202
-0.396923515667448 0.287389443530525 0.630393200537325
-0.40403955236617 0.278115643950682 0.639710559313597
-0.401908543190445 0.280892829178244 0.657734751799267
-0.402487201739299 0.280138706675167 0.665526407492176
-0.396800034720242 0.287550367033986 0.681111544586863
-0.399829548029792 0.28360222842162 0.687744566945586
-0.396958453657025 0.287343911456033 0.701844801483048
-0.402076125907496 0.280674431129335 0.707186057855874
-0.401539599560751 0.281373645877609 0.717239989089353
-0.403202354325237 0.279206701679718 0.726930486290198
-0.40053799119695 0.282678967310964 0.741708918525398
-0.401886938648146 0.280920984765936 0.756363864711929
-0.400248880986315 0.283055743073013 0.764112578325859
-0.396987696403908 0.287305801566323 0.776859114843898
-0.403510796102173 0.278804732529971 0.793856258211568
-0.401588644626805 0.281309729103115 0.801860982853083
-0.402152363426695 0.28057507645995 0.809270493926667
-0.403134101851459 0.279295650035305 0.817687250356342
-0.400571573654662 0.282635201799992 0.835511193423268
-0.40067414892652 0.282501523103079 0.844805332290051
-0.396524553253462 0.287909381471243 0.856880554275726
-0.401191038211713 0.281827899871667 0.86223716041377
-0.400913787597368 0.282189219906918 0.876077630179796
-0.401871577986352 0.28094100317013 0.883580714205138
-0.404737449046662 0.278121258057497 0.90440767997512
-0.405894501694581 0.282428820178399 0.91125244235952
-0.41085440338818 0.282743417563496 0.914984022885589
-0.42831615650409 0.28827213169324 0.916137215389102
0.0630289834298526 0.252360883676921 0.0537749750162673
0.0641312160286967 0.249699858787902 0.0616747849846725
0.0606328372815393 0.258145692205608 0.0691072094090759
0.0636534449943138 0.250853300098818 0.085712774129809
0.0617807476990538 0.255374391307256 0.0877362413928847
0.0622342241220244 0.254279602376702 0.102806146634981
0.0623418937238364 0.254019664963753 0.113707514443305
0.062249515090019 0.254242686714388 0.12228025127597
0.0610482109147493 0.257142891546861 0.134198846530317
0.0639279265566278 0.250190642988458 0.144196225999737
0.0606312212241752 0.258149593713214 0.14933245789118
0.0638342768251072 0.250416733440409 0.164571780647037
0.0627094026472278 0.253132419936608 0.165895883758811
0.0631388528145409 0.252095635518319 0.183668139850321
0.0609357732539014 0.257414340072602 0.194629561074646
0.0620638354131522 0.254690957108537 0.200713322182797
0.0627705709302931 0.252984746638048 0.210945684384641
0.0612385403874718 0.256683395552495 0.221821865899142
0.0602584929332044 0.259049439408358 0.226761974393042
0.0639517091252382 0.250133226788773 0.237054136719171
0.0632819234846107 0.251750232366258 0.251065206685217
0.0615195931428611 0.256004874178693 0.257823077348529
0.0639787606471683 0.250067918637648 0.264547956436293
0.0608488358004305 0.257624225651849 0.277722573674076
0.0625127499436954 0.253607181560554 0.290764776642143
0.0622724994087177 0.254187197660466 0.293012717854566
0.064211796385452 0.249505320597765 0.309224865044571
0.0600257823167697 0.259611252534662 0.30988150093717
0.0605024768166679 0.2584604102079 0.319336055155237
0.0627533291392618 0.253026372003794 0.336756111583499
0.0609772372318358 0.257314237174724 0.344632360196072
0.0621494340460567 0.25448430372806 0.351288208518756
0.063193566324933 0.251963545419487 0.364329454765237
0.0639990562627068 0.250018920687358 0.38021325428926
0.06072642424492 0.257919753289355 0.382221486506416
0.0600382627093944 0.259581122201523 0.385815294349962
0.0614123761873579 0.256263718806785 0.400215056486377
0.0607773894276289 0.25779671245405 0.40817512073667
0.0617566399794799 0.255432592490811 0.43290017668425
0.0636796972799675 0.250789921474752 0.435901574581428
0.06085255251408 0.257615252711349 0.447036670045114
0.0635320789491304 0.251146303651115 0.457855500761045
0.0634761016435474 0.251281444821437 0.459275588973387
0.0639830900609172 0.250057466508259 0.479194010016235
0.0633711506748128 0.251534818873541 0.486338548411195
0.0609874222101973 0.257289648461832 0.487269347578942
0.0637559502388498 0.250605830547249 0.501332549926543
0.0601427232329896 0.259328932188731 0.512160798176979
0.0617150297304311 0.255533048518399 0.522898110240652
0.0625452758406716 0.253528657098948 0.530696201339845
0.0639994740896686 0.250017911963841 0.543267766667812
0.0605625025018842 0.258315495384562 0.546064504729492
0.0607332280659606 0.257903327412324 0.55976033056192
0.0601012441907176 0.259429071455138 0.570346398298099
0.0626003732221219 0.253395640253401 0.581917250207096
0.0610778017721755 0.257071452897543 0.596719194460091
0.0623273332277216 0.254054817110952 0.603354845490977
0.0602803295524029 0.258996721146134 0.604633816557829
0.0633976384147527 0.251470871812544 0.615001545915973
0.0615729889554494 0.255875965283769 0.633753457138581
0.0612988483237807 0.256537799314742 0.643891125979244
0.0641307395324824 0.249701009151529 0.648795505544055
0.0605617593651655 0.258317289475306 0.659207187364467
0.0621782862110402 0.254414648440057 0.672486062155677
0.0599388508397539 0.259821123685474 0.669244689127938
0.0598944141001299 0.259928403464941 0.686659857260428
0.0609303201689403 0.257427504984275 0.699375867400704
0.063662624942548 0.250831137743294 0.71220271960656
0.06254916163748 0.253519275955594 0.717012232915986
0.0637078222721889 0.250722021737091 0.727924785692947
0.0616483156772712 0.255694110490339 0.738742094591227
0.0615087069916741 0.256031155672534 0.744176263972408
0.0623477576352227 0.254005508229362 0.759871147409295
0.0606225421688419 0.258170546806312 0.763921575698154
0.0601554117230134 0.259298299464029 0.780544409109922
0.0618284253021875 0.255259287391155 0.787732279405662
0.060171146392818 0.259260312610787 0.789380173292689
0.0614156454605243 0.256255826083171 0.804881357669367
0.0611839800415374 0.256815115879623 0.814856726015064
0.0601196098035708 0.259384732943507 0.822014742240613
0.0614094891403951 0.256270688754722 0.834951667673452
0.0603621957425303 0.25879907867963 0.839814148479035
0.0605296163436801 0.258394889593714 0.860192539881203
0.0625577376401905 0.25349857165354 0.872944815069669
0.0608596272427059 0.257598172805556 0.869267777028188
0.062554512388477 0.253506358099968 0.890343169596793
0.0625939147900943 0.253411232287594 0.891896952540548
0.0598079688337575 0.257462275703521 0.905793117557773
0.0606298053745511 0.254750541840285 0.906455918412319
0.0516636319818951 0.25960402120502 0.914609229662022
0.0354120557944771 0.255571005610607 0.917025294307862
0.0247881930093816 0.259227945049901 0.913595394966168
-0.387696818765903 0.299413909040134 0.634024688814132
-0.392219386841629 0.293519983573446 0.653858810611907
-0.394505639149042 0.290540481557709 0.66359810428132
-0.394850317857611 0.290091287519224 0.669063641011947
-0.39420227706088 0.29093583072816 0.68320153058119
-0.389597085441449 0.296937433293398 0.690092993210182
-0.393270211296998 0.292150522480808 0.711118902555449
-0.394633166351203 0.290374284872124 0.715569360146727
-0.392269732348618 0.293454372031329 0.72279268914411
-0.388594546323573 0.298243967709079 0.737018771440161
-0.38859195405958 0.298247346013289 0.753172665917289
-0.390774656375825 0.295402792973399 0.759262451066383
-0.3889623056668 0.297764694401888 0.768480385404419
-0.394227490456547 0.290902971991191 0.782165066039011
-0.389292280649401 0.297334662632159 0.795398897767998
-0.391380589367873 0.294613125723921 0.80838429151481
-0.394746070276977 0.290227145611362 0.811260632964397
-0.391608596240123 0.294315981382822 0.837734599641479
-0.394355024488491 0.29073676640486 0.839603193918172
-0.393044319063839 0.292444910970588 0.844966224543338
-0.389698797822019 0.296804879138307 0.870849434678337
-0.392035045373117 0.293760222052478 0.875111119328167
-0.392261399857449 0.29346523114524 0.879167748029335
-0.393650361501989 0.291769312782135 0.900756318223155
-0.39660163859347 0.290996979913087 0.90797618353571
-0.408622769313351 0.292838126144927 0.917028575085255
-0.424667983518725 0.29212484893244 0.91636138119306
0.0583253870508794 0.261541055428332 0.0416101670012388
0.0588729861307157 0.262394348721683 0.0582831124447903
0.0553243477352252 0.267843007391254 0.064310049832727
0.0552568035079356 0.267931032742047 0.0775440760250039
0.0599024105810706 0.259909098252198 0.0892218990692151
0.0584942994548639 0.263308579230415 0.0977159013460412
0.0547248359659681 0.268624306340267 0.106142003934497
0.0577150020561908 0.264727446022479 0.113307208898692
0.0588526106971429 0.262443539369754 0.118692609825322
0.0593659247127885 0.261204289711427 0.138479141534696
0.0596430330293869 0.260535291055249 0.152365820258385
0.0588098481628272 0.26254677726006 0.16266004050886
0.0583484373812816 0.263660721426695 0.162314611297448
0.0592393967671383 0.261509755193835 0.173287615589782
0.0540014331642301 0.269567063226277 0.183005419848201
0.0533698918790939 0.270390103853062 0.18210350333118
0.0563666114107154 0.266484702924165 0.206175804131237
0.0591915550796327 0.26162525524466 0.213912508846708
0.0564887353860152 0.266325547860922 0.223870738688219
0.0594449353576436 0.261013541141048 0.230985177055466
0.0577278802026354 0.264710662895278 0.249194539672439
0.0571267617498077 0.265494055715086 0.248193390998208
0.0549499174846364 0.268330974394182 0.267049009525371
0.0585694129539174 0.263127239202284 0.274489505880801
0.059824719194853 0.260096661850487 0.284059318213249
0.0591893853924874 0.261630493332791 0.293991510128153
0.0543197315417404 0.269152248704571 0.299120220818227
0.0562240334926641 0.266670514084576 0.307611312019717
0.0545322537931003 0.268875284314306 0.324823824259723
0.0562283931460825 0.266664832473624 0.327822255771098
0.0581803052162515 0.264121051138226 0.337548876666926
0.0543913220916981 0.269058950083411 0.345233763773778
0.0547518325927392 0.268589123651279 0.358349126818554
0.0553809061704486 0.267769299003424 0.370392950664369
0.0561446017353336 0.26677403156614 0.381072114252643
0.0566420315372658 0.266125768427054 0.390607708142041
0.0587914047637683 0.262591303564208 0.40954802169723
0.0585681903953685 0.263130190719716 0.414474823988704
0.0589440708983466 0.262222734911594 0.423973717715119
0.0593667008863034 0.261202415862802 0.433870363807532
0.0533675850098039 0.270393110223655 0.433310572741518
0.0565959440845118 0.266185830764854 0.455568896486065
0.0581797915711793 0.264121720533517 0.461370608087025
0.0574407305423261 0.265084883618396 0.471384770682895
0.0587947365275371 0.262583259974933 0.482060955728664
0.0547770818605761 0.268556218164789 0.4881194938344
0.0549192627623783 0.268370924406027 0.496789999043493
0.0581313193143709 0.264184890808468 0.508815398379402
0.0571323403517326 0.265486785539513 0.517263430241337
0.0583494438315886 0.263658291640717 0.524754154956858
0.0592816076812365 0.261407849032543 0.544987678941887
0.0582788802912504 0.263992585599358 0.542653812739479
0.0569405305496305 0.265736756940372 0.552176932700665
0.0599321090191685 0.259837399880165 0.565302432520342
0.0546861976647961 0.26867466075472 0.576765794540329
0.0572033160193641 0.265394288248602 0.593854142608735
0.0573909053928147 0.265149817017446 0.604691181306757
0.0588000241616553 0.262570494496931 0.606511719438153
0.0564109563690462 0.266426911449312 0.613480974274707
0.0553212079738388 0.267847099207959 0.620851505374471
0.0590654057577629 0.261929806648403 0.638988218468665
0.0565059465863586 0.266303117787938 0.652683857794088
0.0572671258080222 0.265311129712987 0.657517621734526
0.0532601785303522 0.270533085072884 0.657342016670213
0.0590015622286519 0.262083938562254 0.675568561087388
0.0579198235707163 0.264460517427847 0.686161093897783
0.0583112460424879 0.263750509261216 0.696549259356346
0.0593629824880865 0.26121139287021 0.702407516250777
0.0557522714067278 0.267285326404915 0.711325155618826
0.0574936410507957 0.265015929301269 0.723818156398483
0.0546836664234176 0.268677959532708 0.730586570947762
0.0581313193143717 0.264184890808468 0.752636430399068
0.0574701427690314 0.265046552858282 0.752790478524132
0.054073908946379 0.269472610948065 0.754786946110731
0.0543874024281607 0.269064058288387 0.774625880894603
0.0586642426482061 0.262898300068221 0.780753824825187
0.0540564477814976 0.269495366781178 0.791760967874731
0.0591624175049762 0.261695599572574 0.808411969727398
0.0555083491572586 0.267603212069424 0.814969969352312
0.0553448298747852 0.267816314547292 0.826281675776239
0.0552421454213502 0.267950135532405 0.829951129745304
0.0562308927709391 0.266661574899091 0.835258594124156
0.0567818348603523 0.265943573189202 0.848394620374614
0.0581313193143722 0.264184890808468 0.859492878479898
0.0552646353933299 0.267920826030287 0.871197159628353
0.0551169649979286 0.26811327383639 0.875367420710189
0.0593503576563863 0.261241871910124 0.89262226488162
0.0580498374204526 0.262774005193043 0.90484282874279
0.0573881355648061 0.261202728243271 0.90770738040076
0.0473666510989163 0.262778097633089 0.915720916918193
0.0385912265997503 0.26807800248425 0.91729015649572
0.0264581567227801 0.271407312124161 0.917549142999016
-0.384590481873372 0.30226716747946 0.650168053316809
-0.377952700414954 0.30736051633281 0.656196949441284
-0.383810283882526 0.302865834453803 0.669184164018893
-0.388082690055759 0.298911031784544 0.67779053157006
-0.379835480811087 0.30591580812242 0.68535009619441
-0.382083659964429 0.304190719584248 0.698381372831967
-0.385193153230844 0.301804721481989 0.708124373154668
-0.375542210225384 0.309210150509525 0.726878149686714
-0.378834713960551 0.306683723535509 0.7309159064292
-0.37738717763396 0.307794457224983 0.751471889880487
-0.378786486524386 0.30672072974884 0.757603504204704
-0.387082794003974 0.300214121689433 0.756275439206404
-0.38030641117688 0.305554450543287 0.777267207860494
-0.381564849930234 0.304588816525119 0.786958115387057
-0.385609321546588 0.301485384301777 0.805280969254117
-0.38043286031088 0.305457422710163 0.821327837940782
-0.38026593079093 0.305585512235911 0.828313411391019
-0.377603740307663 0.307628282840863 0.842667869996608
-0.380367709200133 0.305507414915736 0.847937030277135
-0.387385871507584 0.29981914339679 0.852246200323089
-0.377928271744446 0.307379261110971 0.868518577036027
-0.386820379647594 0.300556106736865 0.878616895257848
-0.378183556209062 0.307183374451659 0.89117594443788
-0.379155652264227 0.3077556867101 0.905845981110777
-0.391565029681259 0.303835169104392 0.913120342596084
-0.404875135333131 0.302947436432509 0.91763378178923
0.0453063223200372 0.280347946879507 0.0450790625961995
0.0495088219148575 0.27542194819677 0.0515905539345113
0.0462664391347828 0.279647503704227 0.0681103836367886
0.0455878563386067 0.280531850021778 0.0782319374236106
0.0459665793373175 0.280038288600579 0.0832815205936976
0.0473629706984851 0.27821847594829 0.101387921083497
0.0492737081725008 0.275728354391313 0.110848012577383
0.0508802388030251 0.273634682911367 0.119550700795584
0.0508913229597989 0.273620237757023 0.131177539226317
0.0525085684781377 0.271512602363411 0.135561152900255
0.049369253908568 0.275603836763805 0.151575400409646
0.046384915339302 0.27949310250842 0.156417701187274
0.0516502492354313 0.272631185778504 0.171029038559715
0.0463516331864312 0.279536476654504 0.181482798765507
0.0473813126186626 0.278194572292527 0.181632201119153
0.0501057912225018 0.27464396264824 0.200099381937816
0.0482443626649655 0.277069823574154 0.205578352158939
0.0475207428616208 0.278012863262163 0.210145097863838
0.0490796285424787 0.275981283889511 0.219566445772525
0.0527555900477203 0.271190677586291 0.245206282368355
0.0523511630928026 0.271717737055401 0.248680579292221
0.0470133026014012 0.278674172284482 0.253257455388007
0.0528779173127178 0.271031257590757 0.26737367829188
0.0477147706361902 0.277760001343309 0.268137805083428
0.0453503454884298 0.280841380188054 0.280423916948205
0.052390552034644 0.271666404386984 0.299339728840741
0.0470706922970863 0.278599380576926 0.305323995351435
0.0472361349289834 0.278383771541288 0.314633931356923
0.0532180494490792 0.270587988760532 0.322299572369876
0.0493374723827916 0.275645255254584 0.33227165031942
0.0492546750975265 0.275753158777543 0.342763115934608
0.0524521431303246 0.271586137308352 0.351454327090363
0.0538270480410459 0.269794326343457 0.368630614742645
0.0529865242615168 0.270889718259416 0.376750619443659
0.0486942173213405 0.276483561571876 0.378709764956145
0.0527223749840342 0.271233964300049 0.398239521741139
0.0509400377207173 0.273556751444565 0.408709196995789
0.0497581930597114 0.275096961393544 0.412912408509629
0.0497330947585189 0.275129670136473 0.425396241868498
0.0466743700558313 0.279115877777552 0.436753063995809
0.0496826087430914 0.275195464792752 0.443664432226027
0.049981030589232 0.274806553871051 0.448764774001119
0.0519429797357771 0.272249691963049 0.463371565824848
0.0527253200871701 0.271230126166917 0.473084905806632
0.053253260157077 0.270542101272475 0.483638420145232
0.052798853031245 0.271134296168459 0.497496937233864
0.0534685041738861 0.270261589808417 0.506567090382569
0.0461609013296913 0.279785043249619 0.507351604863377
0.0529351305302163 0.270956695874052 0.526845042515792
0.0493964344816409 0.275568414351328 0.523647068986095
0.0528847018090329 0.271022415863018 0.546930065388574
0.0467582842648855 0.279006518651171 0.546954784924847
0.0479296428928355 0.27747997436653 0.561101448550361
0.0508529772214029 0.273670210896243 0.572252389386766
0.0463609085192383 0.27952438880545 0.580848540067897
0.0507229977146027 0.273839603487454 0.590457049286792
0.0495273259812068 0.275397833228004 0.597768370141678
0.050152534914267 0.274583045083114 0.607990370340555
0.0491108574540635 0.275940585579569 0.625902967653646
0.0464006765257707 0.279472562130309 0.632746066604932
0.0521363053978201 0.271997745055054 0.649960571839363
0.0456232322630516 0.280485747219455 0.641267231195912
0.0474089657306758 0.278158534055315 0.659131461733433
0.0528583223713103 0.271056794215579 0.669557468387424
0.0487774135015538 0.276375138198899 0.678837911682763
0.0497584035585963 0.275096687066056 0.687553652464508
0.0472582824706317 0.278354908303067 0.697659677902348
0.0463512152813957 0.279537021278951 0.712950840406763
0.0495420388790539 0.275378659006223 0.717982877986669
0.0504872677868194 0.274146812710479 0.727148907195858
0.0536538954229779 0.270019983228697 0.741578648303232
0.0470713770666564 0.278598488167849 0.750888114763863
0.0534185516517343 0.270326689202722 0.765602727556563
0.0482397696786476 0.277075809270461 0.762640230071684
0.0520477011343334 0.272113216379372 0.776465610607492
0.0520523282390192 0.272107186219142 0.792480990901265
0.0531951928180398 0.270617776102042 0.803159461635075
0.0525080652185519 0.271513258224075 0.811321342687407
0.0490771097535083 0.275984566439207 0.821157599820949
0.04725268161672 0.278362207477996 0.832250905624797
0.048360313953595 0.2769187129128 0.831243989767645
0.0469831058216726 0.278713525494005 0.842822071434163
0.0495125239987583 0.275417123547101 0.854924077653106
0.0520888174838075 0.272059632509499 0.865527303140484
0.0488637438217388 0.276262630335189 0.871511167148267
0.0504091492040556 0.274248618829629 0.889875568829869
0.0495101147204344 0.275420263379743 0.892777509407335
0.0468626219057783 0.275490273770134 0.908254699549911
0.04242885041116 0.274278099417381 0.913538630015307
0.0346293877455184 0.272983773782322 0.917310495465778
0.0270394557130667 0.280254219133595 0.917517596663905
-0.366710468150731 0.315986984554275 0.659997986124638
-0.362900282784559 0.318910642614941 0.663024097335115
-0.374988318409732 0.309635166648097 0.675125389880198
-0.366752288789519 0.31595489444948 0.690161495095421
-0.370146660299431 0.313350301582697 0.698501215940923
-0.367070387055471 0.315710809065184 0.712431298939006
-0.375080878581861 0.309564142730009 0.714650087380662
-0.36700160852281 0.315763584689489 0.726736929745378
-0.37036978970455 0.313179088368337 0.736689053145076
-0.364759726363247 0.31748384137439 0.75057962247017
