ply
format ascii 1.0
element vertex 849
property float x
property float y
property float z
end_header
0.497437159321181 0.0194667076263976 0.586748626158132
0.49628662632351 0.0282058733752847 0.598207264997595
0.497465289399179 0.0192530384707525 0.605170660192162
0.496609657229726 0.025752210040854 0.615491483986133
0.497261976121966 0.0207973561323129 0.619268570168015
0.496517723973217 0.0264505124520764 0.636941302734696
0.495875673335767 0.0313273712220698 0.646665090323155
0.497292909541645 0.0205623934825674 0.647328255008302
0.496994402912569 0.0228297764380486 0.660368480454267
0.495851202822916 0.0315132432206969 0.66623812928311
0.496318600500864 0.0279630053861442 0.672728196035903
0.497141114714586 0.0217153896644941 0.683809654670297
0.497505055453618 0.0189509852991969 0.689497773361585
0.496940006078884 0.0232429614112243 0.699927049893449
0.490633971215731 0.0133562046634435 0.703082431365766
0.424513816393261 -0.0598470063572457 0.628007419924402
0.423876754022082 -0.068087641261833 0.628007419924402
0.419197535547656 -0.0767458397784743 0.628034255230193
0.418886044885882 -0.073110786709799 0.634551204475816
0.414049177383389 -0.087296610905709 0.640315285606463
0.396617679894124 -0.107913601996685 0.628007419924402
0.391142537372491 -0.111451137792519 0.628007419924402
0.384476311567966 -0.123140802294897 0.628007419924402
0.377622471346895 -0.126996141619114 0.628007419924402
0.371249068069306 -0.139828352175745 0.628007419924402
0.364518750795908 -0.151757962293019 0.628007419924402
0.360960674289249 -0.150052570001427 0.628007419924402
0.349451793894098 -0.171443526024349 0.628007419924402
0.348232152070455 -0.16876540320279 0.628007419924402
0.336785513895568 -0.179081449762193 0.628007419924402
0.325396773413278 -0.193055189682805 0.628007419924402
0.324483286809178 -0.202061014884899 0.628007419924402
0.313648401138987 -0.205843910285194 0.628007419924402
0.311015478234181 -0.221874591504601 0.628007419924402
0.294239343644396 -0.235287951059655 0.628007419924402
0.294484314309938 -0.241545344224399 0.628007419924402
0.28099811052587 -0.250692232682562 0.628007419924402
0.280680829781939 -0.253682055380808 0.628007419924402
0.273238527698059 -0.264869395599957 0.634136520207758
0.26866837214437 -0.269256606215374 0.640297834147215
0.262794361256511 -0.274632281389124 0.647566790770318
0.260170463861285 -0.276205992340883 0.648769457356764
0.260989449414109 -0.280704137653729 0.660719074609248
0.257575673971659 -0.283504011692775 0.664142473244219
0.261694752524537 -0.286760148337364 0.676400712248917
0.248689274505265 -0.292192957455334 0.678258977717167
0.256136172141083 -0.293567066526294 0.68752797432714
0.248003848951196 -0.296066634546399 0.688288580600006
0.241236217811966 -0.302319053160982 0.702501349301402
0.241487718889593 -0.30774879454339 0.703082431365766
0.228639025096468 -0.316368065424195 0.703082431365766
0.498708410974766 0.00981059265036933 0.342752744819698
0.498226351065717 0.0134722011871079 0.355895898928189
0.498342876692008 0.0125871011819739 0.37252986817471
0.498683519867371 0.00999965938173427 0.37673613224714
0.498078131715935 0.0145980389228035 0.397527416015025
0.499287904737789 0.00540890051658805 0.395479064843757
0.498398996584071 0.0121608282810296 0.405950506949103
0.499322156254044 0.00514873442113159 0.413277605822006
0.497883896241007 0.0160734038303214 0.430861171038199
0.498033825689103 0.0149345766083288 0.439053881361104
0.498291560675355 0.0129768850265077 0.439194108046652
0.497944952050411 0.0156096389149396 0.449672577116938
0.498096633279479 0.0144575055954237 0.460096947766272
0.498279935508686 0.0130651869340495 0.465780794401052
0.497727094994588 0.017264427542686 0.47975755694895
0.498685957724238 0.00998114202041173 0.479211579465139
0.498382468410527 0.0122863722232003 0.492599566582416
0.49876306568247 0.00939544892954653 0.499870819031878
0.49811295921993 0.0143334977660936 0.513666941543317
0.498127580723136 0.0142224364229808 0.522335106411592
0.497966716403464 0.015444322240724 0.532341337064937
0.497684665384176 0.0175867124304787 0.542581763106879
0.498546207453052 0.0110426507175311 0.548657613501116
0.498758754714513 0.00942819398213987 0.554842898896059
0.49874332386599 0.00954540291327207 0.555142226165483
0.498703544729841 0.00984755545026974 0.569454518769976
0.498040813232055 0.0148815009502124 0.583252477851193
0.498449730338803 0.0117754671548619 0.583598815709139
0.497615438392189 0.0181125436395726 0.601087739068196
0.498373371934755 0.0123554668164508 0.611324638150855
0.498057074704093 0.0147579828071052 0.617594203420464
0.498129085675525 0.0142110051746819 0.631851606585336
0.498339345312521 0.0126139246722383 0.62964268395553
0.498289950111957 0.0129891184700662 0.642467987543455
0.497974126583344 0.0153880363364226 0.650445370382605
0.498266865200083 0.013164465784376 0.657249611364516
0.497665347812901 0.0177334439519363 0.674894669860608
0.498876981986338 0.00853016869593711 0.669759430920901
0.498455592217889 0.0117309417626911 0.686282711617689
0.499121099682049 0.00667591070475288 0.695769409121085
0.499155355653297 0.00641571077025522 0.697396929634852
0.492255156729775 0.00499006100106486 0.703082431365766
0.484766538741068 0.00192428342877465 0.703082431365767
0.425587694374986 -0.0847598604690996 0.628007419924402
0.417064318561792 -0.0873327159995325 0.630599974995789
0.417279795801851 -0.0995975813293978 0.628007419924402
0.403284678599107 -0.108396972577501 0.628007419924402
0.39783873083614 -0.114186506592443 0.628007419924402
0.392516671338183 -0.127846338536932 0.628007419924402
0.385292846261206 -0.135760299350687 0.628007419924402
0.378939912185452 -0.140111004538654 0.628007419924402
0.369966460342576 -0.152789548459551 0.628007419924402
0.360222264784764 -0.167030872410791 0.628007419924402
0.362837108145961 -0.170980593874039 0.628007419924402
0.351462406831257 -0.176834182318403 0.628007419924402
0.347390138798002 -0.190641635763614 0.628007419924402
0.330804287964269 -0.205672766763756 0.628007419924402
0.325901795218388 -0.215150982539239 0.628007419924402
0.317486713997408 -0.223684934502029 0.628007419924402
0.313480777848738 -0.219867883658448 0.628007419924402
0.300051569772448 -0.243459574924667 0.628007419924402
0.296076262638731 -0.241340692730277 0.628007419924402
0.292026423462544 -0.256658224860024 0.633076851304888
0.287150496923055 -0.261061574090161 0.638965161606622
0.279490623828346 -0.265874729288543 0.643017218119455
0.288123119873824 -0.266712677711509 0.653920097403349
0.286603163322721 -0.269850902091778 0.660117100662178
0.268467240099984 -0.275378651511375 0.655215114283762
0.27305638804766 -0.280442945627588 0.672420967077756
0.264252428535315 -0.283929546498412 0.672025431594751
0.258111730970585 -0.287895163504998 0.675538290529962
0.26537682796526 -0.289670924914288 0.687358670565913
0.269720540281997 -0.290378292381351 0.693550620295098
0.258496648559939 -0.298711776574821 0.702652059522687
0.248874288108577 -0.303138361197729 0.703082431365766
0.49912272316682 0.00666357911362083 0.346963574045118
0.499805896246862 0.00147436438119252 0.361793023947583
0.499148104788668 0.00647078655508463 0.366469652436881
0.499845896389194 0.00117053313556209 0.366313228258022
0.499005721329924 0.00755229629742182 0.386583453483111
0.49973390760712 0.0020211723875756 0.397752062848943
0.499709632086399 0.0022055632739403 0.404557875088605
0.499638199623507 -0.00274814669772942 0.396107639289792
0.499532036930047 -0.00355453241320251 0.408526610797916
0.499375986926958 0.00473984986595299 0.429469867963435
0.499362789505733 0.00484009423249454 0.433503189734308
0.49946125874225 0.00409214612424655 0.440797487343953
0.499358841269954 0.00487008406065449 0.453226483189324
0.499681098897044 0.00242229436433284 0.457725617176232
0.499705811371314 0.00223458448625319 0.474363208457307
0.499182494084003 0.00620957392360932 0.480871977088878
0.499316056719686 0.00519506498431373 0.487431745772896
0.499193589022812 0.00612529949652071 0.501993182584127
0.499818970468629 -0.00137505580743272 0.504653955005912
0.499970136322149 0.000226837153855377 0.514026614518473
0.499258912647893 -0.00562911730265706 0.52253427802776
0.49988687727328 -0.000859252416728637 0.532560422984965
0.499413350264203 0.00445604714341258 0.539852274211093
0.499956662871035 0.000329178175566139 0.539843150930865
0.499350595951352 0.00493271347333591 0.559464198552152
0.499785578858528 -0.0016286902671896 0.556826051914489
0.499643775177826 0.00270579615808286 0.581188161728875
0.498946209137398 -0.00800433627855919 0.577328849317274
0.498996523853766 -0.00762215806477881 0.583350607897558
0.499948532853152 -0.000390931792338489 0.593377535493237
0.499974080368593 0.000196879146859931 0.605846267706216
0.499471952352598 -0.0040109200894694 0.612045482342199
0.499805518642491 0.0014772325711424 0.627731379980959
0.499139764989745 0.00653413361705159 0.643448141909213
0.498986921577632 0.00769509459321332 0.65032009305787
0.499388050796722 0.00464821567757722 0.66146361480078
0.499610110198614 0.00296150706238443 0.665968938958697
0.49927886243513 0.00547758362419631 0.675865123803957
0.499877648173121 0.000929354392210232 0.675750353260106
0.499108639554238 -0.00677055477181817 0.682295803075493
0.499210222585282 0.0059989550459819 0.700395129531374
0.499957210069658 0.000325021789378667 0.702665014119453
0.491786203463191 -0.0116598739290276 0.703082431365766
0.484568652984503 -0.0187422760863866 0.703082431365766
0.416699211473968 -0.106494615938926 0.628007419924402
0.416502703244162 -0.1036316579203 0.628007419924402
0.409155844614167 -0.116313541505329 0.628007419924402
0.401980377352642 -0.12601109926008 0.628007419924402
0.393716305378999 -0.135359351631096 0.628007419924402
0.393065377597656 -0.143787071267021 0.628007419924402
0.376113011313771 -0.154734857564728 0.628007419924402
0.370714208850115 -0.164147762904475 0.628007419924402
0.3696054004608 -0.165299197269305 0.628007419924402
0.363471615689463 -0.185270647218394 0.628007419924402
0.354772396066835 -0.183052407972698 0.628007419924402
0.342920674081488 -0.200576765819446 0.628007419924402
0.340247911439896 -0.214516920193245 0.628007419924402
0.3367636919262 -0.216181590897298 0.628007419924402
0.320782187096289 -0.231025392326048 0.628007419924402
0.327475081547176 -0.22805257329557 0.628007419924402
0.314354959255762 -0.245622780671287 0.628663320830052
0.307259978107334 -0.249347703834996 0.630605161940024
0.312772424348844 -0.253117769086781 0.645558660062131
0.309584090783594 -0.256045660992901 0.649528973056745
0.305185773608947 -0.257945440560695 0.649721498057155
0.295118935858753 -0.265293909653172 0.657573605913226
0.289654938897609 -0.269130277798463 0.661459597843806
0.290877677841134 -0.27306785952248 0.672437601421836
0.294400637890335 -0.273163841105835 0.676279456897919
0.28391160572306 -0.282216351961785 0.687909004812115
0.28004889169004 -0.286011816705497 0.69333241563361
0.282833249436807 -0.283844548274055 0.6908276899102
0.271838031035413 -0.296517686874696 0.703082431365766
0.26374902331427 -0.304976039099317 0.703082431365766
0.252503913118865 -0.313183047357833 0.703082431365766
0.497599049043722 -0.0182370331006024 0.32714000555772
0.499264702206065 -0.00558514124235953 0.35108494009679
0.499047670017684 -0.00723366437984852 0.357476188687425
0.498338023044843 -0.0126239682923861 0.359093017252179
0.497334005709561 -0.0202502370961043 0.367154558155304
0.498425922211841 -0.0119563078331619 0.377171445005169
0.498734958055791 -0.00960894755049782 0.391009587747881
0.498435037162587 -0.0118870729085404 0.395649749151104
0.49743494804517 -0.0194835039352493 0.396833033011917
0.498148980817375 -0.0140598865691542 0.416469745979096
0.496680315709127 -0.0252155056053472 0.412951561027985
0.498200825977448 -0.0136660834813112 0.439543507127832
0.498190054885959 -0.0137478980437848 0.44003245132435
0.498963551568957 -0.00787260743272487 0.454812953164748
0.496522931952488 -0.0264109539221112 0.444430976052748
0.497536277764249 -0.0187138283048168 0.461804105798432
0.497220510564992 -0.0211123183072374 0.46909203801273
0.497483836290215 -0.0191121608468875 0.47308781316066
0.497497856613273 -0.0190056659203613 0.487456549235932
0.498055834359615 -0.0147674041587779 0.499889251858641
0.496981707216015 -0.022926209827363 0.504210364667475
0.49810232129664 -0.0144143008156753 0.516254904385347
0.498534737183884 -0.0111297760617383 0.528663774327922
0.498324304407503 -0.0127281716883847 0.540970481298425
0.497420155663855 -0.0195958632264625 0.545280186219461
0.498221806961929 -0.0135067170821443 0.550829869648671
0.498433380401489 -0.0118996572584617 0.571636947834379
0.497406247261207 -0.0197015080330794 0.565768477128037
0.498595376675345 -0.0106691733950769 0.582902222638952
0.499047124511052 -0.00723780791409424 0.597862747382823
0.497438209046344 -0.0194587341721739 0.598650499399498
0.496895087586785 -0.023584151232331 0.601124171309554
0.498941880633923 -0.00803721452663463 0.62395674414455
0.497173075371501 -0.0214726243732843 0.620179898346467
0.497630213802568 -0.018000313255426 0.637796165807363
0.499146522654792 -0.00648280405498431 0.653862423601817
0.497999823088359 -0.0151928520027776 0.660376695777755
0.497529374915445 -0.0187662606470082 0.654883342585375
0.498344331991134 -0.012576047087652 0.674476730360694
0.49856581043581 -0.0108937512806249 0.681236865786744
0.498780251361253 -0.00926491073925472 0.698004012682149
0.497947667085005 -0.0155890161797507 0.699386013238932
0.497708047620485 -0.0174091067128731 0.699822426022359
0.490823371934574 -0.0272510450744293 0.703082431365767
0.481301374359335 -0.0403533505341302 0.703082431365766
0.423169260334035 -0.108233043531304 0.628007419924402
0.419781252385713 -0.119316196966054 0.628007419924402
0.416564655360559 -0.130402533717077 0.628007419924402
0.407732450857834 -0.13492886952847 0.628007419924402
0.39743949517752 -0.142942312906017 0.628007419924402
0.392625895589099 -0.163281524233226 0.628007419924402
0.386659384349526 -0.169088478665605 0.628007419924402
0.378180335906969 -0.176520429453425 0.628007419924402
0.365504700155559 -0.191172965454499 0.628007419924402
0.362038553186202 -0.189925093749695 0.628007419924402
0.355480276972896 -0.205447254307021 0.628007419924402
0.340599620486694 -0.214967410929289 0.628007419924402
0.337196082237866 -0.226910402692338 0.628007419924402
0.337173133120364 -0.228234278196737 0.628652752834842
0.333813312310878 -0.231347726246151 0.629788408229109
0.331655548985627 -0.239355056470484 0.643261882532523
0.322962277347149 -0.244614204584167 0.640267856308528
0.317134975077721 -0.254180041528842 0.652646595380064
0.317480620299971 -0.254826177889275 0.654596394581318
0.31161934861659 -0.259053025208687 0.659040475481803
0.307917248071356 -0.262548616427145 0.66388746142593
0.311154061009938 -0.26685644865515 0.677840918685898
0.302338811245539 -0.272866855090294 0.683668302584012
0.30395140631179 -0.273886984305054 0.687838329343793
0.295311282378115 -0.278573682815013 0.690574994063652
0.296500109494584 -0.279166817835112 0.693256624558637
0.287117187782894 -0.289791067511376 0.703082431365766
0.279589222242155 -0.304642144940032 0.703082431365766
0.273364829275608 -0.306316182572339 0.703082431365766
0.494151329545007 -0.0444250626624906 0.310890618372564
0.496138491752772 -0.0293310671502059 0.331556138943175
0.496144400276388 -0.0292861874576472 0.342294402443382
0.495353271411295 -0.0352954077883745 0.340812446003205
0.496673041738913 -0.0252707568945141 0.36430635937596
0.494497699525824 -0.0417941214561684 0.352520354715321
0.495756665507998 -0.0322313254192967 0.371976984237999
0.495482005853976 -0.0343175726159286 0.379311676418981
0.495500810424339 -0.0341747377232561 0.387173707113845
0.49448966936033 -0.0418551166187507 0.39564389503729
0.495779652850969 -0.0320567192143805 0.411914727416054
0.49453561440718 -0.0415061293401777 0.410010931260165
0.496657341296498 -0.0253900135945638 0.428860717051432
0.496721659961993 -0.0249014648266 0.444022182439178
0.496167373322843 -0.0291116898455561 0.449301425254075
0.496334412165118 -0.0278429038723593 0.456097473104397
0.494183768064135 -0.0441786676474092 0.457493045925117
0.496564473644704 -0.0260954134426138 0.470862916366108
0.496120451644633 -0.0294680953757983 0.487797721856877
0.495229651224124 -0.0362343963334918 0.486777842204723
0.495050695677852 -0.0375936986600832 0.489279603852807
0.494476864846948 -0.0419523765539272 0.498548658930042
0.495797727374721 -0.031919429576256 0.515779469548683
0.495484552944415 -0.0342982255432491 0.521946058677874
0.495224225963114 -0.0362756052821196 0.532642185960113
0.496011719224443 -0.0302940001036382 0.542890548975218
0.496185327161477 -0.0289753169019125 0.558270105827862
0.49496759281249 -0.0382249275914338 0.559668257675733
0.494675969344027 -0.0404400277513816 0.564796356321716
0.495316183125797 -0.0355771212854826 0.571444491981166
0.494769850577349 -0.0397269289872679 0.58317416343613
0.496059054903537 -0.0299344499244817 0.602313215596448
0.494758958289303 -0.0398096641289898 0.600888846910273
0.495805829691681 -0.0318578863688869 0.61269868557631
0.495105206639726 -0.0371796467972417 0.619573981698632
0.495574474039289 -0.0336152070170426 0.633663079957305
0.495886762266396 -0.0312431424316421 0.639670037945041
0.495258523205176 -0.0360150918646747 0.643623694108608
0.494775801130759 -0.0396817300467289 0.647383944028444
0.496207431839214 -0.0288074152050843 0.670346833853571
0.495473019243648 -0.0343858326982872 0.677782248625454
0.496616950463608 -0.0256968124296005 0.690967924349637
0.496781918657947 -0.0244437545889819 0.694009205308276
0.494703346264989 -0.040232079391386 0.693824949553052
0.494685063280563 -0.0405400752874257 0.703082431365766
0.478575174321105 -0.0525371577677389 0.703082431365766
0.477510626815898 -0.0600073140137512 0.703082431365766
0.413855899727359 -0.139577366749257 0.628007419924402
0.412800880183533 -0.143008996947014 0.628007419924402
0.410483395696171 -0.153586235893828 0.631047694227935
0.398912016738456 -0.16774916624298 0.629554789248757
0.397841009596685 -0.173344485756104 0.636390424966926
0.38366536819823 -0.183451013338544 0.628007419924402
0.373784354797628 -0.192943073126931 0.628007419924402
0.37160309641129 -0.198776752043481 0.628007419924402
0.361357599797107 -0.211402198068193 0.63231260197902
0.367345825626585 -0.208344846068157 0.635574207761916
0.349883749950964 -0.222519793270299 0.637219939327416
0.355327196963279 -0.221480117291375 0.643874833222406
0.348799971116871 -0.228879869019859 0.648947278485188
0.350430828041594 -0.228485483827645 0.650765235763634
0.342700069841765 -0.238428693175752 0.659274035567079
0.338178968686178 -0.242832440797049 0.66125653804923
0.326092533467542 -0.253542965523411 0.66430326280649
0.335574715492243 -0.250600702923558 0.673496131840784
0.332095826112086 -0.256380816398986 0.680094684800168
0.322754465919074 -0.265001335448891 0.685128035811553
0.321644391987365 -0.267051166407209 0.689055816696562
0.314323994927014 -0.271382935760809 0.69226607991099
0.313340664404777 -0.274593626931556 0.69919118073947
0.307031973602927 -0.284122863760821 0.703082431365766
0.297039298964463 -0.296337548755481 0.703082431365766
0.49340135418712 -0.0501216910715979 0.311455652451443
0.493054080422063 -0.0527594972007715 0.317363264764609
0.493879971323424 -0.0464862329900952 0.328168193680793
0.493697213753681 -0.0478744145521006 0.333745751788924
0.491863938129288 -0.061799525415844 0.332449936932234
0.493431345039453 -0.0498938879316495 0.356946209116841
0.493621195573239 -0.0484518299588352 0.357369116725144
0.491898768559513 -0.0615349620322182 0.355133974345446
0.492894310844253 -0.0539730676285103 0.375534071290452
0.493725681749906 -0.0476581786527008 0.387088496479927
0.492732120771847 -0.0552050235380303 0.388202013216243
0.491598800046381 -0.0638134490995287 0.392657915220626
0.491724011187291 -0.0628623760610056 0.39830020256382
0.492342518208985 -0.0581643488072179 0.419172141695896
0.49176637544366 -0.0625405875864589 0.421177742341935
0.492972181025642 -0.0533815848779682 0.433826244136469
0.493939018177583 -0.0460377276047756 0.450862323128528
0.492232627987095 -0.0589990479120878 0.449747590959113
0.491872983865813 -0.0617308162254379 0.455840499347088
0.492505586542494 -0.0569257218423139 0.462638100393484
0.492308787873432 -0.0584205561422206 0.477494908697577
0.493038929094016 -0.0528745829630974 0.498693754737038
0.4926806124173 -0.0555962683339211 0.499160471035969
0.491908203122849 -0.0614632994089567 0.499706289240748
0.492813929235407 -0.054583626564494 0.519580530940521
0.493535525928141 -0.0491025555179268 0.532669443292419
0.494071026627162 -0.0450350238809739 0.54047785989628
0.492321469769351 -0.0583242275791381 0.5411330354248
0.492764731719612 -0.0549573187974247 0.54790453511056
0.493460703534033 -0.0496708880256943 0.566529227311672
0.491912377414621 -0.0614315925150589 0.559913100675984
0.493908209298076 -0.0462717442779983 0.583215923101562
0.494488117936615 -0.0418669008518116 0.599879674763614
0.493862736274025 -0.0466171461874514 0.603303820545128
0.493205704369264 -0.0516077989802353 0.60975778604571
0.492934699629742 -0.0536662843450244 0.611798034828808
0.493558914794138 -0.0489248994428375 0.632723163317631
0.492618170519134 -0.0560705616387226 0.633298431733207
0.493045853402493 -0.0528219876185038 0.644488564631944
0.493592582936243 -0.0486691645139765 0.657146069170775
0.493907735621182 -0.0462753422112194 0.667239702712578
0.493307946177468 -0.0508311953450713 0.672532800282846
0.49438613642824 -0.0426415273134715 0.682224569086243
0.493049508572656 -0.0527942238447099 0.688391670823478
0.493914281458486 -0.0462256216405947 0.701985097044667
0.49270424544512 -0.0554167576656629 0.699900069783795
0.481746853239505 -0.0611489982307292 0.703082431365766
0.479730652470338 -0.069540722168362 0.703082431365766
0.454301764344426 -0.101046934959155 0.675577851009244
0.411749193978749 -0.155867037677441 0.637445259972712
0.399496032994063 -0.167640916902952 0.630617444990669
0.404821648123103 -0.168634704479648 0.643532082368644
0.40649418794318 -0.168809578161635 0.647364626457816
0.398043672641415 -0.17789855955266 0.644233013328242
0.392304408314719 -0.190409114481383 0.652421994479882
0.39145511069154 -0.192141036478269 0.653439465671721
0.375823775243831 -0.205857038400749 0.644096502915433
0.380623531253389 -0.210517909811814 0.661796033976448
0.360930445539502 -0.222445428448169 0.655042947353824
0.36606484029022 -0.222516944749974 0.663551929622461
0.365644807878671 -0.22552933974561 0.669258331295513
0.355849092900846 -0.234428145694926 0.672190534612434
0.35858874711983 -0.234007312097807 0.675757182086561
0.351960995422434 -0.240712604718098 0.679192868660412
0.345935277530406 -0.250241919082091 0.689598988911967
0.34105001437427 -0.25250865407859 0.686455571618651
0.34194692443445 -0.257051351858052 0.697551745281108
0.326295288201632 -0.266125079708643 0.691527015719916
0.326617625859446 -0.270146206906283 0.701790092247046
0.322877655193416 -0.280748328691388 0.703082431365766
0.311185058514949 -0.290530642494801 0.703082431365766
0.491133425254279 -0.0673483215905961 0.291970921653347
0.490415854470123 -0.0727988128255158 0.287450956277621
0.490569710703175 -0.0716301587105425 0.300180515388903
0.490676812948674 -0.0708166363888168 0.307232134822663
0.491204790796518 -0.066806246479624 0.330508755500078
0.49169191802354 -0.063106147841553 0.333559503523293
0.491241636812609 -0.0665263732013672 0.341854406350333
0.490325836239113 -0.0734825691739346 0.356029187220076
0.489843120187846 -0.0771491616056233 0.353534978766857
0.490724201461369 -0.0704566848986164 0.371588176265899
0.491651590379833 -0.0634124667070974 0.383264648020497
0.490029652940498 -0.0757323046825069 0.381738710048374
0.490905131605213 -0.0690823840143985 0.395328603627493
0.490901702503607 -0.0691084306270226 0.403944320957694
0.490930772115517 -0.0688876250028005 0.414508030335411
0.490564206279025 -0.0716719689629223 0.421325974938715
0.490595512767431 -0.0714341725748556 0.426881072153679
0.49222214153611 -0.0590787004152839 0.453892616525149
0.491323485939237 -0.0659046673611548 0.449034468549086
0.491637208219787 -0.0635217100584142 0.465180411617887
0.491189028158356 -0.0669259756032706 0.469333442098311
0.490381019998036 -0.0730634069101403 0.473871990992011
0.491183329071927 -0.0669692644624578 0.490037228984315
0.492035571912375 -0.0604958374020842 0.505162622341088
0.490538489185099 -0.0718673096848759 0.494891442562557
0.489888739676821 -0.0768026471846216 0.511084814637527
0.49242956553779 -0.0575031587014487 0.535794791654893
0.490600989530481 -0.0713925724293989 0.531833650387185
0.490360708370539 -0.0732176890382373 0.537679649865197
0.490405608882838 -0.0728766357872742 0.548184515466811
0.491200239170525 -0.0668408195114843 0.562692204995768
0.49052568946901 -0.0719645331810018 0.56875912576348
0.492282639721193 -0.0586191710771268 0.584403385467286
0.490808566914271 -0.0698158656627605 0.593030570631859
0.491154779163972 -0.0671861225432219 0.604783767787251
0.490208285730991 -0.0743754539294568 0.599688292349851
0.490250267106137 -0.0740565737265346 0.607043103628391
0.490763316238219 -0.0701595786714853 0.623426457375356
0.491561641496249 -0.0640956963095187 0.635451199783519
0.490440315568064 -0.072613012340231 0.635519525847495
0.490630210115261 -0.0711706200523759 0.647751798425466
0.490969329690551 -0.0685947511436597 0.660226279009426
0.490490552757307 -0.0722314230034291 0.666595615132882
0.490311767060559 -0.0735894351947982 0.668975345085018
0.49151140396279 -0.0644772882608971 0.687641207566841
0.489890041695855 -0.0767927573681894 0.692850179156044
0.490620011087556 -0.0712480893590161 0.702336217015463
0.476955755360533 -0.0781133848428863 0.703082431365766
0.47702200539192 -0.0854019452714538 0.703082431365766
0.469928950799931 -0.0928385366950012 0.703082431365766
0.460779917946357 -0.109895914655915 0.700635048849677
0.428265672855107 -0.151586168145554 0.665513110363989
0.431464054363392 -0.151061345292725 0.671443470986708
0.428088124893768 -0.158455866745323 0.676318322942776
0.418440935299689 -0.171284765855296 0.676735726351957
0.414579373628398 -0.175269824070041 0.675030824869507
0.396824103772344 -0.195233009258775 0.669861344607428
0.385406023435815 -0.206402170079307 0.663820654754988
0.384984846629983 -0.207892977028277 0.665353819932489
0.386404677705539 -0.215414782751177 0.681593600585321
0.377698943810629 -0.221563858800038 0.680467063130794
0.373911605624737 -0.224500609660069 0.680532024894553
0.37216568017406 -0.230853902576056 0.691167196864966
0.366232115309442 -0.236266661329327 0.69299100662664
0.366017379222984 -0.240109993772586 0.700794209181278
0.364590449249069 -0.24178095294074 0.702016137347696
0.351756706360492 -0.256191725044238 0.703082431365766
0.343748541913093 -0.258167431520368 0.702851747620182
0.33450640017092 -0.276397875555095 0.703082431365766
0.330909578576161 -0.281761209467042 0.703082431365766
0.479887133468817 -0.106293463488681 0.259570569080059
0.489386986332684 -0.0806138422119212 0.287575990803844
0.487182273654047 -0.088681437114085 0.297296951224168
0.489127075424058 -0.0825880615650601 0.307077620079778
0.482542431972382 -0.0998830058292247 0.29343360807423
0.489444327601425 -0.0801782920340585 0.328780279365326
0.48484158903259 -0.0943323496724446 0.316457133273202
0.489045532833158 -0.0832074390352549 0.345206493834748
0.489441595839769 -0.0801990418238889 0.353242103483104
0.489104080299221 -0.082762726879117 0.360961636843837
0.484917081889254 -0.0941500937940245 0.353373828247558
0.489082028959975 -0.0829302234298847 0.381157833020607
0.488231078988641 -0.0861493970510172 0.392860967147818
0.482442453408947 -0.100124375433016 0.384924483202176
0.484626337388925 -0.0948520131099042 0.39765179331495
0.477796342426138 -0.111341079580003 0.383544286679716
0.489504587316071 -0.0797205740586957 0.429059691865908
0.484782569594511 -0.0944748352002988 0.419786836079331
0.485898744478719 -0.0917801506568628 0.433015862695812
0.487438056246561 -0.0880639233102186 0.45097647006438
0.489279227744187 -0.0814323499536768 0.463493746976696
0.480397052712958 -0.10506240953376 0.445087379805256
0.484021770674446 -0.096311566271358 0.464350923598639
0.489109925816854 -0.0827183257645121 0.488401932527601
0.481282358239937 -0.102925092923683 0.481935348191704
0.489456749420849 -0.0800839389480759 0.506864383780523
0.480786050601183 -0.104123285556274 0.499520118223871
0.48464381488914 -0.0948098186918492 0.510158051608759
0.486111448036307 -0.0912666388433684 0.518548903845566
0.489052346342081 -0.0831556852968311 0.542993755071442
0.479978835606337 -0.106072074944582 0.526737150883974
0.482997629405084 -0.0987840620136393 0.543795085632427
0.489281907904606 -0.0814119921141552 0.575526688379393
0.480802939505353 -0.104082512134773 0.551398555785787
0.488196108931272 -0.0862338222377963 0.583639195050016
0.478078949085195 -0.110658806750892 0.572452364376248
0.48947179903746 -0.0799696257608134 0.606479502588862
0.486967486226979 -0.0891999798335391 0.605416902142388
0.488756245225387 -0.0848815335997656 0.627485864676732
0.481940868313762 -0.101335308972496 0.613438460138791
0.479142092565625 -0.10809215134169 0.619644884760356
0.489689823173856 -0.0783135680301122 0.650776065994277
0.487385612877722 -0.0881905328025262 0.647961401978448
0.480876847468028 -0.103904082528914 0.646846724449461
0.485683514552566 -0.0922997616636094 0.666333296154592
0.489454524137148 -0.0801008416559046 0.687161687060462
0.485206967395231 -0.0934502482739583 0.685896204332343
0.485225239852157 -0.0886091214637679 0.703082431365766
0.486399645257983 -0.0905708692021617 0.702177741874726
0.474780825416068 -0.10184596176467 0.703082431365766
0.466395819048197 -0.119247407656954 0.703082431365766
0.46231895379536 -0.114853705394692 0.703082431365766
0.454593856234593 -0.128566358465658 0.703082431365766
0.453526468666628 -0.141748702999063 0.703082431365766
0.431967337444364 -0.160753771328719 0.688287473141367
0.41777305896734 -0.174787962535885 0.681021151998705
0.424521127005491 -0.172354391258853 0.691374462738548
0.425644934429598 -0.179906483862743 0.703082431365766
0.416047271510741 -0.18823059215514 0.699240926254346
0.391769952991322 -0.211287151169708 0.685271545953992
0.400673782368714 -0.207915993812807 0.698671686330631
0.390481389505013 -0.219574787107794 0.697053757244709
0.391208489345944 -0.220324303333852 0.699827183983664
0.384644615621639 -0.233130083984556 0.703082431365766
0.371766516898797 -0.247250307536216 0.703082431365767
0.361656194117415 -0.257576896231251 0.703082431365766
0.360709600979534 -0.25910416567666 0.703082431365766
0.351824095333946 -0.270095009116691 0.703082431365766
0.465786480258752 -0.140335451706739 0.22639058267629
0.471582991556847 -0.12634143551643 0.245837112203341
0.471312200918871 -0.126995181947194 0.259941309342453
0.473501791747356 -0.121709042073019 0.265711722443722
0.472844146323567 -0.123296738574362 0.279622861936697
0.475682720066715 -0.116443815345857 0.292941625385513
0.471631719251709 -0.126223796454631 0.291095556692976
0.475061360103064 -0.117943910997219 0.31168303573115
0.473512773003244 -0.121682530976121 0.306890381757454
0.464287591138729 -0.143954090148792 0.298743063628628
0.474481765127067 -0.119343177048955 0.338713587622185
0.472301902974878 -0.124605829820873 0.330080232541736
0.467724004526977 -0.135657854340964 0.337025695345534
0.467721156574884 -0.135664729905531 0.348037257867702
0.477688997665195 -0.111600232757723 0.376782645678735
0.471835833228187 -0.125731021724349 0.372414590128384
0.472668541627643 -0.123720685812879 0.390973416039945
0.473513923481323 -0.121679753476341 0.394955089167956
0.478032902610865 -0.110769972773718 0.412074133316625
0.473400015966346 -0.121954750543854 0.412368142260774
0.469370189057893 -0.131683613320258 0.420251928357936
0.472537866669182 -0.124036163069857 0.427287927640293
0.473323544597484 -0.122139368759693 0.448134337382624
0.480960696709415 -0.103701652553164 0.464402794835251
0.467929069052087 -0.135162784783282 0.442996206548184
0.468757176568143 -0.133163556386915 0.453415825135305
0.47219532903016 -0.124863122083608 0.480523369621693
0.477215143876299 -0.112744217001458 0.495498248385312
0.472753900660472 -0.123514610878153 0.503090026570806
0.472753635758175 -0.12351525040887 0.504145332131526
0.475426946454192 -0.117061307470107 0.518876734521079
0.472387181641823 -0.124399948906554 0.51791051510761
0.476790081800401 -0.113770407629941 0.537257947145731
0.478865546330727 -0.108759793012604 0.555462317200036
0.473047785533969 -0.122805110030778 0.553615743820405
0.475322891931611 -0.11731251730975 0.559499829858392
0.473347009859866 -0.122082718605006 0.57132494595327
0.480773729358395 -0.104153031667715 0.592289489450801
0.469316235453827 -0.131813868842932 0.585054112182571
0.477405012742795 -0.11228583300889 0.608202470745726
0.464368532822602 -0.143758679637823 0.583953913335099
0.470092338561694 -0.12994019019412 0.611522735037223
0.47542936438228 -0.117055470075325 0.629051197692816
0.474873532123714 -0.118397367852361 0.638128603399481
0.466009340170866 -0.139797420284404 0.624389481180533
0.476815563270788 -0.113708889918544 0.660156536684195
0.477849059706121 -0.111213808807699 0.672357883471998
0.468964648509935 -0.132662674811229 0.658008851474332
0.468700973969885 -0.133299241461869 0.667141936872045
0.471798825090604 -0.125820367272018 0.692744827970769
0.471896905489214 -0.118349607079336 0.703082431365766
0.464931842592388 -0.127494104535818 0.703082431365766
0.46723907367089 -0.134229782350961 0.703082431365766
0.454274140246028 -0.15109046092921 0.703082431365766
0.453339183164957 -0.156361176760689 0.703082431365766
0.441890709885892 -0.163049631646232 0.703082431365766
0.436394799306892 -0.169505813459434 0.703082431365766
0.424559671315847 -0.187170008678719 0.703082431365766
0.426478668154177 -0.189626048659644 0.703082431365766
0.419783727225204 -0.194187518707423 0.703082431365766
0.404642831759882 -0.21912035614824 0.703082431365766
0.402254822242361 -0.220201980562917 0.703082431365766
0.393958790720066 -0.230606940957533 0.703082431365767
0.388271295082252 -0.237044997880295 0.703082431365767
0.381374927206048 -0.247702331337401 0.703082431365766
0.459902842020503 -0.154539810937617 0.210022128735383
0.461411704421166 -0.150897094866182 0.217677357842701
0.459410099770155 -0.155729395961161 0.225252892146697
0.463517805899303 -0.14581251611393 0.256482312321709
0.463362837247102 -0.146186643535815 0.261885719653626
0.461374250735567 -0.150987516061916 0.280529801480045
0.457226002425094 -0.161002273393152 0.295482575502648
0.466054726544481 -0.139687847885675 0.342311181597525
0.456286475860997 -0.163270491166402 0.332778879245713
0.459296749142137 -0.156003048584626 0.358648942659215
0.462284614566557 -0.148789703354446 0.375079628833154
0.460342034678514 -0.153479506066152 0.394628616773197
0.461759584364764 -0.15005723838827 0.408757063331517
0.467833954712414 -0.135392411112097 0.43612515114504
0.465868312464643 -0.140137891285439 0.446483039000843
0.461442512164722 -0.150822718393863 0.458064107659244
0.460756178186776 -0.152479675191738 0.466809313157628
0.45781376469644 -0.159583289746214 0.47883604609419
0.45915752534695 -0.156339164559171 0.487673397794036
0.461207929911499 -0.151389050051087 0.503925505832177
0.461575804353529 -0.150500922583886 0.554943714912044
0.461332696648662 -0.151087836502094 0.56445210380224
0.460314356677032 -0.153546326672708 0.565967134229244
0.459540956317129 -0.155413480310732 0.579745017169479
0.464086456032226 -0.144439673250782 0.605854557562121
0.46407543627713 -0.144466277292989 0.621442164912402
0.46220784809766 -0.148975034004792 0.637561263948788
0.466560436698253 -0.13846695557381 0.662022909788405
0.463563071605751 -0.145703235031511 0.666246608667403
0.465562279395321 -0.140876720471929 0.69127434770472
0.458487440981202 -0.157956891322894 0.699728283365645
0.451665206068986 -0.161021263710544 0.703082431365766
0.447859789853267 -0.170674702245971 0.703082431365766
0.437320477448662 -0.186978989946243 0.703082431365766
0.429509786201844 -0.193332431568318 0.703082431365766
0.422862686137314 -0.202140709868934 0.703082431365766
-0.488564331758513 0.0423188659335928 0.273507515543322
-0.490209872221094 0.0423188659335928 0.285832695087022
-0.488728429517343 0.0423188659335928 0.300293862133289
-0.48945852399273 0.0423188659335932 0.315601882309096
-0.491015973594378 0.0423188659335932 0.321610757981395
-0.492123292431535 0.0423188659335928 0.32188975916079
-0.489988614917206 0.0423188659335932 0.337483846764005
-0.494253631866871 0.0423188659335932 0.345465363665904
-0.493698841350272 0.0423188659335932 0.35910909591676
-0.487507437095945 0.0423188659335932 0.372074495245962
-0.495441445363377 0.0423188659335932 0.376731313741324
-0.490716252899142 0.0423188659335932 0.394313376440349
-0.489743328676101 0.0423188659335932 0.39383047149257
-0.493090060157263 0.0423188659335935 0.403891378250281
-0.48976921556871 0.0423188659335932 0.421073432621695
-0.488893591786347 0.0423188659335932 0.432855139636478
-0.481360987411811 0.0423188659335932 0.251182910752198
-0.479560484925899 0.0423188659335932 0.255142333543143
-0.483348013954536 0.0423188659335928 0.26823860506739
-0.487433561263668 0.0423188659335932 0.274553546292524
-0.482968596739211 0.0423188659335932 0.287802060083547
-0.47984746648821 0.0423188659335932 0.301846096414831
-0.486244633228035 0.0423188659335932 0.3105993709699
-0.486865192873363 0.0423188659335928 0.311014184681665
-0.480441573890329 0.0423188659335932 0.329436103784368
-0.485725194281137 0.0423188659335928 0.337843662256679
-0.479607134990286 0.0423188659335932 0.346348266835561
-0.479153967596111 0.0423188659335935 0.354223612342694
-0.484034625196659 0.0423188659335932 0.370468287751876
-0.48602623889314 0.0423188659335932 0.371709753689327
-0.482657649884402 0.0423188659335928 0.382852850408084
-0.482686813497631 0.0423188659335928 0.389713466897411
-0.485458262753435 0.0423188659335928 0.407429301898711
-0.487330264279562 0.0423188659335932 0.413199763056283
-0.482752226845859 0.0423188659335928 0.422418813079312
-0.480296886996982 0.0423188659335928 0.430559279172478
-0.483338403703394 0.0423188659335932 0.441526918613075
-0.478622477856858 0.0423188659335932 0.452382261697155
-0.485829741015971 0.0133669293971994 0.447818208560182
-0.477416901841443 0.0423188659335928 0.235358135881836
-0.476883262352775 0.0423188659335932 0.23985904567302
-0.473692825761133 0.0423188659335932 0.242632868178292
-0.46899087988982 0.0423188659335932 0.253967868194733
-0.476878887311715 0.0423188659335932 0.262771270806637
-0.473823521659474 0.0423188659335932 0.276972143497272
-0.475794745232338 0.0423188659335932 0.296048477561466
-0.478769009730992 0.0423188659335932 0.293282503973348
-0.475646412418546 0.0423188659335932 0.302752406191166
-0.469287991646092 0.0423188659335928 0.31554044564897
-0.469344921039564 0.0423188659335932 0.334157718059045
-0.474522546106648 0.0423188659335932 0.336473777480472
-0.471747565148292 0.0423188659335932 0.351007816035354
-0.478221266779179 0.0423188659335932 0.35373632229709
-0.470040096013672 0.0423188659335932 0.372659667804419
-0.477443150565552 0.0423188659335932 0.37734071343744
-0.473189403133419 0.0423188659335932 0.382270534925356
-0.470820513036437 0.0423188659335932 0.400052148828987
-0.472843645472941 0.0423188659335928 0.405496649619777
-0.476061743888582 0.0423188659335932 0.420097384211433
-0.468556750768246 0.0423188659335928 0.421205874563191
-0.474603077613818 0.0423188659335932 0.439506000086546
-0.472998756495348 0.0423188659335928 0.44696094559405
-0.478159118384762 0.0423188659335932 0.459338787446178
-0.467993632905743 0.0423188659335932 0.469887292288541
-0.468644117738874 0.0423188659335932 0.47564849208918
-0.474202562971351 0.0335254599736991 0.475888699487631
-0.473861685518038 0.0171856814785491 0.476711650458526
-0.459816957619813 0.0423188659335928 0.19989074022693
-0.465702789326766 0.0423188659335932 0.212510132965405
-0.467436203998113 0.0423188659335928 0.217122623674934
-0.460049942737926 0.0423188659335928 0.236203849625581
-0.465693387680679 0.0423188659335932 0.237316454382854
-0.459742387445482 0.0423188659335932 0.253806647803073
-0.466048126033408 0.0423188659335932 0.254389308503117
-0.465128255852297 0.0423188659335928 0.270544826453514
-0.459292325749575 0.0423188659335932 0.279248894525863
-0.461142906289811 0.0423188659335932 0.295239377681994
-0.460187851726903 0.0423188659335932 0.300984202929849
-0.459257334952746 0.0423188659335928 0.310349698019256
-0.465704534332256 0.0423188659335932 0.317674921934166
-0.460344585551327 0.0423188659335928 0.337418424567304
-0.464466989809319 0.0423188659335932 0.340139867467071
-0.461500870207935 0.0423188659335932 0.342859454543345
-0.461153194459261 0.0370277376846929 0.359195946565303
-0.464686732553041 0.0423188659335928 0.369700957673291
-0.459503183083188 0.0423188659335932 0.372534189102175
-0.460978848653076 0.0423188659335932 0.381538139304424
-0.461002926711821 0.0423188659335932 0.399346669491342
-0.462224939194884 0.0423188659335928 0.409095177227326
-0.463095137513027 0.0423188659335932 0.421863376060161
-0.464023666734045 0.0423188659335932 0.423482980953001
-0.464169260122939 0.0423188659335932 0.434521114582148
-0.462817124876084 0.0423188659335932 0.450275308368542
-0.463555657113334 0.0423188659335932 0.459084550975076
-0.465767404233315 0.0423188659335928 0.467263750344088
-0.466896588571208 0.0423188659335932 0.475900712819524
-0.464228261733043 0.0423188659335932 0.483438714600298
-0.460963413395595 0.0423188659335928 0.501150389710212
-0.460010520084628 0.0423188659335928 0.507747084176756
-0.467074154054201 0.00859461145108485 0.493098200973555
-0.456219468418128 0.0423188659335932 0.185150603857095
-0.452575396284398 0.0423188659335932 0.194643472422234
-0.449635557744809 0.0423188659335932 0.198780618188225
-0.45424962145501 0.0423188659335928 0.210366290462345
-0.453081743784822 0.0423188659335932 0.226322835943102
-0.45864527014991 0.0423188659335932 0.229740138465541
-0.454076873662281 0.0423188659335928 0.236038679176235
-0.451194174153325 0.0423188659335932 0.251756880710317
-0.453295784174329 0.0423188659335928 0.254887447680865
-0.456219363076451 0.0423188659335932 0.271765038980944
-0.452186967914321 0.0351425413471796 0.275781232646109
-0.45351521188408 0.0340430711087713 0.285870247242109
-0.452053281229053 0.0199303137036507 0.274765781456664
-0.454009026453938 0.0301758140884232 0.289621141292033
-0.455294845308745 0.025422672053124 0.299387905146652
-0.459209558591733 0.0423188659335932 0.326946901051521
-0.45632005816311 0.0108164505149072 0.307175169901613
-0.459432478714594 0.0213707132611727 0.330816351106078
-0.460180723692924 0.0208855014633138 0.336499835977549
-0.461723218480188 0.0176578388595585 0.348216247101773
-0.457963249857622 0.0423188659335928 0.388084202810789
-0.45687929302382 0.0423188659335928 0.393769726815538
-0.456509755593005 0.0267175861287694 0.394466366430854
-0.4573117157431 0.00985886026262112 0.388374874322528
-0.454208802399395 0.0251375398708588 0.41194384111441
-0.448079820368006 0.0423188659335932 0.443162170979129
-0.450093579765542 0.0423188659335928 0.447379961933698
-0.45700100189796 0.0423188659335928 0.454543592800493
-0.453769607116363 0.0423188659335928 0.469536642922295
-0.453758481363836 0.0423188659335932 0.47099094283171
-0.450810123404766 0.0423188659335932 0.490982430741741
-0.455258131427734 0.0423188659335932 0.499925727700182
-0.450629065732584 0.0423188659335928 0.504801820620342
-0.457042917995282 0.0423188659335932 0.514670001086064
-0.459609407353533 0.0294127748841537 0.511119693697989
-0.457733492989862 0.0233520994700243 0.515648551596613
-0.441518523805093 0.0423188659335932 0.162290785847032
-0.443079490935187 0.0423188659335932 0.172574354747377
-0.445219859101555 0.0423188659335932 0.183291640196299
-0.446244678600227 0.0423188659335932 0.194798028105111
-0.439915483031351 0.0423188659335928 0.200554259648067
-0.438604102991645 0.0423188659335932 0.211884545317023
-0.438930502331141 0.0423188659335932 0.215688647107093
-0.448385209523109 0.0423188659335928 0.227476275544603
-0.446827887412054 0.0423188659335928 0.232407056370466
-0.440582541121313 0.0402894421470271 0.244060082087967
-0.447681542252328 0.0423188659335932 0.25865825121158
-0.446693546329766 0.0265132105700021 0.258813353741947
-0.448980920459461 0.0264464098782306 0.264335563388078
-0.44952145531807 0.00996873471394015 0.265640529974665
-0.449824096918681 0.00121936162851278 0.266371171431399
-0.453658053404826 0.0072521879569623 0.286955236310778
-0.448108405892114 0.0423188659335928 0.441212115739166
-0.446340679818236 0.0423188659335928 0.446633409161533
-0.444719503592494 0.0423188659335932 0.459811231823168
-0.448634728550549 0.0423188659335932 0.465248252849013
-0.44779532534861 0.0423188659335932 0.474741308113936
-0.442879188860929 0.0423188659335928 0.483965816705077
-0.446697447187086 0.0423188659335932 0.492455283927867
-0.440994328204139 0.0423188659335932 0.507490175173785
-0.441034671418397 0.0423188659335928 0.51063258370605
-0.447616009518768 0.0423188659335932 0.519481241687555
-0.44632847598007 0.0396553659785155 0.535879137979148
-0.441913794275406 0.0381184328999536 0.541632463189685
-0.451536905443202 0.00203265847252259 0.529091380550142
-0.452352301949324 -0.0013778668631511 0.528028735134437
-0.435798326605552 0.0423188659335932 0.153829158876406
-0.43353945528813 0.0423188659335932 0.17129691471028
-0.429218306009955 0.0423188659335928 0.177635025488462
-0.429208702261356 0.0423188659335932 0.190351767350449
-0.436818436726466 0.0423188659335932 0.197940239527537
-0.430070166447673 0.0423188659335932 0.212984107849182
-0.43085963030804 0.0419440761672425 0.220586898936819
-0.434892891237901 0.0348376086526372 0.230324052174279
-0.431562735860137 0.021120481097432 0.222284345896471
-0.435511864219078 0.0226683768744953 0.231818385140179
-0.435655729023897 0.0137157675983322 0.23216570550312
-0.439636162418973 0.0092297009390809 0.241775321789635
-0.440070774441698 -0.000632908105108339 0.242824568029269
-0.441413144855104 0.000449150793613094 0.246065336887042
-0.434600517539754 0.0423188659335928 0.48542104755676
-0.430280267278067 0.0423188659335932 0.496560671467335
-0.428842296082292 0.0423188659335928 0.504621880514525
-0.431111278374977 0.0423188659335932 0.514444162354824
-0.437342422025417 0.0423188659335935 0.528936592570077
-0.436542434721647 0.0423188659335932 0.528773923014298
-0.437533788880247 0.0423188659335932 0.542089002422184
-0.436487049605672 0.0373287417095049 0.548704734535213
-0.443639004714975 0.0056130189163474 0.539384125171347
-0.422246718896325 0.0423188659335932 0.142786428890961
-0.423303803228858 0.0423188659335932 0.155364011128578
-0.429174270280127 0.0423188659335932 0.157173605082087
