ply
format ascii 1.0
element vertex 841
property float x
property float y
property float z
end_header
-0.469545248418401 0.0276975475669038 0.697123679419315
-0.469063719554003 0.0350442583404187 0.711641808087129
-0.470054264469468 0.0199314633656222 0.70998449111617
-0.469302586069484 0.0313998595671369 0.723821587693233
-0.469393342346231 0.0300151863617655 0.740007443528816
-0.469657974913201 0.0259776736090962 0.747903934266004
-0.469598274911737 0.026888519617231 0.760443569641812
-0.468508619124581 0.0404764594098622 0.772931056428132
-0.468885142864443 0.0377688121233432 0.783938923027224
-0.469115472438512 0.0342546619064455 0.792182773920735
-0.469610644328936 0.026699798779664 0.802543942265995
-0.469412326081832 0.02972555052646 0.813820720649004
-0.46936591998061 0.0304335708114704 0.816867777114093
-0.469519072031564 0.0280969220538858 0.830472467371187
-0.469643623114035 0.0261966397507985 0.846288627943353
-0.469956853592346 0.0214176661528601 0.857680046671379
-0.469571496568162 0.0272970781892777 0.875850636127953
-0.469369946649277 0.0303721357194686 0.882488418346392
-0.469265102863799 0.0319717427736992 0.888200167488374
-0.469424341184185 0.0295422354888194 0.897906484433876
-0.476676362585524 0.0259473402429128 0.912351887103973
-0.481660729751277 0.0223068949440342 0.913728515031069
-0.0940816849774152 0.317367984800438 0.152711575721831
-0.0895956986230037 0.316475666634649 0.157848882744092
-0.102241087725152 0.318990990917395 0.163982917230045
-0.0972202233247611 0.317992278893221 0.173564555425795
-0.101646950911656 0.318872809757275 0.187708448149904
-0.0939886303039066 0.317349475075035 0.196904796262616
-0.101702993743712 0.318883957369674 0.204573290314532
-0.0996658194128995 0.318478738200767 0.214852566829135
-0.100927604144082 0.31872972278877 0.222013463202024
-0.101460275997474 0.318835677808164 0.231701590733989
-0.104616147463419 0.319463419672602 0.233162214196144
-0.0909418736397595 0.316743437494139 0.257469376444152
-0.0944963391559481 0.317450464644734 0.264975279659226
-0.102811688789085 0.319104490525851 0.266553608307915
-0.0946256779589907 0.317476191732241 0.283112574515359
-0.094362822924427 0.317423906615038 0.293108204290839
-0.0992942774200353 0.318404833903385 0.301923786658478
-0.0978744056123772 0.318122403840748 0.311038407080456
-0.0955682618158598 0.317663683318665 0.321946704278795
-0.0915816883532566 0.316870704553485 0.329188272598065
-0.0915060912049744 0.316855667345753 0.339517333739095
-0.092894378254134 0.317131814809304 0.350911427617184
-0.0959356666684762 0.317736764687686 0.363136075355653
-0.0962845155763332 0.317806155049805 0.358877365726719
-0.0938635459188423 0.317324594243879 0.378158240284927
-0.0988373989207845 0.318313955119494 0.382681027756615
-0.0930399702047307 0.317160774848868 0.388802666233177
-0.0945360690897979 0.317458367419931 0.399854303380257
-0.0937824288277889 0.317308459051263 0.418706037346855
-0.102718818898535 0.319086017556063 0.419206855300437
-0.103438679754527 0.319229206783113 0.424338626462452
-0.0921883973824545 0.316991386482794 0.442339533113821
-0.0937140291092953 0.317294853501329 0.45522232598042
-0.103494912005586 0.319240392073293 0.454860362199525
-0.0977943003259442 0.318106469908584 0.461190519629494
-0.0986398704885589 0.318274664271415 0.477635332278441
-0.0913014906222273 0.316814969759472 0.493480117183523
-0.0926685449122545 0.317086893764637 0.505994440075442
-0.0927075009884531 0.317094642609978 0.508503471107259
-0.0900342654541297 0.316562903001282 0.516085136119646
-0.101967271933829 0.318936525570117 0.519872462870454
-0.094276629096996 0.31740676159677 0.53355922244822
-0.098258316391287 0.318198768442643 0.543580619436351
-0.0982305576492229 0.318193246885544 0.55032637664482
-0.0958471576983082 0.317719159158895 0.56565675475118
-0.0956161368480687 0.31767320625466 0.578295399217495
-0.0988747617502235 0.31832138704835 0.58494868549382
-0.0924958514262118 0.317052542894498 0.591166105977209
-0.0945848195647968 0.317468064492325 0.610183896843501
-0.10421603309396 0.31938383197615 0.60555649249808
-0.0944868803067914 0.317448583162655 0.620801326981462
-0.0979159496757486 0.318130667468744 0.631631863733736
-0.0986777878999175 0.318282206513474 0.637847970192749
-0.0957397282356159 0.317697790110145 0.64974698048558
-0.093708334358402 0.317293720744947 0.659965401139212
-0.0960983399644141 0.31776912241809 0.66620134488503
-0.0976272875927819 0.318073249010448 0.675897441492355
-0.0954388116640293 0.317637934082506 0.692693368865547
-0.0914288972283319 0.316840312509112 0.701795179343059
-0.0948833903158318 0.317527453907243 0.700750628888395
-0.103941577841522 0.319329239432148 0.71065117740476
-0.0998249985880196 0.318510400907328 0.725177510012407
-0.0905279384785369 0.316661100671278 0.735435039884408
-0.0968895805061916 0.317926509947422 0.749205603638811
-0.0993879539534164 0.318423467324408 0.756566740765035
-0.105896946713223 0.319718186483518 0.758827542885229
-0.10377929827978 0.319296960020344 0.770392378417766
-0.101125670794431 0.31876912069509 0.775838356687322
-0.102600364269356 0.319062455465346 0.788667992205604
-0.10037422065207 0.318619647968305 0.803614464900737
-0.0991089214920246 0.318367964316937 0.808234154015184
-0.101413877512338 0.318826448575643 0.820027365384223
-0.0961518634889669 0.317779768909069 0.836317263301528
-0.0978511082749971 0.318117769712216 0.830002392609577
-0.0983719329786084 0.318221368187001 0.841850734753183
-0.103504799980043 0.319242358913702 0.851419785189833
-0.0936882931861029 0.317289734307921 0.870901541268282
-0.0995397849030099 0.318453668378033 0.872925759305594
-0.0944082472097654 0.317432942067171 0.882878899332188
-0.0987488693982658 0.318296345502587 0.892211708792116
-0.101589397776015 0.318861361726814 0.898629100944067
-0.107903576610793 0.315191872829888 0.910176668804976
-0.108997767557907 0.309752622232831 0.91336387088756
-0.398082203999183 0.0680862680176175 0.651340836812857
-0.419153250104642 0.0569932129951539 0.651340836812857
-0.413504275545878 0.0561143454903779 0.651340836812857
-0.43665975421671 0.0380455603767851 0.651340836812857
-0.455217148112756 0.0308029651832912 0.651340836812857
-0.452551872002486 0.0306196777540895 0.651340836812857
-0.470491123567453 0.0132662815271783 0.652865360792848
-0.471033353490255 0.00499345156804686 0.657267367020588
-0.470227155728245 0.0172936524939991 0.670849075590705
-0.470229466273698 0.0172584003825927 0.683997498657229
-0.470591191249548 0.0117395437291177 0.691894772603036
-0.470241346358776 0.0170771453105108 0.713407914529723
-0.470612083458881 0.0114207902114428 0.718759152541479
-0.4705286476985 0.012693773920216 0.725359964487474
-0.470515232341249 0.0128984527192196 0.732651154420827
-0.470020092056908 0.0204528336303552 0.749957613145205
-0.470831127715268 0.0080788206697296 0.762102289730251
-0.470074799274522 0.0196181627834979 0.782017523007071
-0.46986175983123 0.0228685165814559 0.78696443926948
-0.470798564605834 0.00857563771350157 0.795318860921209
-0.470391165501079 0.0147913469124968 0.811741463342043
-0.470268300237244 0.0166659085935229 0.820699551037009
-0.470788136213578 0.00873474423316947 0.827260537957621
-0.47026501753015 0.016715993025331 0.836351768664963
-0.470382342285613 0.0149259631669111 0.848107669335509
-0.469981993158634 0.0210341104905907 0.86163698781919
-0.470619700692436 0.0113045736853646 0.874050054825427
-0.470463765039989 0.0136836919947968 0.888068192598712
-0.470799714611816 0.00855809201279434 0.892307806322132
-0.473902147993532 0.00950462835536706 0.9084999602368
-0.476258351425619 0.00650412142380118 0.910659500054389
-0.0890115846291516 0.316359479137312 0.151249679931503
-0.0907552176530936 0.316706309309946 0.155753302919956
-0.0919979653648574 0.316953507199348 0.168564702542642
-0.0879474228983467 0.316143257557965 0.176987171793141
-0.0843769754185233 0.314931253954891 0.191762983524081
-0.0814750958222307 0.31394619856722 0.204372829357453
-0.0918176558731247 0.316917641411487 0.209844620524548
-0.0821196465357379 0.314164994051974 0.218483467682017
-0.0813836612319856 0.313915160706154 0.232253934126217
-0.0859003010318436 0.315448353321968 0.24296450097183
-0.0828161436336866 0.314401422958159 0.255529965798388
-0.085231449293144 0.315221308750718 0.253718073532559
-0.0866785985128233 0.31571254971655 0.274208392561984
-0.0828727303226553 0.314420631550725 0.274963334649314
-0.087966852896647 0.316151669075123 0.280520010784336
-0.0905596474798648 0.3166674079838 0.287036009694743
-0.0819314345686385 0.314101104698173 0.307302707172493
-0.0921060373481 0.316975004053383 0.313467109356204
-0.0884899392712208 0.316255717424234 0.318707417328718
-0.0825504059095923 0.314311217155974 0.333669486293049
-0.0842139292005409 0.314875907221805 0.347706652803632
-0.0853541600493163 0.315262963439509 0.353005409605283
-0.0836853799088487 0.314696488913721 0.362939501214714
-0.0864471696668484 0.315633990209159 0.376466339633524
-0.0852123261336739 0.315214817312793 0.381414643546362
-0.0851671021288613 0.315199465831757 0.386515613522245
-0.087894074232138 0.316125148126015 0.393539381529045
-0.0827658781987021 0.314384360142179 0.413903185560168
-0.0913357144718777 0.316821777306426 0.412048619301549
-0.087736889923785 0.316071791243119 0.420819089996665
-0.0914593568411205 0.316846371302801 0.430111792318601
-0.0825743102873357 0.314319331598805 0.44551634084188
-0.0832936585373623 0.314563517425882 0.453080122436802
-0.0849212636349392 0.315116014908002 0.462810113696449
-0.0850495676907097 0.315159568266163 0.477485634802956
-0.0843673162864289 0.314927975121365 0.488524025981938
-0.083205396742416 0.314533556583693 0.493727572875919
-0.0886775712529067 0.316293039745907 0.497898077490726
-0.0868299953599561 0.315763942021087 0.508753327068781
-0.0857513322724657 0.31539778524216 0.525685314974117
-0.0908057286187693 0.316716356565707 0.527619524748122
-0.0872964685763928 0.315922288341052 0.539213346389001
-0.0887343447583273 0.316304332698274 0.549594276802355
-0.0860973531413775 0.315515243499768 0.554750096541381
-0.086499203276531 0.31565165323957 0.573731399917147
-0.0863690161138816 0.315607460652759 0.579476690786185
-0.0864886459091671 0.315648069496256 0.584359240051199
-0.0803028208162118 0.313548264823869 0.603516835177954
-0.0925521948171996 0.317063750291786 0.601103737307726
-0.0875127025342437 0.315995689878955 0.607940040198586
-0.0804138966220745 0.313585969979225 0.627612104303774
-0.0840061671214596 0.31480538149923 0.635830774551456
-0.083979965706658 0.314796487317388 0.647997174313706
-0.0857178357361557 0.315386414700252 0.65695025300881
-0.0864266391576265 0.315627021040367 0.664510047080714
-0.0884157225671954 0.316240954803937 0.674390584180338
-0.0839198397865274 0.314776077317732 0.678212608720682
-0.0902794410525837 0.316611671459994 0.689224126355621
-0.0819730126475728 0.314115218554142 0.703220477056403
-0.0851586080492098 0.315196582480244 0.711698412809369
-0.0899902573641591 0.316554149247923 0.72207144673044
-0.0876504143791169 0.316042436751194 0.730868991539153
-0.082979940985395 0.314457024666787 0.736483001233173
-0.08678293554531 0.315747967366584 0.749470142664034
-0.0819277124738662 0.314099841217251 0.762241113510055
-0.086376550044073 0.315610018077449 0.769315365703069
-0.079494125806667 0.313273749858757 0.780997363987384
-0.085220071930586 0.315217446656543 0.789952283330001
-0.0851830971920654 0.315204895424082 0.801139095891226
-0.0841157532833809 0.314842580988608 0.812654354202444
-0.0837248631694623 0.31470989167469 0.815297684625535
-0.0850255992402185 0.315151432073566 0.824355565284935
-0.0885088043587791 0.31625946992346 0.834459692638941
-0.0818899801758571 0.314087032827995 0.844268759341318
-0.0818778062157952 0.314082900325404 0.853395227748421
-0.0870834590975431 0.315849981366278 0.86582627511085
-0.0800915981434431 0.313476564388029 0.872795802504357
-0.0857489604791106 0.315396980126804 0.877415260048049
-0.0867474714326011 0.315735928922488 0.881798522282285
-0.0832793264189686 0.313541692828601 0.903695758682179
-0.0861727713678676 0.312946645155275 0.90779728403806
-0.0905038382991754 0.30839189166106 0.912753407582254
-0.39115995521479 0.0700315965795865 0.651340836812857
-0.390031075923277 0.0623365465803464 0.651340836812857
-0.41036599919995 0.0529283705348521 0.651340836812857
-0.422582100666639 0.0433695002922813 0.651340836812856
-0.423679108233121 0.0395435750744195 0.651340836812856
-0.441789602746097 0.0234977276869363 0.651340836812857
-0.449214102891166 0.0168472447005519 0.651340836812857
-0.460386430108513 0.00532762514509263 0.651340836812857
-0.471338291782446 0.000340992282358275 0.658176367638383
-0.471353807373315 -0.000104270110510811 0.66786292125752
-0.471087144108125 0.00417276533087345 0.681226575854564
-0.470963752639278 -0.00605535534896869 0.68908422069083
-0.471252423415688 0.00165109039237507 0.697923478497264
-0.471017315542799 -0.0052381433613673 0.708817712674713
-0.471090159123882 0.00412676507962898 0.726957873480151
-0.470979437237082 -0.00581605462956035 0.731051815778915
-0.47085158361948 0.00776672388183784 0.753219448548067
-0.470871049354998 -0.00746973414889447 0.747527635922851
-0.471172978559136 0.0028631846751683 0.769222561976321
-0.471251984808852 0.00165778223954963 0.777273388331061
-0.471207748093297 -0.00233270409530072 0.787242111772853
-0.471354301552377 9.67303950151518e-005 0.804877490184055
-0.471298366095543 -0.000950140551140936 0.810761149740548
-0.471301371807703 0.000904282245344916 0.815696080055755
-0.47099765525407 -0.00553810140271144 0.833708185446537
-0.471054619616602 0.00466899317916101 0.844269843691148
-0.471117028882959 0.00371681177652021 0.854852186520792
-0.470758538099053 -0.00918632419635095 0.858075126802369
-0.471289768433089 0.00108131553158845 0.878281020564084
-0.47104430650613 -0.00482634083871204 0.883353787959405
-0.472699015692137 -0.0001664222866827 0.90512971015552
-0.473704986002101 -0.00230993852238892 0.907831233359834
-0.481471600040283 -0.00550855416930052 0.913382820076352
-0.0723190142516952 0.310838127683602 0.159248405078133
-0.0782678405368348 0.312857482101331 0.172182470503191
-0.0772735936020359 0.312519980744952 0.169503680974325
-0.0718011362008108 0.310662331773658 0.186723873219354
-0.0741560267266705 0.311461709391817 0.197619134444217
-0.0807869771105018 0.313712613739921 0.200234491060951
-0.0776953308484437 0.312663141249366 0.210634543229649
-0.0715005310809708 0.310560290085492 0.227809322145755
-0.0741407518537708 0.311456524271158 0.229694245026359
-0.0764351828433451 0.312235378642237 0.236043502163044
-0.0727565393820564 0.310986647452463 0.254897668687731
-0.0703581746255542 0.31017251232156 0.264727460114855
-0.0755099963219794 0.311921320137317 0.270884001725162
-0.0807672639912029 0.313705922037619 0.28090561951331
-0.0762184647341522 0.312161812757099 0.288933782583031
-0.0736919877656605 0.311304189390224 0.299340901663769
-0.0789574767328097 0.313091582045121 0.308539356963885
-0.0786429912887672 0.31298482862179 0.316677405692772
-0.0746980166072756 0.31164569016505 0.323201284493317
-0.076645565822718 0.312306794040578 0.333326733764054
-0.0711281020510723 0.310433867465169 0.34819171027928
-0.0695624867745684 0.309902412691817 0.359242166767032
-0.0731699843493223 0.311126993107407 0.368976657699127
-0.0767208072033801 0.312332335047686 0.379416147571905
-0.0773108869228933 0.312532640121544 0.390287509865927
-0.0797831995018154 0.3133718771557 0.394097585589226
-0.0782874759728311 0.312864147433704 0.395551779399715
-0.0740292415903676 0.311418671637339 0.416532549059936
-0.0805114917468861 0.313619099059987 0.423494515545282
-0.0738127409473281 0.311345179572013 0.440728911552032
-0.072960327934662 0.311055824344552 0.442016807170049
-0.0763612167057427 0.312210270521816 0.444708795278706
-0.0767025709384419 0.312326144669887 0.457323353040424
-0.0758862168411846 0.312049029794832 0.470469004284501
-0.0787328030089186 0.313015315592692 0.477370753096374
-0.0796647228494835 0.313331659751491 0.491236961287808
-0.0785136466624687 0.312940922037532 0.493429190169578
-0.0805883524624333 0.313645189757219 0.505170219807478
-0.0797392957673898 0.31335697384607 0.515724753690745
-0.0714114210146509 0.310530041293972 0.533741143918753
-0.0705068318418269 0.310222974646735 0.533905897305904
-0.0755053052484671 0.311919727732434 0.538973385231007
-0.0766148920037615 0.312296381682097 0.556019465719586
-0.0781056475216798 0.312802424991579 0.558343462977711
-0.079557409703954 0.313295231847209 0.569946837414554
-0.0758034295890401 0.312020927309513 0.578826950344968
-0.0729537693485711 0.311053598004572 0.595084055906169
-0.075831030640889 0.312030296604112 0.599403414754176
-0.077374501984037 0.312554234524977 0.608451428653793
-0.0755108736577407 0.311921617952678 0.621228210034942
-0.0731344210305737 0.311114920987398 0.631829456896671
-0.0711321097970792 0.310435227911618 0.640148980658046
-0.0758022183254143 0.312020516140917 0.650826141260793
-0.0738612804711203 0.311361656520087 0.657166061537408
-0.0766356889333799 0.312303441288428 0.675448824693607
-0.0688569419832479 0.309662912507585 0.679054175534748
-0.0686999642920437 0.309609625761759 0.686125440716586
-0.0701467704150305 0.310100750261957 0.693663306749499
-0.0767542180487782 0.312343676501449 0.708944980292464
-0.0737978529189325 0.311340125767368 0.715092902144164
-0.0714861656682867 0.310555413684976 0.726719371615942
-0.076380593382931 0.312216848017411 0.734296304462073
-0.0772857878553527 0.312524120136174 0.745061928706396
-0.0768291969707728 0.312369128415845 0.748052113663351
-0.0785478013691976 0.312952515998191 0.761872116949828
-0.0726615207027058 0.310954392957086 0.767464229727807
-0.0805094221328612 0.313618396520692 0.780956303538592
-0.0753294521087767 0.311860033635232 0.794088952494829
-0.0724909091281582 0.310896478131494 0.802148826667757
-0.0775657259696581 0.312619146321293 0.807941638072663
-0.071031200477645 0.310400973813378 0.826073149712545
-0.0783583703969668 0.312888212847907 0.823823061968256
-0.0768585854280957 0.312379104452845 0.836253034383754
-0.0707985524385717 0.310322000445698 0.847203680486937
-0.0786136149484167 0.312974856697948 0.857836717154015
-0.0715303443406092 0.310570410323447 0.864023672843767
-0.0728771993491059 0.311027605992152 0.87501393959601
-0.0739183883915827 0.311381042046903 0.882410777464065
-0.0793585763206671 0.313227737008448 0.893477077204185
-0.0789338389775894 0.312634347202609 0.901685034949767
-0.0790888524749608 0.310598644060154 0.907743510785269
-0.0823045095305335 0.307140884669312 0.912060649743442
-0.380062752451788 0.0581177497726676 0.651340836812857
-0.393032634989942 0.047841969650698 0.651340836812857
-0.403583035251368 0.0406219269078696 0.651340836812857
-0.410882939375012 0.0400089773076352 0.651340836812857
-0.428135266358782 0.0256126713938709 0.651340836812857
-0.430372442879964 0.013054155203964 0.651340836812857
-0.44532281257469 0.00566239426301483 0.651340836812857
-0.464242722883613 -0.0057606758599935 0.651340836812857
-0.467054975300293 -0.0138570868165069 0.653070185255628
-0.470063584309305 -0.0197892700874917 0.656373634908611
-0.470934312048564 -0.00650453196321966 0.672693771810648
-0.470739227411944 -0.00948094834770223 0.68037375201545
-0.470286272025531 -0.0163917120906971 0.695958591511863
-0.470294546345933 -0.0162654703566255 0.700692815692631
-0.470327600882589 -0.0157611555823529 0.718186900946807
-0.470150737560572 -0.0184595684281172 0.719870908460795
-0.469977970501963 -0.0210954843713443 0.735120923502354
-0.470485881994201 -0.0133462524811927 0.750361331069656
-0.470500478763052 -0.0131235488243573 0.758056015077386
-0.469929258841422 -0.0218386806940342 0.773401049332168
-0.470928399925951 -0.0065947335235028 0.786629928442515
-0.470511530937885 -0.0129549252216709 0.784024788793415
-0.470580481097706 -0.0119029490693598 0.80973734260005
-0.470487941351509 -0.0133148327603145 0.81658371633694
-0.470506561479278 -0.0130307445084898 0.821164173789322
-0.470839468056034 -0.0079515716595727 0.843059262456291
-0.470288284056284 -0.0163610144335083 0.846253236721708
-0.470466089749126 -0.0136482237873414 0.851399004815641
-0.470574237800646 -0.0119982033753235 0.872868163662963
-0.470733206339696 -0.00957281215822351 0.891261181920064
-0.470625867591063 -0.0112104849942619 0.893216431899653
-0.471016130378271 -0.0117122107461598 0.901673329679441
-0.475657920705604 -0.0101824260554085 0.910300158157221
-0.484179229053335 -0.0214365339151995 0.914388059328092
-0.0639666346365921 0.308002876851612 0.168899991377599
-0.0645982974647849 0.308217297488808 0.164365287579279
-0.0608079174453889 0.306930636848513 0.187843898362143
-0.0613920464680734 0.307128921932989 0.191003105203298
-0.0682488726954581 0.309456500798161 0.199361158201936
-0.0642519210486075 0.308099718539167 0.202567812359207
-0.0671218742689264 0.309073936382542 0.215378943024878
-0.067623943651627 0.309244365972745 0.227257219748596
-0.0674077866442314 0.309170990556001 0.239406210490688
-0.063992853070502 0.308011776810663 0.242435387264891
-0.0678916943451761 0.309335255085984 0.252764665626235
-0.0649157187227726 0.308325047486686 0.266410038070916
-0.0595307278230294 0.306497089391827 0.276364808313034
-0.0650440189911193 0.308368599559189 0.289590033230138
-0.0608681729827007 0.306951090847274 0.300237314288432
-0.0645450251142962 0.308199213962555 0.31006823744188
-0.0626240146273055 0.307547118771424 0.317931700102857
-0.068068985434269 0.309395437301235 0.314342756126618
-0.0686567246125562 0.309594947868405 0.334860307867439
-0.0661789803726752 0.308753867033804 0.339170623563673
-0.0635922601016737 0.307875793821324 0.350265359184643
-0.0675562631462221 0.309221391536944 0.357914648152532
-0.0637012507014308 0.307912791144587 0.373403362671553
-0.0699991888871224 0.310050653083779 0.376199500290578
-0.0646323960586985 0.308228872401733 0.387329231701174
-0.0689101905665971 0.309680987965981 0.400125124032042
-0.0618459911446474 0.30728301538674 0.415419126950527
-0.0679021586810423 0.30933880724936 0.415636513371698
-0.063669580833141 0.307902040672919 0.421921177591585
-0.0675473660228713 0.30921837137053 0.436226539662655
-0.0680345704936133 0.30938375500306 0.449317664503521
-0.063234196271559 0.307754247529247 0.451137350879432
-0.0626969644755909 0.307571881908109 0.466929331104876
-0.0685261671070497 0.309550629567135 0.473847793905293
-0.0653588904987057 0.308475484033434 0.486417700459431
-0.066920228817279 0.3090054869752 0.494127360177655
-0.0656276327752556 0.308566709743745 0.503607039963845
-0.0686466124232259 0.309591515242671 0.510943295191687
-0.063363309585169 0.307798075593428 0.526827297870763
-0.0632173940299801 0.307748543936785 0.531413412622603
-0.0667225329792341 0.308938378281016 0.532546370923014
-0.0716258802109778 0.310602840381517 0.543228009225449
-0.0659352315418189 0.308671125455076 0.555488648815025
-0.0632117584264502 0.307746630907165 0.570402392312279
-0.0634609830707129 0.307831231274074 0.583222403387621
-0.0668572218754563 0.308984099000461 0.588308361640355
-0.0599341659164677 0.306634038170833 0.59681728820265
-0.0616966107164473 0.307232307564197 0.60845831630041
-0.0627722364707949 0.307597433307453 0.618708701387343
-0.0649709289023173 0.308343788817264 0.621735520003531
-0.0623624384301789 0.307458325617292 0.63698947166043
-0.0662009195247614 0.308761314372415 0.649165052148416
-0.0607790741235697 0.306920845860082 0.656597495115743
-0.063849160336615 0.307962999700178 0.660268851802387
-0.0653868634737516 0.308484979578946 0.674559464765594
-0.0594970619877647 0.306485661380668 0.681563766016825
-0.0642759862379544 0.308107887570181 0.696993363183397
-0.0667983386639392 0.308964110843536 0.703000208675056
-0.0631161414423738 0.307714173314701 0.710854514874772
-0.061323430039508 0.307105629794085 0.718377474503276
-0.0646085477747592 0.308220777000183 0.729352596835106
-0.0669673196050112 0.309021472143649 0.7323756500271
-0.0673396572481457 0.309147863742346 0.740767368619028
-0.0632247035099286 0.307751025170883 0.763872703724653
-0.0593868809358661 0.306448259953356 0.764449920910171
-0.059557035289007 0.306506019573193 0.77901456421966
-0.0689569785281745 0.309696870338802 0.780073025938759
-0.0644874870668628 0.308179682427307 0.79245550834571
-0.0634896892121816 0.30784097569605 0.80208495695261
-0.0654101985468868 0.308492900768903 0.811980176158928
-0.0629667511294896 0.307663462136759 0.828067105987718
-0.0656023738169084 0.30855813548276 0.838717088727493
-0.0691884317748298 0.309775438129107 0.841561995594304
-0.062834855900791 0.307618689739653 0.850222495910324
-0.0631182892012131 0.307714902380586 0.865478820460735
-0.064727753926227 0.308261242035981 0.86831116005931
-0.0600491660426633 0.306673075453439 0.882447153931682
-0.0605384517786265 0.306839165580313 0.892043754728995
-0.0695006972484829 0.309881437974035 0.894394948465126
-0.0688721723443449 0.307651990682468 0.907248681984974
-0.0727311118875206 0.304692749576568 0.911299966122308
-0.0760507764076763 0.296573417435663 0.91430150366753
-0.366369334287593 0.0545518199067836 0.651340836812857
-0.385455790933877 0.0452484016976834 0.651340836812857
-0.388087138985576 0.0448959625730642 0.651340836812857
-0.404506635157998 0.0304404504227334 0.651340836812857
-0.407310694069131 0.026601748896689 0.651340836812857
-0.419440947349872 0.015371428519233 0.651340836812857
-0.437556002919473 0.00503405715348335 0.651340836812857
-0.449690146341843 -0.0069650205902441 0.651340836812857
-0.466942429229462 -0.0155742080364841 0.652682261332102
-0.469847586214123 -0.0230847641902507 0.652299276754812
-0.46978997024022 -0.0239638140821532 0.664693181796942
-0.469714374003044 -0.0251171897801932 0.677632174320274
-0.469848246672678 -0.0230746875399461 0.683652614021699
-0.469077965539999 -0.0348269065957273 0.701968485282748
-0.46955575622935 -0.0275372293521157 0.713715078525861
-0.469471374189465 -0.0288246504962197 0.720435265526542
-0.469319042930915 -0.0311487763816454 0.723330236275268
-0.469761098905602 -0.0244043055267468 0.742593055462036
-0.469500187446172 -0.0283850451493252 0.756886107132244
-0.469505614844872 -0.0283022390468239 0.76950287729538
-0.469627157032686 -0.0264478636050442 0.777264852421152
-0.469418881460436 -0.0296255347762507 0.783069683490659
-0.469954124216161 -0.0214593083864073 0.799780287275297
-0.469400468682167 -0.0299064594860398 0.812655308063997
-0.470028778769825 -0.0203203000023747 0.827280241763091
-0.47011743856588 -0.0189676129112993 0.839531548978686
-0.470093031529508 -0.0193399923267804 0.851329501689541
-0.469886171578681 -0.0224960652887921 0.855972745681189
-0.469192254117432 -0.0330831998624442 0.865154594949406
-0.469669200535032 -0.0258064037166051 0.874512103013992
-0.469628561410357 -0.0264264369423314 0.894017539544336
-0.470581802902444 -0.0233785700806164 0.902906123517715
-0.474149034676394 -0.0266079205125915 0.909867855913186
-0.0539355997821532 0.304597799349466 0.160781250600777
-0.0515335109736167 0.303782400073241 0.178842133506037
-0.0579150439012742 0.305948638603611 0.185926565883814
-0.0547315128280578 0.304867975422583 0.193588863638793
-0.0528575289325721 0.30423184360822 0.207634565182516
-0.0560045839571718 0.305300124839197 0.212989494116569
-0.0514446063014741 0.303752221003649 0.21822314523873
-0.0519116096601878 0.303910747282667 0.231832643777684
-0.0513457464652553 0.303718662611214 0.243125731301494
-0.0542560300090203 0.304706570754645 0.245751286683554
-0.049441999457926 0.303072427581777 0.266459637080863
-0.051764712268915 0.303860882337584 0.272979276487771
-0.0518371908095028 0.303885485486863 0.280584273391206
-0.0528455638888036 0.304227782023154 0.296070106532101
-0.0562785546351469 0.305393125352639 0.290547932290424
-0.0568818852077218 0.305597928485003 0.312240824969035
-0.0577484134940153 0.30589207520221 0.312210092632091
-0.0551716855685696 0.305017393933986 0.31637683383501
-0.056090164232754 0.305329175428218 0.3384325534424
-0.0514720507327058 0.303761537132712 0.349182088922238
-0.0548456387771841 0.304906715962061 0.35248873398263
-0.0529292426348122 0.304256187129863 0.359877111657702
-0.0531317180085238 0.304324918257785 0.382053198407872
-0.0584955345310609 0.306145688620122 0.381475920384673
-0.0556389354913247 0.305176003910218 0.39516374723688
-0.0534992224408174 0.304449669202478 0.401692529848742
-0.0540188835970737 0.304626070395135 0.413654773045777
-0.0545109710827366 0.304793111587877 0.425575491734095
-0.0568628643026106 0.305591471757755 0.43190744361282
-0.0546097630677413 0.304826646947928 0.44865839907904
-0.0553362238185292 0.305073247143681 0.446111078837438
-0.0514811893840233 0.303764639286822 0.463616587351048
-0.049053311805799 0.302940485902895 0.474375649909847
-0.0561779080044293 0.305358960425202 0.479688097028488
-0.0573133003886369 0.305744374205502 0.480032922031002
-0.0589474133002327 0.306299080792807 0.48977157554921
-0.050653376290303 0.303483634606616 0.51119673766208
-0.0508329960608322 0.303544607302698 0.514543173626931
-0.057538046265283 0.305820665150492 0.523001122285445
-0.05814362648092 0.306026231933773 0.529377592039948
-0.0554097041262521 0.30509819034708 0.537108430196697
-0.0520768317280624 0.303966832617266 0.555027097050028
-0.0552661432497598 0.305049457996148 0.562332191774832
-0.0497233930111222 0.303167947821827 0.571240427588085
-0.0530158494028643 0.304285586166125 0.581824012969879
-0.0596329411253124 0.3065317861326 0.587617750578962
-0.0546990569603677 0.304856958140071 0.596283669750225
-0.0514729749253698 0.303761850853848 0.607947620279239
-0.0541868355317745 0.304683082394654 0.622306945330034
-0.0537575738488548 0.304537367688219 0.630707178957885
-0.0599746854144573 0.306647792686992 0.631939218893397
-0.0543807130840957 0.304748894955487 0.644777207572363
-0.0546034881687849 0.304824516906754 0.659267462061931
-0.0565851917523856 0.305497214628012 0.667556882952669
-0.0594058321897583 0.3064546930372 0.676697240723042
-0.0592551364085019 0.30640353871246 0.681370677586753
-0.0540075709178676 0.304622230257999 0.695765834094926
-0.056158524523571 0.305352380620073 0.700314822404638
-0.0577841374626617 0.30590420185551 0.716398251242913
-0.0511638204123049 0.303656907037741 0.729520940746088
-0.0539357207552213 0.304597840414289 0.732592876943477
-0.0549887668721493 0.30495530140346 0.745008929741571
-0.0483016498345159 0.302685331045517 0.75742094135457
-0.0536463361957773 0.304499607593136 0.764213962678812
-0.0526879339862801 0.304174273881419 0.773077663162153
-0.0542759890547944 0.304713345937735 0.780788591125954
-0.0583439390823697 0.306094228899439 0.791764991327307
-0.047404587470138 0.302375669048367 0.800289608914289
-0.0572291155828509 0.305715797314647 0.807261423542175
-0.060684702246069 0.306888810924347 0.81661169222685
-0.0587448669270637 0.306230325563817 0.828523833011028
-0.0546159302326261 0.304828740418314 0.83992757772613
-0.0538001098494296 0.30455180671477 0.851863918660499
-0.055441848098272 0.305109101755278 0.846772809044874
-0.0546655961946845 0.304845599740654 0.865751026114768
-0.0515766840614163 0.303797055361762 0.879056991628593
-0.0546853588930224 0.304852308272772 0.886187483447215
-0.0556476381204653 0.305178958054744 0.891806549440924
-0.0568716272878976 0.305419817356199 0.900712582894931
-0.0581787026161336 0.303102486611707 0.908121309634949
-0.0662909537930656 0.299300228981467 0.912990329266644
-0.0689591079364334 0.2952327345758 0.914254885367288
-0.350560409997831 0.0506485367178593 0.651340836812857
-0.379947424033628 0.0416840112278117 0.651340836812857
-0.381474847504719 0.0335949641309119 0.651340836812857
-0.390863340622813 0.026317779221263 0.651340836812857
-0.406166881505835 0.0166435950044917 0.651340836812857
-0.41588667832439 0.00571234808495391 0.651340836812857
-0.428825584992615 -0.00926202875808956 0.651340836812857
-0.443527306363597 -0.0203485983620451 0.651340836812857
-0.452144386972333 -0.0237730958963542 0.651340836812857
-0.46196680142691 -0.0390315367940947 0.651340836812857
-0.468131955255701 -0.042370076553143 0.659410327989152
-0.468381380719595 -0.041116130068168 0.663642598980511
-0.467058640032408 -0.0477659965627054 0.681523357558618
-0.468524388935709 -0.0403971792155967 0.692761573148564
-0.467691791600769 -0.0445829286785826 0.703439298750045
-0.467357153072856 -0.0462652701655474 0.71361497869377
-0.468828597158681 -0.0386315328789172 0.725588717946645
-0.46850776541375 -0.0404807513040433 0.737839764815909
-0.467409681713665 -0.0460011908551406 0.747456408275699
-0.468266718300723 -0.0416925769748249 0.757036230599619
-0.469112258303784 -0.0343037001261236 0.77498834752401
-0.468216154525687 -0.0419467782379343 0.779336538566771
-0.468106981189581 -0.042495629662033 0.784864325359704
-0.467500768913851 -0.0455432645764143 0.809751781818229
-0.468815436280548 -0.0388323290768543 0.808538937063058
-0.468895937015198 -0.0376041252073463 0.821226349508096
-0.468357770901336 -0.0412348246399065 0.837388109999545
-0.468373931902385 -0.0411535778010983 0.855836090921433
-0.468946062464274 -0.0368393586399006 0.867147685550932
-0.467244575786705 -0.0468312344021303 0.865181973799766
-0.468038010040256 -0.042842371044846 0.887252381508202
-0.467452988098805 -0.0457834749548631 0.89392373114811
-0.468278075666823 -0.041635479639707 0.89882916690475
-0.475119035152883 -0.0524953506562142 0.912947430046046
-0.482341311665499 -0.0487819108120971 0.91417261346682
-0.0480867100542036 0.302612368821691 0.166921843190462
-0.0460648654352653 0.301714991254715 0.179569920297717
-0.0392486855815066 0.298353623336828 0.190106090249125
-0.0461416801698772 0.301752872089741 0.196577597122256
-0.0472153215876596 0.302282333444119 0.205551572761282
-0.0419139170225893 0.299667970031313 0.217565723912019
-0.0442241641283737 0.300807257824532 0.2296955404948
-0.048903730900663 0.302889710027602 0.241043648098222
-0.0450464538109915 0.301212766220388 0.247256541370625
-0.0473499211976341 0.302348710626123 0.258715299399227
-0.0427140727014977 0.30006256314448 0.270028757148965
-0.0442386046330961 0.300814379093386 0.2759418527868
-0.0418173942007249 0.299620370243203 0.282971628660412
-0.042320721192918 0.299868583647201 0.291957247642087
-0.0428255915195425 0.300117558139515 0.302438389031426
-0.0441435621779683 0.30076750934136 0.312707966137643
-0.0452635570640023 0.301319829696586 0.322286456524439
-0.0437769073339072 0.30058669518208 0.332284035868306
-0.0502472435866887 0.30334577113071 0.336369677755685
-0.0484499013338708 0.302735655648357 0.351288180047268
-0.0444755956011517 0.300931250105293 0.361102725417387
-0.0451827864941409 0.301279998059502 0.371325249836748
-0.0504977612810936 0.303430810428997 0.378873523881076
-0.0402498293739308 0.298847332818862 0.384307066563868
-0.0460260069792753 0.301695828384882 0.393772765835632
-0.046380201722305 0.301870497902331 0.409614936208393
-0.043237359737323 0.300320619752698 0.412423836087894
-0.04868823433523 0.302816558800696 0.42450973634638
-0.0442703173162921 0.300830018058051 0.439989556050721
-0.0487567496691578 0.302839816622595 0.447249513817143
-0.0434556388489222 0.300428263098181 0.457462658447996
-0.0460534292249306 0.301709351539898 0.462387149423759
-0.0446705084983668 0.301027370509029 0.473172939319643
-0.0460347198038428 0.301700125074465 0.473430568611221
-0.0400249271297256 0.298736423305828 0.493849207988029
-0.046994789506981 0.302173579057239 0.503084552434629
-0.0469379286999024 0.302145538410307 0.507055273104791
-0.0409692485739687 0.299202111106759 0.522503838839531
-0.0415072921488113 0.299467444834698 0.525417255002682
-0.0442973312061717 0.300843339834285 0.532714124635983
-0.0418071838477482 0.299615335054334 0.550944424519278
-0.0423578001303275 0.299886868955586 0.558703931004237
-0.0451909968992138 0.301284046983209 0.571658802977966
-0.0448575605279989 0.301119614361872 0.569649030727073
-0.0493142714318317 0.303029069759343 0.582184585868561
-0.0458521107198222 0.301610072239928 0.587542936964092
-0.0481255820737271 0.302625564094269 0.602676130774136
-0.0422375576374703 0.299827571920219 0.614450344137943
-0.0479255137851026 0.302557650061632 0.621769340822844
-0.0443065652852734 0.300847893578157 0.630557255555259
-0.0430289806561025 0.300217858561914 0.642380542449651
-0.0402692458593022 0.298856907969812 0.649073460643746
-0.0416276908465253 0.299526818901776 0.657808560442153
-0.046032995216302 0.301699274602007 0.665255802260832
-0.0443506361373121 0.300869626917261 0.675967916664313
-0.0419358300683643 0.299678776349607 0.687440848919074
-0.0435082843005692 0.300454224961862 0.701373168235567
-0.0450070212835166 0.301193320249827 0.713280485431847
-0.0442607155828105 0.300825283007102 0.725034048033519
-0.0450599558284917 0.301219424678561 0.730107354063476
-0.0412600050525269 0.299345496334249 0.737865783144896
-0.0421162005786715 0.299767725241756 0.746918086111247
-0.042443380573832 0.299929072559859 0.758159618211469
-0.0404465088668559 0.298944324411192 0.762598785272387
-0.0481464827926449 0.302632658932319 0.77051538335241
-0.0466930680551596 0.302024786503337 0.776090572302941
-0.0476276220536179 0.3024565294447 0.789721621976211
-0.0456253457665247 0.301498244140426 0.799456336154085
-0.0430429342694966 0.300224739722536 0.809878242772476
-0.0431563484537204 0.300280669408733 0.813022927319403
-0.045119531084456 0.301248803943544 0.821052639303312
-0.045399396899703 0.301386818490235 0.836558258366485
-0.0456634122436534 0.301517016449507 0.849147440757134
-0.0468691019363445 0.302111596806671 0.856542714408475
-0.0473368557219864 0.302342267446569 0.86585625842779
-0.0464897199573075 0.30192450631899 0.86965033280159
-0.04485368206715 0.301117701716644 0.883725570912576
-0.0426306393059692 0.299590710545208 0.901538868770635
-0.0452803702385304 0.300499213675165 0.902874572081403
-0.049028792812392 0.300667363834842 0.907484695606993
-0.0526155229609116 0.291309919279163 0.913841669378269
-0.333256822111896 0.0515883035216428 0.651340836812857
-0.354133281417006 0.0398283117047367 0.651340836812857
-0.360451307413993 0.0413821244490319 0.651340836812857
-0.37794055942795 0.0182116731545641 0.651340836812857
-0.395672686230896 0.00683451632986662 0.651340836812857
-0.399967352181793 0.00877392694750243 0.651340836812857
-0.40606832605693 -0.00245301288191157 0.651340836812857
-0.428124986196923 -0.0177583633022102 0.651340836812857
-0.427444648831925 -0.020700009367568 0.651340836812857
-0.441963698440269 -0.0304522278519698 0.651340836812857
-0.452442467386007 -0.04753042014982 0.651340836812856
-0.464734044294368 -0.0594525285197783 0.656440580196285
-0.466766490850249 -0.0492347296837644 0.665587585492289
-0.465597727045456 -0.0551105021165694 0.669236430921224
-0.465672934609392 -0.0547324081602853 0.691600681224234
-0.466139690312112 -0.0523858687828261 0.701577553861696
-0.46594538115305 -0.05336272689186 0.703274482133965
-0.466426623910851 -0.0509433561702686 0.717449219571116
-0.467363887188006 -0.0462314154825059 0.737344864223552
-0.466394350401214 -0.051105606059815 0.736884572882808
-0.465696639365427 -0.0546132363041194 0.759031772929339
-0.466803083893363 -0.0490507640329797 0.770591836095003
-0.466011832452841 -0.0530286536481212 0.775033645016899
-0.465617581016946 -0.0550106894616189 0.781681709588901
-0.467397010270306 -0.0460648945027561 0.802360104296066
-0.465789382590359 -0.0541469846267921 0.808488895904644
-0.466855452908182 -0.0487874872166194 0.829091449724469
-0.46606292617845 -0.0527717881435611 0.826175406458711
-0.465618050973209 -0.0550083268319389 0.84299116043074
-0.4661047601762 -0.0525614744345611 0.855680514087648
-0.465515588181764 -0.0555234420698434 0.868538629199524
-0.46521272206418 -0.0570460528635979 0.882603547007881
-0.4653777388677 -0.056216457370403 0.885061217834239
-0.465995260739267 -0.0531119652782185 0.895955889995027
-0.473249639212531 -0.0595166312125315 0.912822917521569
-0.478241743829973 -0.0602856484276615 0.914177946783108
-0.0318616227956356 0.29471072711217 0.178040364960454
-0.033888237102021 0.295710142687694 0.186794212462642
-0.039612450045065 0.298533012118185 0.190556085228218
-0.0312291280981951 0.294398815245138 0.203622787876035
-0.0388814245808233 0.298172510254181 0.213372032951787
-0.0318995537750475 0.294729432601172 0.226829154014097
-0.0368402954522328 0.297165936760478 0.230504191916912
-0.0389365630233912 0.298199701524932 0.243714973186923
-0.0388960875982444 0.298179741254155 0.246072243734029
-0.0307773550772513 0.294176025446256 0.260517614864586
-0.034354445698888 0.295940051324815 0.266477893973808
-0.038268686009864 0.29787034103056 0.279179447013683
-0.0328521503089753 0.295199201224732 0.29464316589238
-0.0383085489606628 0.297889999262414 0.300265605900093
-0.0414025619264423 0.29941579760457 0.30808967181966
-0.0338063033117384 0.295669737413778 0.31210960385193
-0.0348105846846097 0.296164994179258 0.319105269067374
-0.0356379194153813 0.296572990517534 0.329636513711831
-0.0369160269156045 0.297203283385246 0.337343302037405
-0.0388443288531717 0.298154216665765 0.355518668154616
-0.0313315617344795 0.294449329924344 0.36646451636141
-0.0344673462641007 0.295995727722146 0.370915337959963
-0.0382430778365679 0.29785771247703 0.378427435057903
-0.0401010907120157 0.298773983028064 0.390116152680314
-0.0379906118749779 0.297733210042843 0.402582015919175
-0.0349619141417312 0.296239621608862 0.406273930141258
-0.0302434827191011 0.29391274873475 0.418963965398104
-0.0339067554037086 0.295719274903469 0.424562482464749
-0.0364293377555308 0.296963274852057 0.442177744770706
-0.0366090168683894 0.297051882784717 0.450900241827324
-0.0372402964615638 0.297363195428638 0.453752864472922
-0.0365665641542196 0.297030947422901 0.462975119958516
-0.0346212570595757 0.296071628126951 0.474597313587061
-0.033892430937416 0.295712210858436 0.481117812315842
-0.0386147643598074 0.298041007985883 0.497287233399104
-0.0358056451533785 0.296655703698056 0.500257346124006
-0.0358018747310101 0.296653844331511 0.517102249319881
-0.0303781173270326 0.293979143175836 0.526061367894285
-0.0375677230867701 0.297524664371218 0.532329897622149
-0.0395497427142948 0.298502088284837 0.540986860203247
-0.0376516196133889 0.29756603755958 0.545961330863037
-0.0369862825898275 0.297237929649642 0.557569240911634
-0.0392866723449179 0.298372356335454 0.565145622430155
-0.0341613048108716 0.29584480477931 0.579842645746406
-0.0393971224936083 0.298426824321085 0.581254945477394
-0.0315275533879911 0.294545982311813 0.60053108828351
-0.0317489490902079 0.294655162589704 0.609891240368922
-0.0317449883566999 0.294653209372091 0.615143826517165
-0.0341405950103942 0.295834591835931 0.621329743005885
-0.031755344861603 0.294658316635114 0.639484198796394
-0.0401993197744034 0.298822424240885 0.647230826668353
-0.0378668640588654 0.297672184373347 0.651697884629678
-0.0342988953044782 0.295912656901898 0.666015810584071
-0.0316940779861378 0.294628103155711 0.668062513274226
-0.0343620209345443 0.29594378701763 0.683692249872349
-0.031763210739653 0.294662195656896 0.688173884944373
-0.0312948504216763 0.294431225908352 0.697260286792914
-0.0387141094446624 0.298089999560078 0.710896581912768
-0.0356451709000648 0.296576566554039 0.714814646908806
-0.035094338170967 0.296304925913176 0.733545569139496
-0.0330039897010715 0.295274080126435 0.737519364520971
-0.0329237574502703 0.295234513958932 0.752317827467142
-0.0385307360556373 0.297999569812024 0.762592816517076
-0.0371771799721485 0.297332069820575 0.764099236704089
-0.0366129402429172 0.297053817578919 0.781474393390001
-0.033780405504687 0.295656966028687 0.783606595573097
-0.0319627528585003 0.294760598940106 0.798165742639618
-0.0315579765824876 0.294560985371025 0.803610818881372
-0.0339930517727215 0.29576183156313 0.810077882099327
-0.0329301672161229 0.295237674905645 0.818939919184542
-0.0356566276569283 0.296582216401283 0.833857926491459
-0.0379094000603527 0.297693160807921 0.835827606149685
-0.0353542900025478 0.296433119969908 0.853183177624778
-0.0384343466635344 0.29795203582419 0.865346898443102
-0.03357497739589 0.295555660096455 0.874462107944125
-0.0315598251041068 0.294561896961006 0.885409900277571
-0.0395172230827889 0.298486051377303 0.885267812135966
-0.0346292772786484 0.295742057385135 0.901212885939198
-0.0356048185131826 0.295471737982863 0.903733359867539
-0.0415733677055552 0.29340812775424 0.910810871596192
-0.0520303816027105 0.281470052252511 0.912666622812922
-0.0509857573379182 0.284524685208304 0.913526341066406
-0.342687328951931 0.0389696639359353 0.651340836812857
-0.356790613220197 0.0206435331052411 0.651340836812856
-0.367665490988531 0.0247830668788349 0.651340836812857
-0.372860636730552 0.0137930776010754 0.651340836812857
-0.389854747912552 -0.000785398456521858 0.651340836812857
-0.397697207510475 -0.0118825059183104 0.651340836812857
-0.417638283603031 -0.0239318592375709 0.651340836812857
-0.416040508296724 -0.0351805994208429 0.651340836812857
-0.442095232382946 -0.0465176397098166 0.651340836812857
-0.445355484879744 -0.0479665675767626 0.651340836812857
-0.464037027771672 -0.0629566672109928 0.652601221923056
-0.459560971025762 -0.0680819848845513 0.654253863608866
-0.464795789373498 -0.0591421150450245 0.67828430745591
-0.463524487772045 -0.0655333797924093 0.687413662598667
-0.464333326030093 -0.0614670752749834 0.69617094511241
-0.463842668394728 -0.0639337777823699 0.706474950839573
-0.46472339252207 -0.0595060785953173 0.716931118867522
-0.461984367180511 -0.0732760888648657 0.726704504974831
-0.462713932212081 -0.0696083177695801 0.733320073304236
-0.464445902814036 -0.060901113563176 0.747351957490162
-0.4633649092933 -0.0663356349806974 0.768409194503275
-0.464241961059567 -0.0619263979995103 0.773805399629775
-0.463241662079761 -0.0669552405646194 0.792063038509407
-0.463626972995906 -0.0650181517791373 0.802502538983854
-0.464392206864635 -0.0611710613301647 0.811935889754015
-0.462987321298319 -0.0682338980196229 0.81829463735629
-0.464177678648847 -0.0622495675015683 0.83709016793165
-0.462269580961704 -0.0718422223589773 0.838293372551554
-0.462279229733176 -0.0717937147091055 0.845380878085859
-0.464250285979364 -0.0618845458014435 0.862235237677643
-0.462727582011746 -0.0695396955926641 0.864693062933495
-0.464907976253728 -0.0585781135115471 0.88884727454048
-0.464170542083063 -0.0622854454405702 0.899599624280699
-0.46514525425768 -0.0678456900673303 0.907380599595527
-0.467483937492786 -0.0725241548156201 0.910593948909872
-0.0220998735023908 0.289896765098142 0.181983335149477
-0.0279729489390918 0.292793045386488 0.189067935152533
-0.0246931431509998 0.291175624163819 0.197742883030324
-0.0305355701180686 0.294056790299552 0.205777493565808
-0.028080716725171 0.292846190577266 0.210197464139575
-0.0275209494562852 0.292570143908973 0.219113909487922
-0.0296590907170614 0.293624558491934 0.231102183457643
-0.0277629981433622 0.292689509111883 0.23842442575875
