ply
format ascii 1.0
element vertex 834
property float x
property float y
property float z
end_header
-0.109730200162762 -0.328015969805969 0.134001173006406
-0.11131036670163 -0.329099660339114 0.151167064385357
-0.116364557688119 -0.329555830946761 0.158309366541007
-0.106903892423135 -0.330258018956374 0.169631733081769
-0.114052844413623 -0.330954099790674 0.180541052642074
-0.112841656212769 -0.331384281109119 0.187390209425991
-0.110428159443977 -0.331942982119394 0.196301596746279
-0.112907939487862 -0.332783502880691 0.209591755047027
-0.113435209565665 -0.333773737423254 0.225294729960694
-0.114000123772526 -0.333977306985744 0.228514213125721
-0.105638276794166 -0.335090384088506 0.245238899637768
-0.115876259997568 -0.335298073305196 0.249436382324407
-0.106004767346635 -0.336030792517367 0.259805829247942
-0.106820796157615 -0.336812833734484 0.27199945695605
-0.105542301466291 -0.337547580584346 0.283136418287202
-0.107802147311747 -0.338340355989555 0.295721044381096
-0.115541322160524 -0.338876886558838 0.305207344808592
-0.114447754589067 -0.339595324537 0.316121540787962
-0.108064717355154 -0.339921399861907 0.320156224686241
-0.113355148330075 -0.341017909177095 0.337900284769061
-0.108870101737655 -0.342059228697574 0.35326686728218
-0.108266825327217 -0.342797023364917 0.364556254984137
-0.10679805025444 -0.343140509605986 0.369626687578803
-0.111174138301985 -0.343498015517599 0.375825810896144
-0.106958791364369 -0.344573549749997 0.391762397905037
-0.114881405650063 -0.345704646920758 0.410451001749505
-0.108452099873401 -0.346306855380083 0.418738967996362
-0.108404408621795 -0.34657865812076 0.422925213883666
-0.108221196167948 -0.347502155659359 0.437145414270892
-0.112747078989757 -0.347905843463354 0.444080468671313
-0.111077753021442 -0.348579248020554 0.454209960917711
-0.112977648059436 -0.348860797306992 0.458850604702206
-0.11098896735659 -0.350266835632782 0.480234176236598
-0.109918494372407 -0.350821588204103 0.488626447437367
-0.11351081684635 -0.351587968607143 0.501011819204871
-0.116290686026558 -0.352065528848201 0.508814112479631
-0.112083755427821 -0.353130043145503 0.524581984830422
-0.114311398801303 -0.353590802873401 0.532038858101921
-0.115561458829003 -0.354000148337255 0.538549851952928
-0.113753176764643 -0.354888064477515 0.551967388750505
-0.111775559919813 -0.355457068979076 0.560437950900776
-0.114373999694332 -0.356115526793505 0.571003022433456
-0.108267526734469 -0.356735448569474 0.579614684405114
-0.115966503274737 -0.357431883190654 0.591561896567849
-0.115577280915929 -0.358457908714674 0.607331860587661
-0.115679625671193 -0.363089094721573 0.615910770734393
-0.0829847618548989 0.359190217047988 0.351361716126179
-0.0762079207330247 0.359707218028205 0.359222984143118
-0.0774149741601498 0.360260873770213 0.367798453260968
-0.0835303936154574 0.361165594321691 0.381888269338905
-0.0798609531068508 0.361781131304285 0.391329342925933
-0.0757661072928073 0.362035544754925 0.395183748456611
-0.0770515165617929 0.363035723794096 0.410658745513978
-0.0820214748954614 0.363013304474593 0.410404496986015
-0.0779092652470757 0.363986133373442 0.425356958797084
-0.0802334484232627 0.364776883441729 0.437615859464624
-0.0750381685300735 0.365299277304318 0.445589745610761
-0.0819910012585499 0.365762129524211 0.452868914969027
-0.0780773924842954 0.36605429264412 0.457309851314289
-0.0774779207362241 0.367373571463204 0.477679506094037
-0.0816800600594411 0.367524382484165 0.480087163439676
-0.0804594842038969 0.368341504167899 0.492687778572247
-0.083382875916867 0.368315142056569 0.492334696864917
-0.0805952860571144 0.369905349420514 0.516849221221196
-0.0775353881953621 0.369591606950096 0.511945697642291
-0.0821563817231876 0.370933288931149 0.53275818201331
-0.0830964380872933 0.371742757559834 0.545280606561188
-0.0764401645232936 0.371632008184593 0.543446362416908
-0.0831925175149466 0.372232158721253 0.552842857847338
-0.0777948847092038 0.372956663110731 0.563935281098403
-0.0777522270880398 0.373765971507923 0.576437020429336
-0.0754612085241315 0.373982904926666 0.579745844269391
-0.0766655149847129 0.374714406929767 0.591068704850091
-0.0806900066489426 0.375184173425331 0.598400426019854
-0.0811131685630743 0.353389823915224 0.596392558551457
-0.0761213289299236 0.371893926076436 0.615910770734393
-0.0810141154268508 0.360775205589694 0.615910770734393
-0.0978670311108123 -0.301409738702957 0.0284266509569721
-0.0942498024723183 -0.308358962613134 0.0284266509569721
-0.0948655552601915 -0.321479307138157 0.0305605402950008
-0.096915656960135 -0.322701541180591 0.0499158912446524
-0.10269895433047 -0.322904645805355 0.0530286728962923
-0.100074434278017 -0.32378970156896 0.067122663718419
-0.0976549421182773 -0.324058981257356 0.0714416366863135
-0.100372388792298 -0.324726250295268 0.0819781184512044
-0.0952523454069779 -0.325501918080753 0.0943838427123957
-0.105074004155308 -0.325876396414262 0.100139113007112
-0.0995577115977831 -0.326439109133997 0.109173214952223
-0.098254153235441 -0.327663916363446 0.128633228913145
-0.0959047051125586 -0.328671052403767 0.144659150169294
-0.0956509317166148 -0.328914154858294 0.148385796983369
-0.0997947043389653 -0.329571556837862 0.15887428615737
-0.102078016494074 -0.329992095199556 0.165503916367031
-0.103710548801923 -0.331089354481458 0.182884119524182
-0.103389290784376 -0.331132446337557 0.183574014398475
-0.104837236950584 -0.332073388878484 0.198477301721875
-0.10508668705884 -0.3328538222026 0.210644505269294
-0.102537016579508 -0.333257614097201 0.216476677010239
-0.0957987918305813 -0.334541072631492 0.235227543860318
-0.101106763048911 -0.335362115050379 0.248724116628645
-0.105046072813249 -0.335729539009263 0.255008086404515
-0.097757502752467 -0.336278821733066 0.262345322000742
-0.104138291732119 -0.337115016304446 0.276243145959857
-0.101932779180518 -0.337908199701917 0.288137027858222
-0.0998897539719577 -0.338335068069921 0.294404337366191
-0.101006857779531 -0.339186163676531 0.307710414515773
-0.103991579435663 -0.339534969987518 0.313558118948464
-0.10526398842536 -0.340559946485913 0.329571276811658
-0.102430322346532 -0.341299750214232 0.340543500460608
-0.0977670195966655 -0.34220311479342 0.353753727196107
-0.103525508537696 -0.342789256728436 0.363696306156055
-0.0971537912234938 -0.343304092490849 0.370645173801465
-0.100835894741632 -0.343603957306491 0.375846612423005
-0.095979543752846 -0.344089372306783 0.382578089727788
-0.105474868814033 -0.345022851424208 0.398463110204388
-0.0947273911586538 -0.34613430213111 0.413934197749496
-0.100459118318476 -0.346469220105417 0.419996422234891
-0.0971505016429406 -0.34714183229429 0.429857796816932
-0.094948362822116 -0.348115412153584 0.444535572872683
-0.101457055319106 -0.348851354797116 0.456906558526543
-0.105675645985467 -0.34931230637848 0.464677177352656
-0.0962315010445866 -0.349632030280997 0.468136027408331
-0.101376832516681 -0.350870132039915 0.488042091327241
-0.0994542173105512 -0.351492504148276 0.497344657024624
-0.103970318778428 -0.352117498795733 0.507692765280962
-0.10541341044178 -0.353222675125229 0.524969983343092
-0.096047208635313 -0.353738646857438 0.531468941221337
-0.100052249607029 -0.354046216147584 0.536839663783179
-0.096716661842391 -0.354605365765473 0.544946194999931
-0.0971981879494482 -0.355571963388666 0.559935159084785
-0.0993739895033491 -0.356040854158207 0.56750939510293
-0.0967197063977275 -0.356963953296335 0.581337716181955
-0.105937439888691 -0.357667170636729 0.593626656914925
-0.104257876105507 -0.358461181011373 0.605615398601714
-0.10440912756672 -0.362028965903194 0.615910770734393
-0.102810109630041 -0.368386566363254 0.615910770734393
-0.0688547630104415 0.35762792032 0.352665177729899
-0.0733694508373039 0.359332029786393 0.360335228764929
-0.0733951642792783 0.359864901171207 0.368401042200383
-0.0667866035670025 0.358334306716473 0.371953440415218
-0.0741393043817227 0.361069990037643 0.383836888012356
-0.0685548794359977 0.36039896890817 0.396382161908738
-0.0723455589981492 0.361949418452208 0.404656473111107
-0.0677705484806739 0.361166595152898 0.411359918658817
-0.0698989139742384 0.362473918869996 0.422703347856723
-0.0712225459889249 0.363442396127712 0.432141503416846
-0.0743467989068665 0.365475302520781 0.450538726344831
-0.0695597103167496 0.364607663395952 0.456808803739464
-0.0700604943302992 0.365009229348037 0.460918649717494
-0.0660402580378527 0.364194370555085 0.464862408903997
-0.0717637257441117 0.366692987565698 0.479772622714713
-0.0661684801190529 0.365880403069332 0.490191434617299
-0.072636957219041 0.368416840714229 0.502635256036033
-0.0712757222299509 0.368844635153194 0.514761040354236
-0.072863281075232 0.369776691244756 0.522561529127952
-0.0674665586730907 0.368392992994133 0.523411227029133
-0.068344338148816 0.369329275478856 0.534178795037494
-0.0713516913857587 0.370907104979033 0.546075950004757
-0.0711589740925011 0.37120666827602 0.551457417218338
-0.0711814920344214 0.372241989050457 0.567240766657838
-0.0711576189216544 0.372771037000532 0.575450710572869
-0.0701972849406734 0.373312164398392 0.587675046806486
-0.0685915051633612 0.373526346500936 0.597525275852901
-0.0696635773876351 0.373844940863523 0.59802686509545
-0.0713974056781197 0.375360936530851 0.614183286984998
-0.0706290188865489 0.372403339964109 0.615910770734393
-0.0719361854176234 0.35877787836807 0.615910770734393
-0.0685901726047159 0.355286595032131 0.615910770734393
-0.092887789836476 -0.321163361099586 0.0284266509569721
-0.0871254373133515 -0.32147197380099 0.0305914963691795
-0.0931069122628007 -0.322540974172451 0.0474405125878351
-0.0856826501908288 -0.323173774780374 0.0576230822109126
-0.0910849530518148 -0.323718509954876 0.0661640983638566
-0.0888178354284896 -0.324263833304793 0.0748604232869623
-0.0936907014445109 -0.325148839491753 0.0888109262178056
-0.0836463294288228 -0.325823782672522 0.0988300122146749
-0.0866934909266892 -0.326632183462715 0.111778624413315
-0.0922308159741861 -0.326606195308853 0.11196398932579
-0.0944256727296868 -0.327511853621091 0.126293171320042
-0.0893511010826609 -0.328818988603998 0.145934061799549
-0.0883895449713512 -0.328769093496845 0.145014123547239
-0.0839469149750556 -0.330169452653282 0.165927010528719
-0.0917324634270938 -0.330516404120356 0.172495501809605
-0.0932529556041719 -0.331510759357467 0.188074924657341
-0.0908013910559672 -0.332026608376546 0.195651358988486
-0.0905840211388673 -0.3322086139017 0.198425621734315
-0.0913932593197645 -0.333380174630484 0.21662815185622
-0.0933205755941456 -0.33328392082876 0.215443888329353
-0.0905110108987384 -0.334678867426294 0.236528184322171
-0.0922152455617063 -0.334834820793106 0.239200444978996
-0.0920053557044658 -0.335801440665157 0.25408182281932
-0.0933669749538028 -0.336653158403534 0.267435667626633
-0.0906932211461647 -0.337234308351385 0.275984957451575
-0.0848418404656193 -0.337430141836007 0.278093109166695
-0.0930310123846074 -0.33814657029387 0.290425328757054
-0.0941616400852033 -0.339566272544472 0.312506645056846
-0.0893706723522884 -0.340458651051509 0.325527437416613
-0.0842696568010732 -0.341082102021329 0.334350503082612
-0.0903005726874082 -0.341121278592211 0.335896386576062
-0.0857717688634082 -0.342377551620447 0.354572692644351
-0.0947373872148023 -0.342639821449913 0.360018824663599
-0.091991950486008 -0.343624611849974 0.374784761643179
-0.0889128420481175 -0.344391374591842 0.386134627099264
-0.0842571311042199 -0.34418130737877 0.38216671146902
-0.0918230154407658 -0.34576425263265 0.407771270526529
-0.0852352171518849 -0.346171825184222 0.413031425868133
-0.0922157398752551 -0.346475786220315 0.41881094659132
-0.0929895098863082 -0.34773924215012 0.438425806756978
-0.0940105024226115 -0.347971912511519 0.442175093302859
-0.0937638739302935 -0.348469930550517 0.449820599330842
-0.087168308856246 -0.349724231841136 0.46814386320766
-0.0937741676325352 -0.350147541631787 0.475706351282891
-0.0926858803974538 -0.350818003479246 0.485881139683924
-0.0897034961929044 -0.351859568184982 0.501486069700676
-0.0930224810835343 -0.352356629129892 0.509673398201153
-0.0903863080793165 -0.3526556111376 0.513874937489574
-0.0909721923355535 -0.353441779406941 0.526096316787944
-0.086714865196281 -0.353959434625939 0.533418741064459
-0.0924172494275 -0.354797130584986 0.547233831703193
-0.0853256744804533 -0.356056092735979 0.565551582004935
-0.0840400473487961 -0.35646201548566 0.571613947310594
-0.0891900688316316 -0.357698131674841 0.591490107645481
-0.0893257911790351 -0.357882266941114 0.594352347971261
-0.0892714235989405 -0.358634396194985 0.605948590699822
-0.0937221238795373 -0.359123520619342 0.614190125226345
-0.0649743049713802 0.356560161027251 0.352159455332349
-0.0621764002909188 0.35585639012652 0.352808529028473
-0.0633181759464254 0.357306046964823 0.370368613504035
-0.0640847569898335 0.358368604856599 0.38352715415148
-0.0616489471384203 0.357606093026981 0.381794906964883
-0.0643446364864954 0.359328695365431 0.397186369806279
-0.0607508417174765 0.358669895848039 0.401779404042881
-0.0596232109055632 0.358606764764001 0.405422221188905
-0.0635869068516467 0.360201087242014 0.413661811918767
-0.0589002729119335 0.360153706481276 0.432098828448044
-0.0611142657849584 0.361292287785962 0.440504662972938
-0.0620204511770029 0.36216979534009 0.450254835460962
-0.0577672857364566 0.361967660093371 0.464546430889547
-0.0580018553919752 0.362303178185762 0.468732055466799
-0.0617526854180846 0.364193540609945 0.482381474273151
-0.0618279202963141 0.364338654367759 0.484298989066067
-0.0645366465570651 0.365996045858998 0.498637212708289
-0.0657521617519623 0.367070449705171 0.510141715091498
-0.0600431364217485 0.365508635679178 0.50953721724823
-0.0649821640186578 0.368021562586848 0.527874415099181
-0.0657602471834122 0.368428437037587 0.530931790427719
-0.0574899109626337 0.367210267086428 0.546069814544604
-0.0646150808331818 0.369327530360116 0.549400888108248
-0.0645545114615823 0.370661887060043 0.570109343527223
-0.0626175908436197 0.37002898076733 0.568324497344542
-0.0608308675433474 0.370626265544245 0.584789028883659
-0.060638093604906 0.371121942964436 0.593177906841053
-0.0614834943577682 0.371834766711855 0.60065139416874
-0.0603193661677218 0.372048407502822 0.608687419062666
-0.0573319897324999 0.370577463361852 0.615910770734393
-0.0614935351016175 0.356933803561223 0.615910770734393
-0.0827362321231336 -0.309827211904139 0.0284266509569725
-0.081656699399423 -0.317350748688624 0.0284266509569721
-0.0784141307602684 -0.321698034031023 0.034344419334552
-0.0819968697939469 -0.321989858545375 0.0389068896566223
-0.0765994352128724 -0.322756454579553 0.0537138043384903
-0.0779235631636413 -0.323950749553107 0.0690373477981533
-0.0826625553222584 -0.324671316670586 0.0808948529326065
-0.0771271864712117 -0.324655330224685 0.0806319087054408
-0.0758256273236063 -0.325645547182946 0.101173708599957
-0.0740835734315289 -0.325405334424686 0.104679608806182
-0.0786113302693637 -0.327374133905089 0.121964683914651
-0.0742238967284524 -0.327185536430121 0.131377616907641
-0.0828575864530652 -0.328195261511152 0.135296838110585
-0.080701202457832 -0.328520124418881 0.139972592895863
-0.0798717074235865 -0.329858509848105 0.160493284481128
-0.0806699233916555 -0.330324587971024 0.167809083597264
-0.0734005362076288 -0.330018959920349 0.178188959615114
-0.0804667657014669 -0.331782935705525 0.190278464681196
-0.0816561376124877 -0.332531413200936 0.202012510634992
-0.0746416248333895 -0.33220587913529 0.206577826615177
-0.0784769781071148 -0.33388470325987 0.222396387368911
-0.0750326114643968 -0.33438133934822 0.238298055282215
-0.0793264109005595 -0.335175247019413 0.24244100114602
-0.0819816915077806 -0.335836466198971 0.25305755106068
-0.0824674307541878 -0.336491437533844 0.263239038104651
-0.0814008251305289 -0.336952231414448 0.270182208466941
-0.0752746031872383 -0.337511411455983 0.285259837117551
-0.0755001410976583 -0.338540368020305 0.300095458911612
-0.0810570927871345 -0.339373830994016 0.307491821585834
-0.0729631897064474 -0.338529176756578 0.310389712140758
-0.080594167869346 -0.340864604241378 0.330420951917835
-0.0730891558617566 -0.340123932425102 0.334305473490224
-0.0762248170253438 -0.341455416676453 0.341771349638429
-0.0785367860207168 -0.343029944883618 0.363509203117414
-0.0819110904517046 -0.343361737334655 0.369155211413294
-0.0809668670443036 -0.344028241720782 0.379291427732158
-0.08333588886964 -0.34481064003998 0.391732986301428
-0.0748261914151809 -0.345180756506951 0.404622101799753
-0.080937126796662 -0.346175273612173 0.412413703487967
-0.0833777924971937 -0.346377999130067 0.415922575920443
-0.0747339954699964 -0.346627211345828 0.427165533173125
-0.0837615295758996 -0.348282546003404 0.445368052828397
-0.0774842259908882 -0.348995656970446 0.455390880054972
-0.0810978568974837 -0.349662911003712 0.466250140528422
-0.0822852861874334 -0.350114006417273 0.473395524802433
-0.0821468507919 -0.351345483903255 0.492374589553508
-0.0735841754323542 -0.350873212145178 0.496967635323202
-0.0788006361452179 -0.35237936822181 0.507804223911734
-0.0831749491166611 -0.352983327185756 0.517805635968843
-0.0782487109670794 -0.353556879774498 0.525886093698173
-0.0837288984752057 -0.354726541308143 0.544788452587957
-0.0769425297530015 -0.354939480696301 0.547014583232992
-0.0827610979951621 -0.35564467434638 0.558803409575189
-0.0831219814439229 -0.356757827397709 0.576034769917509
-0.078620030484865 -0.357427949334943 0.585671443377647
-0.080410502511543 -0.357996833806898 0.594728349485448
-0.0762196252932039 -0.358708962455229 0.606157712298146
-0.0753572643016827 -0.358850800081468 0.611788812989864
-0.0826227764177268 -0.374544611620767 0.615910770734393
-0.0557134775145765 0.353505536819171 0.343187713361002
-0.0486141254988925 0.352513730147472 0.357008622730138
-0.0505273371726223 0.352760926941196 0.352976013341423
-0.0572018233187155 0.355625080224492 0.369602601607552
-0.0529448615126224 0.355039628310154 0.378032010612771
-0.0523505604785393 0.35566112543887 0.389992021226657
-0.0491544334799424 0.355232429114419 0.396487362040571
-0.0523940224590586 0.357381288706325 0.416190984062169
-0.0559721672147556 0.358654563973994 0.421084204375923
-0.0496905319313802 0.357735606100578 0.432678538263488
-0.050368317460664 0.358399940839761 0.440093878773331
-0.0491872262918491 0.358067441043957 0.439824842191881
-0.0527165779358191 0.360453377679542 0.461978928219125
-0.049488307227854 0.360051318219381 0.469014148909248
-0.049513782853271 0.360003181149612 0.468171854352939
-0.0501583841440743 0.361594621017029 0.489938949818871
-0.0518861006530146 0.362635487490256 0.498834816001625
-0.0539884434489955 0.363496225005198 0.503436777964708
-0.0526220046101649 0.363743699822147 0.512818851664088
-0.049004190220595 0.363183934046465 0.51902866740972
-0.050390341871917 0.364326934790806 0.530887293666841
-0.0495491247134853 0.364667311728054 0.539546291895373
-0.0484104424364667 0.364959767798464 0.548686808494315
-0.0524263648996325 0.366648505360748 0.558160590254822
-0.053341037815639 0.367972927481208 0.574728966000831
-0.0487396568365763 0.367057803106394 0.57951155860826
-0.0555354710250952 0.369505946078929 0.58926301094077
-0.0531296537122226 0.369600128477409 0.600544522003803
-0.055789693443766 0.370299005999724 0.600384140903281
-0.0542425484979882 0.370714217375239 0.613077160549362
-0.0536121965239493 0.365120050864712 0.615910770734393
-0.0605981818780973 -0.304937634722634 0.0284266509569718
-0.0698107681444413 -0.312138183816168 0.0284266509569721
-0.0637911636952415 -0.318266076402747 0.0377488234614639
-0.0643074468757618 -0.319339749562898 0.0520701922654129
-0.0693809281015267 -0.320594200132135 0.0503616081888049
-0.0642215792456418 -0.320335472427394 0.0676812422263665
-0.0637698031983167 -0.320833102779729 0.0771698304967342
-0.0695459625914063 -0.322902607230412 0.085051020466561
-0.0643623397994696 -0.322104888477384 0.0942121802711609
-0.0704343394686758 -0.325093723597837 0.114959245641289
-0.0631955987919906 -0.323522342273658 0.120744086840431
-0.0715080792948318 -0.326080425189226 0.125648319630757
-0.0649783205436138 -0.325206466716431 0.139194545528173
-0.0685571721995915 -0.326836210481855 0.149402158235743
-0.0649933372707974 -0.326203784812259 0.154413858193704
-0.0615985343548623 -0.326814515437939 0.177776328923994
-0.0650402863026873 -0.327879255386472 0.179892332657873
-0.0646028262862976 -0.328188494679468 0.186435268157355
-0.0652348866188914 -0.329764051483747 0.20796905858246
-0.0625320975543634 -0.329770087438271 0.219211406397745
-0.0637193389525563 -0.329995128199803 0.217761813118558
-0.065288104055786 -0.331801273734288 0.238964561318534
-0.0710491496985614 -0.334137450780167 0.250994152349493
-0.0704297043281842 -0.333665490297862 0.246318015291301
-0.0612665178541541 -0.333071881724749 0.275023586970528
-0.0672771722708304 -0.334818100103603 0.276983906733924
-0.0718210617329141 -0.336646886231177 0.286260229816777
-0.0612343284434111 -0.334938079552618 0.303750923226553
-0.0707093277234154 -0.338066965041198 0.312605436450931
-0.0660796135556253 -0.337315163473471 0.320185106757118
-0.0639414640965413 -0.337319274084426 0.329068636181642
-0.0632606649526364 -0.337455270196998 0.333960929391795
-0.0710275221899729 -0.340835443168729 0.353712386624277
-0.063936450759053 -0.339757750683181 0.366452520720274
-0.0667149739687547 -0.340756731298892 0.370296965703169
-0.0627846939789427 -0.340262506799646 0.378937935177619
-0.0703815001476689 -0.343514359556305 0.397424739216677
-0.0682505318306259 -0.343572662912618 0.407109004607604
-0.0673085716713283 -0.343922396126232 0.416353625536915
-0.0707490428139101 -0.345474246556746 0.425938592493337
-0.0669569781133232 -0.345171720462009 0.436946650943429
-0.0716475138480616 -0.346871858640925 0.443646822127415
-0.0667344086967538 -0.346456081151394 0.45754425024415
-0.0644434633187568 -0.346661225802519 0.470138426166648
-0.0645439914572802 -0.34698907725885 0.474747171929904
-0.0653998509856905 -0.348268353347561 0.490818001475626
-0.0705461019691266 -0.350080968378676 0.497361612815171
-0.0664718468517025 -0.350373160917803 0.518646286051042
-0.0625700160698771 -0.349716541774864 0.524424025793875
-0.066750628622625 -0.351283800166854 0.531449360170264
-0.0653381333503129 -0.351659126633875 0.542816973209243
-0.0708070446265419 -0.354185568740893 0.559177283432863
-0.0696924467210415 -0.353992678434311 0.560819819915693
-0.0726247433848362 -0.355478555495749 0.571490300546431
-0.0652549523207004 -0.354701511855318 0.588601504131482
-0.0679866563531338 -0.355799770640958 0.594516903430298
-0.0726732167476362 -0.357358440085252 0.599800906510211
-0.0685462930080747 -0.357848302235065 0.615910770734393
-0.0728422401445636 -0.375151592249671 0.615910770734393
-0.0477151462117239 0.351127305423444 0.339425339168108
-0.0483167216017406 0.35189748454265 0.348775300205751
-0.0398800913589192 0.350127170581552 0.356126818825403
-0.0424725622557357 0.351616075390436 0.368356863280102
-0.0438090647419083 0.352943666660431 0.383248982223798
-0.0454119135101185 0.353294796228281 0.382079126728639
-0.0397338051205437 0.352755389896989 0.397025628130477
-0.040575117057103 0.353352753402962 0.402745387710223
-0.0444986602860491 0.354872130409214 0.409999961482111
-0.042453007567094 0.355348648248807 0.425671431046447
-0.0405357571839629 0.355528456010035 0.436268166612915
-0.0406665365038992 0.356196949491886 0.44598397308929
-0.0476625150306948 0.359204553390676 0.463495632224238
-0.0400415961253969 0.356746112531389 0.456960109246163
-0.0458746976998287 0.359758865621944 0.479305703850481
-0.0479695917534271 0.360474195481788 0.481708468410256
-0.0419276934152572 0.359778930488022 0.495752589994531
-0.0449465326621253 0.360687055935582 0.497333655955124
-0.0409582949345055 0.360919832954124 0.517210835109639
-0.0397597744244361 0.36080134396047 0.520294670345415
-0.0476688821468475 0.363501464153614 0.529357663458412
-0.0408856100064469 0.362158984580434 0.536508973092283
-0.0417199867484558 0.363192001197225 0.548937317933944
-0.0429456866243005 0.364255842885451 0.560238217123845
-0.0447309958108859 0.365166728528278 0.566905485134304
-0.044766291617422 0.365689037591751 0.574770155729661
-0.0423086293305129 0.365304660708858 0.578925516770875
-0.0433252922425661 0.366281151181553 0.589741735559477
-0.0418729719678459 0.366491021195125 0.598898351216576
-0.0427514792675898 0.367771061781372 0.614934068823737
-0.0438689610120441 0.354880638095116 0.615910770734393
-0.0434083825470259 0.352256868286364 0.615910770734393
-0.0504765538584857 -0.313410532483848 0.0284266509569725
-0.0608846137303409 -0.316931359111758 0.0292882531172573
-0.0596420324342253 -0.317823471346657 0.0480835553030311
-0.0570189719897669 -0.317457440625939 0.0532960597515365
-0.0540834971144988 -0.317840779288462 0.0712794762452662
-0.0502797914953783 -0.317587720219236 0.0830935084810987
-0.0574134057588191 -0.320161808611674 0.0931061802823063
-0.0582498324837296 -0.32106704885067 0.103526066418788
-0.0559761924758106 -0.321225685252171 0.115336236308078
-0.0553326590232624 -0.321376060032407 0.120295111756386
-0.0592788066338946 -0.32321428616131 0.132181952752027
-0.0606075842455389 -0.324429899416748 0.145326380595005
-0.0551509506923925 -0.323692168229924 0.156532947201683
-0.0599506788282813 -0.32561312437437 0.166166116224102
-0.0511362598170223 -0.323305670185732 0.167172761307143
-0.0584020641552756 -0.32656921915004 0.187204266399913
-0.0514242171305069 -0.325239509439999 0.195615816623735
-0.0561874813714111 -0.326609103632048 0.196951247484527
-0.0585031515902926 -0.328779792050745 0.220658430317149
-0.0540805694769269 -0.327846288137555 0.224599507399328
-0.0600289432462528 -0.330522853977237 0.241071868221304
-0.0542655517344708 -0.329702257919918 0.252274223852231
-0.060644678666146 -0.331845299534694 0.258794743836647
-0.0599444606171324 -0.331674660437048 0.259068772795429
-0.0500808627423696 -0.330584933379299 0.283062060514839
-0.0510074845271587 -0.331446021174392 0.292433344002303
-0.0512747368723501 -0.33248831405539 0.307301224284478
-0.0513010713942045 -0.332964114542122 0.314482969760621
-0.0510311166146103 -0.333603251391173 0.325389700299211
-0.0571467108006675 -0.335574594614669 0.330366552885551
-0.0579369794806476 -0.336368895250637 0.339276999680673
-0.0590018195430878 -0.337686195649221 0.355068340147432
-0.0521110885557629 -0.336458824008459 0.364688569243592
-0.0611359525389153 -0.339505818014083 0.374145263110527
-0.0507768702582066 -0.337150158819013 0.380785520271677
-0.0613432991412902 -0.340786465010023 0.392912419846427
-0.0570778592917179 -0.340873764968885 0.411846354033163
-0.0504226326975346 -0.33955359918936 0.419073228065133
-0.0594533984844926 -0.342607875721772 0.428617160575315
-0.0561135869648636 -0.342290582317248 0.437533261148984
-0.0522139850687816 -0.341844112674111 0.446573652498285
-0.0561741664577455 -0.34355121917311 0.456599276336477
-0.0580199154263531 -0.344802533435962 0.468158056732973
-0.0548220011181976 -0.345062491584908 0.48464705715127
-0.0613453955282153 -0.347273481026616 0.4923001307558
-0.051603908898432 -0.345059614002682 0.49696983990972
-0.0547791797687744 -0.346739756921081 0.509876377160632
-0.051803483407131 -0.346750605529829 0.521472855759737
-0.0558744670023799 -0.348538191036523 0.53254314721011
-0.0545800474415585 -0.348614533342843 0.538657907955633
-0.0569405891844325 -0.35000886573258 0.550424003887742
-0.0546599277967378 -0.350594901276247 0.567945251562733
-0.0556463550081502 -0.351757121372058 0.581522848272178
-0.0540477322744665 -0.351953999234979 0.590607798206473
-0.059134086639076 -0.353980913377503 0.601352931202812
-0.0544280932589125 -0.352991364417946 0.60464844325547
-0.0562083780749024 -0.360541324242683 0.615910770734393
-0.0386962907160584 0.348985870523243 0.343466861693782
-0.0338321233909531 0.347919376755481 0.34700291060124
-0.0313050404085401 0.347795680358275 0.355439359617266
-0.0387043297857999 0.350816168629139 0.371499456090141
-0.0320778417503058 0.349492527640396 0.378298546420819
-0.036202049379226 0.350901409432809 0.383038293828308
-0.0396499585323201 0.352651439596228 0.395774519570449
-0.0309379452173164 0.350724208893824 0.401845940176381
-0.0318586380929958 0.352012423209223 0.417834496387671
-0.036098089124178 0.353162640631496 0.418136702522254
-0.037991824456306 0.355022528959193 0.438912456937982
-0.0319314598494824 0.353468789222462 0.439868387506015
-0.0355396937801252 0.355280622533957 0.452896727196819
-0.0321144222058788 0.355044778373444 0.463286196037766
-0.0314175661566088 0.354984693862198 0.465214300113115
-0.0325285140581127 0.356205366527899 0.47938923598674
-0.0369856459776907 0.358279167877722 0.492963421540084
-0.0395068028152316 0.359319146564725 0.498601314243878
-0.0348724046728085 0.358609322939875 0.506666958542799
-0.0312879499411144 0.358590329795058 0.52103247881581
-0.0385308084875901 0.361190876147451 0.531292902799018
-0.0384098673364745 0.36150477378051 0.536600679084248
-0.031250971509699 0.360334617278806 0.547930277200538
-0.034559678929738 0.361988056464516 0.559754586923431
-0.0332020853116053 0.361670784797614 0.560440770458416
-0.0342275995586384 0.362411556062091 0.567606319869861
-0.0389680680144737 0.364718756171155 0.58360084356948
-0.0378519770462058 0.364861089477097 0.590347028997096
-0.0369779868736198 0.365542233225919 0.604365293117679
-0.0368936356566899 0.36609344308372 0.613162357446782
-0.0390479880401327 0.363414364914613 0.615910770734393
-0.0342008256230423 0.358369210265772 0.615910770734393
-0.0488261388673852 -0.311631734217645 0.0284266509569718
-0.0413926054162101 -0.312459098416372 0.041173410476007
-0.0431872389811906 -0.313556983609186 0.0505921635324332
-0.0470741320727086 -0.314942188617502 0.0557820980135121
-0.0497263471040483 -0.31665021755809 0.0710118941276963
-0.0425154832671525 -0.315396156976987 0.0815438354357227
-0.0392360150233251 -0.315347449563873 0.09432637062221
-0.0453573749319947 -0.317787027060612 0.106453889304843
-0.0438834278733346 -0.317842274268017 0.113380906063588
-0.0455651137331262 -0.319394240354106 0.130223192681179
-0.0388669320711342 -0.317969101429539 0.136018834258963
-0.0420114602914002 -0.319419084737197 0.145263815534702
-0.0401789640138438 -0.319761252006362 0.158066252532707
-0.0390762986702299 -0.320130621448441 0.168274706610486
-0.0488558485358622 -0.323064630149127 0.172886880770634
-0.040682601127524 -0.321810297676126 0.187384793755828
-0.0493598375487223 -0.324533166728684 0.19330920421681
-0.0388551374533051 -0.322196705402864 0.200844337642637
-0.0462119811474223 -0.32533042155222 0.218510932076987
-0.0447956942855098 -0.325762587996494 0.230975372394303
-0.0497901538014369 -0.327276680051464 0.233571096844984
-0.0433931125535002 -0.326329354524466 0.245445664901213
-0.0464438368046539 -0.328516581116704 0.266373920296164
-0.0449363667912199 -0.328091505132938 0.266079547665441
-0.0436292521766392 -0.328782479705745 0.282059167707809
-0.0446564284736241 -0.329778401908996 0.293081612518611
-0.0465779049534818 -0.330369630189194 0.294213921455965
-0.0470002539628329 -0.331739219193652 0.313456926005503
-0.0428330129782978 -0.331336659447414 0.324479954639119
-0.049645445672301 -0.333763354379436 0.333559187505969
-0.0392549012341512 -0.332069281886984 0.35029654870896
-0.0498838617731746 -0.33493984152432 0.350602198534406
-0.0392577955403937 -0.333160658964298 0.366594785417881
-0.0395299531834926 -0.333341355200362 0.368249291849064
-0.0414709964417698 -0.335316868599346 0.390312418082887
-0.0477731463001886 -0.336914549310095 0.389566742583453
-0.0413504906404159 -0.336380753001517 0.406673983901915
-0.0422406105544395 -0.337230678274124 0.415954767223379
-0.0400300765099032 -0.337733646911445 0.431965206703082
-0.0405941679079263 -0.338909197989026 0.447364879605366
-0.042049723842426 -0.33974134481296 0.454207250172522
-0.0465286944884356 -0.341349224018487 0.461024316511779
-0.0398675580491443 -0.3402214156866 0.469766501917433
-0.0491499281681099 -0.343397503318915 0.481561156512371
-0.0465562928668949 -0.343168357463896 0.488103096438731
-0.0394073810056806 -0.342317652205987 0.502860581599484
-0.0396186868379775 -0.343234567124213 0.51575084620829
-0.0418236608080354 -0.344870510252193 0.531725315006315
-0.0429162921405649 -0.345583992985627 0.538188956781966
-0.0465996312285481 -0.347088941224458 0.546525119706692
-0.0480422166599008 -0.348024366106221 0.554960700696494
-0.0480751840058561 -0.349181593619568 0.572127437280793
-0.0400388609794932 -0.347177383056689 0.573057080796013
-0.040065384110389 -0.348169546988201 0.58778189697476
-0.0475290025329061 -0.350587890424841 0.595241651240303
-0.0406289805057732 -0.349604209110166 0.607055584505924
-0.0411969501959778 -0.363082545507625 0.615910770734393
-0.027639546163072 0.345584574962052 0.336522788902783
-0.0293789815177406 0.346410954697363 0.342081835446387
-0.0233605461503307 0.34524315669677 0.348784280276532
-0.0298164979263573 0.348604124828592 0.37392252147115
-0.0294142219649664 0.34850482866412 0.374044829421828
-0.0249679569415046 0.347734810621005 0.380418190955791
-0.0250050029950234 0.348312077294638 0.389118415059353
-0.022561347212751 0.348962624319984 0.40908584314704
-0.0266474302530366 0.350058829788741 0.409186957976157
-0.0292730971208119 0.351212056831333 0.416134041593834
-0.0302824198728479 0.352578689188681 0.432962640483077
-0.0234707297603987 0.35102845959789 0.437044548728863
-0.0282873580281286 0.353163002527698 0.450080162094959
-0.0222874838484723 0.351747641417326 0.45291062188789
-0.0225954116939697 0.352692741014492 0.466143500908561
-0.0227570460430055 0.353425905191185 0.476724790784154
-0.022711789244043 0.353912309500073 0.484368282111302
-0.0249488091839559 0.354952047495893 0.491164313721008
-0.0230837638845875 0.35553584038646 0.507742220030223
-0.0289882990945201 0.357821787380912 0.518651008495107
-0.0304894999568246 0.359216869949013 0.533904578919548
-0.0238199078826698 0.357403253248147 0.533366720212115
-0.0293141588485236 0.359466018856011 0.542530928336149
-0.0257757740398902 0.359111576814816 0.551564355911331
-0.0282282975661156 0.360867343935152 0.568458661406101
-0.0234246858187592 0.359752850568199 0.571011082541182
-0.0261326587740864 0.361378095140611 0.584859451291016
-0.0302822917286967 0.362883378481252 0.590973439305786
-0.0274446458119075 0.362827312824479 0.601716811193911
-0.0295380784923482 0.363784261755943 0.607830495194187
-0.0273528873678376 0.363671457316603 0.615035971153281
-0.0259508931651505 0.353189463638307 0.615910770734393
-0.0371169704237483 -0.311054343885562 0.0372876150121124
-0.0341147096022281 -0.310708614557114 0.0443755065071087
-0.0347283473099838 -0.311241935795045 0.0500157932682256
-0.0320476254591653 -0.311619529254926 0.0668602426435728
-0.0379695235043923 -0.313920106728796 0.0776807971954417
-0.0276285312524148 -0.311637733775593 0.085369345025315
-0.0309354849319182 -0.313224221021181 0.0960358314565159
-0.0384838646873482 -0.315770428704674 0.103910265846364
-0.0314171146066677 -0.314792702513646 0.118081785657297
-0.0337906974856174 -0.315965255276082 0.126256272002753
-0.036875344352645 -0.317586136583706 0.138366842609387
-0.0374371543373881 -0.318210340059245 0.145613465042522
-0.0335495376862971 -0.317851234142453 0.156148769525367
-0.0337248742356754 -0.31853245417379 0.165863345430803
-0.0366105267949115 -0.320075497227377 0.177602165396183
-0.0376651871839379 -0.321103777043039 0.189007024412349
-0.0308849266735527 -0.319998839837845 0.200047511553842
-0.0345159767691708 -0.32170245046677 0.211171603399343
-0.0329991613474215 -0.321593649332528 0.215761858913816
-0.0361727758378445 -0.323449572777543 0.231106808790618
-0.0322245976290468 -0.323083982989928 0.241792600754376
-0.0363644234093386 -0.324614759143045 0.248169600299448
-0.0386639017774827 -0.325887623941052 0.25818680784485
-0.0356008406648521 -0.326036038896804 0.273096973744838
-0.0299585310000787 -0.32544626204529 0.287045306560794
-0.0365362903681332 -0.327461236623702 0.291075331628758
-0.0371600331334709 -0.328772658040193 0.308596258606413
-0.0345490929659783 -0.328556318863914 0.315881867546978
-0.0296131595703139 -0.328389331410656 0.332353166021002
-0.0345779305033519 -0.33018682955958 0.340137138765899
-0.0290291081004365 -0.329284414112125 0.34797339965428
-0.0323591685982235 -0.331261095486144 0.364716566566661
-0.0363980135139073 -0.332301397343372 0.364743070431923
-0.0304755842127022 -0.332283270261416 0.387229605554725
-0.0277702093714508 -0.331768085707226 0.389926398928452
-0.031594823121344 -0.33382270979421 0.405933967161175
-0.030730591647021 -0.333922878685276 0.410751755227579
-0.0302250501835766 -0.334353042291514 0.419122633711484
-0.0368627160988787 -0.336873334880944 0.431279689890435
-0.0311794970954499 -0.336067493544675 0.441075568330594
-0.0295610829309941 -0.33650284532476 0.453800283199141
-0.0358403514120508 -0.338211242616401 0.455201682203278
-0.0323445247826774 -0.338651096583608 0.475207789307452
-0.0384341374444075 -0.340565016381662 0.480409250748178
-0.0357203865879649 -0.341203561891511 0.500379380679267
-0.0372477508594089 -0.342151777339671 0.508680332087323
-0.0350996982147622 -0.342270388121997 0.518706901494551
-0.0311570902855919 -0.341427374525971 0.521258842174274
-0.035468030332396 -0.343529231192236 0.536103497329047
-0.0291987434237514 -0.342385634047967 0.54310402318498
-0.0358202939611439 -0.34461057920779 0.550909380952488
-0.0327461187275897 -0.345482702734529 0.575755022495905
-0.0347659853943306 -0.346551714357507 0.583968650848518
-0.0278744368525152 -0.345383440181909 0.592991498901239
-0.0302889476004994 -0.346492675249794 0.600289767310626
-0.0323223334878558 -0.347867629227866 0.613023398835341
-0.0329895659745674 -0.360220940401376 0.615910770734393
-0.0171531667300978 0.342797020942059 0.336657509239776
-0.0174821424000299 0.343898998970785 0.352209870160051
-0.0156397873116674 0.343503860281757 0.353684233766786
-0.0180663907142316 0.344739683330054 0.362711796060425
-0.0150737381448947 0.344320166735958 0.368515894693444
-0.0165479457246186 0.34557232766253 0.381688305006621
-0.0217353313999634 0.348111951289158 0.399419334798183
-0.0198151589158714 0.34800474506197 0.405626997265777
-0.0136205659255336 0.346846485919049 0.413196013950438
-0.0142382425698455 0.347605212303145 0.42230452310248
-0.0144633789515311 0.34840382023586 0.433629657469493
-0.0157509827686039 0.349108719974989 0.439173480707615
-0.0186946084674339 0.350571557727939 0.449567953176166
-0.0169578601086218 0.35063555361486 0.457650781168665
-0.0192792823945434 0.35228635557069 0.473471639612153
-0.0143871493421033 0.351063934003662 0.474731070601866
-0.0174773151946485 0.35255117276911 0.484900504345484
-0.0175751188436562 0.353008195962606 0.491508499795167
-0.0160622456123473 0.353337654862603 0.50274646991842
-0.0178892109847161 0.354327203145155 0.510449605629265
-0.0135333166476651 0.353884567914322 0.52147347326289
-0.0187752167018367 0.355985886671127 0.532260705936818
-0.0198366620947135 0.357210427875102 0.546697375974903
-0.0175646401965416 0.356746005659099 0.548866256569606
-0.0194058037967679 0.358030404681309 0.561032524891876
-0.0148232120241462 0.356743979468169 0.560044827752761
-0.0177126807312404 0.358930972617325 0.581764817177188
-0.0210125939028647 0.360083105691858 0.585938147546473
-0.013732300596579 0.358836037542952 0.59658478779398
-0.022024815169907 0.361732814154181 0.607095533171974
-0.0208507962185096 0.3565611971169 0.615910770734393
-0.0218526476479381 0.352417785564209 0.615910770734393
-0.0142497152031487 0.34480705127117 0.615910770734393
-0.0269884766656639 -0.308676155104738 0.0426314150265269
-0.0200280237264979 -0.307834991528904 0.0584568861929832
-0.0249709567923179 -0.310059098073759 0.0721442673323072
-0.0267286783000217 -0.310673493976332 0.0743071000304511
-0.0236228896813449 -0.310606273958912 0.0860894949495054
-0.0242919227313031 -0.31140952722112 0.0956372525128244
-0.0177900822998351 -0.310248150757192 0.104664386124736
-0.0243517528037032 -0.31311901618864 0.121583830478714
-0.0203377836246149 -0.312892372019499 0.134670005102565
-0.0186748192285295 -0.312594090003233 0.136959878276371
-0.0269526361950531 -0.315347463394414 0.144999419057862
-0.0273315791905502 -0.316294230436437 0.157942859185525
-0.0228267810344387 -0.31592498346586 0.17086884845416
-0.0213161904228295 -0.316069138604155 0.179309310336372
-0.0257492264025042 -0.317991786456361 0.190481121840526
-0.0187006065760251 -0.316384401920799 0.194885872897952
-0.0205224189151334 -0.318327119035695 0.216917051537538
-0.0266740670993272 -0.31997088392189 0.216990293406281
-0.0200101998621593 -0.319186287929075 0.231724573181131
-0.0259328952366896 -0.321236569841945 0.239441150969776
-0.0237790596789748 -0.322163255318427 0.261729726079193
-0.0186032114627401 -0.321351109554767 0.269481778088776
-0.0185159897892845 -0.321735071457395 0.275554797657095
-0.0257015110708778 -0.324057001864016 0.28264238277639
-0.0208569729829113 -0.32349169447983 0.292810060150841
-0.0229763219179493 -0.325276580682576 0.311339330856046
-0.0244736344906109 -0.325520271697603 0.309227461931447
-0.024734253656951 -0.326934195805725 0.329355459018247
-0.0228926991497552 -0.326718240969616 0.333204590843634
-0.023912686139572 -0.327906386714934 0.347040659948798
-0.0199640511621425 -0.327333220495781 0.353648314574004
-0.0231297335155912 -0.329202215779359 0.369413874964891
-0.0213474374026326 -0.329675032250451 0.383328185880589
-0.017385634808281 -0.32888917251608 0.386807981489315
-0.020095742037253 -0.330135833766011 0.395024070139352
-0.0171327517944092 -0.330354057907415 0.409670710048819
-0.0230702862951378 -0.332350943650785 0.416696373719018
-0.0167618129641691 -0.331537229731341 0.428777196921506
-0.0172899652470347 -0.332669956993775 0.443675016836736
-0.0246625614331653 -0.335035245199967 0.45069168297736
-0.0176329209248313 -0.333992670750364 0.462123596695349
-0.0252913996736785 -0.337295433628359 0.482051201757911
-0.0257630971247153 -0.337655928951611 0.485625847799126
-0.0170891535973036 -0.33598708191845 0.494017217752416
-0.024527833045304 -0.338815115579438 0.507695144956207
-0.0242383483611318 -0.339823756425412 0.523880475518576
-0.0226672051623942 -0.339435175778764 0.52411083805314
-0.0246366689690358 -0.340594945065886 0.533874411058472
-0.0247152358379999 -0.341393505399411 0.545506064770688
-0.0171872645020496 -0.34065644393163 0.563418391219438
-0.0177160203021305 -0.341406767867024 0.572599320073841
-0.0208973436515357 -0.343214650187078 0.587391516640228
-0.0242458309761422 -0.34417104236687 0.588816844183998
-0.0236272500083843 -0.345014232323371 0.603794283674044
-0.0207042417834181 -0.344569454860426 0.608379503193735
-0.0234132119690251 -0.349768728991819 0.615910770734393
-0.0100027335129656 0.340618275081753 0.332486973893298
-0.0122143672825401 0.341869535739673 0.34263025992459
-0.00572546206282208 0.340753482490662 0.352049890621018
-0.00729153760066472 0.341354931781164 0.354868758222993
-0.00721299951874314 0.342324566497308 0.370058105207882
-0.0130501284442021 0.344799462752185 0.384139830900335
-0.00568964655858563 0.34353325425389 0.394820865795372
-0.0114599595569342 0.345245095555657 0.397475251283075
-0.0130886527718435 0.346426059228931 0.40892424714623
-0.00736775998744373 0.345197251323328 0.413474531753154
-0.0120300037806039 0.347421616094317 0.428518732047379
-0.00995592515347234 0.347749023284956 0.442019998335185
-0.0105064121930091 0.348208725350896 0.446818058557393
-0.00584139630126758 0.347396142722704 0.453433209869595
-0.0108072156854561 0.349563556019682 0.466362812361354
-0.0115654737820241 0.350082382287489 0.471217901237572
-0.0127964809767181 0.350981008935341 0.479963720839227
-0.0111449067853693 0.351052967945317 0.487820378619452
-0.00707687088352052 0.35090447391116 0.502177508196372
-0.0112333213738889 0.352298333091461 0.506555061176418
-0.00740878682257795 0.352284757191401 0.521985329701876
-0.00725735926008107 0.352417275722942 0.524636529344889
-0.00840049699496825 0.35381552278782 0.541402735975311
-0.0125631548192026 0.35529285287944 0.547034835426019
-0.00624594586027441 0.354278929568828 0.557318446160576
-0.00686261059975341 0.35483726602543 0.563358349423365
-0.00968599208290279 0.356177624055007 0.57236641556808
-0.00532465236398909 0.355379192168833 0.577956826549328
-0.00833304033487789 0.357725053081162 0.601626607734606
-0.00992989790953384 0.358446179605977 0.606154717703267
-0.00876234695523278 0.358522794232439 0.612103603344166
-0.00698676109810226 0.352678216732053 0.615910770734393
-0.0100245185961919 -0.304250427139509 0.0448005536888198
-0.0123843985229805 -0.304878725525979 0.0446923105647928
-0.0130144816232044 -0.306143408161783 0.0614709334811387
-0.0142032454806369 -0.307263052600947 0.0737224942761995
-0.0138008806081699 -0.307280308346737 0.0756467757437361
-0.00892473340204497 -0.306968406866661 0.0909833656486205
-0.00793032403906829 -0.307152489904642 0.0979062054738958
-0.0157972874028488 -0.309753247757855 0.105302218397549
-0.0154057038522085 -0.310589826372728 0.119735978955352
-0.0137910247259422 -0.310857406312407 0.130496997562266
-0.0105454240109877 -0.31068835070773 0.141101988662226
-0.0121317284546815 -0.311989927704235 0.15445703405985
-0.0163235742705649 -0.313782409324503 0.164867359955026
-0.0147664581640002 -0.313775697074898 0.171019109532285
-0.0108574684514645 -0.313652722008908 0.184202006000714
-0.0154875775673244 -0.315604422032522 0.195576311670849
-0.014323435529605 -0.316337643969967 0.211006770718157
-0.00729403618221441 -0.315225543771537 0.221398776477814
-0.00705078824988339 -0.315854150804807 0.231727276140091
-0.00962786693273325 -0.316798329824427 0.235934293593488
-0.00591401149131703 -0.316223497388055 0.241614888806337
-0.0102838725139944 -0.318193455937787 0.254262071637744
-0.0121464828730688 -0.319818482656914 0.271388967852257
-0.0133325575032913 -0.320168743646158 0.272065620448398
-0.0162247158427058 -0.321640560529629 0.282946851189545
-0.0157512124789414 -0.322151817179416 0.292406461646443
-0.00984372325010713 -0.321708079701001 0.308475337021721
-0.0108447725645593 -0.322542779575214 0.31710233913718
-0.0134309138009019 -0.323939522454587 0.328037572359979
-0.0106793420678482 -0.323895062246201 0.337946307777299
-0.00972311917785499 -0.324494300864142 0.350575595804574
-0.00745313475382834 -0.324487873710857 0.359202151929896
-0.0149617463370615 -0.327262322779919 0.371810599865612
-0.00890039005398794 -0.326376288342477 0.381861109577348
-0.00967949863611366 -0.327727019734603 0.399052426821235
-0.0122921917591261 -0.329041328306483 0.408653747588107
-0.0113912795390691 -0.328765510179838 0.407993796714398
-0.0138458148792896 -0.330541769039366 0.425106160413936
-0.00767968935840711 -0.329678933245172 0.435905931249367
-0.0131804725829058 -0.331780509381195 0.446174323625536
-0.00758135595472524 -0.331026199744786 0.456417112939161
