ply
format ascii 1.0
element vertex 856
property float x
property float y
property float z
end_header
0.289651471403221 -0.286504434996118 0.816239724915845
-0.164602338361602 0.180905716468434 0.233877895821271
-0.166492679218307 0.178442176300655 0.242933792973856
-0.165119639589534 0.180231556382789 0.262811509342132
-0.167226003991832 0.176569951118494 0.259991050476855
-0.167554723839352 0.17577635120439 0.269593017433047
-0.165607982128797 0.179595135994984 0.286562666402634
-0.166110752720653 0.178939912602958 0.292358919090975
-0.167738976133264 0.175331526817528 0.293087596840107
-0.166361906676712 0.178656066575871 0.310542108720936
-0.164953332532965 0.180448291958592 0.321791147532439
-0.164847906308094 0.180585686089809 0.326613834937531
-0.165020819495792 0.180360341236301 0.338034291678964
-0.163559648150545 0.182264576807497 0.34277895711165
-0.167869470175516 0.175016486330915 0.354630771962979
-0.16686704676207 0.177436550530899 0.368544714176373
-0.167385436706297 0.176185046496947 0.366575750576099
-0.166797923560465 0.177603428701688 0.382799054551567
-0.164501772353436 0.181036776641921 0.391674575660995
-0.165397982840387 0.179868812395919 0.399979743615677
-0.163582249281273 0.182235122440478 0.410697344755334
-0.166160968707641 0.178874469854593 0.418297160507044
-0.166393949960286 0.178578707246082 0.4243833804568
-0.165729753903185 0.179436439928905 0.443989408254075
-0.165353513212699 0.179926766343043 0.439709484439092
-0.166990640221245 0.17713816952554 0.451423321628873
-0.168657424730861 0.173114195756864 0.459611296066494
-0.166877300100427 0.177411796782378 0.47174325527422
-0.167669336012307 0.17549965294203 0.480423536835345
-0.165880561425973 0.179239903738794 0.48571199890192
-0.166091008262413 0.17896564408191 0.492910777054658
-0.166163132334352 0.178871650161366 0.516738826875598
-0.167631991268519 0.175589811128965 0.514577738891313
-0.16258993620013 0.183528330025625 0.533185857334827
-0.165852035235279 0.179277079794296 0.542164039017739
-0.165226736266065 0.180091985276588 0.543607860459065
-0.163571430531342 0.182249221709889 0.560535766675434
-0.165121829609767 0.180228702292854 0.568808141288405
-0.166784337389039 0.177636228621007 0.572226591533962
-0.164755586051749 0.180706000190304 0.588640320778393
-0.166094863722264 0.178960619548808 0.596129365427977
-0.164758935929591 0.180701634544504 0.60854216260865
-0.166389639534816 0.178589113533711 0.615640581432906
-0.16651756166089 0.178280282202016 0.619848780089633
-0.164323521512901 0.181269077660037 0.635677870334265
-0.168410456256838 0.17371043039633 0.639808962664133
-0.164014127954255 0.181672287195857 0.644882237315931
-0.165384175991684 0.179886805831467 0.656729308841274
-0.165040232115661 0.180335042217534 0.668129148490186
-0.168378544053911 0.173787473269444 0.669691970427208
-0.166350701665317 0.178683117866347 0.683821188672008
-0.165128319742359 0.180220244187388 0.69709495424552
-0.163013190013141 0.182976734917357 0.705114583791757
-0.163967281205496 0.181733339067476 0.715255877706146
-0.165864651897129 0.179260637440453 0.726241938397101
-0.166594753232577 0.178093925262747 0.73441880180245
-0.163654871948149 0.182140478738362 0.74641608369356
-0.167948611731456 0.174825421713215 0.749556883926438
-0.167000780402338 0.17711368896282 0.755181603890924
-0.164396487452285 0.181173986596478 0.766936464521009
-0.165447088524196 0.179804816622828 0.773363489221101
-0.165791774013589 0.1793556137474 0.781341716975473
-0.166023917779923 0.179053078100968 0.793991975606014
-0.16454974718309 0.178362458029637 0.801945629015332
-0.159698063849648 0.179576791825721 0.806381942020589
-0.161382276098618 0.171999073366021 0.809035099808077
-0.146232079931522 0.163632893102333 0.816663071915765
-0.148816526485104 0.162594963963057 0.816468721451619
0.0217032548710225 -0.00389606612619615 0.651749903851266
0.0175900871845051 -0.0059866422533994 0.651749903851266
0.0379212545905012 -0.024735852644538 0.651749903851266
0.0341068471129733 -0.0267822388035468 0.651749903851266
0.0434287382206682 -0.0299036962039093 0.651749903851266
0.0637257694834941 -0.0508263153055288 0.651749903851266
0.0773113339062541 -0.0619940588862115 0.651749903851266
0.0834101248120081 -0.0693366140892093 0.651749903851266
0.0866213256141177 -0.0686524082867125 0.651749903851266
0.103404964207387 -0.086292561179348 0.651749903851266
0.115548240673366 -0.0961373248988053 0.651749903851266
0.12733681122799 -0.109919137380316 0.651749903851266
0.134359981873144 -0.119283588643323 0.651749903851266
0.134015602692228 -0.12325992360781 0.651749903851266
0.151178555041307 -0.137064156039208 0.651749903851266
0.163316508529234 -0.146565855867476 0.651749903851266
0.176815302416729 -0.156454241897032 0.651749903851266
0.183382366364299 -0.160891928392 0.651749903851266
0.186785285672515 -0.170267175527999 0.651749903851266
0.205291582503148 -0.196426194841653 0.651749903851266
0.21705794781535 -0.199865545386679 0.651749903851266
0.232062185049445 -0.213483454964584 0.651749903851266
0.229417860601046 -0.217038350818499 0.651749903851266
0.254585846758175 -0.233988574659232 0.651749903851266
0.251297739666411 -0.241658208992793 0.651749903851266
0.267273232263225 -0.253210889194954 0.651749903851266
0.286945867578972 -0.260202071146859 0.651749903851266
0.285597659364306 -0.265502367712623 0.666439571337426
0.283275285471133 -0.266464326476078 0.674082112230912
0.280143931015426 -0.267761375960231 0.684536723380334
0.285273993398294 -0.265636434545424 0.700547727709289
0.281256569875655 -0.2673005058543 0.708121399891193
0.281921875931076 -0.267024927063015 0.716722653996751
0.280209085477188 -0.26773438809852 0.724130591855651
0.289157766293712 -0.264027723138963 0.740609042613452
0.277870231337553 -0.268703173203569 0.756141317455711
0.281251809468828 -0.26730247767937 0.760786581573688
0.279621928379102 -0.26797759653179 0.770080556237025
0.280597208267069 -0.267573622375085 0.792575732636729
0.286026744457269 -0.266374380756148 0.800825522155664
0.289020748518519 -0.271785992551976 0.809008568834261
0.291596214422576 -0.274228359724248 0.811628734040685
0.292097875516344 -0.280073422136082 0.814735910020354
-0.162355536167681 0.183833806095309 0.238855732372701
-0.15936511891205 0.187730993738231 0.252027735190137
-0.161711363124008 0.184673308750324 0.257830084628219
-0.16119476843699 0.185346548053921 0.260412562352658
-0.159514326229465 0.187536542976364 0.274770504309433
-0.158541561787973 0.188804274278313 0.287657254450322
-0.160646712697474 0.186060788199391 0.291847896966084
-0.16234704640627 0.183844870167788 0.301690649939288
-0.159371615704258 0.187722526953784 0.305424664296446
-0.160533439545255 0.186208408645423 0.312734683846963
-0.162966791400165 0.183037202767053 0.331149851837863
-0.160556948524355 0.18617777114737 0.341009286331767
-0.163919502347669 0.18179560568728 0.341684883341364
-0.161748639788735 0.184624728855038 0.351242537400027
-0.159537965535521 0.187505735632914 0.362751167022373
-0.162069150807247 0.184207030763436 0.376482239241131
-0.162501368309489 0.183643753947929 0.382529257945628
-0.162267545952153 0.183948477176746 0.395988551437475
-0.162178437639835 0.18406460539029 0.40278360139377
-0.161092895708595 0.185479311178367 0.409988317357826
-0.158529407296946 0.188820114319415 0.422588972941971
-0.159461346626158 0.187605587339637 0.431324984597212
-0.16081005223926 0.185847919964147 0.438183048766883
-0.161023501885289 0.185569746969618 0.441121094509502
-0.162201346071534 0.184034750540849 0.45161855850086
-0.162859303239843 0.183177284064865 0.462935658360677
-0.158555599238571 0.188785980316523 0.479716511253106
-0.157473641956708 0.19019601449858 0.483474906499863
-0.160769696977363 0.185900511965378 0.497760268205487
-0.161550386499588 0.184883097571703 0.50119448615649
-0.159597572217181 0.187428054692984 0.510380923648895
-0.16256209496442 0.183564613430414 0.518177429211966
-0.157483244882193 0.190183499722434 0.532663133325202
-0.161061740606125 0.185519913298398 0.535098903760853
-0.161897692621734 0.184430479421178 0.549868527126724
-0.160089418243539 0.186787068471902 0.55953698729654
-0.158224359197838 0.189217660742109 0.56675811985487
-0.159095929227006 0.188081808565888 0.581133033290119
-0.160738331747532 0.18594138792872 0.588975322080111
-0.161407600789958 0.185069179531372 0.590453419316947
-0.162410566608294 0.183762089028823 0.602074953430317
-0.161347420517043 0.185147607989979 0.613828505086794
-0.16238462180064 0.183795900960451 0.624408197077826
-0.160089332877493 0.1867871797231 0.631019440971512
-0.157987399130003 0.189526473114862 0.646318978130302
-0.159313300316261 0.187798525047048 0.646443240536367
-0.162706066945433 0.183376985491779 0.660723618858047
-0.159783578376817 0.187185646746242 0.668618953464927
-0.160391189439422 0.186393792592635 0.670568899425043
-0.157947225935728 0.18957882784095 0.688441973089734
-0.15828580340105 0.189137585097469 0.697088363598164
-0.159043745617296 0.18814981557011 0.69994989116406
-0.16283068438172 0.183214580886913 0.716449397391675
-0.161524684309289 0.184916593318238 0.723927660806959
-0.16041346264961 0.186364765579984 0.731052691763355
-0.156867958519433 0.190985356521947 0.740426801463538
-0.157056008694056 0.190740284763011 0.748813063547641
-0.159854203042863 0.187093606889502 0.759063509070713
-0.157608810948055 0.190019858839434 0.769459926212732
-0.161166685922736 0.18538314589903 0.780593159163073
-0.158943875955646 0.188279968247149 0.785620900820477
-0.161865499926971 0.184472433757814 0.792072250217593
-0.157334619131329 0.183007396868136 0.806127608258578
-0.158284098639736 0.182851416281974 0.805342915595964
-0.152382140225794 0.171833796912676 0.814349252513512
-0.145759784249871 0.165657894032305 0.816630012636925
0.0185654997727577 0.00890380820097014 0.651749903851266
-0.126550075989663 0.150349178967173 0.808581284572896
0.0250330252508361 -0.00387054402036262 0.651749903851266
0.044786532966482 -0.0155089815984773 0.651749903851266
0.0523398357971634 -0.0209455657701332 0.651749903851266
0.0556807803993202 -0.0275726819337059 0.651749903851266
0.0647615537552013 -0.0397122778207217 0.651749903851266
0.0790014666242474 -0.0488361815446309 0.651749903851266
0.0865796416731209 -0.0574161109215429 0.651749903851266
0.105406016474078 -0.0688148374120194 0.651749903851266
0.115690086152118 -0.0810739876646104 0.651749903851266
0.117408393773595 -0.0800903400179776 0.651749903851266
0.125603831514773 -0.0952827708813756 0.651749903851266
0.135154879131297 -0.102331255771438 0.651749903851266
0.141746800904031 -0.120434389570369 0.651749903851266
0.150992946689424 -0.12559524181165 0.651749903851266
0.161228889969873 -0.136058369046065 0.651749903851266
0.178450568463376 -0.146767859769394 0.651749903851266
0.191787774285694 -0.159404418350593 0.651749903851266
0.201083397441914 -0.166502153855682 0.651749903851266
0.209956097298058 -0.17760881628851 0.651749903851266
0.219034430351887 -0.194316624908471 0.651749903851266
0.227066551678427 -0.193500917900524 0.651749903851266
0.250661098519736 -0.218029687412214 0.651749903851266
0.256823726099941 -0.23202596851122 0.651749903851266
0.261243473049441 -0.225170719447954 0.651749903851266
0.277700079329581 -0.245575063491162 0.651749903851266
0.290811790772357 -0.25262203439502 0.651749903851266
0.288757750736014 -0.264193415008123 0.66330995528562
0.293755797939025 -0.262123156071252 0.676936502547126
0.296150756358434 -0.260415908763169 0.684389831083818
0.294704554557278 -0.26152561843526 0.685894833200086
0.29616326743825 -0.260406308673978 0.708036768495011
0.29406843808721 -0.261993656281732 0.720996145761635
0.291428817633111 -0.263087022873337 0.726331440443287
0.293300434357016 -0.262311773842731 0.735336693816072
0.292603613221263 -0.262600406607709 0.750641329305006
0.297021429630841 -0.259747817663539 0.766035507627907
0.293656794796111 -0.262164164515764 0.771792026114997
0.293919341910954 -0.262055413940035 0.788955893074435
0.295083059290985 -0.26123518153801 0.79803157186971
0.295490183174206 -0.263008484893274 0.80206256033871
0.302790458282357 -0.272147504822019 0.813362194904677
0.305117955283338 -0.280520773357667 0.816376259237624
0.315111582175304 -0.283667994435463 0.816645738944225
-0.156591028386344 0.191346258897894 0.238029708362616
-0.152717012587248 0.196394974582067 0.25127802905147
-0.158120219832127 0.189353377805815 0.251100447328715
-0.152344438580411 0.196880522481038 0.25891201021433
-0.15622653963832 0.191821269882432 0.278308572765557
-0.154694226589941 0.193818219126217 0.284911481313477
-0.152546152899511 0.196617643262322 0.2941533528508
-0.156936269002875 0.190896332566695 0.300392794781245
-0.154280217391368 0.194357766418389 0.312677706667595
-0.156366445080274 0.19163894156068 0.315572938855388
-0.15433331186552 0.194288572352516 0.334820756565886
-0.157299206548648 0.190423343148285 0.336456355143267
-0.153285153295949 0.195654559195143 0.347585051356138
-0.152504513220781 0.196671909148159 0.359353261481763
-0.156069101722524 0.192026446968947 0.363147885754814
-0.155188869966006 0.193173587328021 0.380855632894491
-0.154617165657511 0.193918646888615 0.392484399369673
-0.154012557071758 0.194706588138207 0.395620245161361
-0.152434851309583 0.196762694318353 0.398159372922888
-0.156923850364005 0.190912516851965 0.407583332217349
-0.156305814087599 0.191717957408715 0.41937663811693
-0.156298540801976 0.191727436139082 0.427646566788793
-0.157059586207291 0.190735622456991 0.440632311442281
-0.156998319528353 0.190815466747493 0.449815064764004
-0.156829236229518 0.191035820392659 0.45986829629852
-0.154697506911169 0.193813944128363 0.474066582848378
-0.152883640835831 0.196177820420681 0.474021816001258
-0.151513444050025 0.197963495637729 0.488040875779356
-0.15484202040487 0.193625610476653 0.499507928146542
-0.154930959842502 0.193509702344885 0.49902596872593
-0.152324616827235 0.19690635469271 0.508264126421671
-0.156105005124321 0.191979656744753 0.520055287998306
-0.154800506050767 0.193679713036257 0.532779706631691
-0.154817030623793 0.193658177793415 0.538658469616512
-0.156133212603812 0.191942896041777 0.55151150653483
-0.157773222695553 0.189805593278503 0.556947482017448
-0.156232334157494 0.191813718318022 0.568495478941162
-0.157672619605933 0.189936701777481 0.573364045440084
-0.155971276174819 0.192153935704827 0.585345706718205
-0.152773056500405 0.196321936732446 0.593847041360322
-0.157390375670922 0.190304529234918 0.602848854837278
-0.1547351753584 0.193764853652175 0.610920123038559
-0.155583119298848 0.192659791594236 0.622015070241977
-0.15628783629906 0.191741386518887 0.629022736171188
-0.152871942079233 0.196193066537109 0.644639177380795
-0.156009106891187 0.192104633755385 0.647143869503193
-0.154449140432174 0.194137621625552 0.654296020270595
-0.156671711498301 0.191241110619231 0.667386730067921
-0.1570498427708 0.190748320350645 0.677208623253984
-0.156612916018502 0.191317734380314 0.687575232739282
-0.155153618549593 0.193219527868319 0.689470485968373
-0.151954427327968 0.197388795040915 0.70223332266678
-0.155442714512143 0.192842770674739 0.708664600852741
-0.15294514525565 0.19609766630023 0.721760662474035
-0.156364822472483 0.191641056184323 0.735728019211966
-0.156565127910397 0.191380013055316 0.73866559573544
-0.153432049122196 0.195463120827213 0.747865809149229
-0.152254028063261 0.19699834776096 0.75865023714911
-0.151901755289 0.197457438578538 0.773771452065878
-0.155418833136713 0.192873893489137 0.779644483649125
-0.154604796034641 0.193934767294993 0.786170726779699
-0.158077345151293 0.189409253177731 0.7977165231897
-0.154908743159745 0.189210167043243 0.803833279798958
-0.148462940374723 0.191331678963156 0.808476823961504
-0.147080846626876 0.187069297155161 0.811460042437864
-0.131584678097971 0.171227720335558 0.816441038494388
-0.132394016974631 0.173920415724585 0.816663780337512
0.0328888722301848 0.00685549630680793 0.651749903851266
0.0363727000607765 0.00426852645950917 0.651749903851266
0.0445039070766215 -0.00117734033809041 0.651749903851266
0.0599102840585022 -0.0166226686284646 0.651749903851266
0.0656248655281061 -0.0168199844666425 0.651749903851266
0.0700770526443411 -0.0244562581578438 0.651749903851266
0.0890941461080064 -0.0424137927041738 0.651749903851266
0.10300786719879 -0.0500412157608384 0.651749903851266
0.107406192236386 -0.0617387501175354 0.651749903851266
0.119100511752736 -0.0679551515813543 0.651749903851266
0.127854780549242 -0.088771479824704 0.651749903851266
0.13434548338975 -0.0846561243722137 0.651749903851266
0.135464723525924 -0.0924091713200592 0.651749903851266
0.157728987837665 -0.113272945384073 0.651749903851266
0.158916698156963 -0.117064699030141 0.651749903851266
0.183914888462388 -0.138356044632997 0.651749903851266
0.190093142845151 -0.141905696052141 0.651749903851266
0.194995778147069 -0.153531065363069 0.651749903851266
0.207757234506759 -0.160626957332081 0.651749903851266
0.217819437442813 -0.17223037054598 0.651749903851266
0.234346266547845 -0.188259559075454 0.651749903851266
0.245966228624524 -0.197820973429989 0.651749903851266
0.249839952153453 -0.202114507695491 0.651749903851266
0.273032225180504 -0.214682884604337 0.651749903851266
0.270416660535793 -0.217268499837098 0.651749903851266
0.284478859173152 -0.230862784370655 0.651749903851266
0.301836173132355 -0.255216086394067 0.651749903851266
0.303997844913782 -0.253802426839625 0.651749903851266
0.302411073325958 -0.255612198600682 0.667749363983596
0.305112241654903 -0.253539519242806 0.679216918805994
0.303165013573965 -0.255033679901061 0.687552642886489
0.305044672697869 -0.253591366727087 0.704239883237981
0.307215706139963 -0.251925474175163 0.716267338672721
0.304473171032158 -0.254029895378863 0.719324265421184
0.297100482617837 -0.259687158173135 0.738765072785133
0.304418079898679 -0.25407216829238 0.757442538888067
0.300832791294457 -0.256823256998095 0.753988020721316
0.30443560050108 -0.254058724261312 0.772800427897876
0.303490503268056 -0.254783922874476 0.781231773189042
0.300143117483357 -0.257352462326255 0.794051307829071
0.299276886510044 -0.260628459896362 0.802815770655828
0.309997407135488 -0.267813362892978 0.813863473889982
0.315517242000039 -0.276189110657674 0.816658838071705
-0.148352829921223 0.202082488164148 0.24410947716506
-0.149850196626989 0.200131081880744 0.247822529511905
-0.149329300099122 0.200809927452486 0.255535262134197
-0.151580989401227 0.197875468822225 0.267146594685473
-0.148348805347422 0.202087733090841 0.27415548859101
-0.149419455936297 0.20069243407797 0.276475342673499
-0.149299910644744 0.200848228535126 0.294920258830068
-0.148344132112588 0.202093823369049 0.301273157168421
-0.145608067047627 0.205659532783454 0.313406654692333
-0.149329624860184 0.200809504215631 0.323152914463095
-0.146002583248966 0.205145389259872 0.328963667843916
-0.146278591372918 0.204785688469627 0.344887580058368
-0.147431162365768 0.203283628707742 0.354181878415694
-0.148610902240663 0.201746161769425 0.358492976761923
-0.150776248081042 0.198924228129265 0.35911769280734
-0.149470262208404 0.200626222055061 0.379245447633537
-0.151496922076336 0.197985027493051 0.386705213379313
-0.150059460236963 0.199858364234614 0.398705835807544
-0.146262776418234 0.204806298919841 0.403868010057649
-0.150357450243592 0.199470016097121 0.413361896532315
-0.152683124111273 0.196439138903803 0.425427934098068
-0.147187400386912 0.203601305503521 0.436411945089829
-0.148017229529361 0.202519851109959 0.445095694998948
-0.148382024058778 0.202044441623349 0.45480191580008
-0.148510097370757 0.201877533233594 0.459962407148216
-0.148789938184766 0.201512837584421 0.468879167792476
-0.149356294537879 0.200774747614972 0.472143771013367
-0.151559341091637 0.197903681448563 0.485222532187208
-0.148452243072148 0.201952930423469 0.49765264679893
-0.149245179941241 0.200919554976605 0.502959297974258
-0.149370487518563 0.200756250962429 0.517611873959628
-0.149696500655277 0.200331382370784 0.526848063720559
-0.149131934924044 0.201067138756363 0.531504493374898
-0.146900271007301 0.203975499796319 0.538836697208667
-0.149241035577683 0.200924956016348 0.546409453297909
-0.147998332660799 0.202544477988535 0.559515092384237
-0.147796417806558 0.202807618549736 0.574601117090718
-0.148337871934502 0.202101981791971 0.575693448112104
-0.149565547897013 0.200502043327998 0.585103062323378
-0.148554024379986 0.201820286440613 0.594792865253779
-0.147113560461171 0.203697535568276 0.606014465799189
-0.145482851563468 0.205822716779482 0.618970725028251
-0.150222856515474 0.199645422058631 0.627844531958777
-0.148974173651099 0.201272737250118 0.636285200926752
-0.147994875023307 0.202548984069445 0.641153570713539
-0.149280106082113 0.200874038343645 0.643189869755628
-0.152079424620612 0.197225895397605 0.656063435730926
-0.148668380682052 0.201671254406216 0.678296653255525
-0.152083084518841 0.197221125725373 0.681155678313007
-0.147902716597976 0.202669087267658 0.68892164432041
-0.149151909092846 0.201041107912779 0.691676204433817
-0.145290393478721 0.206073533038733 0.710695963975017
-0.151773759764318 0.197624245593913 0.712646104058058
-0.150512876093509 0.199267461185914 0.728941333680098
-0.149285611210092 0.200866863921181 0.736263605860073
-0.148579585205067 0.201786974924817 0.748557660221569
-0.148512469115918 0.201874442315121 0.749376297935857
-0.15208201941942 0.197222513789962 0.757996255433446
-0.149109887148059 0.201095871977442 0.768779363621589
-0.149061694803426 0.201158677463745 0.778693687097856
-0.150880680155351 0.198788129600288 0.787362937779179
-0.149720722890675 0.197626493593843 0.802013281215495
-0.150507958794801 0.195386218039132 0.803348541377734
-0.141938960962054 0.1990949227363 0.808840391501054
-0.13938442445571 0.191763570343099 0.813387331717885
-0.131756923745405 0.184667652246266 0.81660656323751
-0.12368847141455 0.179817213671075 0.816264473452323
0.0435960873876221 0.0137560949265678 0.651749903851266
0.047088794671463 0.0168641249302331 0.651749903851266
0.0577746657776069 0.00511653981774149 0.651749903851266
0.0560925794194134 -0.00498239349150508 0.651749903851266
0.074547896164876 -0.0141458580610818 0.651749903851266
0.0840084424630919 -0.0258099757041557 0.651749903851266
0.0936869635607644 -0.0344333053734597 0.651749903851266
0.0938952608695078 -0.0364388487663314 0.651749903851266
0.112431602909823 -0.0531427922389682 0.651749903851266
0.126326028211329 -0.0679009438643661 0.651749903851266
0.133394877821108 -0.0803332418795325 0.651749903851266
0.140523634168758 -0.0786767583630583 0.651749903851266
0.154187560587802 -0.0911518206303981 0.651749903851266
0.165072508228404 -0.105293935209651 0.651749903851266
0.168885908117237 -0.114001852487926 0.651749903851266
0.180851249252585 -0.123067100203284 0.651749903851266
0.189480165358619 -0.125143716277319 0.651749903851266
0.210683196859415 -0.143333885186957 0.651749903851266
0.223763192756901 -0.153397104547886 0.651749903851266
0.226136486253447 -0.161560347466705 0.651749903851266
0.236546906615883 -0.172103586117423 0.651749903851266
0.252303394458675 -0.185904931663776 0.651749903851266
0.26454955610223 -0.200490796903467 0.651749903851266
0.275962696821766 -0.217111330517537 0.651749903851266
0.285001733051375 -0.221589610821165 0.651749903851266
0.297186637123371 -0.22984894405404 0.651749903851266
0.30405492620456 -0.235471618257762 0.651749903851266
0.315497432675093 -0.245570681897692 0.652079535820409
0.3153670118717 -0.245670757299929 0.665382173267933
0.310816824034552 -0.24916223922775 0.679395399136119
0.310084404890029 -0.249724244203854 0.695754951348907
0.313055654919717 -0.24744432386804 0.695531439657644
0.31051591424882 -0.249393135427288 0.710667454939044
0.31316546796268 -0.247360061356543 0.730581013163362
0.308574418992722 -0.250882897134327 0.741470430785557
0.307656098091267 -0.251587549545638 0.751637434561993
0.314242385603057 -0.24653371338725 0.756069620976244
0.310461957306688 -0.249434538045175 0.77394471470243
0.318118800850161 -0.243559235351532 0.783929247657753
0.311189557943314 -0.24887623044022 0.793262892831505
0.308342204153736 -0.252376139179079 0.800958222086725
0.317673204238453 -0.257644104594771 0.812069762351077
0.32478955711531 -0.253111257756777 0.812458616484699
0.333432571501787 -0.270400340481479 0.816584502869318
-0.144343928399285 0.207306990344763 0.238933531459264
-0.142638899144375 0.209529027731201 0.242016054264378
-0.143411369000206 0.208522325415326 0.257322057484314
-0.14544011808236 0.205878408136332 0.268705164492169
-0.141911287963109 0.21047726908419 0.280047176567567
-0.141361606383395 0.211193628065857 0.283470767352354
-0.143186544310278 0.208815322655681 0.285347192565079
-0.142911593618817 0.209173645373075 0.308339579956999
-0.145283786785301 0.206082143049229 0.310384401934006
-0.142791193508989 0.209330553851094 0.322234059622798
-0.143315692985386 0.208647012825411 0.329774113238459
-0.143497356513751 0.208410264305926 0.347592152444383
-0.142398540767386 0.209842268866668 0.352994125563678
-0.142607072347719 0.209570505220139 0.358660253692808
-0.145342689956956 0.206005378941387 0.367907394933807
-0.143724158591119 0.208114690084086 0.386678824225312
-0.144244144387305 0.20743703140098 0.391909417830124
-0.145225167189299 0.206158537594085 0.398492574592688
-0.141171836524916 0.211440940960428 0.412232874311936
-0.145399178703601 0.20593176137348 0.406243220719499
-0.144644690530415 0.206915029504286 0.421269994059583
-0.144851695486333 0.206645255393428 0.434509424170498
-0.144833240022439 0.206669307022244 0.443603561449292
-0.142227221240027 0.210065536821586 0.452000716351158
-0.140562028717752 0.212235657967281 0.461121745436297
-0.143045710955326 0.208998860257197 0.46743294652455
-0.142168444874157 0.21014213567291 0.470959817642889
-0.140261473794721 0.212627348768908 0.488729209352132
-0.142923897943732 0.209157610064649 0.496318060065739
-0.141488422181083 0.211028358500633 0.507615579436238
-0.145664003951236 0.205586634391392 0.516100559945456
-0.141443356646105 0.211087089049257 0.527523359374998
-0.144198783653497 0.20749614666021 0.533811191291293
-0.144228584263977 0.207457309748506 0.537303908810703
-0.140399270522003 0.212447768577619 0.556803050631119
-0.142286199243598 0.209988675190893 0.562016685131854
-0.140464056926731 0.212363337291163 0.566815668977187
-0.144473090872385 0.207138662532602 0.580777073213179
-0.142413478902653 0.209822801109765 0.588316493707565
-0.141865413005175 0.210537054493348 0.594604928558342
-0.145240956315256 0.206137960804523 0.609476786219083
-0.145141949352181 0.20626698919089 0.622155081993743
-0.144200847933593 0.207493456438012 0.623321831673899
-0.144956638458328 0.206508491049622 0.638920498250429
-0.145240688918541 0.206138309282706 0.639121051216903
-0.141667439032938 0.21079505919713 0.649604230359338
-0.146697553406848 0.204239686516751 0.664382466926233
-0.144783954862815 0.20673353669277 0.669250918847756
-0.144356679524621 0.207290372754694 0.676010103745021
-0.14477852936421 0.206740607340212 0.695633024583538
-0.143511405412565 0.208391955424531 0.700620606439665
-0.142015121828848 0.210341950155798 0.709625628858198
-0.141895794366262 0.210497460732718 0.723426774532691
-0.143197306453741 0.208801297157254 0.717135365035514
-0.143703857604112 0.208141146845448 0.732000543129239
-0.142886415781944 0.20920645776892 0.742373180346512
-0.144943637212334 0.206525434603282 0.746734177400834
-0.145640716410092 0.205616983305883 0.758548475500627
-0.140687680917961 0.212071904831816 0.769915827787862
-0.144037782028534 0.20770596806293 0.781468709502889
-0.144040732335403 0.207702123148161 0.788647032950635
-0.14456191530384 0.205419330846463 0.800837000798764
-0.142179364240134 0.203882033997671 0.80531206266267
-0.138537192244108 0.202300230856867 0.809444538501772
-0.134531013920087 0.192430340129931 0.815003912051468
-0.128284946857354 0.192701010244955 0.816398018632188
-0.117900274809289 0.18286533276259 0.81544230189975
0.0522986619784159 0.0248761796825632 0.651749903851266
0.0595046889068548 0.014767040414078 0.651749903851266
0.0662014903360417 0.00652009785940509 0.651749903851266
0.0712304495918061 -0.00431022511205333 0.651749903851266
0.0890479063648072 -0.00733996222081956 0.651749903851266
0.0864561122497855 -0.0233835203250679 0.651749903851266
0.0970164346209306 -0.0244366160592803 0.651749903851266
0.112974859246822 -0.0405794911978742 0.651749903851266
0.121227365947004 -0.0522605943086444 0.651749903851266
0.133695472172293 -0.0562733841043982 0.651749903851266
0.146110418066074 -0.0683778518940453 0.651749903851266
0.141752866053117 -0.0753573247203291 0.651749903851266
0.160485210153889 -0.0846621190242998 0.651749903851266
0.175830396232241 -0.099801481951276 0.651749903851266
0.183886787370102 -0.113112160414413 0.651749903851266
0.195679136133936 -0.117053133928859 0.651749903851266
0.203534130558383 -0.126470136421291 0.651749903851266
0.219690580712709 -0.139401595839532 0.651749903851266
0.219562994596842 -0.140906331552962 0.651749903851266
0.24016163531202 -0.155790711360786 0.651749903851266
0.24165957684057 -0.166706474947306 0.651749903851266
0.251317276204005 -0.178702613976496 0.651749903851266
0.268245146965949 -0.196488095177828 0.651749903851266
0.279619556598387 -0.194862729141101 0.651749903851266
0.29112528863543 -0.207308758456299 0.651749903851266
0.301951834260608 -0.226991742020265 0.651749903851266
0.304888381783822 -0.228769476408017 0.651749903851266
0.322241176452755 -0.240396025297073 0.660146343129644
0.317642993301091 -0.243924335325017 0.668439716577586
0.320399473355509 -0.241809213787435 0.678170100930743
0.325686151008605 -0.237752603347466 0.690221385249585
0.322280331202551 -0.240365980800847 0.707695145116882
0.320591750478734 -0.241661674361612 0.719364097393935
0.324667859704781 -0.238533965746514 0.726595142263138
0.322559054103612 -0.240152109196695 0.741466333712111
0.324436825522752 -0.238711244509532 0.745890734277271
0.323107583397539 -0.239731207865766 0.756953319764309
0.322125193489639 -0.240485022154816 0.768634411806198
0.323494762076601 -0.239434115216151 0.780626903702143
0.323405490208695 -0.239502615929663 0.786224282843041
0.32381274212994 -0.239190120539586 0.795790076612719
0.324976493563043 -0.244325019672775 0.806480178806223
0.336928400793651 -0.25052439339943 0.815044457483317
0.336078629196263 -0.26249193576424 0.816819968252044
-0.138590280077807 0.214805290823725 0.237168574442293
-0.137204786921341 0.216610900659131 0.247109058760238
-0.137951894680123 0.215637250871638 0.260689276626618
-0.137332174994965 0.216444885289386 0.27575398590888
-0.139120660520439 0.214114085573628 0.282423849125854
-0.138659564893172 0.214714997094388 0.289104025212144
-0.137575576567091 0.216127678184803 0.29347645462469
-0.138917333622422 0.214379066346104 0.30651376751966
-0.136920098295073 0.216981914100242 0.319361210188829
-0.134713493028087 0.219857618072026 0.326043633714354
-0.13882590335832 0.214498220586127 0.333816509560032
-0.137094044324611 0.216755223221043 0.339307880862199
-0.137489478829151 0.216239882941429 0.356275989772052
-0.136943389044763 0.216951561004294 0.353419158993819
-0.138689980528867 0.21467535866622 0.37221219771829
-0.140898211279818 0.21179753632249 0.373862967834504
-0.136544760864953 0.217471063362552 0.381485448443602
-0.139079218828372 0.214168093438223 0.400829402671605
-0.139347014564772 0.213819095239808 0.401941533012567
-0.137783448374954 0.215856774370497 0.411710680359479
-0.136715181872236 0.217248966381796 0.425179467475683
-0.139076731479051 0.214171335014969 0.433232675385122
-0.138196714061513 0.215318196042047 0.445134670712483
-0.139517478262365 0.213596942623956 0.450534312879636
-0.138537817518756 0.214873661361804 0.461060631895298
-0.139393715012001 0.213758234032055 0.468438516207661
-0.137183156305889 0.216639090226018 0.479478620164907
-0.137947751019753 0.215642650994969 0.493982446209752
-0.138988561096828 0.214286240894215 0.489479258681285
-0.137684985926181 0.215985093132008 0.506960716316514
-0.135436887927418 0.218914871484633 0.5168680082979
-0.137051844096504 0.216810219629052 0.527131554513314
-0.138030801293642 0.215534417770815 0.5384501290075
-0.13846868777449 0.214963752998549 0.54510193819132
-0.140754418982525 0.211984930092741 0.548891836248537
-0.140571040032531 0.212223914193218 0.564405361874858
-0.137862138746404 0.215754223081824 0.576465461057439
-0.134719764154552 0.2198494453809 0.581538441496254
-0.136858900436481 0.217061668702323 0.584506319835877
-0.137834637821323 0.215790062985167 0.591888711143977
-0.137130791980923 0.216707332742944 0.610797846808466
-0.138666251807955 0.214706282537376 0.614840936708328
-0.13660397240409 0.217393897382383 0.627551486743917
-0.139113364886661 0.214123593428677 0.630362664114565
-0.140466626381697 0.212359988712256 0.643091266798516
-0.137615979323386 0.216075024287666 0.64919540256297
-0.141165507826473 0.211449188680816 0.66237966438477
-0.137656748564128 0.216021892778698 0.672535084830007
-0.13735615106694 0.216413639064047 0.682733963913751
-0.137141011407746 0.216694014526613 0.695864414422864
-0.136655228609476 0.217327098995009 0.699827149317019
-0.137435108618804 0.21631073957908 0.71475179924333
-0.137868654129252 0.215745732069582 0.718643075726941
-0.136883455879826 0.217029667425515 0.727945526172196
-0.138066767973214 0.215487545081421 0.743661878316239
-0.139723792354632 0.213328068864139 0.742889793339825
-0.141331423129291 0.211232963648441 0.756299843362231
-0.139878514892193 0.213126430527438 0.76182432104639
-0.136146912233912 0.217989549793075 0.772715741689126
-0.138909880087548 0.21438877998187 0.781854158167514
-0.138570941746218 0.21483049302812 0.788629254138525
-0.135607015556543 0.217767604561572 0.800091458136274
-0.133165762981912 0.211434087624714 0.808394789876127
-0.131891463866499 0.204194655434576 0.812529858994024
-0.130464563049893 0.201515319047297 0.81398968305827
-0.125426246815809 0.204134122249896 0.815033501810868
0.04565065686544 0.0375811624589177 0.651749903851266
0.0498769150074003 0.0316670557972046 0.651749903851266
0.060755807200586 0.027455509313233 0.651749903851266
0.0654528422001434 0.012808748027817 0.651749903851266
0.0788632318752491 0.0156783844187462 0.651749903851266
0.079363328706296 0.0032855485370765 0.651749903851266
0.0921502961439225 -0.00546460788900156 0.651749903851266
0.11088950626159 -0.0244411462061953 0.651749903851266
0.122689136933455 -0.027277722227851 0.651749903851266
0.121769006307648 -0.0363318658588547 0.651749903851266
0.127169127342813 -0.0463297892842307 0.651749903851266
0.141504917944943 -0.0566477487837663 0.651749903851266
0.163283447584247 -0.0696667853596023 0.651749903851266
0.158801016163456 -0.0753552136239899 0.651749903851266
0.177010761417865 -0.0899001467708259 0.651749903851266
0.185588757567932 -0.0950430808945139 0.651749903851266
0.205707680302041 -0.111521278963968 0.651749903851266
0.212384824001705 -0.117501298580642 0.651749903851266
0.222806504273263 -0.132742893287548 0.651749903851266
0.230100119771575 -0.131116601326431 0.651749903851266
0.237103911956396 -0.143438425086073 0.651749903851266
0.247937814255627 -0.159998933445819 0.651749903851266
0.268711313773974 -0.170844485640206 0.651749903851266
0.27922808847704 -0.184171093349626 0.651749903851266
0.288522086619345 -0.18774134925336 0.651749903851266
0.294071742909238 -0.193792848602561 0.651749903851266
0.311348674624022 -0.20871401982099 0.651749903851266
0.317647334566483 -0.222696284785919 0.651749903851266
0.326227725192173 -0.237337038860421 0.655868357573673
0.329050044969386 -0.235171396726657 0.665754656886477
0.333743825417084 -0.231569732313487 0.675823034710954
0.331014784214109 -0.233663799279839 0.692349000473806
0.329892592996639 -0.234524886886677 0.705551253643414
0.328998840682394 -0.235210687157966 0.711058568150871
0.333996453825788 -0.231375883717559 0.72344665029609
0.328557961716595 -0.235548985486857 0.737496151130633
0.33114184900117 -0.233566299039505 0.748325250441418
0.331879106222689 -0.23300058167635 0.757648241611249
0.330739389245044 -0.233875117271956 0.765160164096259
0.333068420304563 -0.232087988884144 0.775141235142372
0.331140669903436 -0.233567203793018 0.785136106250655
0.332635439507505 -0.233976295979574 0.801303594220068
0.338492177630707 -0.232693883313446 0.805288482115191
0.338749485555685 -0.244618958618636 0.813388930698545
0.3542573044577 -0.262636807208137 0.815058728142334
-0.13410910929052 0.220645266293756 0.238260329816711
-0.133244467046217 0.221772090004963 0.256479915135946
-0.134828115715828 0.219708238877058 0.263950600976375
-0.13496866446686 0.219525072178592 0.269406852231515
-0.129340043475233 0.226860433868993 0.283701794686005
-0.13092218908974 0.224798541560636 0.290141156939578
-0.129022525050409 0.227274231936568 0.297825391266421
-0.132432982401135 0.222829637384107 0.307525774671657
-0.129669505152109 0.226431071052308 0.31146531438962
-0.133008969400011 0.222078996512744 0.326595151728343
-0.130406875578812 0.225470111203047 0.335724443711741
-0.133649791497447 0.221243860895888 0.347874082125693
-0.133102930407977 0.221956544143104 0.353966977421232
-0.130642966674178 0.225162431297263 0.362304203143217
-0.1321868651787 0.223150383593076 0.37313525482373
-0.132263108567076 0.223051021274833 0.373648466862955
-0.134761094516843 0.219795582604093 0.388808563730424
-0.128569483007896 0.227864647821334 0.402669754173531
-0.131193650652953 0.224444765963706 0.408449046833424
-0.131064964303894 0.224612473278938 0.419604936204091
-0.130700934877029 0.225086885664489 0.432557317149183
-0.133418356037744 0.221545473459147 0.433810554747891
-0.13056074465096 0.225269585124128 0.446123397070353
-0.133790251672455 0.221060809631943 0.448899386134451
-0.132807632057114 0.222341384446508 0.454213804878304
-0.131360078979783 0.22422787234542 0.468808902862996
-0.132190934210225 0.223145080727951 0.481962268865687
-0.133533917416545 0.221394870938172 0.48253939772359
-0.130610670860374 0.225204520021249 0.50317631994063
-0.131432968388403 0.224132881018696 0.509249490833888
-0.135668388485501 0.218613174083511 0.513363847696143
-0.133356274966877 0.221626379085875 0.529753407611015
-0.133604233421819 0.221303233335983 0.529230468952005
-0.133024424851432 0.222058854576303 0.541745537397876
-0.131176722217653 0.22446682753011 0.550002070026896
-0.133585557608093 0.22132757213029 0.568162908549664
-0.134726648675425 0.219840473298619 0.577850544462325
-0.132171338279567 0.223170618641988 0.57596306171438
-0.128885796259198 0.227452420366471 0.586308707295153
-0.130674307157775 0.225121587583842 0.599941557887798
-0.131800615703737 0.223653753709095 0.613951620344304
-0.132844756738919 0.22229300261922 0.619249123663119
-0.135604230747362 0.218696786075719 0.625614086230684
-0.132314745717272 0.222983726430517 0.638398442423758
-0.133764380168264 0.221094526032638 0.643780622459197
-0.132329792526968 0.222964117046341 0.651139227864529
-0.132784179228938 0.222371948767252 0.663415741858949
-0.131962991736665 0.223442141143042 0.668991572288672
-0.132168915086765 0.223173776608331 0.68430727672148
-0.132293625557316 0.22301125075885 0.689672605669155
-0.133705155654928 0.221171708921111 0.705274035454222
-0.130926311019637 0.224793169757009 0.706395325970246
-0.130675570404508 0.225119941288647 0.720247618576339
-0.131771618237032 0.223691543943454 0.721879743652463
-0.135354311923038 0.219022486628729 0.73329462841693
-0.132905500374553 0.222213839972024 0.749698088124489
-0.132657366756452 0.222537213998988 0.759546868306876
-0.131171864498143 0.22447315823343 0.764203929392198
-0.131609620407298 0.223902663625508 0.770493283431605
-0.130084869225682 0.225889758052662 0.783491229557899
-0.133398608204537 0.221571209336441 0.786641504167607
-0.134107939766415 0.220646790447245 0.79571499237488
-0.13193354063891 0.217973264748172 0.804776107621464
-0.121952172360953 0.216541747356601 0.812724777831884
-0.12368748283805 0.208303903207422 0.814646915652022
-0.11160212923931 0.199220835419841 0.816557023446204
0.0545938232914906 0.0441823580697791 0.651749903851266
0.0597410565167828 0.0410306840053793 0.651749903851266
0.0637518119457736 0.0306757940121167 0.651749903851266
0.0783319021365674 0.0183565582292528 0.651749903851266
0.0906240861732429 0.0096987801980512 0.651749903851266
0.0996111006056254 0.00513906072973364 0.651749903851266
0.100532637861374 0.00170901186168611 0.651749903851266
0.109211667058771 -0.00420992562458986 0.651749903851266
0.129016134545611 -0.0286297909004608 0.651749903851266
0.135610214887516 -0.0288398842714164 0.651749903851266
0.14424142042666 -0.0454869299955895 0.651749903851266
0.158033756453908 -0.0503334208013097 0.651749903851266
0.164696892279342 -0.062918766184947 0.651749903851266
0.182165953271131 -0.0787892160594519 0.651749903851266
0.188248416755502 -0.0839770322043497 0.651749903851266
0.194443123870873 -0.0847464929395192 0.651749903851266
0.210951531728908 -0.105559103644706 0.651749903851266
0.212743096428662 -0.105435110919415 0.651749903851266
0.229391184414476 -0.119950358454121 0.651749903851266
0.240851594964826 -0.13794076675566 0.651749903851266
0.253349349284248 -0.14678696585837 0.651749903851266
0.268169696392105 -0.161775020609714 0.651749903851266
0.269436992468331 -0.158054061645643 0.651749903851266
0.275906370832796 -0.170371811333156 0.651749903851266
0.290578292922982 -0.18014414286315 0.651749903851266
0.304848958800472 -0.192726141425274 0.651749903851266
0.324489409459484 -0.209975092591403 0.651749903851266
0.331882530281046 -0.216940590445849 0.651749903851266
0.337928397243022 -0.228358797418307 0.661945261090864
0.342028153318256 -0.225212943937647 0.660396164665751
0.337775583140266 -0.228476055803495 0.674118313703942
0.335303976217391 -0.230372586499094 0.692064948057824
0.342953520412752 -0.224502884792252 0.699967831629458
0.34467936706165 -0.223178596081438 0.707268962840356
0.338660761389286 -0.22779683464385 0.715288378493033
0.339188821457309 -0.227391639902381 0.733370267624822
0.338047034224882 -0.228267764060353 0.747699178184631
0.343214130359442 -0.22430291174682 0.754318697442847
0.337518078338067 -0.228673646187757 0.759815459604223
0.339597694997275 -0.227077900200495 0.777006200501113
0.340410077231481 -0.226454537387633 0.793799535228816
0.339956124998063 -0.226802867187589 0.797947300537935
0.341298276003594 -0.232039437896036 0.806705775446188
0.346270691199725 -0.24011606135655 0.813920548692147
0.354189951844448 -0.251913263444028 0.816782756202305
-0.128206871882829 0.228337211839997 0.236619724174533
-0.12576034615025 0.231525586250006 0.259168309804101
-0.12831378299194 0.228197882569965 0.260824368058044
-0.12519704492125 0.232259694704191 0.270592781226449
-0.128801437120283 0.227562359336737 0.281467487875619
-0.129898218143824 0.226133006478406 0.291909639810221
-0.125920463352955 0.231316917448813 0.29514312267651
-0.124899792672169 0.232647081377328 0.30461750378466
-0.126183316424889 0.230974360656138 0.310631258115781
-0.125933274762285 0.23130022129511 0.328263390914076
-0.125172591154787 0.232291563473109 0.34045479413445
-0.128029405044364 0.228568491126723 0.342397330456312
-0.12647461176601 0.230594737176599 0.355932661296353
-0.126503453607338 0.23055714975718 0.356107960135601
-0.125174063000966 0.232289645325823 0.370731391649525
-0.127522853622335 0.22922864179256 0.380223516488373
-0.126024515910853 0.231181313515249 0.395172440604251
-0.127767410256951 0.228909929381232 0.404233294066074
-0.126405423306573 0.230684905332444 0.40606964245394
-0.126549596669332 0.23049701494801 0.415260155753489
-0.130068029231769 0.225911704360007 0.423740363908474
-0.127712108536672 0.228981999986262 0.436025017756773
-0.129923114763939 0.226100560571376 0.447135384977292
-0.127630553575078 0.229088284481492 0.456959073418033
-0.124396020710706 0.233303609779633 0.460212419729572
-0.127015724466119 0.229889545376249 0.478365829647688
-0.1251161941915 0.232365061426615 0.486145080491941
-0.124015444970612 0.233799585740413 0.487401046017977
-0.125911493274098 0.231328607483175 0.497980068928622
-0.126575428583643 0.23046335014185 0.510306057027792
-0.124859314777325 0.232699833196929 0.524890610963218
-0.126137425414906 0.231034166984734 0.52698561490955
-0.128408168699168 0.228074876721472 0.541612520581494
-0.125400326291536 0.231994773264609 0.550336370889563
-0.124357351373436 0.233354004641115 0.553985650273328
-0.126150600576021 0.231016996780478 0.566612055740391
-0.126118782783349 0.231058462535195 0.568785304262307
-0.124260254433015 0.233480543837498 0.584745200749549
-0.127932033165817 0.228695388629446 0.584711848432183
-0.126408462506324 0.230680944570216 0.599164840961655
-0.125016779369842 0.232494621344636 0.612856652923494
-0.126932721974675 0.229997716329108 0.621826066491192
-0.126227630531945 0.230916609387448 0.627405751995378
-0.127580918429887 0.229152970262089 0.633827293047744
-0.127291405590624 0.22953027073998 0.641959330102899
-0.124304537944355 0.23342283244192 0.652644181336905
-0.125165492858166 0.232300814153368 0.664484378773854
-0.12594804139794 0.231280977040854 0.671584087496336
-0.126943675612774 0.229983441270013 0.685292077039291
-0.123376858140563 0.234631808300095 0.694865113735908
-0.127475153795669 0.229290805416951 0.705902461636679
-0.125391508737989 0.232006264524118 0.713450928522073
-0.126460932271974 0.230612564640314 0.720222022156155
-0.127255256416287 0.229577381261185 0.727490902509298
-0.12652205625134 0.230532906319515 0.736373608627303
-0.125378858106294 0.232022751148325 0.743299927608168
-0.124722214757821 0.232878505420965 0.751964929647888
-0.126519398115785 0.230536370469214 0.759697644657839
-0.127248132011574 0.229586665966172 0.769216183894293
-0.124190053464999 0.233572031520214 0.782409600062511
-0.125326647316224 0.232090793574681 0.79365583648348
-0.126258486368725 0.230876397278056 0.799073733677388
-0.121955723288667 0.226621123355901 0.807936549245664
-0.118599426069688 0.218656425256315 0.813449946312033
-0.111771324121464 0.214771779693068 0.816365339614846
-0.102946795728998 0.215432385570901 0.816850155308703
0.0575381148192002 0.0563107174541928 0.651749903851266
0.0720885486120078 0.0460605024763668 0.651749903851266
0.0695969334760059 0.0392744089205095 0.651749903851266
0.0815940902153032 0.0361098341841722 0.651749903851266
0.0957288766652244 0.0157464541341003 0.651749903851266
0.110893001701567 0.0081358631746367 0.651749903851266
0.114922353680213 0.00439225427489581 0.651749903851266
0.122463341662809 -0.00670908168249604 0.651749903851266
0.135610347405844 -0.019274263793142 0.651749903851266
0.142798435856097 -0.021403844507259 0.651749903851266
0.145715834886053 -0.031476787636824 0.651749903851266
0.156055055884263 -0.0397474658154301 0.651749903851266
0.169995555007514 -0.0516705026770769 0.651749903851266
0.180603572916561 -0.0571473423800804 0.651749903851266
