ply
format ascii 1.0
element vertex 854
property float x
property float y
property float z
end_header
0.0465612399393196 0.0688706609032576 0.651340836812857
0.0564396500601469 0.0751858606796048 0.651340836812856
0.0783793228629323 0.0734009283678937 0.651340836812857
0.100276520121646 0.076446403373525 0.651340836812857
0.101454374066381 0.0731621608779312 0.651340836812857
0.10751673627707 0.0749540083526112 0.651340836812857
0.116737144296033 0.0725779383537936 0.666664641777725
0.116979516698632 0.0713594500024092 0.67543606821107
0.116691175664427 0.0728090382708654 0.678411528992249
0.116845717485174 0.0720321040722368 0.699167888205734
0.115762010349748 0.0774059895014266 0.709399847388051
0.116105122940555 0.0757553242740495 0.716763704756756
0.117728232844465 0.0675953997540657 0.727477565333449
0.117622356634324 0.068127675406585 0.728211590178274
0.116083794050663 0.0758625518445321 0.747124053611789
0.117433677403354 0.0690762299557828 0.760211818047857
0.116652706385441 0.0730024363963451 0.760011362901079
0.117545513341493 0.0685139927273354 0.780187250326205
0.117050893909333 0.0710006125322127 0.78906448944736
0.117119321950614 0.0706566015379105 0.795754561066037
0.117206502977104 0.0702183129204718 0.805397947232321
0.11561182304565 0.0778484270321882 0.815483308667905
0.116742181897647 0.0725526126202575 0.832257332105813
0.116201795937606 0.0752693162981588 0.839347172311061
0.115634384679594 0.0777819626018413 0.852668497514387
0.115940550402577 0.0765826862935518 0.866059809845239
0.116850200971806 0.0720095640628322 0.864598824914147
0.115901266465611 0.0767801799812644 0.879188724408801
0.116093733777738 0.0758125814620692 0.895273273426777
0.118516442358795 0.0727250140785007 0.906728246073362
0.122640831471328 0.0702753105651217 0.910687976760559
0.133434895267061 0.0716815037503825 0.913900112976181
-0.491655451289556 0.0705956729194906 0.483307089197645
-0.492226870795735 0.0677229530695039 0.484550217156356
-0.492723200021639 0.0652277375510227 0.501790767344667
-0.492959034971313 0.0640421151949036 0.509316170058937
-0.492104682921823 0.0683372329934795 0.521738478802699
-0.493172967707466 0.0629666027017804 0.522955172853115
-0.492734691229084 0.0651699673500224 0.531486871807331
-0.491715148386185 0.0702955553480405 0.546218544015719
-0.492132629528882 0.0681967359121476 0.554994321159141
-0.492843369895592 0.0646236027979375 0.556934009627013
-0.492023644193857 0.0687446421909757 0.566358528026133
-0.491934964256479 0.0691904663423187 0.568819233729279
-0.492439002025359 0.0666564973613021 0.587874104090854
-0.492393207129396 0.0668867238503153 0.591459320408652
-0.492001033985568 0.0688583113840347 0.603982933447751
-0.492291708586833 0.0673969914817346 0.606433071667782
-0.493134642638563 0.0631592758342164 0.616799421409269
-0.493150838137504 0.0630778555627954 0.625268781993368
-0.49263850656869 0.065653520291757 0.633215839360717
-0.493231087663179 0.0626744139531459 0.638695091261429
-0.492487266229222 0.0664138568231688 0.647198252827587
-0.492288372375045 0.0674137637510142 0.663308460001157
-0.492293439426951 0.0673882899608587 0.666006566348163
-0.492334411342224 0.0671823102331362 0.678725527874399
-0.493016520959269 0.0637531136174061 0.689735843994183
-0.49177748935002 0.0699821461585778 0.685783311213349
-0.492464302694729 0.0665293023070026 0.699994110223314
-0.492875081534025 0.0644641776256798 0.708954017821137
-0.492763233543828 0.0650264754439136 0.724476558382583
-0.492938592813591 0.0641448848617206 0.722696213824198
-0.492054424974936 0.068589896754661 0.734593964325814
-0.492918343467549 0.0642466851987659 0.73681267167144
-0.492687347191048 0.065407981902155 0.756323115708124
-0.492046381209381 0.0686303354949017 0.761709503456143
-0.49322254252513 0.0627173732631256 0.775803249513337
-0.49263515089165 0.0656703904194652 0.779203779186645
-0.492777984095366 0.0649523194136362 0.783068551451787
-0.491874461217517 0.0694946356594854 0.790229809908609
-0.49295071213704 0.0640839569083294 0.800683282201115
-0.49159259424627 0.0709116766155608 0.81106722870914
-0.491848992079972 0.0696226776604942 0.816271606602588
-0.491596926762231 0.0708898955869673 0.820700800949216
-0.493194474270134 0.0628584819099429 0.830648437221667
-0.492119412195528 0.068263183934092 0.839547344947081
-0.492888043665904 0.064399012588183 0.849798185929664
-0.491977147329395 0.0689783977139493 0.865851581039908
-0.492384162742374 0.066932193054376 0.86934898297702
-0.492670424501898 0.065493058005635 0.874352926942089
-0.492511085972109 0.066294106889058 0.884412610912291
-0.493153414422175 0.0630649037051247 0.894583123610288
-0.491667368536435 0.0705357608736202 0.898605053884895
-0.486811450913257 0.0704121285251643 0.91013249033897
-0.485954696883182 0.0707026503201066 0.910917785467217
-0.481066757308385 0.0695420240100768 0.913420737056197
-0.149068891518716 0.0730721419066196 0.651340836812857
-0.139698323923917 0.0749209005283651 0.651340836812857
-0.118801695923033 0.0753528380080979 0.651340836812857
-0.11585576990079 0.0742393469870253 0.651340836812857
-0.0996233211199437 0.0802137507168537 0.651340836812857
-0.0880895003407185 0.0811479083018764 0.651340836812857
-0.0758645974545154 0.0738689611918791 0.651340836812857
-0.0639764598555152 0.0819754552326094 0.651340836812857
-0.0541115334292792 0.0737610531171209 0.651340836812856
-0.0425768919559457 0.0780437354846994 0.651340836812857
-0.026189284990474 0.0746839975048567 0.651340836812857
-0.0141910926353904 0.0774063231088426 0.651340836812857
0.00126415225042589 0.0799705016249796 0.651340836812857
0.00953683126232868 0.0783873603718047 0.651340836812857
0.0196363248288393 0.0770406955255472 0.651340836812856
0.0356233869212738 0.0814117425437514 0.651340836812857
0.0577574562163161 0.0848400817423535 0.651340836812857
0.0640470412650899 0.0782058267660967 0.651340836812857
0.0722520639123326 0.0861577968043818 0.651340836812857
0.101848238606463 0.0841169093000278 0.651340836812857
0.10102317328297 0.0824604509324093 0.651340836812857
0.11118620272915 0.0803391060263631 0.65375267251361
0.115597397966642 0.0778909219446301 0.664650984572373
0.113592889929174 0.0837960122038569 0.67512400969554
0.113632951338173 0.0836779950985982 0.692991137735184
0.114516970454353 0.0810737587601301 0.695626022515824
0.113970710012212 0.0826829901304174 0.708881420415247
0.112546156743129 0.0868795887350522 0.709906930444545
0.112977055060965 0.0856102032240897 0.729866040718372
0.114948489001363 0.079802546112937 0.738123200200475
0.114849853914169 0.0800931157099266 0.75213533659752
0.112303823314051 0.0875934799965416 0.762831717837619
0.112250334314908 0.0877510535068076 0.77218889254654
0.114446841265467 0.081280352688634 0.776806270225609
0.113842301115956 0.0830612705405255 0.788226597747048
0.114260389576328 0.0818296216527745 0.802027574744459
0.112304535864362 0.0875913808910143 0.806175019459804
0.113622274816011 0.0837094471186661 0.823407621258924
0.11532462071987 0.0786944978010223 0.822864869043192
0.112650254229688 0.0865729274284345 0.848248333153783
0.11539231174428 0.0784950864734482 0.849586259193416
0.112594488321127 0.0867372084975496 0.866257530688309
0.114528666312158 0.0810393038740892 0.874251068328153
0.11278828390829 0.0861663051074693 0.882054356733736
0.115044799824851 0.0795188235760343 0.888648719226893
0.113244474957454 0.0848798875177811 0.900163221300589
0.116691622904864 0.0792170999172281 0.905563734337572
0.132997858319065 0.0829043413641455 0.913393539967666
-0.490462237148384 0.0765943654939662 0.476157786963012
-0.491198118550819 0.0728948398579823 0.49443399149996
-0.490521724298265 0.076295303396098 0.498590271140278
-0.490974293086315 0.0740200864550279 0.507541128142248
-0.490615829234736 0.0758222059325728 0.511488355206565
-0.491156082511072 0.0731061693006988 0.528592997043772
-0.491533321440999 0.0712096611303073 0.534272512869515
-0.491450396050024 0.0716265552232541 0.54264070217213
-0.490250468073439 0.0776590005276489 0.550264433765657
-0.491448578434067 0.0716356929957391 0.551806701997658
-0.490195585629761 0.0779349132041778 0.561684220028315
-0.491447729372702 0.0716399615154728 0.575808334449554
-0.490708761892162 0.0753550019137867 0.583823177271244
-0.490055546783175 0.0786389360280489 0.592300491250542
-0.491163833237819 0.0730672037660293 0.600266709777549
-0.491423878892098 0.0717598659785151 0.607177637791349
-0.490516325200073 0.0763224464956594 0.612583151911943
-0.49107959435928 0.0734907012068777 0.623348148019963
-0.490669578022001 0.0755519925317017 0.634948196886885
-0.490662057771824 0.075589799382406 0.64771660306783
-0.490864166146957 0.0745737319664089 0.64891700301557
-0.490896505288361 0.0744111521236894 0.655702145522084
-0.491441321249302 0.0716721773273098 0.667825600151735
-0.491502318033468 0.0713655257853764 0.672707234748117
-0.491098241870321 0.0733969538381946 0.677653815144812
-0.490617703201764 0.0758127848641252 0.693002363763846
-0.491360787058923 0.0720770500430679 0.701121769945715
-0.491218517893091 0.0727922854389657 0.70884855132548
-0.491142441424242 0.0731747476752318 0.723932212570281
-0.49021731893802 0.077825652485272 0.731042345010897
-0.490129290211935 0.0782682027763609 0.733380830657016
-0.491019393708344 0.0737933503167846 0.746651870616667
-0.491146847983911 0.0731525944037864 0.751064577327316
-0.489905897638271 0.0793912730841859 0.75682527994552
-0.491255982790824 0.0726039366790232 0.771941362521984
-0.491432682019235 0.0717156096698061 0.776445033724732
-0.490042528583043 0.0787043829396877 0.781730818458784
-0.490054290187492 0.0786452533611501 0.784600703875256
-0.491250203282892 0.0726329922274976 0.800380906472851
-0.491302191526567 0.0723716296769424 0.810907536492459
-0.489937474073641 0.0792325276236324 0.810269792868552
-0.490950696394201 0.0741387150371786 0.831543278392873
-0.490708496656606 0.0753563353429691 0.831673729086502
-0.490805632939025 0.0748679982742462 0.837438649029814
-0.490196210200017 0.0779317732774636 0.850929175415134
-0.491138306476917 0.0731955354592184 0.860270460343205
-0.490992228730509 0.0739299178826571 0.870357077080665
-0.490606270270002 0.075870262093485 0.873871162393701
-0.491273039695167 0.0725181858302088 0.887475229113776
-0.490892417879561 0.0744317009153733 0.895371764244759
-0.491074124980758 0.0735181976295199 0.896305269487654
-0.49005152620581 0.0760830510065113 0.90197376901807
-0.483264973701175 0.0773926179489789 0.912253538383022
-0.478697872713281 0.0724165243242928 0.913894032291802
-0.15166755610547 0.0853984944032808 0.651340836812857
-0.130641723414849 0.0820142672731649 0.651340836812857
-0.126558338738535 0.0838305407226094 0.651340836812857
-0.115140747867734 0.0900220017065034 0.651340836812857
-0.104270749772491 0.0840290140976893 0.651340836812857
-0.0864112281039417 0.0865245389704691 0.651340836812857
-0.0748069263913521 0.0906582996813997 0.651340836812856
-0.0659853279295196 0.0875979202052804 0.651340836812857
-0.0503743461104603 0.086018177135155 0.651340836812857
-0.0388809989381032 0.092936523539858 0.651340836812857
-0.0353766121041397 0.0924755345161099 0.651340836812857
-0.0104962707598013 0.0926340450841204 0.651340836812857
0.00253609560173164 0.0871454765792659 0.651340836812857
0.00384316730617078 0.0911481954812196 0.651340836812857
0.0212766539643343 0.0915757440746452 0.651340836812857
0.0349997232559983 0.0905680097663542 0.651340836812857
0.0440497586014522 0.0932176403540709 0.651340836812857
0.0558571416484223 0.0935568182449897 0.651340836812857
0.073559769114126 0.0932602951090418 0.651340836812857
0.0889907746580536 0.0883209087604839 0.651340836812857
0.102858160076387 0.0889638022090195 0.651340836812857
0.110340569232356 0.0933770400210034 0.655313162008594
0.109480236856406 0.0959114974728875 0.667134227665206
0.108775410713046 0.0979878483359432 0.676162653123889
0.108666222722637 0.0983095057833281 0.6898434952709
0.108963071023164 0.0974350188892138 0.702759113527568
0.111013707416731 0.0913940388749038 0.702552479256741
0.108835553441549 0.0978106735710608 0.725999053386437
0.109141563329415 0.0969091975109541 0.727991428885683
0.11198551288819 0.088531192273083 0.73139841701839
0.108601604775626 0.0984998641168089 0.752802707638496
0.109311978105571 0.0964071717690306 0.75979389455563
0.109950819937907 0.0945252044180366 0.770443536474992
0.111810368933292 0.0890471497263337 0.775718432509207
0.111188077981495 0.0908803597555162 0.793185989410428
0.11199276262773 0.0885098352290932 0.806723593799729
0.110824355690592 0.091951851072554 0.809568791211813
0.109905086150416 0.0946599318114844 0.822243366366939
0.110889509794469 0.0917599132718761 0.831171568147809
0.109409678018141 0.096119357107646 0.842513908441879
0.110388993055502 0.0932343880380589 0.85282609026026
0.11006871537606 0.0941778956567694 0.863345838554778
0.111561821916682 0.0897793456264315 0.876102657371512
0.110377987150897 0.0932668103875139 0.891034735424943
0.111650081676194 0.0895193407591832 0.890194665510093
0.111155111652071 0.0958664540562323 0.905971663177451
0.121199561750569 0.0915433441149438 0.913179734791921
-0.489013963078095 0.0838753309229521 0.48504090334582
-0.489826084358174 0.0797925215392151 0.485707621114896
-0.489094451041423 0.0834706906062732 0.491851204188341
-0.487736489318764 0.0879855746390615 0.504676949674272
-0.488084303432519 0.086960947300696 0.51329994164853
-0.489075458383316 0.0835661731464349 0.523051651435689
-0.488894699725029 0.0844749082877854 0.528480791010667
-0.487886093275814 0.0875448555932878 0.541559678261176
-0.489746217695273 0.0801940383677196 0.545575059970828
-0.489163827074698 0.0831219137343849 0.55207274691315
-0.489283645273977 0.0825195469692713 0.569533701589274
-0.489018631060508 0.0838518633906202 0.571401202138437
-0.488702065633452 0.0851410785413481 0.584963029215012
-0.489783504341473 0.0800065857387536 0.58856824213386
-0.488229658912008 0.0865327438662322 0.59430850187708
-0.488947194603062 0.0842109987143166 0.603190618540282
-0.488373263302453 0.0861096989737459 0.614912785691062
-0.488066262980919 0.0870140927573503 0.620768482022317
-0.489213949592011 0.0828699308236478 0.628715175302201
-0.488764515228348 0.0849571079672118 0.645606307473794
-0.487715608729819 0.0880470868705312 0.647494167615365
-0.489097006565331 0.0834578431200076 0.652420752933447
-0.489500131693394 0.0814311962434288 0.661998913413344
-0.489587244168551 0.0809932522568173 0.67951777643244
-0.489266849277558 0.0826039861453787 0.685032304492876
-0.48900477619423 0.0839215165070169 0.687323460434649
-0.489863796010527 0.0796029322600305 0.702677682182564
-0.489208739671627 0.0828961228621477 0.711748025640895
-0.489170937291392 0.0830861682611999 0.714492206171211
-0.489296692327385 0.0824539550024198 0.725187062048381
-0.48957216675276 0.0810690515446612 0.737737117866889
-0.488100021185468 0.086914644293624 0.733530142925171
-0.489268522596367 0.0825955738036485 0.749981808682629
-0.488342267544117 0.0862010095333458 0.755715838248461
-0.489328783486618 0.0822926218502553 0.767174447657827
-0.488331237101213 0.0862335041702991 0.775555674488225
-0.488607059025905 0.085420958981986 0.784254069902676
-0.489381706050754 0.0820265621535545 0.785192738568994
-0.48965786871927 0.0806381986638716 0.794815399853353
-0.489122914067807 0.0833275973096677 0.808435446166624
-0.4880624515696 0.0870253208130296 0.817090113670759
-0.488044783483369 0.087077369316677 0.8179171263639
-0.488825056543968 0.0847787590025471 0.829574537769449
-0.489374053357488 0.0820650348406273 0.84394378955026
-0.489361263080981 0.0821293359028308 0.845654085641549
-0.489784787622952 0.0800001342470932 0.858670050916924
-0.487828808729542 0.0877136104248319 0.867093053872706
-0.489230896214183 0.0827847344007448 0.867750198428948
-0.488876409398789 0.0845668599672109 0.880287548627926
-0.489527890889332 0.0812916413414219 0.892567490316651
-0.489428579210562 0.0817909148661293 0.899434622896153
-0.485661855629326 0.0867222295489472 0.907711196278642
-0.484710216054249 0.0843281942985623 0.909385454591068
-0.467237255863946 0.0849768969559628 0.912778641609387
-0.14767446095406 0.0985822231642764 0.651340836812857
-0.135089148324658 0.0940600021515689 0.651340836812857
-0.131358992652906 0.0958887564072672 0.651340836812857
-0.116450421214739 0.0920205329014325 0.651340836812857
-0.0934236563427534 0.0956171864152664 0.651340836812857
-0.0821850642289106 0.0935428430473756 0.651340836812856
-0.0749837700184392 0.0934054268077967 0.651340836812857
-0.0705213910518294 0.0970657385182496 0.651340836812857
-0.0536325849263628 0.0977111907612106 0.651340836812857
-0.0434310692281085 0.0945311310525581 0.651340836812857
-0.0291028274277098 0.0982177166893517 0.651340836812857
-0.018543717272432 0.0968012350953873 0.651340836812857
-0.00961623397566589 0.0957366005402032 0.651340836812857
0.00999085485373701 0.0965144918566342 0.651340836812856
0.0239112857804717 0.0979005840678966 0.651340836812857
0.0411786918277012 0.0991286769386489 0.651340836812857
0.0551462863229666 0.105376111490958 0.651340836812857
0.0545297447801375 0.105498629805668 0.651340836812857
0.0832294169876071 0.106856785375783 0.651340836812857
0.0907393143209908 0.10365603463233 0.651340836812857
0.096920397101461 0.101468444064884 0.651340836812856
0.108599739577649 0.0985053588128657 0.659387516921648
0.108228422788158 0.0995992228012998 0.673806317651463
0.106398967572962 0.104988624075339 0.678467481392689
0.10840604050168 0.0990759778901387 0.68892899913823
0.108505224561592 0.0987837910716741 0.700443914236539
0.106958318051257 0.103340830702033 0.712056359334654
0.107378694200345 0.102102442500642 0.716501252320364
0.108035394340292 0.100167866271888 0.729447320610209
0.107050534759752 0.103069169038976 0.742598669540829
0.106881334627075 0.103567616556596 0.754522527046455
0.105940680089874 0.106338695465287 0.762936823390007
0.108163735231118 0.0997897861993133 0.776846618017886
0.105809902703636 0.106723953221886 0.777934624085708
0.107851024957901 0.100711000958159 0.792731990324769
0.105684932159372 0.107092104573653 0.801078072412715
0.105201493094429 0.108516270134462 0.818606253042138
0.106676063407576 0.10417232606941 0.828151210616115
0.106351563681506 0.105128271436413 0.834994925267189
0.106636684301577 0.104288333174846 0.845043374568798
0.10511345738887 0.108775614960047 0.852266793041273
0.105793408554751 0.106772543417633 0.874504800815336
0.106725153856361 0.104027710270658 0.877830592531045
0.105950762527311 0.106308993562384 0.894979304734442
0.10790952273772 0.100538672055833 0.892479523468994
0.10932309783763 0.0985131527137846 0.9026653179754
0.112427271737153 0.100386043932178 0.909573493423928
-0.487580107571886 0.0884462604098072 0.473452591795915
-0.48529960041001 0.0951644178708802 0.484305983076328
-0.486095030494209 0.0928211564050715 0.49314872702951
-0.487498900031773 0.0886854901086305 0.509700537243464
-0.487524519764465 0.0886100168098791 0.5112584268839
-0.485180270080115 0.0955159536869129 0.515307666840368
-0.487099331360674 0.0898625814564827 0.526722603314925
-0.486870130739221 0.0905377847142674 0.539392576979471
-0.486460131968795 0.0917456021439216 0.547551381321008
-0.487539669998837 0.0885653856586234 0.553509438818062
-0.485627801287663 0.0941975692629066 0.559891424093868
-0.486498711802382 0.0916319496190825 0.567338776341499
-0.485668215657483 0.0940785123685964 0.577722796888765
-0.486244977907664 0.0923794255693556 0.584361645223682
-0.487013036516829 0.0901167978688342 0.599262489477865
-0.485896254068185 0.0934067328732798 0.603961759204047
-0.485722673976654 0.0939180833336124 0.610584165633651
-0.485891366343725 0.0934211316452278 0.620128359607729
-0.486641287415141 0.0912119354079298 0.627963291137349
-0.487199589173804 0.0895672314630362 0.642235472200312
-0.485312825543887 0.0951254578828068 0.645166630778998
-0.484949582353481 0.0961955378152895 0.649288885284832
-0.485878391788347 0.0934593534528503 0.659234794913011
-0.485837660111202 0.093579345104393 0.675155807265551
-0.487361355993371 0.0890906817797075 0.680505683353379
-0.485570522426274 0.0943663073473267 0.68147746495958
-0.485946733019411 0.0932580266782404 0.695851360116873
-0.486271990676513 0.0922998485184155 0.709399547565982
-0.48622859896507 0.0924276763783136 0.713158152262589
-0.485926972687676 0.0933162387383884 0.719171347050361
-0.487110581689807 0.0898294390555856 0.732725592030745
-0.485535577305316 0.0944692523540403 0.734397115213985
-0.485404126929782 0.0948564926731755 0.742027497793929
-0.48587746456826 0.0934620849551422 0.754488127153502
-0.486095715773166 0.0928191376383646 0.761565820717268
-0.486848517658497 0.0906014547969362 0.766549697379678
-0.486413401566548 0.0918832654697652 0.777151217529981
-0.485899011201954 0.0933986106191144 0.788454434990562
-0.486691149910828 0.0910650452323475 0.798353585780839
-0.485858070321898 0.0935192185625613 0.804142962387208
-0.48490977528489 0.0963128056578673 0.811202661057639
-0.487024042175194 0.090084376244777 0.817476771589875
-0.48728986157759 0.0893012975369513 0.830748612565726
-0.485915793364525 0.093349171962407 0.839369699762078
-0.486181711734422 0.0925658017057302 0.849113439589735
-0.48537911343003 0.0949301800672758 0.852460961400305
-0.486002068221454 0.0930950144296154 0.863694335740713
-0.48584136568526 0.0935684288352321 0.872043574961763
-0.486296536908256 0.092227537651483 0.884778255675376
-0.485294397213635 0.0951797459931216 0.882115451022926
-0.485101292947151 0.0957486128181543 0.895351071086012
-0.483208136919748 0.09569450824453 0.906863918296503
-0.482706574822475 0.0925098561359987 0.908651281915763
-0.469934335565122 0.0968961108316404 0.914334365109036
-0.467415909599891 0.092414836711605 0.913466068730761
-0.141600565282058 0.100842812840512 0.651340836812857
-0.117528335279054 0.104246402833155 0.651340836812857
-0.116308297979896 0.105936331464257 0.651340836812857
-0.105925928720382 0.104810662049516 0.651340836812857
-0.087061159630978 0.105340485867637 0.651340836812857
-0.0852971295926527 0.111405364730755 0.651340836812857
-0.0622690447814238 0.112017074966318 0.651340836812857
-0.0526963204907931 0.108297286699812 0.651340836812857
-0.0439403907941274 0.107244496005722 0.651340836812857
-0.0300119185081934 0.112112089105116 0.651340836812857
-0.019508117808793 0.111771977354444 0.651340836812857
-0.000308288706139496 0.106764788743104 0.651340836812857
0.00541554674668716 0.10755619231857 0.651340836812857
0.0248189030250637 0.108559797567235 0.651340836812857
0.0388163678852836 0.113529321321118 0.651340836812857
0.0469800527298502 0.116689110250384 0.651340836812857
0.0709876014755069 0.116262233012346 0.651340836812857
0.083001804524328 0.115204357682455 0.651340836812856
0.0909800175443967 0.11634753670686 0.651340836812857
0.104036521927265 0.111948164525966 0.655650229106838
0.104274739248431 0.111246398927372 0.659833740412554
0.103336922544562 0.114009117848646 0.678602949733884
0.103301000939203 0.114114939485643 0.67958911735783
0.104133977401641 0.111661069956282 0.695100728809166
0.103904117413347 0.112338215646138 0.697399840463515
0.102609957375885 0.115572397669937 0.715945483206379
0.102685142251234 0.115419937824665 0.726127406110155
0.102960905893288 0.114860744476217 0.736480523253059
0.104986321357826 0.109150145630159 0.748971922376739
0.103166517092804 0.114443806208797 0.754474375917848
0.101681036379881 0.117456063110129 0.77094161615715
0.101087715546828 0.118659198740583 0.781706935172019
0.101957525025933 0.116895399599008 0.789086110756468
0.10336965059539 0.113912704119922 0.797311920657871
0.103254519058058 0.11425187069193 0.80822766474648
0.102255974921459 0.116290203079337 0.819111793974221
0.10340483785776 0.11380904578761 0.825283289575234
0.102679343831127 0.115431695857491 0.841931901675361
0.102288219322121 0.116224817902958 0.848073692228183
0.104133603432383 0.111662171634187 0.858158795620545
0.102677680456331 0.115435068847909 0.866584398797555
0.104192241024133 0.111489430859198 0.882310802276812
0.103397547696947 0.113830521908835 0.882457795138346
0.103405479889323 0.117331700391206 0.905672800627539
0.105801974784718 0.112475115776401 0.906980105473566
0.117917999929946 0.112007117874519 0.914111635606876
-0.482895701629644 0.102246075318384 0.479762121102119
-0.484040320949531 0.0988741355356255 0.481412102112812
-0.484165269798829 0.0985060480951685 0.495000972329516
-0.48221488741073 0.104251689333045 0.497204801065826
-0.4820943000955 0.104606928108465 0.51302138256625
-0.482034100226549 0.104784271203682 0.510711930750496
-0.481961064709125 0.104999426899972 0.525813023354151
-0.483064609192081 0.101748489684894 0.539324366135891
-0.484616735122014 0.0971760741402174 0.537681379518685
-0.482850296321135 0.102379835043951 0.551482021526874
-0.483095017063787 0.101658910983457 0.5577981669685
-0.482219193841795 0.104239002996222 0.569626858002718
-0.484810123915794 0.0966063691247994 0.57365275717598
-0.484443674414557 0.097685894544407 0.58405084111117
-0.482209729537457 0.104266883937734 0.58979850569141
-0.484546813482368 0.097382056648377 0.59750451058522
-0.483614984436126 0.100127136499083 0.612859980018636
-0.482810187497348 0.102497991828672 0.613930988820929
-0.484201378120341 0.0983996764101211 0.6271866031077
-0.482207832555169 0.104272472267349 0.632445743067487
-0.482625782530948 0.103041231342052 0.637275097946647
-0.482564110524901 0.103222911213308 0.651414442137278
-0.483956886466523 0.0991199255966696 0.655943099331911
-0.48464700001515 0.0970869166400647 0.669827166401205
-0.48243712403171 0.103597001359106 0.675975226286764
-0.482682727907652 0.102873475671834 0.684732147196458
-0.483702338520997 0.0998697996632927 0.694627141741779
-0.484636193385768 0.097118751943645 0.695079066135916
-0.482981489508134 0.101993352377808 0.705650420328495
-0.484703098895994 0.0969216546662385 0.720137127137005
-0.483464762095005 0.100569677245585 0.727046579788772
-0.483953730017668 0.0991292241951501 0.735306138777821
-0.484222805627066 0.0983365530108221 0.745915776212515
-0.483076819470582 0.101712519364349 0.754365628386867
-0.482927212136673 0.10215324835803 0.757878044590584
-0.484659438301533 0.0970502746299616 0.765923400461535
-0.484305957076843 0.0980915967387897 0.772360835193216
-0.484216806316029 0.0983542264112324 0.783093355736831
-0.482886405270545 0.102273461509174 0.793105129648448
-0.483866498108061 0.0993862011142178 0.800839717887709
-0.483587329284414 0.100208605948912 0.810084936092809
-0.484346264396165 0.097972855205078 0.821771158395496
-0.484513659491248 0.0974797251567375 0.834322474704319
-0.482404794585877 0.10369224083538 0.836271431891506
-0.482091159079913 0.104616181242003 0.848762545334292
-0.483826769009669 0.0995032392639972 0.856617867508163
-0.4833198912711 0.10099645293074 0.861228902048829
-0.484165544792856 0.0985052379888855 0.872136222097463
-0.483487723145017 0.100502036173444 0.878917553792453
-0.482336821074179 0.103892484343669 0.884403526506524
-0.484508858568447 0.0974938682192419 0.89151134754517
-0.481463119306775 0.103783882468071 0.903318962244389
-0.480745074383742 0.104850102544307 0.904580159212808
-0.470929313092894 0.0989958753199056 0.913900129010099
-0.468089418628484 0.102278707964976 0.914338883910648
-0.132350144422641 0.111515185165343 0.651340836812857
-0.129616978158173 0.113158820559738 0.651340836812857
-0.106933039741788 0.113497210610563 0.651340836812857
-0.0986230162714239 0.11448221761687 0.651340836812857
-0.0940375188972578 0.1181654262448 0.651340836812857
-0.0867359753449549 0.114069864009576 0.651340836812857
-0.0603774443259568 0.116791175264657 0.651340836812857
-0.0447848250916046 0.12173726701619 0.651340836812857
-0.0356505622429524 0.11774083681021 0.651340836812857
-0.0214339408919087 0.122100395980224 0.651340836812857
-0.0183707616117938 0.118886832021974 0.651340836812857
0.0037712429790932 0.121705179482431 0.651340836812857
0.0182153745656562 0.118513615882631 0.651340836812857
0.0177001002598177 0.118425448456252 0.651340836812857
0.0396596475164282 0.121014529396228 0.651340836812857
0.0566429661862308 0.123645920558588 0.651340836812857
0.0671793125555821 0.118103982820636 0.651340836812857
0.0773687751965389 0.124730560459066 0.651340836812857
0.0926517577017471 0.121458511537639 0.651340836812856
0.0967728507690609 0.127408878956602 0.656255529312451
0.0993076018690847 0.122268912191783 0.665758466617737
0.0971583039655732 0.12662725719522 0.676464919019556
0.0978366946876681 0.12525161689464 0.684591219740699
0.100796215911743 0.119250301526287 0.693977106969751
0.0998223596283588 0.121225086715358 0.706241120300699
0.0983089185552275 0.124294041618399 0.719907246486914
0.0976353737343422 0.125659855403403 0.732513389811929
0.0982213459057028 0.124471621384737 0.74078067399071
0.0972247490867942 0.126492519818142 0.747574802879869
0.096144006480884 0.128684049028112 0.765727932603485
0.100893888374346 0.11905224136503 0.763903644706804
0.0976527272287888 0.125624665997742 0.779250275556287
0.101082673741951 0.118669422509497 0.78946634693812
0.0975450248126269 0.125843064892828 0.802375999365239
0.0982851752005235 0.124342188378869 0.816995037666371
0.0974439691529518 0.126047985499083 0.826344441063948
0.0995287324342606 0.121820503763958 0.823800166097704
0.0989746248416214 0.122944122808949 0.837769521249084
0.098240205985144 0.124433376926924 0.859036424287066
0.0996857763827606 0.121502050139104 0.867232816064718
0.097530398837282 0.125872723436886 0.866311362701254
0.0978557569271412 0.125212962496837 0.883855363727343
0.0998802351518843 0.121107726763363 0.891418894935616
0.0970585203692383 0.127459897614304 0.901136753254207
0.102001784727863 0.124460682284356 0.908728486546988
-0.481948402845851 0.105036727546359 0.469582897364848
-0.48010439720673 0.110468992987056 0.479164408332464
-0.479728822215982 0.111575401231883 0.488476694075519
-0.48196263816731 0.104994791641629 0.498488500887475
-0.479788329066966 0.111400099701762 0.510345824440006
-0.47950575420443 0.112232538403468 0.509543915728487
-0.480861365634616 0.10823903590706 0.52141153627803
-0.48176806395492 0.105567988787664 0.527679364901656
-0.480811449016969 0.108386085520798 0.538843576280079
-0.479819951081779 0.11130694425007 0.549307887722406
-0.480500948024243 0.109300791949186 0.551773119418902
-0.4805767886287 0.109077372732969 0.56013396057269
-0.479533487696119 0.112150838171503 0.576209564863761
-0.479274370983203 0.112914171392845 0.585124824580863
-0.479838769536209 0.111251506870988 0.592683373620691
-0.481077469790593 0.107602413592465 0.599240820856711
-0.481748161285236 0.105626620161892 0.60225774943918
-0.479959358494121 0.110896263256382 0.612299337639056
-0.481584345409682 0.10610920616951 0.623877233830192
-0.480837733578952 0.10830865369811 0.63207518977577
-0.479303386468447 0.112828694529657 0.636960255900254
-0.4804864850408 0.109343398524491 0.652273155856295
-0.481510858786339 0.106325690780982 0.659481294190781
-0.479833759993908 0.111266264506721 0.665304425215235
-0.480559480966409 0.109128359461927 0.672220670129717
-0.481400920520851 0.106649558467473 0.684761013053477
-0.480052767604238 0.110621088891418 0.691643683790675
-0.479769940727741 0.11145427000231 0.699619150450325
-0.481696494266792 0.105778826290096 0.708524539198671
-0.479343384736998 0.112710863430159 0.713625520875077
-0.481932327348463 0.105084084434564 0.723217068527538
-0.481152383131519 0.107381726006526 0.733418460223791
-0.48004205286576 0.110652653493123 0.742346487814164
-0.481283515672082 0.106995421999022 0.756014214807377
-0.479572614940659 0.112035573026002 0.75713410097529
-0.48081092408031 0.108387631934329 0.76499533582507
-0.479252733743853 0.112977912644534 0.776936406146809
-0.480124170627316 0.110410742368394 0.784011435315697
-0.479112380644458 0.113391379542444 0.792758437852097
-0.481486482550254 0.106397500856856 0.80588214775546
-0.481361941472023 0.106764387042489 0.801029678985332
-0.48198931746073 0.104916196977625 0.819884094536408
-0.481855831568268 0.105309433736267 0.822665390887346
-0.481071305605412 0.10762057269644 0.828369759908771
-0.481780332148918 0.105531847853568 0.84365242035339
-0.480569136678449 0.109099914651505 0.846454850062747
-0.481294412924565 0.106963319728396 0.855599245507968
-0.479315875076164 0.112791904277684 0.863832029795892
-0.481562721479968 0.106172908212271 0.876594468290051
-0.480627207898771 0.10892884235294 0.888622043121144
-0.479937394187515 0.110960968017135 0.889028436126277
-0.479082827472832 0.112418564496112 0.901368306578637
-0.475506228410158 0.1082344545613 0.910418784725645
-0.474516677310718 0.107710470876417 0.911526621475398
-0.472634534353852 0.109651551718276 0.912546799567957
-0.132056651354059 0.127767947515273 0.651340836812857
-0.129903793232869 0.124769416306021 0.651340836812857
-0.113049976685664 0.128882930931643 0.651340836812857
-0.108903816764867 0.127791013034031 0.651340836812857
-0.085824364270775 0.128520726289014 0.651340836812857
-0.0789232868901737 0.127615821944089 0.651340836812857
-0.0637543585675136 0.122383046663467 0.651340836812857
-0.0564370637262971 0.128451009997129 0.651340836812857
-0.0498704689918892 0.127189580445212 0.651340836812857
-0.0287616818910452 0.126358627071884 0.651340836812857
-0.0075735137107575 0.125587286500012 0.651340836812857
-0.00775904226922317 0.133334203188362 0.651340836812857
0.00493833718104767 0.128808248311446 0.651340836812857
0.0230327503781868 0.126364266335995 0.651340836812857
0.0347550027418995 0.130764143815685 0.651340836812857
0.0533952168290424 0.129097068903861 0.651340836812857
0.0595997749824273 0.137021513852922 0.651340836812857
0.07595468796118 0.128756224250062 0.651340836812857
0.0902639988087131 0.132942507242294 0.6513488984617
0.0950578473911684 0.130886561780702 0.657588967815896
0.0936146354630228 0.133813106065539 0.665584533393152
0.0914656858668024 0.138170744771659 0.680528721253247
0.0954432282755958 0.130105086653723 0.683438686239938
0.0948358346144815 0.131336759156502 0.699172322684278
0.0933913462096433 0.134265891880013 0.705514495185842
0.091169536379255 0.138771276525408 0.720673125419527
0.0945803321955113 0.131854866808896 0.733169743449163
0.0952832602333951 0.130429469754035 0.747300322362033
0.0935298185696225 0.133985097711255 0.756451434480355
0.0921611766860262 0.136760428904349 0.756297089486744
0.0929264672677164 0.13520857312045 0.775491131575384
0.0937685458966487 0.133501006580272 0.784354059825906
0.0943282868123151 0.132365964286215 0.800076994002602
0.0932212206948848 0.134610872297104 0.806451637407573
0.0940047401530968 0.133022052008293 0.810177019448517
0.0916910412855186 0.137713769188353 0.825490609012825
0.0922864295431008 0.136506441235676 0.833326445917817
0.093851319636283 0.133333158040543 0.841268637904247
0.0946760592825631 0.131660751479018 0.856628726306805
0.0956790653046547 0.12962685646723 0.857970490481127
0.0923824741528826 0.136311682033395 0.880275698708415
0.0937593560295717 0.133519641787236 0.894141397597567
0.0956998386922598 0.129584732204267 0.899793178358819
0.0993083845922146 0.129409345364641 0.908501100243869
0.104082949133092 0.131739233150637 0.91285165461897
-0.476696724493428 0.120507673087024 0.471471247890531
-0.476388358137316 0.121416091078728 0.480922538977571
-0.47691456592347 0.119865932928066 0.488032979726672
-0.477912011792497 0.116927552150736 0.497655438976012
-0.47876196450991 0.114423672186882 0.503867862136405
-0.476870294503623 0.119996352325352 0.504286115130957
-0.478311737530393 0.115749998099021 0.524298149632452
-0.477680213826561 0.117610406938631 0.525780948796123
-0.477394339735347 0.118452564854609 0.539413374986023
-0.476824848863567 0.120130230863827 0.547074776418465
-0.476299092470372 0.121679059253711 0.552529416832053
-0.477146522822094 0.119182609939569 0.55881346378427
-0.476632815904537 0.120695941718872 0.573203647938788
-0.477929943005819 0.116874728499673 0.580324423351365
-0.476270068789326 0.121764560260956 0.58484628146498
-0.476698865910983 0.120501364674332 0.598807698106201
-0.477476164347557 0.118211517320005 0.603791331435274
-0.478969369702204 0.113812676192933 0.617246021378481
-0.478275900753946 0.115855569838104 0.614280367813438
-0.477734755371333 0.11744973272893 0.62783406084205
-0.478449576522154 0.115343937523372 0.640853128184919
-0.477106891372769 0.119299360424475 0.642030722021311
-0.478536269498588 0.115088548250237 0.655540775150357
-0.4770332076192 0.119516425762867 0.66327098173531
-0.477576909711404 0.117914731048462 0.673775496256016
-0.478137129378169 0.116264377128493 0.681317462126027
-0.476402137752405 0.121375497641677 0.682009516311791
-0.476850636963471 0.120054261571264 0.693580719493751
-0.478635708742807 0.114795609683046 0.707699284409861
-0.476633503018534 0.120693917546308 0.711570119655733
-0.476877219256847 0.119975952660173 0.717171560308274
-0.476690004143179 0.120527470600454 0.727376556739885
-0.477009313915448 0.119586814344327 0.733434946563583
-0.477468426544261 0.118234312153455 0.74139236302965
-0.476627136612559 0.120712672373532 0.753675689918108
-0.47700061948736 0.119612427303545 0.762390259334821
-0.478017309598895 0.116617354815901 0.77057402982184
-0.477291047048909 0.11875685529652 0.782402990269846
-0.47724701127284 0.118886580509619 0.786890954312057
-0.478619155460389 0.11484437408056 0.802173260227175
-0.478072112854755 0.116455909630198 0.804012316691793
-0.476308413924778 0.121651599134529 0.81460034458331
-0.47669507037405 0.120512545965579 0.822284532268566
-0.477918481814145 0.116908492081583 0.829373293343119
-0.476899881611227 0.119909191516991 0.839220701887122
-0.478917490419565 0.113965507631292 0.85116607914873
-0.478538295576595 0.115082579616896 0.860967000241573
-0.478158294841779 0.116202025683322 0.859307407110036
-0.478346539821662 0.115647473855002 0.868131026510343
-0.476265474118882 0.121778095723611 0.880806805295362
-0.478045970077372 0.116532923768922 0.886071522287044
-0.47901663841549 0.113561185125171 0.900229058742573
-0.476623767996007 0.120114584735179 0.900825073837494
-0.471236287969086 0.116707244614856 0.911741462831359
-0.468875970810404 0.121772819504188 0.912349544529795
-0.132804227462912 0.135636266012279 0.651340836812857
-0.130523756541569 0.136172656503309 0.651340836812857
-0.108591299791664 0.136499554119348 0.651340836812857
-0.102136131788739 0.132969434559179 0.651340836812856
-0.0954212533112696 0.133368624274855 0.651340836812857
-0.0806625672029774 0.13869873215922 0.651340836812856
-0.0679727615331558 0.133796151171136 0.651340836812857
-0.0499424977902252 0.132623893855427 0.651340836812857
-0.0365528362217584 0.14257081141239 0.651340836812857
-0.0229997277117059 0.134894801905525 0.651340836812857
-0.013057120524094 0.143960090458697 0.651340836812857
-0.00761860907834962 0.14124995942733 0.651340836812856
0.00975549695959162 0.14225054922757 0.651340836812857
0.0214672260809731 0.142343318094465 0.651340836812857
0.0330062113799408 0.146244333746356 0.651340836812857
0.0551343595096592 0.139238939716452 0.651340836812857
0.0675807338707816 0.145749095293314 0.651340836812856
0.0711781576613907 0.139780840836419 0.651340836812857
0.087138369941911 0.146945673416373 0.654869325724478
0.0906753955922393 0.139773294917817 0.669036834551659
0.0897529782833755 0.141643772185115 0.675416313028017
0.0886473688432686 0.143885726346598 0.681342138276925
0.0901016400937531 0.140936755974536 0.686667536378557
0.0878879086885851 0.145425759194101 0.703974861952113
0.0885099815870551 0.14416432014259 0.718394537286355
0.08618973268477 0.148869319479108 0.730934551469592
0.0872247290401144 0.14677055448868 0.728566424606329
0.087624170484987 0.145960567365638 0.748253699048303
0.0877822101287125 0.145640094670601 0.763037447260798
0.0909449780896424 0.139226635690796 0.767107162922715
0.0865069549979063 0.148226056262234 0.781187394276038
0.0880544545112286 0.145088037674539 0.790412411756619
0.0876529480091558 0.145902212319338 0.798588166362055
0.0899291125244657 0.141286607276363 0.806909648457562
0.0888133781715362 0.143549092730012 0.814042623036717
0.0903652006855828 0.140402307964035 0.827004211506872
0.0879190659126055 0.145362578593863 0.836791780796842
0.0903463365761813 0.140440560593799 0.852990462800255
0.088421497647272 0.144343747822767 0.851825653731504
0.0865776497340705 0.148082701518515 0.872168090512668
0.0872940693694024 0.146629946210416 0.877897210578773
0.0893800425089115 0.142400011125554 0.891230861268594
0.0862352391652981 0.148861777246175 0.9002342899328
0.0936430021751999 0.143608871563796 0.909702836036624
0.0948231006203849 0.140288897573175 0.90929196751552
-0.474487463165781 0.126467123255919 0.465350356157271
-0.47473232463784 0.125970593309306 0.475081555602115
-0.475378651493497 0.124390590933878 0.486606977124727
-0.475196951747804 0.124925861124039 0.497282719040966
-0.475133601509054 0.125112484909411 0.502752377618558
-0.474924845980856 0.125580198645068 0.505262033800162
-0.475085241712218 0.12525494827693 0.514177265515388
-0.475445475293149 0.124193734368061 0.531393272941688
-0.474759593675107 0.125915297171844 0.533534097174304
-0.473342052712519 0.128789785888073 0.54253040788461
-0.47329327418879 0.128888698949323 0.54504689157588
-0.474762998361408 0.125908393150998 0.565996567510957
-0.474221225243771 0.127007000354956 0.572093127472934
-0.473237266583835 0.129002271137158 0.571792052862035
-0.4729500579339 0.129584672665743 0.584259515673573
-0.475652229405204 0.123584656394646 0.595362764465732
-0.473652959336056 0.128159329622791 0.600806781069805
-0.473086753380982 0.129307481719893 0.610136935971199
-0.475847081447 0.123010640789576 0.617152346580354
-0.474591132140703 0.126256903370567 0.627808961473926
-0.475631038319198 0.123647083320962 0.633204012847526
-0.473881201295059 0.127696500714816 0.641095905251927
-0.47436011020727 0.126725369509027 0.648434282824202
-0.476243502608388 0.121842821706333 0.665697059951818
-0.474740410899778 0.125954195992184 0.6663453679901
-0.474041012205744 0.127372436245698 0.675900329585337
-0.473192747158434 0.129092547601362 0.682805880585793
-0.475103380853752 0.125201512089107 0.693214499750435
-0.473215352913512 0.129046707664733 0.700714900358806
-0.473502230904351 0.128464976646466 0.708123103641035
-0.474962089090989 0.125504677088613 0.724074549141732
-0.474894498404823 0.1256417374416 0.732897833993438
-0.475386478336547 0.124367533797766 0.738381749091096
-0.474847722619426 0.125736589351256 0.744757516017936
-0.475440162890025 0.124209384203009 0.75360952074057
-0.475622505229842 0.123672220991602 0.765730223250284
-0.472821756416673 0.12984484240565 0.7650838144571
-0.475015361907141 0.125396650503876 0.781457716389828
-0.472554993615119 0.130385783855112 0.781977345817967
-0.472868971987545 0.129749098699269 0.793004252109025
-0.473385888708394 0.128700895281853 0.797772290766322
-0.472685446498824 0.130121251575548 0.812727602493229
-0.472642948794692 0.130207428394573 0.812250206772951
-0.476204355590808 0.121958145101338 0.831104979509474
-0.473176257847542 0.129125984616128 0.835460914878701
-0.473596349988901 0.128274122023098 0.842136368804255
-0.475866819157778 0.122952495368616 0.854775445511941
-0.473531468614247 0.128405688435823 0.860115152653468
-0.473812537261967 0.127835737600058 0.87241308095073
-0.473523295691789 0.128422261483097 0.877153020347965
-0.475321573610342 0.124558736955513 0.882741187442165
-0.473635081669007 0.128195581945342 0.898865811231647
-0.471880760290032 0.124355368876853 0.908614393808345
-0.470998117501919 0.13028886265817 0.905476764497881
-0.464775531858832 0.128662436942205 0.912655070631604
-0.452411676169316 0.125768038162395 0.912851164738912
-0.126872866975725 0.142642147992152 0.651340836812857
-0.109094242291885 0.142765405575914 0.651340836812857
-0.09807600778206 0.140478374885046 0.651340836812857
-0.0875828592175288 0.145026156838428 0.651340836812857
-0.0694150943283114 0.149123689135279 0.651340836812857
-0.0684854175848544 0.14964578675098 0.651340836812857
-0.0515652471778786 0.147748762824436 0.651340836812857
-0.039635198059823 0.149209214974264 0.651340836812857
-0.0193805562660069 0.152483124165253 0.651340836812857
-0.0148007466108823 0.151374283263779 0.651340836812857
-0.006468716769727 0.146138108358785 0.651340836812857
0.00662768548909469 0.145847207555931 0.651340836812857
0.023398362275133 0.153787685772918 0.651340836812857
0.0350001913098358 0.150651580879706 0.651340836812857
0.0449937816947878 0.150092706241449 0.651340836812857
0.0675551748487704 0.157281283166798 0.651340836812857
0.0779531970294286 0.155215728809346 0.653653703663774
0.0813950528280145 0.156166737624103 0.656327668810228
0.0830267167280023 0.153724780028647 0.670032604128289
0.084360407558109 0.151728770646696 0.669918714663609
0.0845303858760931 0.151474380116473 0.688360704312704
0.0810681883561478 0.156655924876309 0.695558641061334
0.0802269452935736 0.15791493409156 0.703745471269086
0.0811430078514533 0.156543949588475 0.72013466944953
0.0832162583722431 0.153441110911612 0.727167318531974
0.0833063925554012 0.153306215573683 0.735155790494853
0.082102515667883 0.155107944661084 0.749067487881751
0.0798087625356555 0.158540788816908 0.756992287158334
0.0809156179632265 0.156884262605567 0.774341862205502
0.0796198020560081 0.158823588159664 0.778143286384031
0.086007426841764 0.149238999158536 0.785666668821705
0.0837232187479442 0.152682391091895 0.799033530070886
0.0843573548905605 0.151733339286541 0.815014600169335
0.0847614710639934 0.151128536692595 0.818468289494208
0.0841062239788359 0.152109183256211 0.831336142604533
0.0827583321713111 0.154126445902803 0.848992259804102
0.0829392682015249 0.153855655997311 0.850537250851424
0.0835889674738726 0.152883312322315 0.859184925818428
0.0819334965269032 0.155360899681475 0.869350897613216
0.0838683249980271 0.152465224241822 0.883346300452985
0.0824141135800686 0.154641605430072 0.885697518066686
0.0850957080729902 0.151196957740939 0.901275682820703
0.0874604596011985 0.156645857068538 0.910656265699429
-0.469919462085319 0.135730113115164 0.459305109844017
-0.469975539194701 0.135616399986295 0.475714967552283
-0.471156386528573 0.133221878468829 0.479451154269832
-0.47087226441719 0.133798021116384 0.492542734755183
-0.468431944512897 0.138746500358969 0.489818615439583
-0.470432012842175 0.134690762996923 0.503038370996419
-0.472328003386316 0.130846074505336 0.509741677429373
-0.47003496482108 0.13549589673666 0.519900325172288
-0.471926425461167 0.131660393981806 0.532613578496152
-0.471161742482667 0.13321101766832 0.535281688343865
-0.470448465275876 0.134657400761702 0.544719955812348
-0.471419063980426 0.132689221289044 0.554066799395308
-0.47015326173022 0.135256014335049 0.560712816492938
-0.470340728005342 0.134875870334463 0.572666201876909
-0.46943078372051 0.136721054811091 0.571749914129347
-0.471764691092784 0.131988358837294 0.589748589168329
-0.470306166559763 0.134945954013141 0.597962100746413
-0.471997924944897 0.131515407371456 0.6080996848733
