ply
format ascii 1.0
element vertex 856
property float x
property float y
property float z
end_header
0.103642388616198 0.250034919045522 0.288482893351118
0.0955010281174213 0.256282004675099 0.285585894420714
0.0981920952352454 0.25421707624913 0.306281229738023
0.104996991435381 0.248371689195933 0.319254163235888
0.10440359384186 0.249145019995993 0.327769123094822
0.102261774634814 0.251094301413419 0.334867971620444
0.0976229765772966 0.254653776354736 0.340819009309061
0.103083051463769 0.25046411353796 0.353207734230787
0.105593332510994 0.247594522375328 0.366890731467824
0.105730493858754 0.247415770226754 0.383036650851414
0.103437284743452 0.250192300782418 0.38141778240278
0.101030472962303 0.25203911241708 0.391556098750269
0.100777614403363 0.252233137613497 0.402687287448873
0.105889467472647 0.247208591779517 0.410420510147746
0.106511073051317 0.246398499617494 0.418550449209128
0.106579391939538 0.24630946470892 0.433679847509093
0.103953991591915 0.249730953055809 0.442086045443379
0.0966620285196324 0.255391137733428 0.441942973587049
0.0991901128642604 0.253451270387908 0.456149376452783
0.101103279583696 0.251983245931581 0.469755648959945
0.0973630614966192 0.254853216210723 0.469793517497029
0.101834972944377 0.251421797869006 0.487419151236459
0.100280166713261 0.252614842651219 0.496191379618884
0.104149975239355 0.249475542193802 0.510419028452994
0.0957299612084949 0.256106338135877 0.509917553896463
0.0956191024627108 0.25619140304337 0.528142757212362
0.101758995727045 0.251480097238337 0.540754143822195
0.0996163047711023 0.25312424183573 0.549944016959585
0.0997759556287971 0.253001737423966 0.558371925866327
0.102671720268511 0.250779739065079 0.564765851028515
0.105479143543561 0.247743336334984 0.578646889065982
0.103953799149332 0.249731203851864 0.581356866851466
0.106057970484931 0.246988994378507 0.605875558156965
0.101461414117347 0.251708439638584 0.609588139958659
0.0983710369069953 0.254079769475122 0.614236077591754
0.0987840753502887 0.25376283393051 0.625087999890476
0.105207182653104 0.248097762667849 0.635782006737289
0.105217681702246 0.248084080040616 0.639253228669456
0.105579678390971 0.247612316770985 0.652993108475849
0.0995921193492868 0.253142799962604 0.652181473934713
0.0971677899786067 0.255003053316478 0.668229493548725
0.104524392541054 0.248987592066197 0.682487028566568
0.0973952698969473 0.254828501835912 0.693048304821525
0.101148183017351 0.251948790315085 0.70032229388014
0.0974012697109859 0.254823898016677 0.711717541041813
0.106934866593098 0.245846201120998 0.722265945562031
0.106071626434379 0.246971197598697 0.732057938120511
0.09791679316039 0.254428322961013 0.738078254304936
0.101125619501794 0.251966103909516 0.750354295832341
0.104514119764302 0.249000979809511 0.759304773545932
0.105486230592544 0.247734100312931 0.769063697308403
0.103376779354813 0.250238728200039 0.783511439096283
0.101439224951165 0.251725465984636 0.785561637265934
0.0951304877858085 0.254876106830102 0.794299846678495
0.099356094395036 0.246926741347207 0.799546974107875
0.0853536488057291 0.256644924877371 0.800177119206838
0.0673791750193989 0.256949025626784 0.803030938223337
-0.294500827154106 0.284430194809207 0.544423566852866
-0.293075991655625 0.285020380996829 0.550844200820304
-0.29882660898972 0.282638397305029 0.557723253591039
-0.286082954057942 0.287916992011975 0.577387716946522
-0.28581060142519 0.288029804166208 0.588198399189003
-0.286098704638868 0.28791046790774 0.594636458675191
-0.286468164679774 0.287757432548042 0.60683953876506
-0.300242581359742 0.28205188234542 0.612049841586543
-0.287538263539369 0.287314183087317 0.631979908467185
-0.293729658356295 0.28474962338414 0.633819682359678
-0.283630257083179 0.288932932363313 0.652045973150551
-0.28609872088953 0.287910461176495 0.6652178462638
-0.292598335206134 0.285218232776363 0.679785244864353
-0.28367242260013 0.288915466834327 0.691826282453073
-0.291072310213023 0.28585033302503 0.697753373617246
-0.282263901790918 0.289498895256388 0.710180489082095
-0.302593507863595 0.281078096703382 0.71622922517918
-0.282881757564869 0.289242971015226 0.738830787820215
-0.301706183415522 0.281445638523999 0.733068373607625
-0.293353633088187 0.284905378149985 0.750148963639311
-0.301237126021971 0.281639928457939 0.76019882820803
-0.281619003125562 0.289766021029934 0.775586500837206
-0.303360612787945 0.280760351439953 0.77729636407754
-0.302791924118259 0.283108801618672 0.788541689118006
-0.309561521425511 0.286009166795215 0.799070969645376
-0.319744498037391 0.290284025380725 0.803078764906054
-0.323057836587552 0.28354264137204 0.802319049731398
0.0838355183410293 0.265233265155057 0.0791116912651932
0.086565278970812 0.263138646153102 0.0859497085101739
0.0877720744164523 0.262212639438692 0.0975611578409324
0.0837364225627828 0.2653093040201 0.0999143868998571
0.0915487605775545 0.259314686222152 0.125518746235008
0.0846346973840523 0.264620033507119 0.120745152423598
0.0813355178308868 0.26715158301645 0.129245845523628
0.0819820101753373 0.266655511993032 0.144857331305305
0.0848848770854148 0.264428063870418 0.158818347609258
0.0862348687733088 0.26339217881475 0.164164272641497
0.0924923484363428 0.258590645792574 0.180388891616758
0.0878079949148125 0.262185076670879 0.179133233640457
0.0837303093948935 0.265313994818804 0.191859587721414
0.0875716370272878 0.262366440456798 0.207217069796976
0.0844593898427056 0.26475455171479 0.209835859496198
0.0874374891690359 0.262469375728815 0.220713957299405
0.0921309454200038 0.258867960080549 0.237469724961583
0.0897206221495193 0.260717466175745 0.244942038016156
0.0898418859428218 0.260624417194479 0.257936811421636
0.0890323534719151 0.261245593307051 0.262961372769337
0.0886816751379688 0.261514678256788 0.272570546361299
0.086646620344026 0.263076230722196 0.277662776915575
0.0842907512665137 0.264883952645516 0.28660320911755
0.08164026929124 0.266917738996296 0.29465215346469
0.0864731512568387 0.263209338234375 0.312571184389018
0.0921200891137702 0.258876290417311 0.325681577294276
0.0881224667611315 0.261943773936239 0.337266120832948
0.0941082394851125 0.25735072898122 0.346062901940556
0.0902558143823977 0.2603067987317 0.354289895312325
0.0847572602343415 0.264525987724368 0.359186927515987
0.0839917896018636 0.265113353999173 0.366915432598668
0.0863131440151299 0.26333211610921 0.379263066446998
0.09376334962218 0.257615372280928 0.392768945102983
0.080440434833986 0.267838404356454 0.391008598762206
0.0852576123797283 0.264142054019719 0.407021231490523
0.0925158689005912 0.258572597905587 0.419876185661203
0.0833136120986147 0.265633737900056 0.430452927812588
0.0885004722324355 0.261653720136504 0.43403596371408
0.0834248312629711 0.265548396433666 0.442208308271766
0.085661735939618 0.263831959105738 0.455204635899615
0.0908746321209113 0.259831963180299 0.472652383558522
0.090865214809005 0.259839189337879 0.477556831238261
0.0883695711591564 0.261754164062786 0.492481241128201
0.0818378505561781 0.26676612955939 0.486645990082055
0.0917508918529521 0.259159585439425 0.502826332516704
0.0888538042826674 0.261382598918642 0.509870513355502
0.0927165720106479 0.258418592992669 0.521163218853612
0.0862162339718805 0.263406477800802 0.533921918466642
0.0862988249152402 0.263343103540999 0.547733879882212
0.0825259071047179 0.266238165200439 0.545554751218804
0.0812264725695513 0.267235256388385 0.55499706624851
0.0927475823664261 0.258394797909774 0.581638027601366
0.0822879976863037 0.266420719517883 0.585358769026875
0.0896004038826215 0.260809712896383 0.595517052349109
0.0896919324023441 0.260739480593031 0.601437945097526
0.0926128071397718 0.258498214578497 0.611978177760085
0.0823065439094051 0.266406488500372 0.622722764052236
0.089194225021419 0.261121384898531 0.627624339454876
0.083294267603974 0.265648581452863 0.643911720036134
0.0831257030485486 0.265777925585457 0.640308727786537
0.0900139638735852 0.260492377154168 0.664441476642169
0.0838638965785555 0.265211489767532 0.660300379363423
0.0861672927005194 0.263444031759143 0.675819720684067
0.0922277941829108 0.258793645411018 0.69257374921679
0.0940325921829451 0.257408775197741 0.704760879947846
0.089662396229773 0.260762144495366 0.70868097218144
0.0883882253192195 0.261739850222331 0.718286785242053
0.0921979813830563 0.258816521576933 0.731636912774373
0.0905924978801509 0.260048452397468 0.736058403393395
0.0811411747391475 0.26730070771567 0.748169080300982
0.08433395310807 0.26485080270656 0.756653614748308
0.0867422788612983 0.263002829360263 0.767139017018975
0.0923043371458736 0.258734911929796 0.783104332384283
0.0870816211155036 0.262742442890449 0.784980325984758
0.0800624504179421 0.263360856410726 0.798251943849975
0.0836057913157895 0.261424910461116 0.797435447026099
0.0660713860971 0.268733701894803 0.801596280302881
0.0627328665821228 0.265323379243134 0.803035833612175
-0.276897861808989 0.291721581793139 0.560257918947845
-0.269394805361724 0.294829449532847 0.583974118372646
-0.280110613948441 0.290390816284435 0.583159577913392
-0.261983634691178 0.297899256937649 0.609567714962911
-0.265335845348571 0.296510725819425 0.611510785053424
-0.260628052661844 0.298460757399108 0.623340270085736
-0.263170603159211 0.29740759850008 0.641418201989687
-0.272822868959952 0.293409499097783 0.650982294056301
-0.271475943594109 0.29396741385182 0.655684656479246
-0.262711620172077 0.297597715478249 0.674685299098683
-0.273278291764819 0.293220856795393 0.67522268335852
-0.281568597701548 0.289786899640178 0.680568763049488
-0.277440219513903 0.291496929876106 0.692852458818464
-0.279272894628611 0.29073781098817 0.700205475217082
-0.276568017725184 0.291858207686119 0.715786759427476
-0.266019836528133 0.296227407396307 0.728241519551669
-0.269589281365887 0.294748894934366 0.748165397550209
-0.260826110579915 0.298378719123308 0.765425172398935
-0.280586615118695 0.290193650144009 0.764357983115931
-0.263982521975867 0.297071290714675 0.780949133908412
-0.281618773441003 0.289766116168393 0.777460186533694
-0.270048582541252 0.299478597906112 0.795377159591983
-0.289151213810047 0.290535636648777 0.793059097454548
-0.295692564670948 0.297030942856583 0.802138785172865
0.0737832976821192 0.272946605355758 0.0674893716714138
0.079297485980656 0.268715419857493 0.0878620720488562
0.080192613686301 0.268028564211264 0.0927790360192123
0.080398365317071 0.267870685432154 0.10825169483529
0.0721946607607217 0.274165609339647 0.0976261070774151
0.074161958993846 0.272656048311967 0.117724077402426
0.0802992937952265 0.267946705684605 0.12217817021866
0.0796275431039152 0.268462158119242 0.129300991734878
0.0772795837754272 0.270263810678668 0.144250354064158
0.0710298407227588 0.275059407190914 0.146815024523544
0.0667627967940582 0.278333625156298 0.153559096092929
0.079102866679987 0.268864756499278 0.172333482597449
0.0723381382171275 0.27405551521518 0.179726301649034
0.0720295336570212 0.274292315822763 0.182219373633129
0.0743069016374977 0.272544829909784 0.209479303128314
0.0780342723805119 0.269684717744466 0.212868215472531
0.0752938451699098 0.271787521501753 0.221420310386454
0.0801271397653403 0.268078804117826 0.236492679460896
0.0788459515877311 0.269061894383186 0.238914931516642
0.0786266843238235 0.269230144072362 0.251929023272852
0.0703276972196643 0.275598180850272 0.257131266017112
0.0701978400239126 0.275697823781156 0.265856056983464
0.0710447970379165 0.275047930806653 0.273300222836234
0.075154536399136 0.27189441688123 0.296461421166854
0.0757055859135566 0.271471581717102 0.299053751584243
0.0725510389612298 0.27389215072847 0.31326901280737
0.069711232823689 0.276071210618433 0.315701610692583
0.0812754273440183 0.267197692068746 0.338596160456764
0.0706371980745096 0.275360692491548 0.3323758861915
0.0787446849717703 0.269139598990593 0.351584814662492
0.0809521805744076 0.267445728038845 0.364124099599259
0.0742285401002144 0.272604958832161 0.372275348433932
0.0756977109241492 0.271477624409004 0.379543772848906
0.0788697925630291 0.26904360055942 0.389102921497795
0.0803564020452202 0.267902884983149 0.399831342099618
0.073711886165151 0.273001401339981 0.399274347590327
0.0801334072718946 0.2680739948909 0.418990360965191
0.0772818883217059 0.270262042338113 0.430957591588618
0.0689847181692659 0.276628684919934 0.43718879160423
0.0783362872330314 0.269452973597357 0.452218372944111
0.0742894597632405 0.272558213530623 0.456847230143356
0.0745647608889058 0.272346967547079 0.465040387515144
0.0791194005278029 0.268852069631634 0.477079526949307
0.0728244286659422 0.273682371429808 0.486376342889066
0.0774673989453894 0.270119695030004 0.494685198848836
0.0742828068985913 0.272563318453215 0.511324108927862
0.0785320943571302 0.269302725506598 0.521112612303337
0.0795865336279915 0.268493625796881 0.532028253954821
0.0767495527458667 0.270670517792116 0.534730233463398
0.0769301013432537 0.270531977980699 0.551245861345834
0.0788912646271131 0.26902712446516 0.552117425383223
0.0787620351584776 0.269126285724086 0.568390840324812
0.0672015685582909 0.277996943740039 0.565665851467919
0.0718834082904788 0.274404441760139 0.580466327116016
0.0766878253070914 0.270717882921787 0.591821421547635
0.0711981075167368 0.274930291538714 0.605834364306322
0.0763032588604375 0.271012971134975 0.609853387188568
0.0679677664519179 0.277409019418126 0.618253805053114
0.0802881696898788 0.267955241510856 0.637886181511979
0.0775042833946292 0.270091392596665 0.64534249691028
0.0699393729206668 0.275896152564981 0.651128888770609
0.0738743537088914 0.272876735608998 0.662021856836721
0.0802471162470196 0.267986742925511 0.678024304342367
0.0730582743799569 0.273502935302421 0.67820545341874
0.0684768399571796 0.277018393578674 0.69267420580179
0.0757666831157989 0.271424700184932 0.692122568233612
0.0698012281592533 0.276002154768662 0.706600665513794
0.0777302781033198 0.269917980757547 0.719700943098613
0.0715378957870142 0.274669562828731 0.720601696961149
0.081408160178982 0.267095842582287 0.743662645164727
0.0793859514847612 0.268647537888688 0.74937342340215
0.0743168014908099 0.272537233485161 0.750621504337813
0.0769258227940608 0.270535261026964 0.764601834433915
0.0709585440142552 0.275114115079503 0.771819829525968
0.0664197325665649 0.278596867596664 0.778523299001051
0.0720280506930416 0.274293453741047 0.787003226050851
0.0626767106736978 0.278416063441494 0.796463828379308
0.0579710599597278 0.278037553226256 0.799943039153385
0.0446556432059522 0.273252468169094 0.802911585363724
0.0361031754076251 0.274523324882726 0.801430875409442
-0.251141090725321 0.302390385698934 0.603135468061017
-0.240527103661271 0.306786843091716 0.622829406139954
-0.252634956237647 0.301771606343366 0.622466659605253
-0.253604800556334 0.301369883673176 0.638861550117725
-0.25252890332356 0.30181553489871 0.64535794978279
-0.252000777659176 0.302034291711535 0.666980751460545
-0.246257829377539 0.304413098777797 0.673998775656659
-0.249721403385646 0.302978439449356 0.677116848421306
-0.244576201608596 0.305109651806556 0.691356818282538
-0.24372898144292 0.305460581889495 0.703776162173069
-0.243862964847705 0.3054050841461 0.71874826132725
-0.246843270799772 0.304170601000733 0.725874686700023
-0.244281202077039 0.305231844613421 0.736612583644706
-0.24687843349353 0.304156036136089 0.747054929218231
-0.245934465962069 0.30454704029006 0.7636330337129
-0.247906775224844 0.303730083044224 0.769310227647253
-0.243243015452364 0.305661875593635 0.786444515249321
-0.253421534721479 0.301445794867492 0.786818724148746
-0.257493012150444 0.30373513200068 0.793253108069792
-0.267986991345444 0.305619746668616 0.800779792753566
-0.281863825655101 0.304537393415553 0.802797291209434
0.0592843910610527 0.28407200770229 0.0536116500407795
0.063072881306492 0.281164996893269 0.0569729821015828
0.0600679994621045 0.283470723828155 0.0738237267754337
0.0661434615331928 0.278808857816567 0.0831336717396442
0.0544425447487594 0.287787287049359 0.0823882145196469
0.0664282163749027 0.278590357741565 0.106852285860685
0.0625484029257208 0.281567443309446 0.114462143103235
0.0632539171656074 0.281026083192777 0.123333713962658
0.0522125436548787 0.289498427071916 0.117913305303211
0.0656616885784167 0.279178535206845 0.144898149615378
0.0551849093254994 0.287217650674707 0.13915230953836
0.0535645002382817 0.288461034298895 0.150973666750844
0.0612926268864906 0.282531034155205 0.171615571454492
0.0587278843510682 0.284499030319852 0.173677646744866
0.06416777964252 0.280324851850941 0.187856404171828
0.0600591794314053 0.283477491675746 0.194524450134547
0.0539200422341952 0.288188217330071 0.1998405015228
0.0580212815698463 0.285041225703665 0.207178928690319
0.064943096100894 0.279729930608207 0.230633772833835
0.0644157895740395 0.280134547137199 0.241101352726608
0.0641739903266442 0.280320086225399 0.247263046403771
0.0586024354879075 0.284595290618167 0.253113762464442
0.0624690971360198 0.281628296782187 0.26734173900447
0.0551604743100102 0.287236400321543 0.269732267787501
0.0594252607859077 0.283963914560619 0.287326774613523
0.0561074748698745 0.286509741234328 0.296434981910928
0.0587817927747694 0.284457664931467 0.301545563026664
0.0643122121647096 0.280214024878723 0.318665164581728
0.0650603573078198 0.27963995291949 0.330228148290531
0.0652209615698084 0.279516716934881 0.3387657778322
0.0546609128466661 0.287619727314521 0.33144426050154
0.0583056138124006 0.2848230499004 0.350832944951442
0.0536936987098312 0.288361896824869 0.362657607532145
0.0599577642207349 0.283555310303885 0.372971317358891
0.0545275010009955 0.287722097824221 0.377073287439586
0.0650133049812313 0.279676057439528 0.399136968623743
0.0639521173784406 0.280490335326458 0.403678020694954
0.0643433234895338 0.280190152319554 0.416153462192285
0.0613547918322197 0.282483333314641 0.428247160403013
0.0559333431550439 0.286643357198581 0.43624201689545
0.0514108378701791 0.290113597556935 0.428834415799683
0.0636276363588749 0.280739318369858 0.458657609686704
0.0544529572557481 0.287779297251734 0.454587136699327
0.0566941314876119 0.286059583778862 0.46576823769807
0.0571379385559838 0.285719038637844 0.477505768086466
0.0587409768484531 0.284488984093269 0.488496690435501
0.0658434419539221 0.279039070936664 0.504948018040238
0.0563833736197169 0.286298036677624 0.50648924828505
0.0542099573583379 0.287965757631093 0.514255097038744
0.0606032360146005 0.283060022376472 0.529935646408655
0.0607452098889395 0.282951081991104 0.5448093818356
0.0565948414270289 0.286135771721985 0.540463449195283
0.0667089759800481 0.278374923319403 0.567423979999643
0.0654249949688812 0.279360156601324 0.570672375663141
0.0622713710024071 0.281780017380737 0.581448733970333
0.0646167071270622 0.279980377676407 0.596307298268906
0.0527122573588905 0.289114983260565 0.597843942934393
0.0638313954567171 0.280582968515037 0.61353091932848
0.061508215030153 0.282365607554284 0.620689185139885
0.0653250195355781 0.279436870449432 0.63504029585645
0.0560538857361526 0.286550861622895 0.639398521264549
0.0587588497099027 0.284475269764326 0.654636198690389
0.0556516022587292 0.28685954459194 0.653192788554562
0.058701009451783 0.284519652155373 0.668608716599065
0.0633819753972982 0.280927820655569 0.675166158820247
0.0530449980529209 0.288859662346036 0.683433470176961
0.0583677837027742 0.284775345265677 0.695586135667459
0.0635259196654564 0.280817368333846 0.711189389376268
0.0603085901616658 0.283286112091326 0.722347015632792
0.0611548097441054 0.282636784967963 0.729054659744809
0.0645128628948925 0.280060060158297 0.739598057549316
0.0645013967138136 0.280068858468488 0.751952011351522
0.0625708568866873 0.28155021377921 0.754164105014126
0.0621067951885625 0.281906300844268 0.77080532002049
0.0623234998962553 0.281740017473633 0.775347408398249
0.0531521520487515 0.288777440193166 0.780385405896457
0.0557113194770246 0.283615441247944 0.796615410198318
0.0553298531270306 0.283482505559819 0.797059289881256
0.050519303205355 0.281860321024613 0.801106698545786
0.0306235468309465 0.283313687651438 0.802837210916672
0.0110910568574402 0.285348968258281 0.796704406344913
-0.230871981987709 0.310786125435267 0.628509386626492
-0.232493974498439 0.310114274139255 0.634980595351793
-0.235980834573544 0.308669969406049 0.64953152942275
-0.216450020734861 0.313656744996346 0.676113444195148
-0.230664962191045 0.310871875842725 0.67378172652007
-0.214986087936702 0.313849475405523 0.692169420921544
-0.239054220508446 0.307396931269406 0.692206242514779
-0.229051360283678 0.311540251637027 0.70137092280146
-0.224429358531281 0.312606245246354 0.723986282609114
-0.220720547016795 0.313094519545317 0.73922001396956
-0.236822618719919 0.30832129099603 0.739251900630568
-0.230319702143171 0.3110148872371 0.744570913782521
-0.224646455767024 0.312577663853049 0.762957522931281
-0.228388910228851 0.311814647434132 0.769449985064463
-0.221223983600238 0.313581266059737 0.788541689118006
-0.236162305029845 0.312109201346047 0.791908456708643
-0.229562849221326 0.316441252914665 0.796958180258756
-0.249586902518415 0.316834703805078 0.80241135676653
-0.258530138400693 0.314949767853517 0.802888963637754
-0.272657552529609 0.312093668033567 0.803256473819907
0.0470146267122314 0.293486929023282 0.0451671381686748
0.0510751372127007 0.2903711897313 0.0507172720426849
0.0470221854001807 0.293481129038025 0.0560079965688141
0.0496028856234666 0.291500888108815 0.0756959674540389
0.0381622022590787 0.300279633215231 0.0644832954059328
0.0399063230069276 0.298941322295113 0.0712484355916301
0.044717158058795 0.2952498387251 0.0915352157688448
0.0392874886727024 0.299416170580852 0.102543897307817
0.0367619803462545 0.301354061278101 0.103430257495323
0.0380663739489812 0.300353164863782 0.118263626584157
0.0411835260262442 0.297961289949263 0.134850663749001
0.0451443552217765 0.294922038812756 0.136771060994814
0.04006416558599 0.298820205424346 0.155930260754148
0.0443288790217644 0.29554777570908 0.156637466416387
0.0442934450048413 0.295574965186557 0.173622899444589
0.0456532953374319 0.294531515326749 0.18199941192314
0.0503510683779795 0.290926787289337 0.20102833263206
0.0401868826021626 0.298726041345953 0.197005139799413
0.0421972021212584 0.297183468924489 0.211497791469194
0.050382519281997 0.290902654161887 0.221603271324498
0.0480982502268679 0.292655435455693 0.234059445780552
0.0436228797117793 0.296089508033126 0.240395086484057
0.0497653072297989 0.291376257626845 0.253311811917398
0.0388573424060326 0.299746233420046 0.256661510004429
0.0423391068005477 0.29707458163435 0.268164554112731
0.0455648367837739 0.294599391962288 0.27939895295032
0.0451378945437043 0.294926996265401 0.283375196143615
0.0445920812839382 0.295345813510017 0.302438977628112
0.0421298155423373 0.297235176465123 0.307393388124304
0.0503802764715283 0.290904375130889 0.325855904256309
0.0433208586681182 0.296321256930865 0.325605896023579
0.047019189392652 0.293483427955458 0.339767068882671
0.0388219558518637 0.299773386478071 0.337014122000725
0.0373448462550946 0.300906812535875 0.358615529940893
0.0485335779143022 0.29232139677251 0.371819399876222
0.0368410533746431 0.301293386409397 0.373855046771538
0.0469847213813284 0.293509876190769 0.390455522267254
0.0459287638462409 0.294320140905601 0.405860617879491
0.0490597606173002 0.291917642583892 0.4078438615416
0.0412007726313782 0.297948056163692 0.407985432866118
0.046914237553035 0.293563960334434 0.432146693574352
0.0451982584381089 0.294880677420125 0.437359646631408
0.0404541135285287 0.298520987844129 0.446864592161048
0.0377670335792795 0.300582856808045 0.44821884123557
0.049100674162971 0.291886248516125 0.469328100821554
0.0472241395758725 0.293326164148682 0.481485159976603
0.03850154712388 0.300019244742237 0.488735200000297
0.0389394055751119 0.299683264135692 0.489743437141336
0.0437745420795218 0.295973133405296 0.514369340502167
0.0400213402993325 0.298853066422567 0.509616933126273
0.047249324554034 0.293306839035247 0.529360772397624
0.0509591283988477 0.290460206425013 0.542812217185081
0.0462929672217905 0.294040677826429 0.552040022310777
0.05070340530483 0.290656429656502 0.561913870699161
0.0407569021287928 0.298288649979494 0.561524527097201
0.0411889365928543 0.297957138275483 0.568578702978357
0.0500377468550758 0.291167207349775 0.591341511771543
0.0441931389989273 0.295651932691952 0.59401679958426
0.0493276956315246 0.291712048816453 0.613766996559
0.0502571901045911 0.290998822622092 0.618457552223459
0.0434631932475608 0.296212039766736 0.627168707480687
0.0413042773758436 0.297868634179881 0.631795361086553
0.0387947292032231 0.299794278220365 0.643161015773295
0.0470276932885598 0.293476902686625 0.660083129152999
0.0408097726042658 0.298248081036797 0.661823162767545
0.0420787982283842 0.297274323426974 0.675215936256268
0.05046939669824 0.290835990775758 0.686472337340837
0.0504057873147546 0.290884799972395 0.698499195885326
0.0394902055849267 0.299260620423182 0.697626013808672
0.0458498238892573 0.294380713665025 0.711716702870386
0.0494686135548215 0.291603918690818 0.723783675747331
0.0464443923644602 0.293924485227799 0.739597383750498
0.0372385984343382 0.300988339356155 0.740108670888932
0.0436453115821224 0.296072295453621 0.75154618687517
0.0418429519316063 0.297455294655506 0.756669595778817
0.0422703498721243 0.29712734068114 0.771366520019178
0.0367475565066557 0.301365129079495 0.772326021479315
0.0374920212358695 0.299880178416261 0.792799723964648
0.035008557128591 0.301434060540095 0.793479246812783
0.0328343664126202 0.293283738802182 0.801912362594994
0.0178587272645211 0.296859077672378 0.803132045359285
0.00472260307281268 0.297145761887225 0.802809003981591
-0.00707701977966373 0.299809827315799 0.802003834818515
-0.188279363856998 0.317365482332994 0.682846131872708
-0.198727210240441 0.315989997262204 0.678431310977632
-0.188439054642659 0.31734445864222 0.704208620072622
-0.197804385813824 0.316111489402803 0.700353693453283
-0.169938902033277 0.319780049938993 0.744629149578603
-0.160855266672453 0.320975933221419 0.759517463844848
-0.193946220809129 0.316619426461775 0.742108534023397
-0.179399976024629 0.318534475918173 0.76066428708114
-0.166937420309968 0.32017520250433 0.781895297573318
-0.168744138681767 0.321538177211349 0.788541689118006
-0.19675718298384 0.316249356270851 0.777065545607534
-0.195394698512527 0.324039861384907 0.800163564894563
-0.201027210668586 0.31966410977188 0.796262347534417
-0.226160808723124 0.320486147323286 0.800544712468117
-0.22590314794053 0.324349163070247 0.802483522841802
-0.241077008690437 0.320161704761873 0.802334965400223
0.0182178028411056 0.31101028289787 0.00930664178862577
0.0139657702834571 0.312771532450899 0.0113215943261783
0.0376032243838284 0.300708552024594 0.0535793221944295
0.0303556035565749 0.30598264122414 0.054625121886331
0.0244124997839986 0.308444355409332 0.0494524603885082
0.0339836433218791 0.303485954258605 0.0738222758715619
0.0192150164651308 0.310597223490215 0.0628637026064754
0.0348547062632025 0.3028175641555 0.092169030099254
0.0252259004328331 0.308107433828942 0.088830165191846
0.010156858138752 0.314349235519124 0.0896007205248308
0.0273246626907615 0.307238098037511 0.117847167578595
0.0328058991978205 0.304389669109929 0.129127974158109
0.0331780150617937 0.304104134564847 0.139349590383755
0.0194455846715876 0.310501719012049 0.137022814345038
0.0354197020731105 0.302384027622462 0.161236410896974
0.020831357881633 0.309927712954075 0.159777771611039
0.0285409874276874 0.306734279835227 0.176008414491555
0.015635793755861 0.312079786079149 0.168291909418626
0.0338697520554103 0.303573346101062 0.208461965446266
0.0140954472705912 0.312717818484101 0.201626482403226
0.0341235321412457 0.303378613792189 0.220802424361161
0.0104463194411421 0.314229336721892 0.202443183482787
0.0273774505830644 0.30721623257659 0.236980212934614
0.0212705845290588 0.309745779319755 0.239842111876829
0.0293962051393098 0.306380037060291 0.256945521018407
0.0321718937586412 0.304876158593937 0.269963412185018
0.0130417625287104 0.313154268994653 0.261146972003194
0.0271341182478448 0.307317024130002 0.285143082100746
0.0305172066933753 0.305915703013156 0.302439419887502
0.0135277181488379 0.312952979586085 0.290853703805258
0.0361796451236051 0.30180090281049 0.320232370113409
0.0196920246900508 0.31039964021409 0.31738643818561
0.0217950792996943 0.309528526472364 0.32486353846903
0.0341482188519377 0.30335967101283 0.343746828240062
0.0145067127835286 0.312547466730906 0.336025490717868
0.0279287811503968 0.30698786397825 0.368275969947426
0.0354673143595303 0.302347493430133 0.383937475562379
0.031021006123684 0.305707022456406 0.38803691176167
0.0205009644426093 0.310064566397437 0.385795430308018
0.0266430371667897 0.307520436574 0.395447720019992
0.0236058852142995 0.308778466103709 0.404644827693429
0.0302550172768712 0.306024305425382 0.427268871672039
0.0168522588949526 0.311575909720383 0.423675446073678
0.0233099615088841 0.30890104171592 0.438220638640821
0.0207511150380436 0.309960950628173 0.449447531262347
0.034169472549129 0.303343362477381 0.463148119911493
0.0231419399938812 0.308970638506205 0.472301136766281
0.0155477722101954 0.312116245797144 0.475034624078053
0.0321410863200367 0.304899797973008 0.497067339493742
0.0208963057907531 0.309900810649269 0.49965097074427
0.0277445945159006 0.307064156580266 0.513154091924941
0.0367880813927192 0.301334033240734 0.532545334568945
0.0178431762979689 0.311165458292862 0.522937791214111
0.0362415483767615 0.3017534027737 0.546084861485429
0.0178817195656056 0.311149493148668 0.544315400962654
0.0356070922124032 0.302240238111302 0.570967117078248
0.0127650727319338 0.313268877661049 0.566476793798957
0.0191945719462436 0.310605691887214 0.573576781855635
0.0191990904072938 0.310603820279367 0.582574247525482
0.0282931858903598 0.306836922592765 0.608244487945049
0.0302649373386996 0.306020196401234 0.611028062332763
0.0309779003323666 0.305724877459786 0.620234796285251
0.035891722025041 0.302021833974481 0.64547509939082
0.0322177136319137 0.304840999768589 0.643027060985088
0.0280262323029777 0.306947498389182 0.64801254276302
0.0249543580371402 0.308219910371997 0.655399625475831
0.0231043455096876 0.308986210651428 0.668911185320308
0.0288516092565721 0.306605616060933 0.681674049100301
0.0304197530016276 0.305956069653981 0.69384864851751
0.0203540396759306 0.310125424628444 0.691757335786392
0.0200703204588325 0.310242944976072 0.706505439640779
0.0255926297167712 0.307955529585815 0.7251544466825
0.0172170031931211 0.311424827685283 0.727345220886251
0.0332540641353994 0.304045780058259 0.739386732894545
0.0133852616681007 0.313011986992455 0.74409537427834
0.0374677411140187 0.300812511993939 0.774221001695745
0.0351703651827579 0.302575350547528 0.779300537485795
0.0283923493910411 0.30679584772589 0.779786549395364
0.0327588165779833 0.303127034933348 0.793543601132545
0.0167279162292895 0.308090130922685 0.797954557003557
0.0123537187873153 0.307542002405613 0.800058757490159
0.0067449045305263 0.311825105768692 0.798440472669117
-0.0207930253409987 0.306847983096444 0.802527540169219
-0.0295799129680098 0.311708642904873 0.802852471391858
-0.051658495622258 0.314805861403985 0.800112934889558
-0.0516319027599491 0.318125214536568 0.801949854895652
-0.0731754767086002 0.31980711664802 0.799607510619116
-0.156720101123073 0.321520338093932 0.753336394346415
-0.097358163770744 0.322465534075479 0.799204438569113
-0.111318337575259 0.325761735608882 0.800323439024196
-0.155930611238117 0.321624276409106 0.778948041581053
-0.157516552480283 0.323414962545364 0.790555851848635
-0.155441062574572 0.327275100486506 0.798359837245941
-0.173207954686435 0.327972938116289 0.800940204541426
-0.195142262070148 0.330014382083288 0.802901367456519
-0.198136127862189 0.325567184868298 0.801473845908571
-0.207273614965106 0.326945928023919 0.802543227753919
-0.230021965855839 0.33601557114285 0.801085820985351
-0.00441916499757116 0.320386821987653 0.0196244689568897
-0.0147329112967614 0.324658915583653 0.0100497902622764
-0.00695173812746398 0.321435848125757 0.0295378642760061
-0.00679354866142645 0.321370323903499 0.0442072714485678
-0.00498920277718217 0.320622939367033 0.0539749067957651
0.00263260548898888 0.317465883013378 0.0727000408073616
-0.000935936888737581 0.318944021664135 0.076359556996875
0.0117488728681731 0.3136898014267 0.105293860157875
-0.0120879358998762 0.32356333090212 0.0812729649551372
-0.0135195506942126 0.324156325166028 0.0970280649613505
0.00603209336744369 0.316057769028999 0.122179922952222
0.000101765072454094 0.318514191438108 0.124647283724961
-0.00122381228453965 0.31906326355735 0.135337507140667
-0.0138022633941692 0.324273428600605 0.142615144259962
0.00784391261038394 0.315307288926004 0.174820057648112
-0.00652970111021639 0.321261034669389 0.158657869495645
0.0121024376567916 0.313543350096077 0.194822975031979
0.00624175281793965 0.315970925241124 0.193481473079206
-0.007289105484984 0.321575590260743 0.195663580931433
0.00288712974404301 0.317360455614981 0.208792526008726
-0.00894365556594635 0.322260927343903 0.210735761890883
0.00290646592831162 0.317352446305213 0.224761759427449
-0.00584927974431871 0.320979194911506 0.234554711276689
0.00728125238543786 0.315540350422185 0.256817379180956
-0.0131283613257971 0.323994289224174 0.242701636755064
0.0133714527367819 0.313017706839089 0.290505563768111
-0.021341816846486 0.327396413894792 0.252277152984227
-0.0054260474195076 0.320803886342534 0.285434087653142
0.00481202264500242 0.316563138869288 0.311715225082755
-0.00807204655605094 0.321899895070918 0.303022361683317
0.00533854573755977 0.316345045863449 0.319729808337967
-0.0129147050410915 0.323905789893363 0.316873193023122
0.00705154362471071 0.315635498906274 0.345344371870865
-0.00632915961263521 0.321177967661272 0.337042478045838
-0.00319455756346385 0.319879572979863 0.35631938930708
0.00828026313051993 0.315126546622615 0.377521122364955
-0.00431905971440609 0.320345357021701 0.372849011388146
-0.0157299840032462 0.325071916621351 0.37178252790277
-0.0012294448109199 0.319065596626167 0.398489573309431
0.00959732750965632 0.314581000694259 0.420258407169697
0.0015015331912778 0.317934388499114 0.421747003041274
-0.0174787252496353 0.325796268962687 0.41686849369972
-0.00211997824432235 0.319434467652029 0.435411350448721
-0.0205383153037127 0.327063592658387 0.431917475507331
-0.00640423891344307 0.32120906652592 0.453577963930453
0.00121262627664633 0.318054057661418 0.465701032904573
-0.00182738523344989 0.31931327165867 0.480507084922248
-0.00724728421662398 0.321558267324193 0.48787698316878
0.0108776025342789 0.314050693415492 0.504075534095267
0.00857439070478301 0.315004714992288 0.520074507804383
-0.0201163759474202 0.326888819654512 0.50145729132538
-0.0121769921394148 0.323600219204351 0.526602882370352
-0.0129137187108737 0.32390538134201 0.528194315547272
-0.00654521696633643 0.321267461547426 0.543122858134348
0.0123249558012958 0.313451180062749 0.576818115228726
0.00679894461302833 0.315740128842755 0.577477441688179
0.0105491355956605 0.314186748876259 0.592639438897629
0.004099963425385 0.316858083455266 0.59850869332398
-0.00518453562430254 0.320703848881487 0.597756918901212
-0.0206897339774121 0.32712631232663 0.59681711336022
0.00622708451814647 0.315977001049835 0.622454221494213
0.00827370917478654 0.315129261359967 0.639745939460777
-0.0135889541591186 0.324185073022468 0.624643953606239
-0.000179344734358511 0.318630630932606 0.646879811640485
-0.0100714478043384 0.322728074184585 0.655783040099292
-0.0114050637382072 0.32328047599139 0.66170926148999
-0.00282888952562213 0.319728108319263 0.678045345013561
0.00522546449164879 0.316391885649155 0.689544985491009
-0.00698705359575061 0.321450476271682 0.697391439946465
-0.013409773509353 0.32411085396722 0.698024838810984
0.00291433014111772 0.317349188841611 0.720939386487578
-0.00964689242187427 0.322552217587189 0.719175349139746
-0.0191471090543225 0.326487336161832 0.725188160881356
-0.00315586164206555 0.319863544604412 0.748891448581737
0.00863784700301826 0.314978430532941 0.766838284680848
-0.0132523883248413 0.324045662889279 0.75571767888071
-0.00202792423577565 0.319396337633218 0.782920148204477
0.00117270170647054 0.316875105541721 0.794425639798293
-0.000250587440463192 0.318493966628603 0.791577772063948
-0.0181843312567867 0.324788735603035 0.794660317264085
-0.0338730378066537 0.321984466175918 0.802451307542836
-0.0440643438318686 0.323223350320126 0.803044341395716
-0.0466770681683138 0.325845769226234 0.802855389592016
-0.0692193876708955 0.327845208575954 0.803150581695373
-0.0851782820946575 0.33246385916275 0.803091370651363
-0.0938246804014508 0.335002673608522 0.802906992050797
-0.110798823316846 0.33259324464039 0.803055001918059
-0.12097827584933 0.334135973776361 0.803081671921193
-0.149860210953875 0.330563275508081 0.80056923924739
-0.151513723523509 0.33409159241344 0.802462346514987
-0.165473423478855 0.335854211473013 0.803155963992947
-0.200626348970252 0.344312238577163 0.79679597115378
-0.208413607795 0.339052233754143 0.800938595257692
-0.212296564204369 0.34339805208424 0.795985069804317
-0.0533628695390703 0.340659968201524 0.00218744901853889
-0.0263510521986315 0.329471307114769 0.0456220882415699
-0.0342943760782456 0.332761539596027 0.0473631379502866
-0.0358416055527091 0.333402423028454 0.0514403062815527
-0.0442391456748011 0.336880798037597 0.0588275147594393
-0.025174446050533 0.328983940890655 0.0855211948941612
-0.0400885230049284 0.335161553835442 0.0791826552644964
-0.0300709885290328 0.331012155193986 0.0946714919084679
-0.0827619001114654 0.344555060365205 0.0607173379890324
-0.049571848816467 0.339089676002984 0.104280251872403
-0.0233918772316069 0.328245576709993 0.139353486963189
-0.0518883869033141 0.34004921749631 0.12209198012604
-0.0421107593070105 0.335999191538088 0.137188157351855
-0.0311400584477813 0.331454978453457 0.161751894856399
-0.0514490585734806 0.339867241743758 0.155066101468535
-0.0255693802994012 0.329147528012782 0.190984725996473
-0.0710866469153116 0.343017984121966 0.158066641644795
-0.0448117376881549 0.337117973415234 0.182136047768254
-0.0456900418325485 0.33748177890373 0.191844898314674
-0.0312439599998506 0.331498015885475 0.219339992623801
-0.0478375218237431 0.338371294241008 0.214179503026339
-0.0282129796018989 0.330242542697357 0.242399098125027
-0.0452752935334044 0.337309984533254 0.237602433836237
-0.0339801859162876 0.33263139776978 0.25490903016508
-0.0474487358356709 0.338210253811888 0.255534016295008
-0.0548279899064122 0.340877491319328 0.257032626082428
-0.0506930763859324 0.339554103668763 0.272922480182636
-0.0426118880403518 0.336206765855932 0.292627437554233
-0.0533360392188969 0.340648854719025 0.289563038589842
-0.0427956633183399 0.336282888068504 0.308963035111435
-0.0523258805999296 0.340230433318901 0.31078141133133
-0.050976965803432 0.339671694515706 0.328065531535382
-0.0384575529862705 0.33448598393389 0.342885052787788
-0.022902200303721 0.328042745885281 0.369219079921107
-0.0505201342764256 0.3394824687015 0.354744300661613
-0.0430927468797507 0.336405944108798 0.37862552180541
-0.0361128337894753 0.333514769442621 0.388165451655346
-0.0217644379128772 0.327571469272236 0.416464692013969
-0.0523959244034129 0.340259446412264 0.394240970999197
-0.0472720642655976 0.338137074051478 0.409518855065169
-0.052962161160001 0.340493989356357 0.419009741200283
-0.0254434378524703 0.329095360943185 0.450509325450875
-0.0214246057840356 0.327430706195539 0.464349477403341
-0.0740838404199897 0.34341257213261 0.430477574583485
-0.0354838884436765 0.333254251750399 0.465426007359513
-0.0453412516810118 0.337337305292542 0.466329087792689
-0.0476517265460085 0.338294335317146 0.479001455970416
-0.0387600514645631 0.334611282906196 0.496515228769991
-0.0339858669439303 0.332633750928478 0.50772392209272
-0.0376174839963961 0.334138015964955 0.510838111519361
-0.0302493870106177 0.331086050264565 0.536234652688052
-0.0273701131601519 0.329893415985916 0.545965862108338
-0.0389045353981202 0.33467113011102 0.546864413259963
-0.035508189757594 0.333264317684208 0.560066673871442
-0.0505535211683004 0.33949629800492 0.564240208995963
-0.0533716529298055 0.34066360640109 0.565027664275987
-0.0221039374719956 0.327712094594042 0.604799352689296
-0.0528274446960106 0.340438187969897 0.584686120095182
-0.0423723192391147 0.336107533209339 0.607261638985917
-0.0501177961030125 0.339315814773412 0.610664954131925
-0.0260922650394621 0.329364113963673 0.633574631555779
-0.0348991851128237 0.333012059700796 0.639914838283228
-0.0450963383229396 0.337235858858022 0.642876229421822
-0.0527241894629744 0.340395418251987 0.650681700760129
-0.0274883633613767 0.329942396823017 0.681439156803923
-0.0412165787699924 0.335628809832445 0.679407065371597
-0.0443030482789436 0.336907267362904 0.684474531413936
-0.0216615153107596 0.327528837334564 0.711137571924282
-0.0413963075483169 0.335703255929975 0.709870866917852
-0.0933119762075574 0.345944004232993 0.673995303193828
-0.0274532542306098 0.32992785414489 0.740250624192945
-0.0355359079847847 0.333275798949835 0.745700872832829
-0.0506159638450465 0.339522162608499 0.744924933452742
-0.0307591161142871 0.331297186972441 0.767524260539165
-0.0344729723461444 0.332835516592381 0.77458642867834
-0.0481817026086715 0.338513858590034 0.77310338229592
-0.0416247414720491 0.335024668634892 0.793475637360161
-0.0485762961742667 0.337179270276466 0.795106271705236
-0.0482231990401484 0.330612654065967 0.801415261811335
-0.0674808277361019 0.33852415898251 0.799391856831605
-0.089245996506849 0.337441792387057 0.801910367519024
-0.0909408425421348 0.337905685058769 0.801810640650659
-0.115078792148099 0.338380757395786 0.802830643227072
-0.121854708749905 0.342816858538886 0.801462168669184
-0.135836110972754 0.348871126208714 0.79793136784411
-0.164853243734037 0.344117980927711 0.801387226927273
-0.142288411891691 0.352391874313737 0.0109130755403206
-0.0717841430432655 0.343109811229269 0.217497129131938
-0.0552021140207099 0.340926745693383 0.258565965073683
-0.141045929413868 0.352228298392323 0.215471350912599
-0.144257448153468 0.35265110285544 0.32418625538419
-0.101499358460584 0.347021893555306 0.411543662911379
-0.111919972324201 0.348393793396845 0.42428427040878
-0.0756707166882944 0.343621488356694 0.484772095552278
-0.128319847573327 0.350552877933514 0.559555403252934
-0.11098057261761 0.34827011907924 0.613341016366286
-0.117533569509508 0.349132837486741 0.640358527671462
-0.0846821716738054 0.344807868912433 0.67257123537849
-0.132439322423936 0.351095217086345 0.643728486632393
-0.0860310048407951 0.344871759221312 0.793476397884594
-0.119515293711941 0.34986381374131 0.791442690232106
-0.309585806995888 0.309828486932379 0.0361080145992003
-0.303771093905564 0.312237019955699 0.060179309500356
-0.303075442533378 0.312525168188742 0.0950543363199157
-0.317167200131405 0.306688171073965 0.0955618730722216
-0.317531507905269 0.306537269853153 0.119730377591975
-0.315280721090652 0.307469576277778 0.145871558792545
-0.302629053818151 0.31271006844868 0.203628158395328
-0.299475820537572 0.314016180438821 0.219237249710645
-0.314682700508214 0.307717284513601 0.222929505767884
-0.318670638313847 0.306065426588608 0.280024769364805
-0.305713493068143 0.311432451879017 0.301055440572304
-0.306863833666162 0.310955965201969 0.316634398898818
-0.315117426814718 0.307537214981527 0.310554241437887
-0.30883578481841 0.310139156290371 0.338894278933076
-0.319683852851578 0.305645739385486 0.34710661594685
-0.317314902859213 0.306626990600908 0.362051961595639
-0.310608868524852 0.30940472097194 0.381818507377129
-0.293259537601359 0.316591049138549 0.419417392860862
-0.297256685413489 0.314935376303955 0.433804770742818
-0.307702535774894 0.310608563413741 0.427473548797625
-0.31292203187503 0.308446577340312 0.442210890133311
-0.319233004790605 0.305832486766911 0.452038253663803
-0.313873721626437 0.308052374538107 0.466822640890566
-0.293434058190078 0.316518760343789 0.491871551121267
-0.310793899132382 0.309328078784847 0.497855200237135
-0.314875735550622 0.307637326781023 0.49573546798372
-0.311626798368078 0.308983080625331 0.503741471153535
-0.316131543069294 0.307117154275059 0.524501068216217
-0.315929033664237 0.307201036417142 0.538752651469947
-0.311517352085592 0.309028414759888 0.541773493488062
-0.309866567167911 0.309712192261352 0.574978189418325
-0.319085691540715 0.305893505912933 0.582837785808817
-0.313085603032503 0.308378823948473 0.608094827534003
-0.303666354308998 0.312280404517115 0.633316200151095
-0.318679084988196 0.306061927861535 0.640225222475077
-0.304474044734028 0.311945848188868 0.670110603094122
-0.297782410270793 0.314717613937983 0.687700817325035
-0.313690850129764 0.308128122392201 0.685930986522941
-0.31265827143773 0.308555830490658 0.699510613486792
-0.305332751587315 0.311590160164133 0.718745573657825
-0.313084631068026 0.308379226549342 0.721189428531577
-0.306897393475988 0.310942064273588 0.7303593340386
-0.30601852229641 0.311306104635748 0.744610344616973
-0.293440465474468 0.316516106359696 0.777596380040813
-0.304084078633619 0.314736832240666 0.791438662504529
-0.310389497927026 0.310080399779385 0.796319811250999
-0.314786165846773 0.303787246878944 0.800606397431632
-0.322251057277224 0.298181243753319 0.801764200855161
-0.334317860890327 0.288749759945138 0.801821310178987
-0.341358675543144 0.283557621692958 0.80175154957571
-0.352166911373365 0.27899205582031 0.799837930426515
-0.364030626676179 0.267097183648325 0.80144118928417
-0.378387360407932 0.263103911751507 0.796032703848173
-0.271433666254207 0.32563162106115 0.0307287883950039
-0.271106240764427 0.325767245139684 0.0440875571496578
-0.291685139537018 0.317243186169373 0.0327111415185945
-0.291004884786229 0.317524956913019 0.0348680374102684
-0.275925890626219 0.32377088080104 0.0661112071819986
-0.293650342938655 0.316429172267593 0.0547685908184815
-0.27740320564416 0.323158956884711 0.0771925207455305
-0.299305796617848 0.314086606652299 0.0679361523705131
-0.283839584448977 0.320492921491185 0.0987063724422875
-0.290097830669361 0.317900671030032 0.0961434413339861
-0.30004283319019 0.31378131610807 0.102049900024225
-0.282851803135105 0.32090207390805 0.123928285015501
-0.285904643536262 0.31963754601013 0.135052769835715
-0.285647708921373 0.31974397181226 0.145927874523733
-0.285070807886262 0.31998293204515 0.159477642613743
-0.262650108342934 0.329269889873889 0.188519097134262
-0.287674786495912 0.318904328788904 0.166707675626422
-0.26814068293674 0.326995619411913 0.199488161180206
-0.293602710989732 0.31644890206684 0.177967332801826
-0.301382077260043 0.313226583051009 0.188749963903878
-0.289777243635825 0.318033462527243 0.210276458995777
-0.277608929094529 0.32307374344147 0.226987477856732
-0.273046580152643 0.324963530249477 0.248457176498225
