ply
format ascii 1.0
element vertex 865
property float x
property float y
property float z
end_header
0.139056514264743 0.468315988715225 0.847896508724298
0.136354038330692 0.469435390899095 0.855390675413727
0.134072649916927 0.467382456424362 0.866715938011452
0.135963828861652 0.466879995888823 0.866374819883941
0.132118299238361 0.457404923310857 0.872166311758681
0.16460346935154 -0.136829351631969 0.383373736250703
0.170726949277781 -0.132130640224216 0.403356258002847
0.164449822313938 -0.136947249150543 0.406377667091389
0.172303678630254 -0.130920773239326 0.424068334036803
0.16941478604874 -0.133137498482493 0.430287510265595
0.167751269216079 -0.134413959843152 0.438191970808452
0.16411698142222 -0.137202646949462 0.447526072285098
0.166026636293799 -0.135737317228774 0.463485452930576
0.162379562354315 -0.138122331760404 0.462191674235955
0.16238301487196 -0.138120901680771 0.478688606683962
0.165167886836223 -0.136396258863484 0.492273971615107
0.164007826821644 -0.137286404220347 0.495643986818445
0.172136270314774 -0.131049230157805 0.518572781819278
0.162932732665997 -0.137893201115002 0.51218310522025
0.16773648304948 -0.134425305667832 0.538816200245979
0.16424993046937 -0.137100631557558 0.548327027997725
0.170306931056243 -0.132452931541046 0.557093061494627
0.171579551505518 -0.131476415524863 0.562881526862299
0.163243255512256 -0.137764578340656 0.568902277099995
0.166265280087506 -0.135554199405349 0.589401674826548
0.172525798653174 -0.130750334551169 0.599003159119721
0.164432179963081 -0.136960786602489 0.601227108555634
0.163550528110096 -0.137637301863285 0.614927550861565
0.171294036485338 -0.131695498905321 0.629107234554197
0.165928054723178 -0.13581296152843 0.63792534629407
0.164780563710662 -0.136693462350796 0.648532077577839
0.170253714415565 -0.132493766105648 0.657514326791907
0.169161080553264 -0.133332173556171 0.668008733367257
0.165526951611601 -0.136120738770905 0.677078170648146
0.166260929956085 -0.13555753737859 0.691956404694211
0.166278947663696 -0.135543711905279 0.6968539131045
0.163256193701162 -0.137759219167338 0.704563388326916
0.163550528110096 -0.137637301863285 0.72003002903923
0.168380094290234 -0.133931445393034 0.732193535328077
0.170982630709308 -0.131934448961481 0.745007748532895
0.163863451150803 -0.13739718756899 0.752473072057751
0.168090520417674 -0.134153643240464 0.767492967817252
0.166879124574397 -0.135083179964135 0.782189572798996
0.171366884783337 -0.131639600440238 0.790458375272155
0.163045519710294 -0.137846483191595 0.785922882393896
0.172124543529782 -0.131058228436412 0.804477011268533
0.171276288605738 -0.131709117332317 0.820709342750453
0.163929887927772 -0.137346208837028 0.816107236240555
0.169735380327059 -0.132891497840548 0.844200240004797
0.171800265164737 -0.131307055977529 0.857655618947817
0.162897675693324 -0.13790772218854 0.858101594476323
0.163488033131024 -0.139799663845236 0.865669793369666
0.171067499365197 -0.142973288097201 0.871301258341472
0.142220117003469 0.467005581554884 0.460422381699726
0.144307532006863 0.466140945950176 0.459513319476342
0.147583900920307 0.46478382951089 0.474271373615732
0.143544736886028 0.466456906034539 0.485609010723839
0.144451189488217 0.466081441073063 0.49705201153302
0.141184708016785 0.467434461999771 0.496613796898995
0.142839797046359 0.466748901676787 0.51213629155387
0.145785630149867 0.465528697652825 0.521969550764142
0.140108534071374 0.467880227843433 0.528497647375248
0.147341852840051 0.464884089108479 0.528255850181464
0.141142625241264 0.467451893256134 0.542047973792323
0.141644728711777 0.467243915188932 0.55349315429787
0.14689932164819 0.465067391529921 0.556434592564484
0.146148823516583 0.465378258034568 0.565748929367019
0.141756909207789 0.467197448506051 0.582913031785375
0.141980067050361 0.467105013501108 0.579605026190713
0.147153380772208 0.464962156795108 0.590466124795007
0.143233979788307 0.466585625839018 0.606843601565239
0.139509729066984 0.468128260997468 0.61460714411209
0.142032659036027 0.467083229187373 0.617868668729448
0.144934607430217 0.465881202805192 0.626646168616288
0.143750124543108 0.466371831681432 0.635635230455351
0.14124589473135 0.467409117632761 0.644403481563074
0.148120783861782 0.464561445315125 0.644952114454224
0.146152273556527 0.465376828981233 0.657600061333936
0.145087272620416 0.46581796681291 0.664784698927456
0.139678245289904 0.468058459292455 0.684337869398198
0.145264846996925 0.46574441309783 0.680973309735418
0.139449217141214 0.468153325857807 0.694793734134479
0.14400099372043 0.466267918265803 0.698908129566938
0.142414201070821 0.466925189301946 0.712125433123641
0.14544944725269 0.465667949168274 0.720683771251079
0.142935286514117 0.466709348644177 0.732502207139282
0.140565930160474 0.467690768179951 0.735429264824262
0.147309081314129 0.464897663518976 0.746374822267151
0.144424688248513 0.466092418245969 0.749846985262114
0.145568452570603 0.4656186555516 0.762367551336498
0.142548417130987 0.466869595189537 0.772192611380526
0.14087857017367 0.467561268446345 0.781989825086123
0.14741943245613 0.464851954579335 0.787530993501015
0.139407918422101 0.468170432347372 0.796746797450494
0.145919591219997 0.465473209160748 0.808759283938161
0.14428603950438 0.466149848436194 0.806400806347898
0.139568049920614 0.468104103708925 0.822380044737845
0.146304416482051 0.465313809318061 0.826361093908599
0.139290601745763 0.468219026505804 0.837321754998567
0.142873737835854 0.46673484294146 0.848106163786745
0.145234062615794 0.465757164406004 0.856046791424732
0.147812037631978 0.464689332190841 0.857515268030963
0.144960529554119 0.461777788627445 0.86804542894632
0.140815669839295 0.458186930600585 0.871249229187278
0.14854417657802 0.443762275528987 0.87095113346586
0.178919998741513 -0.125843892256849 0.405018883158797
0.182334911013897 -0.123223537908668 0.418582994645332
0.181475677710212 -0.123882850811556 0.426759259114105
0.179704241007915 -0.125242122000725 0.431706624175143
0.178916920586783 -0.125846254208046 0.443245451081673
0.181814387218558 -0.123622949864717 0.467238048264648
0.175895871577153 -0.128164386645143 0.461787234282054
0.180330122012764 -0.124761866614441 0.476290867938197
0.181218709962687 -0.124080029099272 0.491721220471463
0.180929133752487 -0.124302228740435 0.501045618583814
0.17596861752206 -0.128108566718349 0.504235724644937
0.177122367177709 -0.127223263470198 0.519349484394104
0.173223085857036 -0.130215287261273 0.528604844565602
0.175191790519062 -0.128704647042741 0.545054521724349
0.174998293410591 -0.128853122596166 0.552135028912667
0.1779863586449 -0.126560299500039 0.562111526946042
0.177208902501326 -0.127156862580974 0.564221722820229
0.1748377859647 -0.12897628429117 0.576300490958244
0.17495761012111 -0.128884339982145 0.596244174301787
0.175417646988261 -0.128531341278514 0.598978983561962
0.177892611652574 -0.126632234097293 0.616233894853396
0.179596381273035 -0.125324885686215 0.621502207969447
0.177947038522463 -0.126590470891156 0.635540254299897
0.173157971661273 -0.130265251140982 0.635422612528994
0.18152771385366 -0.123842922074338 0.656665138235487
0.180528107447926 -0.124609947046814 0.664903710145899
0.182064642341093 -0.123430922355316 0.678222436215477
0.173317467664444 -0.130142865553275 0.68851921978736
0.178001225585248 -0.126548891695481 0.696720998978881
0.173146120373975 -0.130274344953568 0.70702716264387
0.177495792989333 -0.126936723766931 0.712999750054357
0.181033873482638 -0.124221859118776 0.727041926203148
0.180884376788449 -0.124336571966841 0.747403999597076
0.172181769866576 -0.131014317123767 0.744438915973634
0.1749348667503 -0.128901791584364 0.753749390075191
0.178665265499006 -0.12603935594856 0.77298664042473
0.178013913033534 -0.126539156274004 0.780247606424132
0.173581651887063 -0.129940149869462 0.789727377164638
0.1756408507921 -0.12836007097601 0.793884718253089
0.175428008491608 -0.12852339061736 0.809152803633632
0.180489276893299 -0.124639742779337 0.830378786598708
0.175294117509564 -0.12862612878133 0.82733416136536
0.178774907055954 -0.12595522502291 0.836041489638805
0.179573668035564 -0.12534231416631 0.85164653499447
0.179661311334991 -0.128071387906312 0.865991349014471
0.182364398902343 -0.133287977187124 0.870964205089767
0.179035653005001 -0.145411741197587 0.871993015787364
0.154211762071382 0.46203847953259 0.449398750506927
0.156744518559961 0.460989377444831 0.453587440606672
0.152617234590981 0.462698954440548 0.468921879956823
0.155500700565091 0.46150458372743 0.475910810441377
0.153715917457015 0.46224386509669 0.482428512012605
0.148731326199717 0.464308550398349 0.501271911188314
0.150502599816555 0.463574864843581 0.504904855881124
0.154143613394007 0.462066707639016 0.517229691428492
0.152691956294296 0.462668003697632 0.521496716658702
0.152550332832111 0.462726666056419 0.530179372373403
0.15183802108442 0.46302171524295 0.540305014070064
0.154625375663928 0.461867155172975 0.546489577810144
0.15267385534892 0.462675501354698 0.561784563617103
0.148002555895882 0.464610416942052 0.56999607504661
0.155389716970488 0.461550554637516 0.575650253979288
0.14808796246905 0.46457504038113 0.583577895708067
0.150339796331402 0.463642300255133 0.589700452564417
0.148382253887065 0.464453140884498 0.597989865219424
0.154910997421261 0.461748846767379 0.598544635308845
0.148705450276743 0.464319268556584 0.617150690635568
0.156251687653311 0.461193514690322 0.619779583719951
0.150649415466077 0.463514051810381 0.634431669813815
0.150555601822479 0.463552910693895 0.638563759367819
0.150941721583523 0.46339297465217 0.651722139685593
0.152920767004254 0.46257322719835 0.659723152966122
0.155711646890328 0.461417206898584 0.665703871025467
0.154737378001902 0.461820762285569 0.666531822690458
0.149838651783973 0.463849881123387 0.683039823539133
0.153070904532204 0.462511038198052 0.690645066868568
0.156786356193286 0.460972047729691 0.695360445887385
0.153742860476729 0.462232704932513 0.710963477621612
0.156792663757522 0.460969435051039 0.710711086349099
0.153932473089853 0.46215416481656 0.730751509144732
0.156107495009142 0.461253241239132 0.733528951928108
0.153641710734915 0.462274602527403 0.747962693188225
0.153367766708689 0.462388073858396 0.748280196331893
0.150398505911544 0.463617981950797 0.75572405131623
0.15566822681199 0.461435192083912 0.766492011510425
0.149829956528731 0.463853482816037 0.773570019658391
0.149699505756155 0.463907517295259 0.783804665202046
0.149294478262283 0.464075285176356 0.791127659644231
0.154598801450982 0.461878162572387 0.798934470777054
0.154283613694859 0.462008717615667 0.806309882335205
0.155849370823472 0.461360159777613 0.813885754291354
0.147689575897059 0.464740057502316 0.826330970873075
0.150934187868094 0.463396095219275 0.833508718779244
0.154450450487 0.461939611553659 0.844696351805077
0.149199638657186 0.464114569027037 0.853819278545229
0.153232539555438 0.462444086779274 0.852867074729307
0.15200829366329 0.461210300765854 0.864963051467412
0.15213568849373 0.449701527047108 0.872094166016807
0.184089042112085 -0.121877545776574 0.402948515061744
0.182480128054994 -0.123112108953919 0.403522722706264
0.186557335755713 -0.119983557449563 0.424706994341864
0.187371469911691 -0.119358850339845 0.430459918652797
0.185268009674854 -0.12097289214771 0.443510012186415
0.191557262667302 -0.116146978592378 0.46269197459537
0.184093810455823 -0.121873886897737 0.463217937929629
0.185854664911218 -0.120522735752209 0.480445761713358
0.189327975799067 -0.117857570570321 0.479045439106264
0.184088035707484 -0.121878318017986 0.487266811073324
0.183647464487179 -0.122216380205453 0.497247095122859
0.184795985615045 -0.121335088947777 0.513270479524889
0.184682714841219 -0.121422004669484 0.52738796731276
0.184671773755269 -0.121430400060011 0.5331166002036
0.187479555789881 -0.11927591312849 0.546841410397644
0.191450874698707 -0.116228612951877 0.561067888991257
0.185368802632365 -0.120895550991215 0.565481731032897
0.189370476959305 -0.117824958283051 0.576605506919813
0.189397866361636 -0.117803941655457 0.596801892606114
0.190083567998049 -0.117277784284136 0.591395246994421
0.186666870864868 -0.119899508204177 0.608990423749459
0.191399091458989 -0.116268347629237 0.62833768543864
0.188657847235338 -0.118371778302687 0.632951276339487
0.187031917019002 -0.119619398438252 0.63828078107818
0.183365642222604 -0.122432630034875 0.650304465764098
0.189785034728745 -0.117506856918483 0.662954891002272
0.189510472971068 -0.117717535565016 0.677104627103881
0.182126996623187 -0.123383076231849 0.676041972562052
0.18831771341865 -0.118632772159755 0.693144143755631
0.183420913831965 -0.122390218637344 0.698042078598027
0.192273549149917 -0.115597352643143 0.712222872440575
0.186564097903191 -0.119978368671306 0.729521121796625
0.182446793529628 -0.123137687434865 0.737109761734376
0.191130668512167 -0.116474315800527 0.747465308497513
0.186898660355516 -0.119721649872472 0.756974481042103
0.184431942790758 -0.121614428831634 0.759736642690871
0.184335790551824 -0.121688209039522 0.774483216508826
0.189943452496164 -0.117385298690167 0.792858859222606
0.191745756552621 -0.116002342147104 0.799575289167205
0.183502605599381 -0.122327534339509 0.799452487207227
0.183938535747477 -0.121993033372001 0.814306143796497
0.190933978211874 -0.116625241576215 0.833333743453088
0.187932782278392 -0.118928140212189 0.840345930677229
0.190388070966188 -0.117044130938764 0.848192898318369
0.191169932811474 -0.117403763501797 0.862900360192424
0.184602997692692 -0.12225232284158 0.862532483081428
0.187403436185205 -0.130105209815686 0.87119086015392
0.190773305886304 -0.13591166951058 0.872045000271388
0.156868169841938 0.460938159406832 0.454182903264811
0.162506011072917 0.458602889106454 0.456620455457914
0.16145832070301 0.459036856666837 0.471784474022059
0.157835815550738 0.460537347430675 0.483404112327023
0.164924248964054 0.457601222174901 0.481384392875796
0.158768565781415 0.460150989634822 0.495061249255231
0.161667354854147 0.458950271886437 0.501177170135731
0.159731184851791 0.459752259760473 0.513981972723736
0.162612990995025 0.458558576571816 0.519765918869287
0.158022691735457 0.460459940780479 0.535150412570534
0.158574643229648 0.460231314985814 0.532360722090223
0.159077759070156 0.46002291758123 0.545620999616581
0.156977257453316 0.460892973838712 0.555413880796678
0.15869896800727 0.460179817976783 0.563790609013243
0.164754812979123 0.457671404857813 0.560426555305074
0.160780669226016 0.45931754909917 0.578053881268678
0.159264952543099 0.459945379505949 0.587929035509096
0.157465765530212 0.460690627167933 0.597335988842074
0.157248894570377 0.460780458060781 0.60527861039052
0.160396890359863 0.459476515510483 0.616299665334803
0.160712476130858 0.459345795604045 0.620081534943625
0.165019373265228 0.457561820399243 0.628245326538438
0.162497288398837 0.458606502156359 0.64104746032635
0.15869805250633 0.460180197189689 0.643556748989135
0.163760331461579 0.458083332589909 0.650955549952556
0.160192523703563 0.459561166951219 0.662118594755946
0.164799091799152 0.457653063970031 0.671106808630284
0.162377433861416 0.45865614753127 0.682497320950366
0.164013109327006 0.457978628569782 0.686647320359248
0.160020278320704 0.459632513324856 0.697366267827074
0.164180566279817 0.457909265628814 0.701392355275854
0.159349352811825 0.459910419769975 0.716618154565279
0.162750279936772 0.45850170963018 0.715152213929992
0.161363657330962 0.459076067519399 0.73546200870984
0.161145374121925 0.459166483385021 0.73838627178872
0.159171246597263 0.45998419377959 0.746428153725849
0.162073618948237 0.458781991788759 0.756996641626432
0.157234610731435 0.460786374620594 0.764391381255618
0.158535253476758 0.460247630755679 0.777525722319997
0.158426152111928 0.460292822020665 0.778128225958011
0.160747306352903 0.459331368453693 0.790572273554056
0.158853821825041 0.460115675425278 0.798173578098969
0.161519938388139 0.459011333785975 0.803175020452177
0.164891215495087 0.457614905085759 0.813396772866739
0.160404253729289 0.459473465503002 0.822916836868637
0.162186378906277 0.458735285084847 0.830333243942719
0.157893759557927 0.460513346237038 0.842826099722928
0.159487154408062 0.459853340479898 0.853650996627485
0.159637593923894 0.459791026392122 0.854700653199294
0.164044018769436 0.457776945228166 0.859977188769901
0.161557880531854 0.452075839750076 0.870162367507865
0.165855311494939 0.445429872143682 0.87192103927862
0.16496075111951 0.437603014184484 0.871198436935577
0.199569357664013 -0.10999908187115 0.43266344064869
0.195750560407269 -0.11292934806787 0.43401051897671
0.19260742782995 -0.115341158521242 0.447772647779544
0.197722495561743 -0.111416229005298 0.460011714994895
0.195465377717782 -0.113148176442018 0.470393537392984
0.193113229268753 -0.114953043426691 0.481670144189922
0.192822468299759 -0.115176152165251 0.478962586733626
0.19834942049956 -0.110935172581073 0.499766214497217
0.198139626384755 -0.111096153267282 0.502006626471562
0.201773232964361 -0.108307988875053 0.523092855061614
0.19809991031801 -0.111126628477153 0.53594679968509
0.198356516679234 -0.110929727490898 0.537425400896152
0.199182374424055 -0.110296024555066 0.545163341037155
0.192970713938411 -0.115062399285863 0.559294153090673
0.199226246312483 -0.110262360471061 0.570369072020413
0.193504328662687 -0.114652942306743 0.576144694671096
0.200472849468148 -0.109305808226421 0.600836452058926
0.194411076076367 -0.113957170544947 0.604876782109073
0.200934342707708 -0.108951692008936 0.618991267852375
0.199752391231292 -0.109858635275271 0.629313601213794
0.194192304047633 -0.114125040226808 0.638754872194005
0.199301404311023 -0.110204689710419 0.646341279077102
0.199031776656879 -0.110411582286149 0.659859288096667
0.193340513618739 -0.114778642011002 0.661561005919627
0.198000443252408 -0.111202952241004 0.682754675877706
0.201126464410017 -0.108804271841777 0.68881062518203
0.193695908821393 -0.114505937680606 0.694384198262597
0.19475673827198 -0.113691934613528 0.713523026242024
0.192825249441112 -0.115174018120433 0.71006185449136
0.19636396117198 -0.112458669106661 0.725171514783342
0.194537970565941 -0.11385980097847 0.73927419193164
0.195189075951063 -0.113360190244447 0.746892568662552
0.202289863256488 -0.107911564509097 0.756686547157068
0.198379174673551 -0.110912341400365 0.769446019501868
0.196332673748508 -0.112482676791074 0.783055477333995
0.192447038147143 -0.115464229853454 0.786190106396337
0.194064911479405 -0.114222791982478 0.799224029266976
0.192249296231004 -0.115615962562362 0.817261061168757
0.193689711414748 -0.114510693117981 0.823696538821279
0.196966008433091 -0.111996701995171 0.833776113167961
0.199006635895306 -0.110430873471002 0.844560586519247
0.201625764326182 -0.108421145541009 0.854817495467586
0.200513452394679 -0.109274652505102 0.857242483942753
0.19540666405489 -0.125167451229372 0.87158970927988
0.199206583033069 -0.125415831170155 0.872069965241336
0.169025112581486 0.455902588847117 0.443012437224851
0.17013170785316 0.455444222077532 0.455445082648176
0.169069320898329 0.455884277162712 0.461388518716197
0.165936865643458 0.457181782612806 0.470278442651278
0.171745534371187 0.454775753246448 0.478971731005669
0.170909498990074 0.45512205043993 0.489169358478285
0.17334814398473 0.454111930609329 0.498320790911464
0.171185693766474 0.455007646817688 0.501933254182561
0.167594900901982 0.456495001921833 0.515675731953852
0.171256227011824 0.454978430990866 0.517306046565268
0.173545238788312 0.454030291268612 0.531293790723212
0.170491405586156 0.45529523039817 0.542509021338999
0.166360760056952 0.457006199797723 0.550314472019894
0.170126331410722 0.455446449072908 0.560105553719701
0.167417540151663 0.456568467150047 0.564404042041593
0.171547241173466 0.454857888978271 0.575309284431811
0.168167425310083 0.456257854547208 0.58065587441763
0.173313643489185 0.454126221182493 0.586785525703762
0.169245439865795 0.455811326297796 0.597564899821196
0.173573143412479 0.454018732794829 0.600971872509263
0.167793877846667 0.456412582972745 0.620562841836091
0.165615221016457 0.457315012179575 0.625844272976934
0.174070370353538 0.453812774652266 0.628531275345104
0.165647601402951 0.457301599784333 0.642482338496133
0.170879644909312 0.455134416405073 0.65175943532415
0.168094795748809 0.456287938696517 0.662398512789706
0.172345507505147 0.454527236237303 0.667598903011884
0.171290087501454 0.454964405516832 0.674175120553205
0.166949125644727 0.456762490791633 0.68536944250982
0.170675940970036 0.45521879333943 0.692600960747593
0.165817489244599 0.457231229936241 0.705133827479455
0.169445045730709 0.45572864684142 0.708220547929438
0.165724463056675 0.457269762644935 0.716195332780428
0.174111252837246 0.45379584057305 0.72074861462364
0.170788296829938 0.455172254018446 0.739548506436012
0.172457071079068 0.454481025091918 0.740229328784876
0.171007202574922 0.455081580289993 0.755318000053789
0.173700572057615 0.453965950121779 0.76293479763333
0.171946029050582 0.454692705631059 0.76861856052108
0.171331096099793 0.454947419199226 0.780662323163529
0.171730718433756 0.454781890208672 0.785173345527351
0.172352648022147 0.454524278538319 0.79033460010622
0.173350636861654 0.454110898025898 0.801441554244754
0.168698292987889 0.456037961955235 0.815756493654235
0.172336912229198 0.454530796517173 0.817565123664122
0.17064563374152 0.455231347004519 0.827336704736846
0.168407141219677 0.456158560966338 0.843416864540368
0.17386529195848 0.453897720904848 0.83901752205158
0.167975263891502 0.456337450412949 0.852099798231787
0.166847116887047 0.456288814295749 0.862292084317793
0.169211864138157 0.449441127521158 0.86977934361654
0.172189989817574 0.44496164661361 0.871337857323836
0.167660314651291 0.434687888074021 0.870578401801758
0.175597709187931 0.429376423890516 0.870836641363033
0.206292982421279 -0.104839863137857 0.446554506412081
0.20465891404412 -0.106093727903854 0.45179370897625
0.211308686652452 -0.100991177917557 0.464685443258926
0.207563049048532 -0.103865306738234 0.473354069438404
0.207791426175006 -0.103690066805653 0.491999584069072
0.203657115220423 -0.106862435177802 0.48963204327985
0.208202322814636 -0.103374774724796 0.514805993823475
0.209252254480716 -0.102569133821879 0.516524785508349
0.204918832770997 -0.10589428525004 0.522977417869456
0.206678396426396 -0.104544124570185 0.53231859156392
0.208416616609716 -0.103210341312474 0.554339308508203
0.209273482092744 -0.102552845302279 0.565517024768434
0.211326260879865 -0.100977692738571 0.572157301089341
0.210560872972079 -0.101564995536488 0.576889585021564
0.209088797545133 -0.102694558739924 0.596418387859894
0.203027723112633 -0.10734538472813 0.599669996581568
0.205317288704367 -0.105588539258845 0.609052075149891
0.208536086281347 -0.103118669009187 0.62125462728647
0.205753332980742 -0.105253950717629 0.627824618514509
0.208251772692859 -0.103336830498682 0.640681179062786
0.205524282541315 -0.105429707301409 0.645895722491478
0.204789206826969 -0.105993750735235 0.661748108510381
0.206782194271428 -0.104464477682399 0.670817522400215
0.202203574120584 -0.107977776491845 0.682335082379736
0.211470959704646 -0.100866661425187 0.6965536491531
0.21205235440524 -0.100420541580753 0.704416985544929
0.206073416431292 -0.105008342047617 0.721440241381978
0.209612559205855 -0.102292662282383 0.722956284010343
0.204355538390305 -0.106326516230522 0.733093076134385
0.204592076409826 -0.10614501422446 0.738264971258495
0.207363466487345 -0.104018451823763 0.759568483587108
0.20390120416866 -0.106675139140353 0.7639826476044
0.206485640792821 -0.104692031169913 0.775758208973421
0.20618936154094 -0.104919374235859 0.781712973045386
0.208499726301858 -0.103146569002731 0.794832139338826
0.209485051919164 -0.102390502064625 0.809149316496666
0.20833806075363 -0.103270619340912 0.815540154813087
0.209106975088052 -0.102680610620666 0.832392296410798
0.211416688811639 -0.100908304946053 0.832115120886352
0.211273844420185 -0.101017913302698 0.849415539861806
0.209817778733677 -0.102584587187853 0.861371749883996
0.208086038672085 -0.107020806573112 0.866784406896616
0.210520467831933 -0.116366620079083 0.872031222175924
0.179929867252027 0.450414584284712 0.443365092620189
0.182912770335523 0.448125722246219 0.447567130533181
0.181988491598514 0.448834946265542 0.456867775009696
0.181684869572401 0.449067923640323 0.467221327183352
0.175847582933165 0.453076629098564 0.484190919828052
0.175553926617654 0.453198265527126 0.4900576385731
0.174402627343096 0.453675149300997 0.494515239117448
0.177773738537894 0.452069040036622 0.505717764955387
0.179326401037236 0.450877640197655 0.5110765157447
0.174135934197279 0.453785617218986 0.520144388624033
0.182735401318979 0.448261822279445 0.525668702242718
0.181080213924828 0.44953189223714 0.528988498534323
0.176240202230593 0.45291400086072 0.544744670196567
0.174973015989891 0.453438886587671 0.559622080606422
0.181027377244343 0.449572435248031 0.562368911271063
0.180597219496132 0.449902506897322 0.57023680408745
0.174301351910484 0.453717098958721 0.58521933025264
0.180973982207138 0.449613406701103 0.578635538285955
0.181758829616371 0.449011172102553 0.591873662898412
0.182379204485361 0.448535141722912 0.604162670680266
0.180979259250382 0.449609357483404 0.612001553337951
0.180917839489222 0.449656486523737 0.615590302002335
0.180744505398054 0.449789490449828 0.623704280785856
0.181241892969603 0.449407831542693 0.633208989665866
0.174774014706074 0.453521315618358 0.653354479204009
0.181657031533444 0.449089284518907 0.654580338412661
0.177179738785938 0.452524832077151 0.668472573383325
0.177539173863531 0.452249027841687 0.675231729624213
0.181610743236137 0.449124802778658 0.67890251782443
0.175530463374596 0.453207984320617 0.692768598670734
0.18172919336103 0.449033912801099 0.694777426839803
0.173792158746521 0.453928013673102 0.71145480536972
0.181161031139809 0.449469879006991 0.715261313094746
0.181178099697179 0.449456781842275 0.718857346188884
0.177852973164936 0.452008241168911 0.732816743404762
0.178886083881089 0.451215507434836 0.74652573123491
0.177425645501954 0.452336141217426 0.747611914816267
0.182363784982865 0.448546973523319 0.753822933759253
0.177108171932288 0.452579747255401 0.772054103900109
0.174431769655344 0.453663078160025 0.781756545640504
0.179241604426875 0.450942706925273 0.785346198227332
0.176098719247386 0.452972605031209 0.787856717196462
0.182413207308794 0.448509050438825 0.795846199453868
0.178995508521817 0.451131542954855 0.805663845822103
0.178177021513096 0.451759590125957 0.814602674682259
0.181892667999841 0.448908474298889 0.822869764840697
0.178743686233756 0.45132477299266 0.833585862061665
0.182777450685477 0.448229556665703 0.836591606167601
0.177817633054488 0.452035358589415 0.855520858986764
0.181343672366125 0.449329733464921 0.850478112103568
0.174361329683683 0.450918299439316 0.866443957429508
0.179648731565839 0.439886689132036 0.871181821451682
0.179164476600271 0.436709207223569 0.871980872193946
0.179796116207177 0.429076665101179 0.871805079161736
0.212474411483215 -0.100096685794355 0.445499368909474
0.21768257676465 -0.0961003200160562 0.461580771803734
0.22130769717972 -0.0933186672868991 0.468708490663181
0.215063851598621 -0.098109738510049 0.480029666138893
0.212884574475832 -0.0997819566606506 0.497300952906933
0.214124178349368 -0.0988307751540832 0.504112202848179
0.213442798711928 -0.0993536161389502 0.510934268252773
0.218267339773318 -0.0956516155779325 0.51727546550801
0.216276915746794 -0.0971789216510073 0.538554242638521
0.217333140706902 -0.0963684517337382 0.543046172884926
0.21476674215225 -0.0983377186066327 0.553251010650274
0.214885586447726 -0.0982465261713475 0.570754859835817
0.216381540658405 -0.0970986401327122 0.573549611660349
0.21307771768564 -0.0996337526632197 0.584886580867788
0.213189347270961 -0.099548096269747 0.595811257020833
0.221064285600247 -0.0935054435610144 0.609818786080916
0.221121263227074 -0.0934617230902403 0.61917664527483
0.220621633754482 -0.093845102268549 0.625510931319657
0.213582729672882 -0.0992462433361566 0.629341800598937
0.220923688862819 -0.0936133272320649 0.641822108584475
0.213878825781632 -0.099019040800877 0.659381968723069
0.219526601637771 -0.0946853499644056 0.669115388456629
0.21922880131397 -0.0949138601898865 0.683042103001903
0.215211189171864 -0.0979966824137567 0.686425597515235
0.219739400697068 -0.0945220635031901 0.692897033461262
0.216257336571703 -0.097193945280456 0.705357995506778
0.212894242903625 -0.0997745378150737 0.713779380557984
0.220354625963584 -0.0940499845525058 0.735782887434793
0.215429793097119 -0.0978289417222301 0.739291106559556
0.215827930848324 -0.0975234398807979 0.744755484017904
0.214306255658193 -0.0986910623211229 0.756479950655145
0.216903941763977 -0.0966977876658571 0.763843538643696
0.213766729010013 -0.0991050556790055 0.780038105998693
0.220578088100265 -0.0938785160242399 0.792773532925749
0.217400231663487 -0.0963169710321025 0.800064304125514
0.215644452910634 -0.0976642274540862 0.808233228565029
0.220151934920102 -0.0942055148603914 0.823570490836892
0.219631609240234 -0.0946047747970923 0.831923435361546
0.212693465166494 -0.0999285999913588 0.839454433131856
0.215337022033357 -0.0979001274631587 0.847396627488394
0.214749154720195 -0.0983512139178986 0.856935700669284
0.219628594687516 -0.101413075877646 0.869393459315872
0.219223923450433 -0.110935336068501 0.872162603241342
0.186713174567143 0.445209569514068 0.441020217121921
0.184677317216658 0.446771737802771 0.442506053686449
0.186106459255342 0.445675118546833 0.460232779770998
0.184439607751844 0.446954138690421 0.467397068441061
0.18980527118408 0.442836920330454 0.466492791137891
0.185750577682089 0.445948196082515 0.479088349318
0.187491305753354 0.4446124884547 0.489057398652347
0.18973147960106 0.442893542603591 0.489511544044417
0.183094621521715 0.447986182923259 0.503191978606133
0.185882744635983 0.445846780811873 0.515086894594358
0.188985313694502 0.443466095841203 0.516113629493632
0.189260999142362 0.443254554956866 0.529683466601659
0.185780696109642 0.445925085400217 0.538253429587211
0.184148775240864 0.447177302325077 0.551329658352756
0.187099406622509 0.444913203234363 0.561440901667983
0.185526636943268 0.44612003185512 0.564627987177182
0.185700724399072 0.445986449852013 0.569898454869666
0.18784720599228 0.444339396596344 0.573132427565007
0.185108357803069 0.446440988727903 0.592586836431546
0.185630472982339 0.446040355660016 0.599558721376594
0.185051751382418 0.446484424362162 0.607022406898968
0.186281792848578 0.445540580348844 0.612823800255656
0.190085217719652 0.442622109798518 0.619140402440235
0.188380604491595 0.443930105532472 0.635149066336809
0.18903066482197 0.443431296697161 0.643906977737616
0.190733104429875 0.442124968840612 0.640176895205882
0.191832219476112 0.44128158820274 0.650004672153312
0.185372242432335 0.446238502930155 0.664248345377681
0.184969179863118 0.446547783717359 0.674934819534016
0.186994910102021 0.444993386234684 0.681452820296904
0.188507802782237 0.443832502851238 0.691590429203509
0.186443454296163 0.445416533157196 0.704057598973725
0.187049069847865 0.444951828000035 0.705803658805303
0.189783791909481 0.442853401957536 0.715332742941774
0.190116252542194 0.442598295941614 0.721909952340294
0.185599604975037 0.446064041515084 0.738024956692053
0.191210600883145 0.441758572925353 0.738065513056814
0.18705018958696 0.444950968794008 0.744970781619385
0.186427568408062 0.445428722827864 0.7557095075251
0.183482881489917 0.447688260571306 0.778011445672791
0.190287886492302 0.442466596579643 0.776581823081493
0.184021295395918 0.447275121050527 0.793259827120761
0.188353914989375 0.443950585107821 0.795594423763134
0.185133540523941 0.446421665346547 0.805150268639342
0.186414928547006 0.445438421734377 0.818460491652201
0.188542242498702 0.443806076327336 0.816375242348562
0.184076189704802 0.447232999165834 0.831252360664594
0.191619355596861 0.441444924402054 0.837497894961706
0.187098759510169 0.444913699781126 0.842354721373383
0.188348813177266 0.44395449986594 0.850204346210965
0.191004615132026 0.441626992576407 0.860400730656586
0.186310405927166 0.443236732827851 0.865454877915927
0.19081614379876 0.43598800379189 0.868943545641934
0.186651848158652 0.422226877736921 0.871278333769693
0.227635802159137 -0.0884629415534284 0.460343536795627
0.223358821957756 -0.0917447838889991 0.466317618607691
0.229682271272945 -0.0868926305723373 0.481730180269227
0.225622703695944 -0.0900076463336948 0.488967944024416
0.226645742634998 -0.0892226409460065 0.492141926212118
0.227657081838787 -0.0884466130809374 0.507916786613659
0.228571168762316 -0.0877452095151551 0.524234803744004
0.228014346454738 -0.0881724742992678 0.530914443704486
0.224484927198766 -0.0908806929462673 0.53491234854937
0.229813283095329 -0.0867921016652782 0.557317017682801
0.228375948434466 -0.0878950073413164 0.551828222274
0.230390206822579 -0.0863494125193537 0.577075169147491
0.23129537498658 -0.0856548525584562 0.585797464065853
0.226270473206004 -0.0895105953066367 0.58319575755289
0.223222792517902 -0.0918491629493594 0.594855079400549
0.225103690452788 -0.090405899202288 0.612425625869769
0.221774380702374 -0.0929605684251218 0.612845618504313
0.228163853449775 -0.0880577535470849 0.631021876894451
0.223670415323526 -0.091505689890169 0.638621865624638
0.229184917402295 -0.0872742636198633 0.652039642646468
0.231068130078101 -0.0858292237096134 0.672898702047875
0.222920261619588 -0.092081303072333 0.670500336785777
0.223601016984889 -0.0915589411083262 0.681378905503118
0.227863506066908 -0.0882882181997275 0.69653041147132
0.229486774500965 -0.0870426405215409 0.704388749802286
0.228153390829757 -0.0880657817977895 0.712673795301304
0.223739944982652 -0.0914523379062563 0.724917444639117
0.226048672425845 -0.0896807890312069 0.742297532539047
0.221977314376969 -0.0928048519398348 0.745722346056609
0.228357228275615 -0.0879093718244218 0.750933962120532
0.224878159301587 -0.0905789553412333 0.763619054436285
0.221841247223599 -0.0929092599387932 0.774841820824536
0.225932983705798 -0.089769560108304 0.782595615036731
0.228760507037993 -0.087599925146371 0.802128123657303
0.229812233622055 -0.0867929069544449 0.807601651622068
0.224321779322084 -0.0910058807150777 0.814530175389425
0.224642998618114 -0.0907594004801741 0.826268629127784
0.229676962318663 -0.0868967042762371 0.839857018646395
0.226972412969965 -0.0889719779818126 0.847441925837967
0.227085807420809 -0.0888849673593939 0.853272888517646
0.229572124091556 -0.0897348750295751 0.86595109617175
0.226828344920613 -0.101490135546952 0.871733357198858
0.200609029903416 0.434546904693494 0.425076473576493
0.19572192137311 0.43829691496198 0.435183345749436
0.193718227004798 0.439834403726449 0.447751646648593
0.196237160603368 0.437901557995337 0.455130142562553
0.195320642833484 0.438604826815132 0.458856154731575
0.196801645561945 0.437468413452314 0.471134360195921
0.200812136422174 0.434391055580217 0.478634941312328
0.192636462860636 0.44066447054889 0.490137805971327
0.195614089976361 0.438379656902857 0.497650446472149
0.19995262108125 0.435050584897889 0.504152743368769
0.196584769483047 0.4376348283207 0.51315430737343
0.197451644552149 0.43696965168497 0.519882909555565
0.19450058082505 0.43923408252602 0.53233048826715
0.195298068040124 0.438622149063325 0.543242597613034
0.193466617239585 0.440027470689735 0.551776922193457
0.200120194646747 0.434922001178611 0.556858756928959
0.198156979115947 0.436428429438614 0.558872395551588
0.197597628063927 0.436857634596583 0.573999124569946
0.192600472902077 0.440692086615389 0.586715056713824
0.198151542839904 0.436432600839936 0.583285621242613
0.200168706804452 0.434884776490759 0.602601878048551
0.196127931616807 0.437985372344596 0.606640923322664
0.199727141025629 0.435223601829819 0.611100428449975
0.194501509076816 0.439233370253388 0.629801010911605
0.200575172466888 0.434572884418286 0.630382295643923
0.19490447113964 0.438924166587452 0.646323188914154
0.192508724740018 0.440762487456235 0.653355259320764
0.196566055726021 0.437649187891512 0.665507292607856
0.193266738187532 0.440180843280706 0.668445166481931
0.192983136786185 0.440398458289789 0.674054508047456
0.195741609221505 0.438281807944571 0.684540681033313
0.200589714275062 0.434561726096421 0.694679291982501
0.194529096148291 0.439212201948926 0.708170562141336
0.193259310179385 0.440186542991825 0.714006907036489
0.194553002321381 0.439193858097135 0.720990466773308
0.19602678883509 0.438062981930646 0.726486055435146
0.1952888846613 0.438629195717738 0.731790321434517
0.19702576656782 0.437296439355932 0.746452576204877
0.199407818319759 0.435468626759907 0.746400634190923
0.19578112785162 0.438251484233157 0.764601199976916
0.192259452802935 0.440953760540905 0.768174605471696
0.194592106140565 0.439163852681342 0.782920173921653
0.198272618360668 0.43633969632527 0.793397439472924
0.19427937414069 0.43940382038485 0.801257843062017
0.193474754192704 0.440021226986006 0.804500136663173
0.194445468354346 0.439276371812165 0.80786669582369
0.192409338178699 0.440838749446978 0.823788417432085
0.197565117506113 0.436882580824989 0.835150724530821
0.1918029553512 0.441304043355565 0.844157403359123
0.20000630698223 0.435009390257193 0.848907439220373
0.192816800167921 0.440013307016303 0.861757044467611
0.199237361953571 0.435162070360129 0.861298549808919
0.195124572324315 0.43181935115992 0.869473243068082
0.200199330157203 0.424831091155891 0.870945352381201
0.195307503386312 0.409727964373247 0.868474639577255
0.233136134481079 -0.0832559280799262 0.471247256501582
0.236345435553569 -0.0790734854931716 0.48357316665925
0.238922379740538 -0.0757151464443179 0.490955832882164
0.235476345561396 -0.0802061056222543 0.502426579744664
0.232199171086845 -0.0844770025487173 0.51729191174791
0.235349956416957 -0.0803708191621379 0.530494566932521
0.237030334153616 -0.0781809082597667 0.537314935934624
0.238851263729721 -0.0758078266340302 0.55235535945988
0.237222348676265 -0.0779306700618965 0.563230808896821
0.23426674064481 -0.0817824934406624 0.56886215775558
0.237400055103299 -0.0776990785372695 0.583436393321084
0.232016428852316 -0.0847151568654436 0.578085225250974
0.233810032980804 -0.0823776864563652 0.595062096110159
0.237007629577133 -0.0782104974399201 0.60085540218667
0.234859201775262 -0.0810103830630347 0.614203363518177
0.234112374793764 -0.0819836669344446 0.62455504963066
0.23354616833231 -0.0827215615612784 0.63662434284153
0.23313567131617 -0.0832565316881879 0.644419522823612
0.239120924868817 -0.0754563973954912 0.667024292987868
0.238426721900836 -0.0763611003172655 0.671882370942555
0.23979544110174 -0.0745773507263526 0.683500468525735
0.236246397365177 -0.0792025545731642 0.690691657651768
0.232604968162065 -0.0839481575040643 0.701037078627483
0.233788788182856 -0.0824053732160931 0.709293023218434
0.232823330491921 -0.083663582175323 0.721715417145316
0.23363931127205 -0.0826001753189088 0.734259331870319
0.232735299916177 -0.0837783058552187 0.739759602326756
0.23880771978242 -0.0758645742109868 0.754676345802797
0.23358623446298 -0.082669346363198 0.757042367837851
0.239358501444534 -0.0751467815740236 0.783179606096577
0.232735861498912 -0.0837775739863495 0.785089866201012
0.238529308565809 -0.0762274067725565 0.800241574448534
0.233068726390166 -0.0833437760143406 0.794524272189842
0.239644812207273 -0.0747736541235048 0.81470062820653
0.233956286758459 -0.0821870848224516 0.824644817845705
0.236139361910004 -0.079342045894139 0.837731912657564
0.238309626586707 -0.0765137019016789 0.845868526269972
0.235403526189235 -0.0803010056756886 0.853936743267454
0.23334139200288 -0.0836126850383888 0.861551731266248
0.236614596848669 -0.0884394639307254 0.869792532690932
0.235592696403544 -0.0931655321223382 0.871203204206565
0.205216473191263 0.431011489113147 0.416836530823969
0.204833632134318 0.431305253388247 0.427179611139097
0.201983114908439 0.433492532185363 0.435288022709047
0.208763901373287 0.428289451731163 0.443608984403806
0.208036307424259 0.428847754204543 0.457629511016052
0.20624494399464 0.430222315709367 0.463646127002594
0.20745401029825 0.429294566504352 0.467626821150292
0.210422445885673 0.427016805766045 0.47256191947903
0.208790457056517 0.428269074838736 0.489945026731009
0.206043680860124 0.430376750344166 0.506997857132109
0.202872201201418 0.432810312278118 0.503094538761191
0.202617280528483 0.433005919790255 0.517368926035965
0.208960461587525 0.428138625774015 0.523549302158312
0.209269196593569 0.427901725071744 0.528252575608548
0.20572904886397 0.430618175966097 0.541051447353819
0.204309655402509 0.431707314875637 0.553749757049286
0.203427678174001 0.432384079805854 0.562986607511668
0.206790599668095 0.429803619384981 0.56366956305364
0.204255041098966 0.431749221904675 0.577500356053284
0.206262967255884 0.430208485974604 0.586531923111706
0.20195938888539 0.433510737803166 0.601222268727247
0.207379899620777 0.429351433627274 0.595364604920644
0.208023236880391 0.4288577835856 0.606970627596825
0.210028353096683 0.427319203798804 0.612803588539537
0.207084153785961 0.429578367387911 0.622257228138572
0.202089826538213 0.433410649471906 0.641970741818183
0.205814535133904 0.430552580044075 0.646521466250037
0.209669094099961 0.427594872922664 0.64820875854903
0.206105169203604 0.430329568678768 0.661692708227721
0.20593998532147 0.430456318729509 0.673619717112969
0.207010270756118 0.429635059830662 0.676647491803585
0.2086751625809 0.428357543401442 0.685440948950066
0.203112596647877 0.432625850364263 0.699376932539854
0.203969175457643 0.431968574326199 0.702738343184614
0.203064502226558 0.432662754511712 0.709740087922237
0.207586983919499 0.429192532256078 0.720755820529147
0.203434308228615 0.432378992386017 0.739081893142293
0.203603297477043 0.43224932237502 0.741827114328396
0.203978415266711 0.431961484371337 0.749717503103921
0.205633391712167 0.430691576280269 0.751359562929788
0.203345795378372 0.432446910684791 0.766989015020127
0.209724349788762 0.427552473741407 0.765442502496442
0.208356656124091 0.428601942001597 0.779747773880484
0.203264728457641 0.432509115520901 0.795994394286682
0.20471110070459 0.431399275061152 0.798925038294457
0.208022219153039 0.428858564515263 0.802901917274272
0.201177502431851 0.434110700380501 0.817243383237769
0.202674211067026 0.432962235451591 0.82639692864927
0.201802654633145 0.433631004224854 0.833459237389268
0.205139484209614 0.431070564836543 0.839946642198826
0.208160815627815 0.428752215699729 0.84660384045887
0.201706732940471 0.432686433133024 0.863013563101303
0.202952229836466 0.429734115629528 0.866219171673372
0.207611109192401 0.423013063973201 0.868997400606125
0.204005406219695 0.410500223514764 0.871805079161736
0.246511337364653 -0.0658250243151544 0.492432641747464
0.24632451498061 -0.0660684959862543 0.503088432589323
0.24967763833171 -0.0616986205568346 0.506575052320159
0.24463623071234 -0.0682687108812325 0.51397334173501
0.247781946720851 -0.0641691339631879 0.521801262121082
0.247258238834294 -0.064851643368906 0.534711680779141
0.245538865385635 -0.0670923744725879 0.538333414774211
0.241597017530608 -0.0722294906131392 0.554710020090178
0.241140294622154 -0.0728247034957938 0.560299700296989
0.247048039501977 -0.065125580472135 0.587491436526879
0.247247194316069 -0.0648660368652881 0.591849272959897
0.246518598123151 -0.0658155619104539 0.604629374710549
0.241544235213915 -0.0722982778674894 0.604480298200884
0.244418883249877 -0.0685519636090361 0.611590059329169
0.245970430066787 -0.0665299484300885 0.628274784276021
0.24392219906486 -0.06919925504124 0.634804496947616
0.24916167637855 -0.0623710352656137 0.656908648927914
0.243706993939148 -0.0694797158214332 0.65485630750547
0.248931984622421 -0.0626703753901329 0.667572262737481
0.242443675930937 -0.071126103903701 0.680175477278889
0.248443071476411 -0.0633075394071292 0.690527076907196
0.24936873123947 -0.0621011961172924 0.705944037887459
0.247800899227276 -0.0641444345759355 0.707489401544147
0.246894657768547 -0.0653254714388725 0.721915869992984
0.244992996311351 -0.0678037649004443 0.737267060227856
0.247321081869159 -0.0647697447313631 0.740395041598699
0.24874687437766 -0.0629116157578787 0.757920212824372
0.247433530283235 -0.064623199105004 0.765270971156246
0.249358005685561 -0.0621151739312844 0.780987769992007
0.248357436790651 -0.0634191407024069 0.786345956413665
0.241971190615634 -0.0717418587548988 0.78989126096702
0.248071405549699 -0.0637919038730408 0.798519665694398
0.244078458544491 -0.0689956137226376 0.803665558860489
0.248374771277916 -0.0633965499587781 0.821283074221182
0.245647383737169 -0.0669509506034499 0.83135419986778
0.24245139850766 -0.0711160396457717 0.843237837912982
0.242517553025385 -0.0710298253997442 0.851412299877488
0.244347718693763 -0.0692417260942205 0.861424711100821
0.247784180742211 -0.0756400126133505 0.870538977847287
0.247020580773088 -0.0908667973947175 0.871985864946231
0.218784194800583 0.42060061015693 0.41486222155922
0.215276642839796 0.42329204943818 0.426991395177518
0.21690541562504 0.422042248122778 0.433124810584779
0.212621424086774 0.425329470446362 0.444272305894898
0.219563682961229 0.420002487854457 0.441371222693852
0.21803981899163 0.421171789804339 0.458621736526666
0.212140229627406 0.425698703941502 0.467793516107392
0.216750940022885 0.422160781421295 0.476855709052776
0.211177962503505 0.426437077475315 0.483041201420831
0.213075361010724 0.424981152393776 0.489916202371814
0.211618678701039 0.426098904042908 0.502999145513023
0.216458969074692 0.422384818609549 0.505283132898045
0.211150619581636 0.426458058437195 0.522570097645922
0.218047974070587 0.421165532192166 0.526521339979285
0.216470210285911 0.422376192924804 0.535588042505083
0.210338417906363 0.427081282702314 0.546206531586842
0.217022042816614 0.42195275693115 0.551690161535123
0.217611002896451 0.421500831967049 0.554105301719461
0.217096965073974 0.421895267061078 0.565996173312837
0.217754437520606 0.421390770708924 0.572822305243654
0.212864802415146 0.425142719686713 0.588313199278685
0.21020816420493 0.427181229882708 0.5971999001288
0.210474449813665 0.426976901748615 0.611082948793742
0.210310406608834 0.427102776526876 0.614050881312853
0.215599728820996 0.423044136845369 0.619893029968685
0.215986080349374 0.422747678890797 0.632511893671362
0.211313334567319 0.426333202837332 0.640332975347628
0.212773551455771 0.42521273901052 0.643180769247388
0.216157220305219 0.422616358583955 0.658457181406176
0.214773426335518 0.423678181042709 0.662904132483402
0.21739621061325 0.421665647882759 0.675161058999288
0.210336141701983 0.427083029295365 0.681748643009974
0.215211511359024 0.423342026581144 0.693203899343054
0.215331344201414 0.423250075607132 0.703631776815917
0.212112232282529 0.425720187059817 0.71394198442667
