ply
format ascii 1.0
element vertex 860
property float x
property float y
property float z
end_header
0.40684785506129 -0.34462124038865 0.70241321986811
0.403190223766603 -0.350348150125349 0.71138544134314
0.402885890763706 -0.349303089599261 0.711164664695002
0.398000025773891 -0.336590587565109 0.710204654669179
0.392404990819803 -0.330722337169217 0.714629457753164
0.388928528772072 -0.32705935422295 0.717368144619526
0.388355108263874 -0.325305365968856 0.716772172627453
0.380868888556537 -0.323916889353522 0.727118277794657
0.379295286232267 -0.322282676056153 0.728373071118327
0.375981045055072 -0.322992504081054 0.733655238850233
0.372390070417175 -0.310680056011595 0.731062096875336
0.363678610974598 -0.30484768672783 0.740052276104075
0.360455417461894 -0.298087573733318 0.740452847707792
0.356693083524006 -0.302908713156764 0.74835605645281
0.356820680761736 -0.297896142367552 0.744370111679439
0.345527090103223 -0.288275904450022 0.749349680222739
0.342626115643216 -0.283742377978932 0.749046253342657
0.337388580128618 -0.281069285225689 0.752727879503974
0.331455528649366 -0.270665702117766 0.751238968347049
0.326403117530214 -0.26969049922583 0.756020803293956
0.319074364019735 -0.260741020256692 0.757175336733456
0.3120745770493 -0.253262374935461 0.759098409573399
0.305301782092799 -0.243851112965769 0.759290077837145
0.300535308517827 -0.238072399747251 0.760073073871854
0.300621646706332 -0.236913298803474 0.758831369767352
0.293786498570873 -0.23906518994013 0.767951312131196
0.270673321387629 -0.199274555972393 0.742884460518063
0.278997014531326 -0.217223015403455 0.759651178848644
0.266218665121906 -0.20963370751144 0.763340604534109
0.256195963802203 -0.19824452572894 0.761001145041737
0.247020576861869 -0.182174203058443 0.752623937824972
0.238366069122402 -0.173701688747808 0.752106653016253
0.237051077007825 -0.168685719141861 0.757781258399387
0.23454128129956 -0.170315376467711 0.764127153348127
0.231593067881313 -0.172572350512974 0.768598257236487
0.233135622964288 -0.168917078431995 0.777106713939521
0.23159127648633 -0.169321070892804 0.78273593555251
0.232082305625651 -0.165815431236474 0.795622387533196
0.23263802321317 -0.162995895466488 0.805217900947452
0.22763637514235 -0.167450370238041 0.809777255081913
0.228687914034463 -0.16424019328045 0.818699430985928
0.228663302971162 -0.161991747586241 0.828588206360863
0.226103286821471 -0.163483823568299 0.834345728922453
0.22422460426607 -0.162926526659725 0.844854844377696
0.225950250390252 -0.159667823096572 0.849670003188224
0.2214875762218 -0.160346778876053 0.864653781846214
0.220775673570159 -0.15946227671115 0.870559511593045
0.220703123252185 -0.158932013648808 0.872719804889481
0.219140488599435 -0.157413671393752 0.884184611943131
0.216295078196419 -0.158033115147139 0.893077778136654
0.221752803187684 -0.150904981141451 0.897000550661005
0.217998120331318 -0.15264143557994 0.905533692719814
0.217698330464048 -0.153530981767023 0.921490636849065
0.217780049986728 -0.157287246390669 0.929175078079609
0.2179034510378 -0.15686925300372 0.940608107494745
0.218903016120938 -0.15368170834252 0.945629350147118
0.212945608562289 -0.14915344510319 0.956984600075333
0.2088604675727 -0.143888078700908 0.961142942471958
0.204000814485161 -0.136281939313069 0.963840520551538
0.205178126655557 -0.137970954707111 0.963459330117071
-0.276418190911164 0.356127089097946 0.476454597299205
-0.276089909371553 0.357740551268506 0.49238458421074
-0.27222776674021 0.360612109909762 0.492449960129406
-0.272716518390434 0.361114026432979 0.502504323827046
-0.2769227787786 0.359629206706289 0.521534755345354
-0.282700928463338 0.35580031485687 0.526870514537472
-0.283375753233739 0.355332737943264 0.536782220337773
-0.277231306214061 0.359918911186943 0.546594963069581
-0.274908451229786 0.361672801898142 0.557720624577478
-0.279470334318386 0.358333476054031 0.574617588773522
-0.272920691125873 0.363220585044352 0.584524792389867
-0.281053709884235 0.357219724414146 0.597169008971467
-0.279982035969785 0.357705099235584 0.610063695531556
-0.271599549315638 0.363418569526907 0.616356657158367
-0.278074111030553 0.357399681662648 0.631434891444613
-0.279167423793301 0.355975617921837 0.639043169492479
-0.275319919861464 0.357469723387643 0.65594147114609
-0.275891665712224 0.35586672419274 0.670577031805949
-0.269166441517041 0.359363787918323 0.686875647914082
-0.271668835511896 0.357111949292565 0.689275595977974
-0.276318875516639 0.349951140641013 0.711822969610006
-0.275299495107186 0.348870107388354 0.72298952029109
-0.26941864968283 0.350918391125941 0.737062003512928
-0.2691930158376 0.350874381603445 0.738346969061826
-0.27152412856244 0.346234504719971 0.756031724527707
-0.26474728814883 0.34889023533454 0.767897860071474
-0.260416785007181 0.348144577406475 0.783725662200085
-0.26116304388267 0.344500068858989 0.796081769724738
-0.257535047938041 0.343832545573786 0.809513156255482
-0.256395012286771 0.341354408001176 0.82280222787418
-0.256118904820556 0.337681561832637 0.838304564063026
-0.25719236931206 0.334286354976366 0.84651816085286
-0.254709586263396 0.333708007584339 0.85367632645781
-0.253588285098783 0.330366358984 0.866018191416705
-0.246815745568351 0.328174874859633 0.887359477917804
-0.243502400102932 0.324802265170082 0.904602896514355
-0.240221551092522 0.317633678068874 0.925759323167029
-0.239657850334138 0.316625400673391 0.936187964861381
-0.238574176856247 0.317370189627651 0.93755251095423
-0.243377975390314 0.319144546623533 0.949842537615121
0.464612305708673 -0.423257049279655 0.617308922158855
0.463349644165713 -0.419082675845928 0.621740861492498
0.460002181898574 -0.417008904701748 0.631273275270822
0.459536565867544 -0.417926681971051 0.632301799089652
0.456174996548415 -0.408068637751661 0.639911928373666
0.452704789523223 -0.409542441016668 0.645301130032058
0.451592708234095 -0.403672402874576 0.646912672064082
0.448309087819444 -0.406762837656016 0.652042992650517
0.447201367356733 -0.401357286621511 0.653656255614164
0.443321377639358 -0.393158550317239 0.65950251434659
0.441198739974054 -0.39527757098513 0.662821126838425
0.436853512066018 -0.397308481235888 0.669572606550481
0.436373967212737 -0.385006007026492 0.669519307260131
0.431412139020926 -0.392569509557486 0.677894614340271
0.429476826184569 -0.381205343671307 0.680678197786176
0.426782713544336 -0.382340802997943 0.684861972449409
0.42389217071151 -0.373210584042591 0.68902146886754
0.418913580349918 -0.372386504735245 0.696840507548171
0.418530976898042 -0.366597687723791 0.69652323549196
0.413249176368898 -0.37197068693197 0.705585891289077
0.41143728939759 -0.362446727147401 0.706397097199101
0.4082750682476 -0.361760713264295 0.709494610277052
0.405841548443182 -0.354447945297404 0.710127187588562
0.3990519115088 -0.353423743993113 0.717226105380488
0.396487721127766 -0.355485434997085 0.720276173826434
0.391675957086571 -0.348860787329839 0.723841865303726
0.389415459593617 -0.345928868721973 0.72555404082864
0.384113235290485 -0.339470054584725 0.729656137540085
0.379553544000177 -0.338960406414141 0.734221133956384
0.377805902912304 -0.333752417641736 0.734940026423181
0.377024306738097 -0.331016341423592 0.735177860462858
0.367154389524513 -0.322130884806433 0.74345894517428
0.367934422774636 -0.317001315029864 0.741575370695244
0.361568131191373 -0.309749895505621 0.746245048175481
0.359299807965315 -0.309663696605746 0.748939494645631
0.35422806311587 -0.311354865588794 0.754439926890766
0.35028332457578 -0.299414870223919 0.752639835450753
0.340049501810723 -0.297556848453057 0.759183530137467
0.336558611294023 -0.280789156295854 0.753421374291124
0.328452680639123 -0.278669623242916 0.760135886703112
0.32549400854157 -0.271913833072661 0.758721896728472
0.318397603398835 -0.26374760265902 0.760223120477396
0.31386337833482 -0.26244136558308 0.764183761418842
0.309799123930262 -0.25633580447287 0.763947341594553
0.300847506672304 -0.254530034634595 0.7704208288547
0.300323261054757 -0.252027116103344 0.769828790267261
0.289858120516871 -0.235877376295289 0.768262810034658
0.280454695327836 -0.232046353674917 0.771491250518298
0.278075107656799 -0.230720760589141 0.771861628546138
0.271127176236389 -0.218060423881065 0.767228805922044
0.265168161738586 -0.217399009130907 0.770260778224347
0.252762384887151 -0.206152082097174 0.769639031825906
0.24064841921923 -0.195377726247016 0.769154372873824
0.232136030440456 -0.174290663665965 0.756679165672322
0.22597036013261 -0.178553552106344 0.769492725239141
0.228947541737803 -0.174131821755049 0.774471796838104
0.22332324022287 -0.17762085685581 0.786204114072498
0.226811826794629 -0.173052239434842 0.789376044968872
0.221629979441674 -0.176651551145424 0.79851337659547
0.22370714772235 -0.172724712698273 0.805645533815571
0.224126119397251 -0.171483849754635 0.809034496340462
0.225576270730372 -0.165949925309659 0.826148889967286
0.222903898575529 -0.168124651305416 0.829477085992539
0.222361816292697 -0.167437868516542 0.835053807289674
0.217848382634174 -0.167798766213158 0.852446315727182
0.218639032441501 -0.1664474362194 0.854150652390638
0.218087496885978 -0.165222083497949 0.860638466756601
0.217252332732255 -0.162028881732626 0.875199365894623
0.214934889926026 -0.165436138787262 0.872164007430325
0.213193125344576 -0.161685259958967 0.892231977134044
0.209150255847052 -0.165113746638646 0.895844220659093
0.21116905056934 -0.160001081773922 0.906081902511151
0.212989365127385 -0.158022294755832 0.905996131007401
0.208642731208424 -0.160204235246235 0.915205843295808
0.212987898145611 -0.162922994639696 0.931947383497566
0.211744825950979 -0.161933756746148 0.944726369198612
0.207648440827778 -0.162402428084116 0.950430961579267
0.207806787464694 -0.154727386105795 0.957018954310526
0.200123220336843 -0.153639351493482 0.961084526884412
0.205894959700641 -0.147386952957732 0.961042511037691
0.196645506195843 -0.144578254606036 0.963817235494765
-0.283023939248363 0.350411819684016 0.468527846395662
-0.287438478232234 0.347189184598838 0.477220502909468
-0.285699860408208 0.350020877903653 0.490496245069301
-0.288183684214633 0.349529455519095 0.509513754302609
-0.287177729469301 0.351508688415499 0.520837674993334
-0.290103158261537 0.349407751529439 0.527655866443842
-0.28927027985793 0.350199196683336 0.537810770121917
-0.28636156962375 0.352896201116904 0.550585470538781
-0.285052771911123 0.354118270983651 0.55922231772662
-0.288200636011334 0.351282935694139 0.573644161782363
-0.285121978966618 0.354127970630863 0.583932401266103
-0.285229014988546 0.354072053699173 0.598134443279175
-0.289679595005839 0.349955879897331 0.606722821677171
-0.289339382819299 0.349223624750914 0.6186281141697
-0.281586669580688 0.35485239556247 0.630699360356213
-0.285412356160986 0.350790793588326 0.641714275022833
-0.289958919346383 0.345981893069385 0.649156923817034
-0.286041174205616 0.347701994141991 0.670401103172178
-0.284089282179974 0.349054589514981 0.675329807709857
-0.288108466289219 0.344122661307891 0.687148809201557
-0.277609257645111 0.349238910449886 0.710332195708185
-0.277328308857669 0.349064173827124 0.712661053091084
-0.275726766219718 0.347533995756717 0.729182419984442
-0.277689716161929 0.343557798327242 0.743504184473679
-0.279169032663425 0.340487427042759 0.75309901666071
-0.278193458973513 0.339471401482209 0.763491610862836
-0.275444065721443 0.338839356958681 0.775049296484531
-0.275512494486796 0.33394278260353 0.792810229371259
-0.269757617423768 0.334704269449891 0.809343544092429
-0.270435952248113 0.332148732983489 0.81645440422361
-0.266499097502335 0.333652028733403 0.823619991102893
-0.264415613798923 0.330512960589967 0.841826288861038
-0.262169858137857 0.327979925986454 0.854244437586187
-0.263601377321474 0.320127265917664 0.872323631465774
-0.2564523510265 0.319213831024622 0.892568647445043
-0.253199937212458 0.319095128876545 0.900199842854633
-0.251832100284791 0.316287475202775 0.911503635575789
-0.251952444532807 0.310310270663046 0.922912699562541
-0.245620641725322 0.313293954605867 0.940862826610633
-0.244615982117193 0.319225001989617 0.95092844497643
0.462906121029154 -0.426935801735858 0.620999972711037
0.460383869322707 -0.4254829095838 0.628155437217658
0.45700954304746 -0.422972834099394 0.637551470754959
0.456585743544458 -0.423751538205585 0.637816076217601
0.455869044805836 -0.41948816703838 0.640592681820745
0.450090386863317 -0.419350059794674 0.648102501871918
0.449082345408838 -0.412752513569536 0.650957199048193
0.446789548770699 -0.408077325219739 0.654415010450964
0.443709241424773 -0.411612351345066 0.658295954334699
0.439431321254624 -0.406957387079176 0.664946235380065
0.436835579046748 -0.408845139075334 0.6673580957444
0.436225686684094 -0.398599257958437 0.670566266205792
0.433766405055144 -0.40131694241516 0.673572248699623
0.428359338072123 -0.396158254863423 0.681728113138452
0.425878060547625 -0.395778467497901 0.68478610529048
0.425275776419613 -0.387755300799725 0.687289188970661
0.42327044736716 -0.386897512332184 0.690372314078729
0.416600983716601 -0.382508019257793 0.700301903688409
0.414450247032915 -0.38322462567475 0.702592251042119
0.414589217203464 -0.378373470881776 0.703631795992249
0.410918029142166 -0.374485534517765 0.709233913573671
0.405510544020785 -0.377076735947907 0.71360507467444
0.40286728175202 -0.367107606389314 0.716132498048818
0.399883166113772 -0.367142313558581 0.718540185873735
0.392476664753037 -0.358432173616647 0.724689327010396
0.393883228323492 -0.360587901304802 0.723481762771864
0.386041504425459 -0.349844197120087 0.729814603010281
0.383872921432878 -0.347470068742985 0.731547346303259
0.381762722863658 -0.342476345720363 0.732681612047172
0.373831083806601 -0.34002989836629 0.739889943912975
0.374103832557164 -0.335939031005874 0.739181140860002
0.367298769233183 -0.332923038724188 0.745267678447904
0.365785947198134 -0.326097833070237 0.745676180399881
0.357733192856063 -0.325759145182828 0.752885319981715
0.353277805307257 -0.314193248868037 0.756038355842408
0.350430350449492 -0.315408620345127 0.758591577623415
0.342424728987575 -0.310501074569388 0.761579869321529
0.338623780357995 -0.299839950736477 0.761074101048272
0.332132978999399 -0.297229521539255 0.764503272478244
0.332852721930896 -0.297998915623772 0.764277892519399
0.326218068808632 -0.291510821304187 0.766435154179049
0.317859925898777 -0.280445678112168 0.768333715223825
0.312610848262991 -0.271392370782992 0.768570542167739
0.309805571477758 -0.273678825205977 0.771440975506779
0.299961919432054 -0.260437003173701 0.773323859340701
0.29607878068664 -0.258519677836299 0.775339931862516
0.289824200166087 -0.258084516922436 0.77855398773839
0.282935677754656 -0.249184726254356 0.779833780885196
0.274946569684661 -0.233206934344206 0.774838222237918
0.269429606244179 -0.229134254949896 0.77510859754467
0.25313014015749 -0.214194560711761 0.774195869822767
0.25197649547083 -0.214297328239856 0.774814272034251
0.241494110922925 -0.201176720806138 0.772159320484879
0.236974542086753 -0.203296949124135 0.774938426314626
0.223230604373138 -0.189233409981293 0.773358090221351
0.22089664617468 -0.183493482139017 0.772287041799153
0.221446040579731 -0.179724285502602 0.786039740710846
0.21940863565605 -0.179440908500748 0.797013807809433
0.217978778792814 -0.180450033608332 0.799465825817708
0.219096894733329 -0.177869759851212 0.805332263900452
0.216891515251256 -0.17692417878902 0.819987308036381
0.215326689851497 -0.177586864567789 0.824590251427896
0.218810302132444 -0.172923034219701 0.828199736293204
0.216936820577616 -0.173638547462807 0.834049058719886
0.214967251297369 -0.173265231218009 0.844315777390206
0.214790379351438 -0.171251545029287 0.852135211947822
0.21208039032653 -0.172553163503207 0.858085214473577
0.208209580004458 -0.173326004326057 0.870430477167112
0.207026614475899 -0.171724199435436 0.880711514667741
0.210696296538662 -0.167471074318245 0.881473293628739
0.204675784704113 -0.169932550649439 0.896215118569218
0.206122177716496 -0.165497635206751 0.906283195089204
0.206361092776018 -0.164927562405825 0.907370889722906
0.203095252451014 -0.166011300298239 0.916258150147205
0.205193587686658 -0.171046577309726 0.928484215429881
0.209650873330802 -0.167206546329913 0.936623077317258
0.206832317434798 -0.166667590583148 0.946341986110971
0.199541901638016 -0.167033999639965 0.954334573259247
0.195008930805247 -0.157438523253496 0.961863498773482
0.193198498231695 -0.15933578703928 0.961903917971562
0.184494048610785 -0.148007148711424 0.964210772206193
0.179665309266466 -0.140234648060298 0.962303250520327
-0.294040362646162 0.341530119129883 0.481246363304912
-0.298005520942709 0.339402131649006 0.497247204169566
-0.291242114710205 0.345560115753613 0.496975326801837
-0.292974715414609 0.345786586842504 0.516325113701474
-0.295239404296951 0.344710962435698 0.527319819914843
-0.298422173237303 0.341810183497983 0.530386911905438
-0.293741661537147 0.346128589149382 0.543682188519166
-0.29605498419916 0.344057196000943 0.558430895936626
-0.299879656316798 0.340609561097632 0.575043631357391
-0.298554272751953 0.341830226635803 0.578070188266691
-0.298277658180078 0.342150811023324 0.600991797339794
-0.294345138620561 0.345536181073139 0.608482898661178
-0.297599966315099 0.341261767722522 0.623302677646155
-0.29669040819375 0.341720854419498 0.627553076093275
-0.297018475897702 0.340503519407401 0.638021771337259
-0.297143190092033 0.339465086656579 0.648570494257304
-0.288823520692252 0.345541144382976 0.666031710546982
-0.291189128526923 0.341973302666018 0.682065588824479
-0.29549650986241 0.337426717601736 0.686821787266752
-0.286882002602753 0.343258884693796 0.698235756080446
-0.294408808565028 0.333213445124496 0.715907701223856
-0.285131902292842 0.338863839139956 0.73171926501418
-0.28596732192327 0.335811858854667 0.744499264689447
-0.28801444221836 0.334099319763308 0.743611031073676
-0.282124070332779 0.335681682369986 0.764212370931919
-0.279433282338832 0.332727707998712 0.784104335021959
-0.280893864038933 0.330347901661478 0.787941898717531
-0.278957096976112 0.328462288842534 0.801375710318613
-0.281180618345038 0.320010651330169 0.824959363727413
-0.274016766849409 0.325841653736648 0.827599342937022
-0.269136368536604 0.327417946015411 0.838201482176872
-0.268965711711634 0.316509902162856 0.868826097048178
-0.264653152269305 0.318250273072804 0.874811413689491
-0.262227178891097 0.318842090568845 0.87923066936274
-0.260822723795347 0.312335743438571 0.900402290742989
-0.261935876846906 0.306514240703695 0.913457436868676
-0.258033536886853 0.302392650445849 0.927347021212178
-0.256878344813373 0.302959462644873 0.93921295743103
-0.25840173875168 0.310404133350322 0.953495610081373
0.459671236353419 -0.434144807619037 0.62279782518423
0.456118289734348 -0.433031787754578 0.631244179747853
0.45413304911411 -0.432421003787689 0.635954587685231
0.454421202054917 -0.430873217329385 0.636604654209773
0.450350993659997 -0.427386127418734 0.645026646159688
0.448093868630377 -0.428179095416461 0.647416193027394
0.445180029461978 -0.423362717885907 0.652512878506584
0.439217587285396 -0.422701069581903 0.659738909546721
0.440870189863791 -0.416983368648151 0.659794864002687
0.434914787064456 -0.415325947570264 0.667391415169849
0.432336452997474 -0.410449751905871 0.672112913575985
0.433048113577807 -0.407014065660201 0.672456960774746
0.427029824297909 -0.409276839697212 0.678777194961805
0.423395684427459 -0.406848599161647 0.683837836260072
0.422755922681639 -0.399233903378366 0.687278887246366
0.421293812495066 -0.39675421082426 0.689857986320252
0.417728293330175 -0.389045665647844 0.696719806115417
0.41301541879501 -0.390848447694728 0.701658513269224
0.412805100639264 -0.386429151032074 0.703429069016879
0.409224981572043 -0.390700485174569 0.706181053757927
0.405004388064276 -0.386901846141585 0.712468703375735
0.404187226196732 -0.38041150196872 0.714315796654507
0.396339593162352 -0.373246096273939 0.720667507939318
0.394102992183541 -0.375337981651815 0.722149862760577
0.390853969818553 -0.365943745427795 0.725289382083747
0.385789770190069 -0.362963775833474 0.729257843462489
0.383551271630694 -0.356202927639591 0.731443775827647
0.376720561067983 -0.360027668678758 0.736074288577242
0.374639620628205 -0.350452433927289 0.738467394822262
0.370650885040899 -0.347035733876143 0.741677926048878
0.366769430897499 -0.34196370538819 0.744940692440448
0.363955711128088 -0.343569895051538 0.746886883235262
0.356724579330569 -0.336626718253698 0.752766632982389
0.353918982036417 -0.335130486587353 0.754952915012775
0.351104830535137 -0.330832492916017 0.757367730646821
0.348573381966871 -0.326495926413482 0.759577265916531
0.342668555863974 -0.31157886372949 0.761611284048405
0.337072451869098 -0.312253782026626 0.764241594654349
0.332770022296812 -0.307181963246361 0.765526529416532
0.325504211486502 -0.302260648434927 0.768177042662336
0.319413736198689 -0.29095054647282 0.769451245050043
0.315973494518572 -0.292042236656776 0.771157501029894
0.308573903918576 -0.283769723159589 0.773426802544618
0.308133595243571 -0.281335009726516 0.773305659781868
0.298547152390337 -0.272355261504488 0.776474782158156
0.292560488312472 -0.266851476986654 0.778467592287017
0.288718308550096 -0.26758026007766 0.780308515232263
0.281978963319045 -0.254469408012403 0.781639895166048
0.273079540048028 -0.252677728580937 0.783330478627886
0.260015286709285 -0.234752851711996 0.780274489149648
0.259744687900875 -0.238943910429443 0.781766875114075
0.249607129804494 -0.217677941487075 0.776886986234641
0.245235306986544 -0.214734494797712 0.776906014563208
0.231037344140788 -0.208270361495052 0.778023165883153
0.222960680260533 -0.19902808368863 0.77676106277227
0.214806169333196 -0.189638166942936 0.774707867704523
0.214046249329589 -0.188312778457258 0.784101453303897
0.21412138457626 -0.18696397735285 0.789603662623332
0.212340180187323 -0.1871954985232 0.797115016447416
0.212291214975457 -0.186297968836372 0.80124956344421
0.212864491465441 -0.182663569179755 0.814302273148386
0.206330426634977 -0.187399021915819 0.824968387694884
0.207945868797127 -0.184838399808338 0.828371279061591
0.206493600079011 -0.184070319743685 0.838653682386146
0.205637610804411 -0.182378031250628 0.848399186154897
0.205118811692877 -0.181175647103161 0.854678119885424
0.202479371217927 -0.181625121536779 0.86337061282615
0.200118373800492 -0.180713518413049 0.875797667161611
0.202705218781949 -0.176534868695969 0.880514789665345
0.20257308731999 -0.175816790915867 0.883572264478801
0.197869933028541 -0.176827952236239 0.898316713891193
0.20003770457264 -0.173468186882419 0.901767071981259
0.199012557183722 -0.173416277721479 0.905945156189987
0.196335382393221 -0.174650115097831 0.918159660735842
0.200154863246102 -0.177707581302779 0.937020308249086
0.2050342815842 -0.172038690490089 0.93818208291267
0.195237923038002 -0.175978360280625 0.950503929899002
0.194747410989928 -0.171759651627156 0.954835235485812
0.192751618582154 -0.164477434959802 0.959922879578488
0.182957472397469 -0.159325250728203 0.96385774345125
0.184047993857442 -0.161426941355772 0.963432936784177
-0.304437708698441 0.331426734012219 0.474859002055023
-0.297313109919874 0.338141869377159 0.477012475841242
-0.299249542450161 0.337369135524841 0.487674852658547
-0.303171520216786 0.335320394791325 0.504100728093292
-0.302686129751322 0.336266398235968 0.509468414645923
-0.299627996613984 0.340041420738128 0.519932969779597
-0.309477336425171 0.331715469438465 0.534597348581902
-0.308890436794625 0.332279986353061 0.54406046881031
-0.304648435993289 0.336222280285128 0.565752098276518
-0.309290669585198 0.331999043566997 0.572832959689532
-0.304099970357761 0.336776130524409 0.583501856771165
-0.302311614998767 0.33844087458366 0.59357451485046
-0.305818103295948 0.334757837728853 0.611783283208813
-0.300756972736303 0.33923571544077 0.613486356242493
-0.302061996319723 0.337009298300653 0.625277654662669
-0.304551569339833 0.332871293735771 0.646524518603397
-0.302458432615993 0.334125636067658 0.654047979780081
-0.304762079190111 0.331107853320409 0.664451413964455
-0.301975474297425 0.332245170331669 0.680545035635614
-0.304783776349166 0.328712909449896 0.688067024953681
-0.300444530256535 0.330573976263153 0.699829822932734
-0.301555705004705 0.32629284401183 0.718066782469625
-0.293814350578736 0.330068693366808 0.736507127344286
-0.292013387627156 0.330503715104771 0.743273582951716
-0.29005578654335 0.33111888322801 0.7498337195928
-0.287515243644208 0.330551320365914 0.764952709647568
-0.289630581564091 0.32301829189737 0.785524645392731
-0.288975715804373 0.323123691961405 0.787337140518636
-0.286342966644946 0.319986834851991 0.807706087256981
-0.286757471187646 0.318324838582085 0.812420168047837
-0.284916597914348 0.314593999467232 0.832311518171824
-0.280823409098124 0.314045167040925 0.846062570923465
-0.274359490141481 0.313561420817271 0.863437605647908
-0.276550907866176 0.307061431534812 0.875657575899156
-0.274213089430802 0.304404618052932 0.888686497958038
-0.271618371404639 0.305684125475468 0.891656107382451
-0.271189384498483 0.297180203299161 0.915832806470843
-0.264044329926822 0.298108996232084 0.924667438230373
-0.267451695120605 0.29355256606181 0.939898561294226
-0.264391825040421 0.302220350468412 0.950791297882004
0.456628597956447 -0.441691088201688 0.622388827665127
0.452637421735813 -0.440474940524866 0.63056747040136
0.447960990171573 -0.440095393871679 0.638820837172327
0.450274419953848 -0.43633305423437 0.639761420649629
0.443494447828429 -0.433487056379169 0.64909088330046
0.441051031010542 -0.433089606977678 0.651508546611393
0.440400370751457 -0.427128230273426 0.655875780505178
0.435008249287564 -0.427099828507583 0.660671404016735
0.436552146756175 -0.42679555300278 0.659496952994266
0.434172707515865 -0.421417361940717 0.66502509394984
0.429977449879288 -0.418552993660759 0.670563603991107
0.424535319741366 -0.416623164245406 0.676612619952324
0.424111234083228 -0.410156283995028 0.681100543267082
0.419783586576617 -0.411705888463494 0.683949588872553
0.416692035664382 -0.410183972383515 0.687656544277901
0.410969680586502 -0.405120586953209 0.695946418566062
0.411234093767621 -0.400108373018485 0.698899317572971
0.409486997999288 -0.397361014877542 0.702194286314009
0.409094882612799 -0.397417679072394 0.702505679262141
0.403418624428425 -0.391789830921836 0.711113642102476
0.403182281694704 -0.391173242194381 0.711715125677369
0.39983853564022 -0.386492204488496 0.716213695462876
0.395580968162595 -0.377301627577882 0.72090490615276
0.39218056952406 -0.377133764253433 0.722975080218935
0.388886029623601 -0.372921452147497 0.725941297331283
0.379760829132471 -0.37381214855878 0.73028632664545
0.375888165907866 -0.367663253415902 0.734142135736149
0.374718475707417 -0.363214430451917 0.73610556246944
0.371273340157474 -0.359805405580105 0.738900417136428
0.365860443065846 -0.355683759279915 0.742911092252612
0.361960382469877 -0.352520211123463 0.745860585422781
0.3597779296376 -0.349307013298467 0.747955854760899
0.355706148703174 -0.340516204739614 0.752726793603442
0.354567677053598 -0.342914560707869 0.752563882307436
0.346316682961545 -0.33366202706453 0.759592839527572
0.341007288776215 -0.327909502293413 0.763642105758791
0.33847243580771 -0.320766233157964 0.764728475991822
0.330604500138979 -0.322247012503396 0.76663849353858
0.327849044815814 -0.313986971815345 0.76791585221349
0.317007043833992 -0.310982502653833 0.770831464500733
0.314688380733762 -0.305001784300119 0.771836938404388
0.314253197614397 -0.301399710409861 0.772203064219635
0.304398331954437 -0.293445077597921 0.775226970390603
0.304142330350413 -0.2924121073725 0.77536464631096
0.296259332615883 -0.282737817130804 0.778020418102979
0.288529560462351 -0.278262983784073 0.780266005637641
0.281563049430658 -0.268832025143626 0.782676078654581
0.273203681680723 -0.257975501346691 0.78456768361183
0.268709883654848 -0.256388295157276 0.784492243225916
0.257795871728876 -0.248268386341827 0.783703485267315
0.249911880725352 -0.239623614800177 0.782739134597943
0.246903750016574 -0.226535292704917 0.780539603067833
0.239264297655109 -0.229553089351188 0.781664549727576
0.225700731489484 -0.215596036467779 0.780135445016675
0.218136967084707 -0.202143602168973 0.778477842844771
0.20948484335584 -0.195086495959539 0.776476877708889
0.209914521731265 -0.192162093583558 0.787130813157911
0.205905759472532 -0.195573315453292 0.791475994878277
0.207633421347554 -0.190919906657365 0.803436906850807
0.20774133877693 -0.190970907412857 0.802699225979115
0.207559716527322 -0.188688843247508 0.813484903563878
0.205229895603096 -0.189429192711089 0.821408447854579
0.201972094871755 -0.191064423293761 0.829880573321884
0.202388155836826 -0.188097919463061 0.840782586007877
0.200285265422284 -0.189556526697413 0.843835078833104
0.199836158216893 -0.187702218461556 0.852150879149112
0.196130225000756 -0.187798303338837 0.86625006611476
0.196139380715994 -0.186805929107489 0.869728304229443
0.196841967772682 -0.183783177346706 0.877694119704253
0.198322050707736 -0.180771617398458 0.882590951340667
0.195802593737769 -0.180437778253803 0.893589598721068
0.192090431283874 -0.181643297224246 0.903784646280819
0.192389467359393 -0.180694461494033 0.905979258440589
0.189931673496455 -0.180459926110269 0.916386022016849
0.193276280295717 -0.184486367275155 0.93097955719823
0.195401021735469 -0.182277340372543 0.939051443210721
0.191332161928589 -0.182373359758371 0.94859495214378
0.189868460567876 -0.181829638476847 0.950555894382274
0.187868117576333 -0.174532617928739 0.957928364250941
0.183000296242266 -0.169180655491339 0.962490517580305
0.176201970498674 -0.163704028918901 0.964250779775229
-0.311696286944719 0.324061587395621 0.467067615238713
-0.314950705634274 0.322766577048742 0.485026264641332
-0.308443232465523 0.328876687242248 0.486743471778949
-0.307615226314903 0.331524483069782 0.506951448708182
-0.313190858269258 0.327573042586814 0.519200072916557
-0.312127439705354 0.329184963421408 0.52603684002821
-0.313298334791449 0.328235190114422 0.539018548045169
-0.307818659985366 0.333265159737156 0.545856810755745
-0.308347295955932 0.332826064325134 0.560826832430021
-0.311032945759567 0.330390632296242 0.567570472848918
-0.315960894091572 0.325929556287724 0.582566510045404
-0.3113429749635 0.330169415013236 0.588641685676793
-0.30961630564704 0.331789692328481 0.602753970668858
-0.311041410285548 0.329524235647658 0.617012040424626
-0.310526141917752 0.329137518986535 0.626800612784488
-0.30977512554165 0.328160200013161 0.645788195076254
-0.312445993314828 0.325452012558574 0.648827642661931
-0.312300349633079 0.324345298871129 0.662976103224329
-0.311779895425753 0.324032017503339 0.671980788440661
-0.30481082394009 0.328757178629339 0.687681662678649
-0.308076808899873 0.324001685597051 0.697565057138979
-0.30607623847887 0.322003294268931 0.718941791123522
-0.299749312500888 0.326661920926726 0.725229275967092
-0.303530861547819 0.321110082517858 0.73692781053171
-0.300700780258177 0.31973971359976 0.759032601527779
-0.302905385469908 0.317302745106972 0.761386278729578
-0.29873612072094 0.318846256313831 0.770267059210831
-0.295567148498704 0.313719734325384 0.799747570849182
-0.298465517416927 0.310354132934108 0.802377448265719
-0.297180574938088 0.307636605332227 0.816678310672171
-0.292870361036086 0.308244148153595 0.828924489545452
-0.294159102958343 0.304120067534138 0.839748018648552
-0.291292146862489 0.300231895737241 0.857591624116911
-0.285662508343016 0.3003182696333 0.871344393381433
-0.283723871653345 0.296676410583849 0.886058527049668
-0.274480971049327 0.300234916823959 0.899352774491026
-0.277367584867608 0.293393724549224 0.910772723748913
-0.269560633256994 0.291769184146733 0.928058901540869
-0.274586035310914 0.286724662893637 0.939092600748317
-0.273711249748964 0.292360929314829 0.949453641557688
0.447376826215527 -0.449748276649477 0.627515516694468
0.447175573090876 -0.446036830356407 0.632569946775203
0.447400670767705 -0.445019998188343 0.633489060444616
0.444637860707312 -0.443266001951528 0.640310571865889
0.439869976197475 -0.439482563364431 0.64848982738579
0.441325155644924 -0.438037130512383 0.648119624200004
0.437138548076447 -0.436998756683429 0.652489353224657
0.434747180266932 -0.432041488595865 0.65776040590861
0.429702517044116 -0.431103103788876 0.662826813904734
0.428759774425078 -0.429490157821446 0.664687752144393
0.426688608433475 -0.419648416660224 0.672781045514247
0.421974502860434 -0.423355475726169 0.674600616933212
0.422173505958711 -0.419160829278584 0.677091594647752
0.416320656768093 -0.418105218409884 0.682948618884501
0.410209918057418 -0.414068085513307 0.690564323201824
0.412144903272374 -0.408417788994363 0.692808508833798
0.404356554721361 -0.406992574257956 0.700570195060835
0.402662790961766 -0.404900567666196 0.703446450474479
0.403894431687959 -0.401071168808595 0.704790229393535
0.395860042333322 -0.403209873620065 0.709201260731794
0.398156812557662 -0.395672681699745 0.713306713131926
0.395379077787122 -0.394765787032276 0.715921066419614
0.38816175719658 -0.384560072617292 0.722720536068186
0.385543745456942 -0.382574654339022 0.724657860728327
0.380282382789771 -0.378690300317306 0.728518680980741
0.378932716546674 -0.374901880296167 0.730369660705013
0.376937723377758 -0.37261220613962 0.732085368369422
0.370685063289234 -0.367410674015669 0.736854025544394
0.367249857005535 -0.360955153842776 0.740582887238434
0.357017737393263 -0.362245376716256 0.744695325275427
0.352341970972265 -0.356230485592371 0.749195160967301
0.35281197487642 -0.350248528090226 0.751192116272493
0.349385234227259 -0.346976230129577 0.753935514750228
0.347525035125587 -0.344356093573823 0.755684843582065
0.340896161683136 -0.340192267811607 0.760324099817595
0.337149869870433 -0.334982147437736 0.76382657184836
0.334783801292028 -0.330368865446694 0.765016354914071
0.328561888639501 -0.32352425515777 0.767055903942033
0.322542666593368 -0.318100628397806 0.768943294285503
0.313829387196725 -0.319746629153157 0.770205015522179
0.3084820269519 -0.310116870536275 0.773016904763203
0.305626070951259 -0.304277466773108 0.774146102540451
0.301384565089103 -0.29531604780995 0.775843806101394
0.293139611016667 -0.293876802778254 0.77800052680269
0.285148322285943 -0.292543802736487 0.778971547321826
0.283952689441152 -0.287974788179935 0.780236140346213
0.2751911569704 -0.272257876674025 0.784018142652653
0.277094408117224 -0.275412146697591 0.783318374332112
0.260460044307128 -0.260508157375559 0.785352359333968
0.258254152477434 -0.259972293351319 0.78527630520565
0.243363831393022 -0.248158289782786 0.783501543258913
0.241281439122762 -0.240214068903932 0.783110857988399
0.231256558589688 -0.2385500924327 0.782058589994092
0.220643725484666 -0.21864010746112 0.780736319087369
0.216221323394067 -0.214521913741517 0.78029915934184
0.208175183844319 -0.210482332682768 0.779737724790636
0.201308474684222 -0.202319961019375 0.783869857930605
0.202439562636434 -0.199468011055746 0.791125666800279
0.198826635783614 -0.20162541424824 0.797925260817496
0.201545263597318 -0.196419610696396 0.808649541297125
0.198506916043136 -0.197825759165778 0.817067795494772
0.197535379704274 -0.197563908131644 0.822851478347129
0.194225574448944 -0.198213735698679 0.834192408649523
0.196627507387002 -0.195155643417454 0.837658415770818
0.198595039242547 -0.191287571137063 0.844291222509187
0.192369230447754 -0.195171522224697 0.85388326089502
0.192669381276537 -0.193428772196168 0.859652881299951
0.192559018345039 -0.191917988174597 0.865577098272707
0.190597057972149 -0.190164190378436 0.87943152454505
0.186527557007269 -0.192207608435253 0.886045271408445
0.187005106084256 -0.189860057976873 0.893559498835703
0.186874862546303 -0.185848110168292 0.909217169647052
0.18717213129516 -0.185221474435007 0.910277785457042
0.187582523756757 -0.187303000511338 0.922374534110103
0.192278194284592 -0.185594630441309 0.931056040785422
0.190645429803082 -0.187223505038743 0.939741065797269
0.187460844916241 -0.187105475101671 0.948165089855948
0.184754304784939 -0.184214771499404 0.953507150815677
0.182418457606895 -0.178026625809125 0.958994567827133
0.177784639142763 -0.174479645258473 0.96264026970934
0.16724867261334 -0.168475523752959 0.964416402817686
-0.317706929278692 0.318724801884687 0.468760794959603
-0.31744735179244 0.320006191808972 0.479919379896659
-0.322546759985085 0.315485261988463 0.487777940623795
-0.319505659537872 0.319829530739367 0.498143173043864
-0.317748042614637 0.322870002809464 0.51346460975244
-0.320270939357502 0.32148675378217 0.523332450502769
-0.321284998426166 0.320924090208961 0.535863275105983
-0.320903468482706 0.321311646090785 0.548982709451783
-0.321917240522763 0.320336230362253 0.551136854838734
-0.321842687626939 0.320467157501505 0.565567506032061
-0.320336340207115 0.32191966511435 0.579297637962068
-0.319883292070508 0.322395142962351 0.600048540642195
-0.320667340648249 0.32116464930389 0.611980927471385
-0.323134519550775 0.318248986323631 0.615188112393328
-0.319561697428384 0.320643990663452 0.62945715790151
-0.318634910421614 0.321312691090644 0.631495342749883
-0.317262027973988 0.320469205272859 0.655443469197092
-0.318589905857239 0.318534882416963 0.663663170320871
-0.320809874067966 0.314866595228409 0.676815657097149
-0.312618630019066 0.320316046634994 0.694958419009272
-0.317817242404768 0.313728591872097 0.703490016151099
-0.313928072975308 0.316362619124701 0.710352687583969
-0.310321019392048 0.317421743553185 0.722855731753612
-0.309781983440715 0.313921650024194 0.745156806177392
-0.31138604646822 0.310266640495584 0.757254008018739
-0.308453087987741 0.311204048790709 0.765705594553647
-0.305754416540277 0.310254927028318 0.77825789325921
-0.303287037848235 0.310480518261202 0.785717177317866
-0.304780983439982 0.302837776332253 0.808368298687009
-0.304018202130289 0.299351021689609 0.822751904195814
-0.3002498221791 0.298746233706891 0.838760287767626
-0.296177133198978 0.299639317489029 0.847064726497848
-0.292144160540591 0.300954725913332 0.853510283207357
-0.295316728903084 0.29313503843774 0.866478967213661
-0.292694813055424 0.288729729242078 0.88447922608668
-0.289450217545725 0.288763054295467 0.893316954738593
-0.289191102755231 0.280296275625525 0.914772140021748
-0.283338782530391 0.278852866213789 0.927476630180746
-0.280914323039053 0.280585721940894 0.938160030664176
-0.278553955536821 0.285650554268334 0.945832490896277
0.444887978323984 -0.451927928696079 0.62706357603933
0.439409700284697 -0.454169133693164 0.630001702959795
0.437344731656894 -0.450297378693585 0.639121487933459
0.435829170699007 -0.451332483389746 0.639229200806765
0.433956150733325 -0.443630899049 0.649192171575452
0.433021826075109 -0.440769564670639 0.652362481940031
0.431656800464175 -0.442667774376033 0.651472926389058
0.428089694181481 -0.439475568521305 0.656553574463197
0.420829367540121 -0.433736120828095 0.666206145025421
0.423409782973218 -0.429201878853983 0.668746933121469
0.415737976506233 -0.429022591498303 0.673600664931938
0.416109174496619 -0.426410076472397 0.675746712249305
0.414274741256393 -0.423104474264464 0.679870928480313
0.405441234484393 -0.422430779423061 0.685884057993807
0.408080491891394 -0.420220128290195 0.686278290605391
0.40021846261173 -0.416801211369419 0.694190971304099
0.401439927457545 -0.410915282522828 0.698790453380511
0.398115167306862 -0.410638864058392 0.701074436190942
0.39678931147856 -0.409388367917614 0.703020980451217
0.388644369365699 -0.40757364869309 0.709649512781563
0.387295017916798 -0.402157848709581 0.715053855984243
0.387774355505824 -0.399783960160534 0.71615441030431
0.384285028976799 -0.39068862955553 0.721918380352005
0.379785274072614 -0.388956394527076 0.724130371267622
0.372099111761364 -0.384948238290188 0.728456743771191
0.370468453345179 -0.385544897241168 0.728618873883178
0.368284219570051 -0.373603985991056 0.735489846531193
0.359970644458298 -0.373524074455136 0.737946888546281
0.357628022004199 -0.371767798519652 0.739544733114079
0.349779007834991 -0.366505545871673 0.744573396979241
0.349244403697316 -0.361045698322413 0.747580235560171
0.344430913536277 -0.357698743797595 0.750726696463671
0.346963049289099 -0.352075099521609 0.752928114909631
0.335820295510587 -0.3473451890257 0.758635667395891
0.338311312063926 -0.349618778616891 0.756724532398847
0.333052907200867 -0.342091027526845 0.762183763018757
0.32627809296392 -0.335599595328948 0.76534095641592
0.321313453269216 -0.337649677401382 0.76508924445194
0.317331436308882 -0.325053623428767 0.768614888111731
0.310188291026468 -0.322195370058199 0.769772994949404
0.304060800248955 -0.318640269213685 0.771055220330604
0.295995155498616 -0.310192468379051 0.773729378351267
0.28933935583036 -0.30079791428132 0.776570447755869
0.290063775433174 -0.300503961946827 0.776605818747033
0.279808297968024 -0.29467514901306 0.778720106596207
0.275088114746083 -0.290049876656714 0.780201694731945
0.272844596065707 -0.282033723526464 0.782428741480819
0.258213253782399 -0.274310909424894 0.784637686983545
0.256891373423175 -0.275362443664942 0.784387512475856
0.245107276531739 -0.261361225449554 0.783188111429914
0.244819566124755 -0.252303764713497 0.783543174293051
0.231255064711975 -0.240982791170416 0.781951081115832
0.225640403059835 -0.242483007290339 0.781019272902404
0.207385770275608 -0.226381602335639 0.778914880302682
0.213717634493335 -0.22487667464453 0.779957472317907
0.200961826428191 -0.208839733547714 0.778698028395585
0.194670593945814 -0.207504921234605 0.787609900795987
0.197406480708281 -0.20465093962441 0.789514554819689
0.193675801158029 -0.206000069697306 0.799139045846697
0.190112684276776 -0.207346031639592 0.808055211231645
0.191946269895833 -0.20320325635625 0.820051074322791
0.190520782521027 -0.204287042865948 0.820996942836027
0.188310083715073 -0.204024143181389 0.831806691768781
0.188631976315722 -0.201900808422332 0.840623167839356
0.188965880261024 -0.198850673687809 0.851447885066106
0.182888325394901 -0.202584663867851 0.858206722217793
0.184455041966726 -0.201288496201845 0.857770932210741
0.187070992233914 -0.194849368098001 0.87378648089722
0.184490362706535 -0.195970907543026 0.878473601399234
0.179001030169015 -0.198074402554655 0.889548841325414
0.177899866667672 -0.197381029418174 0.896138880176535
0.176328416957275 -0.19728994032802 0.90202467274105
0.178251832776019 -0.19260053734717 0.913623855556107
0.180424555841647 -0.196434044637898 0.926947017676581
0.180743154714992 -0.197119734693668 0.935165464369126
0.18303662125354 -0.192868512686237 0.943873416942992
0.177574023214373 -0.191015635481069 0.953238039089582
0.179749596906269 -0.187487660495402 0.954822342692472
0.175122277156695 -0.184073882104457 0.959446332608197
0.174529765974032 -0.182060965291622 0.960645730458899
0.159207182670465 -0.168816071893411 0.963436784576212
0.156318304073712 -0.168021831749405 0.962954415712174
-0.33109866128731 0.30526205845294 0.48173409261679
-0.326097739168153 0.311094915011323 0.483867520432493
-0.3240766331022 0.314781725942663 0.497538745998058
-0.324908112779788 0.31544193118184 0.5128884779088
-0.331906524612599 0.309053625761186 0.528592236675627
-0.325243484987068 0.316548657277612 0.534265362163855
-0.329797369877545 0.311482903860557 0.547714747995122
-0.329085940958228 0.312294895641539 0.551900919348333
-0.330710464796345 0.310506922556742 0.562544981097055
-0.327351614748814 0.314321004732703 0.576340379292557
-0.328556523934167 0.313010181460388 0.588910533455635
-0.329873449899112 0.311587740703908 0.605776952723492
-0.328855444209816 0.311895461932735 0.614511263008667
-0.327773697106279 0.312042598172756 0.625484065302592
-0.32420999945095 0.314505563814023 0.641282613638159
-0.328949129264562 0.307837908406059 0.655169889399328
-0.324876897445432 0.311861101915936 0.660788297152226
-0.326897536837542 0.308516849215617 0.671866754598548
-0.323665272529223 0.310173245777034 0.688352082952886
-0.322535725689041 0.307570503792324 0.707838080196932
-0.319859786745457 0.308369293771307 0.718934111218898
-0.318757771491075 0.306838109049976 0.73286937741378
-0.323282837084183 0.301285363944885 0.735262320438461
-0.319731672410307 0.302741091529211 0.747995368112409
-0.313398834083705 0.305527969787718 0.767429591071457
-0.315864067449534 0.299619099083942 0.777838704080929
-0.317765071947736 0.294666197099954 0.787178449584352
-0.312324814111041 0.296194906308445 0.802333881470895
-0.307326683294445 0.298194032769685 0.814288042197186
-0.310673139931558 0.287315312194573 0.837883062583392
-0.30665050084323 0.289295062368012 0.844730112601403
-0.304116458378058 0.288372514503803 0.853956342040563
-0.303815817694964 0.282297607025651 0.869665802791982
-0.293837752544992 0.284214945886882 0.892398124159328
-0.299219412471141 0.273989479504411 0.902655489870936
-0.296262267846389 0.273217206719701 0.912676663387967
-0.292643158336687 0.275283620839395 0.917064239138864
-0.292072301939548 0.268102923043196 0.93466327191634
-0.288022498503965 0.275255827050526 0.944409781343063
0.437287926516968 -0.4575135243668 0.626932918097729
0.435584432320707 -0.457142279769926 0.629661085787173
0.433246140292371 -0.454598314729793 0.636861814603729
0.429285400672304 -0.45343691593079 0.642514811668501
0.42726909443021 -0.452754474535351 0.643971604768482
0.425178350839528 -0.448654544283446 0.649558645393728
0.419953479682108 -0.44775827973535 0.652285594997255
0.420955349098345 -0.443163522176555 0.657490668587
0.418698475889429 -0.439709073075192 0.662083680993316
0.412109883135389 -0.438338331804725 0.666082265781095
0.410712014800507 -0.43296703285431 0.672978291886826
0.408950532218021 -0.434086746812511 0.672188994967799
0.404102338124832 -0.430728677197787 0.677755308186278
0.405544914210553 -0.426800397659546 0.681851627790439
0.397081445350806 -0.423305936219454 0.688892171973106
0.39666742345895 -0.41735693823125 0.695857452213243
0.391737988447516 -0.419543373812084 0.695100953017665
0.38852562956844 -0.41659339653893 0.699660300083951
0.393111410374742 -0.412507277998212 0.702436825562486
0.38909296556776 -0.411585105337454 0.705499528464526
0.385301748209494 -0.403711696808157 0.714821421419004
0.376212512578847 -0.404529811768841 0.715486726102398
0.37408333659317 -0.40250989550439 0.717131217357214
0.37298580118242 -0.394110727684495 0.723413831346975
0.364294073778658 -0.391549035113248 0.725952096681792
0.366930420425363 -0.384128460445336 0.730386527535559
0.355616244416346 -0.383837739722615 0.732262160364539
0.355403774594197 -0.379669707585219 0.735411980205163
0.348944682096352 -0.373575214511999 0.740375775849262
0.350410858211757 -0.369112917517217 0.743028072543951
0.346893767020939 -0.365259313720859 0.746062504781818
0.336429560955575 -0.36384823556349 0.748426638600782
0.338062636732024 -0.362936273174195 0.749017986019107
0.330363194493571 -0.355394265707412 0.755143631061902
