ply
format ascii 1.0
element vertex 855
property float x
property float y
property float z
end_header
0.164686076450133 -0.243562469273144 0.76268136195731
0.163739400316821 -0.248662651485728 0.774139510765511
0.164952704962249 -0.242126018150094 0.779111322906196
0.164153077395753 -0.24643398171633 0.789168736605743
0.164243897666058 -0.245944690911536 0.795942057189538
0.164734983552535 -0.243298984090657 0.809422837157787
0.164777292967441 -0.243071043702462 0.811485669410013
0.163743371876017 -0.248641254859307 0.822734127647521
0.164328618079299 -0.245488262858213 0.830020781953998
0.163873032919304 -0.247942710844764 0.846031940817835
0.16377733319403 -0.248458289530457 0.851002011478338
0.164504248685248 -0.244542059546512 0.869680634526328
0.165077890196668 -0.241451587388198 0.879105371106095
0.163772999939201 -0.248481634778551 0.881769111420734
0.163409613580753 -0.250439365174867 0.892656805925668
0.163694592609687 -0.24890405132974 0.897407513177728
0.165048969882769 -0.241607394496182 0.916205563397095
0.164042967350938 -0.247027195458847 0.921782977236069
0.165165481039628 -0.240979695002269 0.931595823177756
0.164930392100791 -0.242246227855519 0.939583136642218
0.163355081952715 -0.250733152278562 0.948111848941901
0.16341261328454 -0.250423204383063 0.955508090992009
0.1423841645142 -0.249014159979438 0.955555555555555
0.128153647319331 -0.248446891402789 0.955555555555555
0.120165431409766 -0.245925039199063 0.955555555555555
-0.381794641735805 -0.287927160753244 0.61525269241529
-0.373975096063879 -0.296745594144519 0.628533504078332
-0.375566736922836 -0.295213891060453 0.641310954127337
-0.372811511555881 -0.297735784840043 0.645826345902208
-0.382334794079869 -0.287135108850975 0.65965023020201
-0.376882562440847 -0.293838935279283 0.672618663309727
-0.375050234946201 -0.295753603483597 0.687535316498843
-0.378187156740436 -0.292475715422434 0.69024730845899
-0.381127148478858 -0.288785227991656 0.709740119143212
-0.380228656534248 -0.289940245654563 0.712516060867294
-0.374589702908034 -0.296222574136685 0.725078583957159
-0.372784722695099 -0.297758581706543 0.737010815699092
-0.380072798193554 -0.290140602638834 0.749157944197337
-0.374908981498823 -0.295901204545762 0.763064071548759
-0.380697464023768 -0.289337590356264 0.764909108472968
-0.3774006253517 -0.293297591777019 0.775977287533986
-0.376565330989609 -0.294170422404193 0.797354608399711
-0.380149813002982 -0.290041599564038 0.800110394178904
-0.375055743985606 -0.295747846880251 0.822200081052495
-0.372141309016973 -0.298306115841859 0.83114764766915
-0.380978506039242 -0.28897630888475 0.835225165102151
-0.37311408507755 -0.297478299901211 0.848779278161493
-0.374761970045867 -0.29605482236543 0.863458785963087
-0.374948119081135 -0.295860308207816 0.877107746608437
-0.374827570704713 -0.295986273759332 0.888851044528153
-0.380346803547942 -0.289788366844236 0.900922907928309
-0.375637425531036 -0.295140025863908 0.910144782868374
-0.377979810757131 -0.292692379071638 0.912224135916634
-0.378256786842554 -0.292402956298871 0.924404426660901
-0.373663382716133 -0.297010856920439 0.94342643567921
-0.373723542500761 -0.296959661963326 0.955306716377459
-0.386584086310623 -0.295162988954326 0.955555555555555
0.166040812001342 -0.234784651039785 0.164708411809088
0.166152539623176 -0.232542005304278 0.164976582036661
0.16610421581645 -0.233511981907183 0.179520309635849
0.165842908767318 -0.237330078490877 0.189785229431389
0.165832456474479 -0.23738638982708 0.19008012759923
0.165994485248884 -0.235714541895193 0.211187483259987
0.16612925016649 -0.233009481474083 0.211073935645054
0.166147587596854 -0.232641404544408 0.224100685089882
0.166122858040823 -0.233137787018717 0.232054637502066
0.165512090767301 -0.23911234807592 0.240168226030474
0.166147311350761 -0.232646949476912 0.249379602438123
0.16605676964102 -0.23446434231053 0.256169422266529
0.166154962853528 -0.232493365163848 0.267542474736803
0.166090527576664 -0.233786738248359 0.286595423236098
0.166056399769558 -0.234471766532419 0.290483591649234
0.165155024873832 -0.241036027203881 0.29654627530671
0.166061635163106 -0.234366679421285 0.311024752430878
0.166168748810381 -0.232216647402931 0.318130585707789
0.165431611222312 -0.239545928610366 0.32279307000558
0.166042164850068 -0.234757496067937 0.332984589879473
0.165636288351793 -0.238443238241016 0.344241637758319
0.165798272378482 -0.237570555363973 0.355326833292698
0.166073817918192 -0.234122141828041 0.365119502051506
0.165214908947545 -0.240713403999577 0.376927062633721
0.166077273617569 -0.23405277751738 0.380648915000052
0.16610428359635 -0.233510621399351 0.393188749931679
0.165523255609426 -0.239052197907125 0.406227731327881
0.16610545121483 -0.233487184450085 0.411724024073919
0.166164709243278 -0.232297731362175 0.41937182904805
0.166017449254681 -0.235253598318083 0.431427108231578
0.165387364377634 -0.239784306828902 0.438030790724479
0.165382820504902 -0.239808786773068 0.454253955376137
0.165984794450318 -0.235909059846279 0.462402439393646
0.166095048787227 -0.233695986530719 0.470829539078344
0.166131156182908 -0.232971223078178 0.476543090031628
0.16600946374811 -0.235413886901722 0.486269929429436
0.165798536436928 -0.237569132758984 0.498377643021591
0.166154818313158 -0.232496266441422 0.510806860507929
0.166169293586715 -0.232205712413863 0.518200042291204
0.166046795252805 -0.234664552597181 0.522964644440127
0.166172140982729 -0.232148558234589 0.534206536485759
0.165500759425431 -0.239173395255856 0.549621117742025
0.165756016120858 -0.237798209369311 0.553316139803585
0.16616890819725 -0.232213448119913 0.562235694750816
0.16619238285224 -0.231742254568659 0.571141394286089
0.165622692802322 -0.238516483754594 0.57770419364065
0.165949987858015 -0.236607713003956 0.592549406294765
0.165182152623209 -0.240889877470124 0.602213143373065
0.165435030529633 -0.239527507220238 0.610359645135763
0.16523928694254 -0.240582068464561 0.621332087034923
0.166200140666665 -0.231586536321433 0.629737636749285
0.165726376247201 -0.237957893078546 0.64332846087379
0.165467582397146 -0.239352135253172 0.640610804748171
0.165980764475014 -0.235989951274731 0.656060976232995
0.165967453201185 -0.23625714099019 0.667214107359459
0.165934218568366 -0.236838150357536 0.676079244718318
0.166057365469065 -0.234452382589175 0.685944073634905
0.16611107227405 -0.233374356088744 0.696668723125263
0.165969568758295 -0.236214676601774 0.702204678148342
0.165415692626505 -0.239631689449087 0.713225853860134
0.165415231229614 -0.239634175207552 0.72697565988013
0.165975317991939 -0.236099275467289 0.73318089024564
0.166091064025395 -0.233775970414582 0.746593455669479
0.166133301067034 -0.232928170025057 0.753551094434145
0.166109240730949 -0.233411119623636 0.756288983952392
0.16609590542477 -0.233678791726947 0.775084624606083
0.166117211902285 -0.233251118783105 0.777690672769268
0.165258236203082 -0.240479980033097 0.787995673564229
0.166169338567281 -0.232204809544254 0.801448197187202
0.166052858754661 -0.234542843333561 0.805265882806623
0.166100738324559 -0.233581783646728 0.819127767348816
0.165453798515302 -0.239426395400362 0.830687117790757
0.166052088797294 -0.234558298254899 0.839474186978115
0.16547639786306 -0.239304642260718 0.842192859983536
0.166135631631761 -0.232881389909612 0.861658026505573
0.166194313508394 -0.231703501593172 0.863790571181261
0.165952218378691 -0.236562941016533 0.878030256385275
0.166010540283139 -0.235392278219354 0.880936021060094
0.165295557118744 -0.240278914997738 0.892537898048301
0.165406621260992 -0.239680561091038 0.903199358386704
0.165806496099251 -0.237526250376336 0.916424807855434
0.165563227667796 -0.238836849939724 0.924231232166503
0.16558400880429 -0.238724892345174 0.930934049349923
0.165102624385409 -0.24131833287272 0.937420174405005
0.165481634033455 -0.23927643258883 0.946626355393625
0.165414090633357 -0.239640320127164 0.954995034318451
0.143946725548567 -0.236078271238939 0.955555555555555
0.129667510023102 -0.234669999307466 0.955555555555555
0.123117038364166 -0.238540844728988 0.955555555555555
-0.383114382715457 -0.285888368367549 0.613542014380074
-0.386749510761578 -0.279317877227123 0.61792136387749
-0.38720042705973 -0.278399720849742 0.635307084649624
-0.382844780125345 -0.286319524554524 0.647660629437487
-0.386201897261543 -0.280432928578027 0.654897360050809
-0.385127405097237 -0.282620810979151 0.667215317475704
-0.386207426237049 -0.280421670470608 0.669583611384281
-0.386105562048731 -0.280629086468908 0.679241528168234
-0.384935129813167 -0.282976577439393 0.693032577184736
-0.382846122042155 -0.286317378522712 0.713001234163162
-0.382683386935409 -0.286577629168236 0.720741041706952
-0.388112802800077 -0.277747540646968 0.731716152090639
-0.385642530955877 -0.281571911007684 0.745676174340247
-0.385658510254724 -0.281539373937718 0.760315236350365
-0.386345517423975 -0.280140489008649 0.761695361832261
-0.384424106352731 -0.283793820799574 0.784635972642991
-0.387505869873807 -0.277777777777778 0.789288116215439
-0.38342390362245 -0.285393373664445 0.804579040388321
-0.383883691694618 -0.284658067405218 0.805537519264854
-0.390305415496301 -0.277638305649094 0.815873255785256
-0.387410224562836 -0.277972530889597 0.827037643291534
-0.383218202537964 -0.285722336732668 0.850843154605333
-0.382076592234861 -0.287548032639717 0.856595436006334
-0.386704712318731 -0.279409095877162 0.865950523423405
-0.386119384820965 -0.280600940521354 0.883509077965625
-0.383668441620093 -0.285002301491918 0.897193110583069
-0.383630482225368 -0.285063007243604 0.899152797820016
-0.38344553093533 -0.285358786646005 0.915920858677085
-0.387007584064385 -0.278792388018205 0.93123507308913
-0.385932066911745 -0.280982357501963 0.937193855054022
-0.386531714576644 -0.279761354114047 0.94086713671112
-0.385145355073389 -0.282584261213385 0.955394569606433
0.166585860796916 -0.223844193013568 0.161853066195968
0.166430255860223 -0.226967563420748 0.170079244772612
0.166606122329618 -0.223437494659441 0.177918357539438
0.166205125452821 -0.231486479511578 0.182141153665279
0.166396323436133 -0.227648669891384 0.189556831274641
0.166666666666667 -0.222144752241692 0.203277308299786
0.166454224484345 -0.22648645470482 0.210830290192109
0.166345591425376 -0.228666985019837 0.216327696725721
0.166525004029014 -0.225065736699641 0.235446488694157
0.1661961937007 -0.231665761550131 0.242359821186532
0.166610697737846 -0.223345655062552 0.247471817766754
0.166417363165224 -0.227226351238695 0.254686458270261
0.166631793844326 -0.22292220477823 0.268998700830813
0.16626215953654 -0.230341666415831 0.277418596877363
0.166666666666666 -0.22217074520047 0.286240261608461
0.16632754371545 -0.229029246554053 0.298951217052613
0.166226957701696 -0.23104825305483 0.302245510525391
0.166426441782424 -0.22704412125998 0.318215022046476
0.166635155303215 -0.222854732103889 0.331392462318061
0.166529671749242 -0.224972044175904 0.338711468378241
0.166440890216387 -0.22675410596851 0.347816255339011
0.166650468551037 -0.22254735789006 0.358513643270225
0.166259489370064 -0.23039526316622 0.363607809853995
0.166216299129422 -0.231262196583419 0.370232086583002
0.166549844365262 -0.224567130596328 0.384072278487426
0.166665256983272 -0.222250518004425 0.39266328288864
0.166666666666667 -0.222222222222222 0.40037876958889
0.166509259116875 -0.225381775468622 0.4145256853259
0.166525249451371 -0.225060810474683 0.420131324557816
0.166652137300805 -0.222513862014202 0.434044452263428
0.166527862927188 -0.225008351644 0.438940124975097
0.166506661054736 -0.225433924909223 0.446704351554089
0.166503640436758 -0.225494556075571 0.460477152183895
0.166553479425376 -0.224494166078438 0.465842834472237
0.166624839068051 -0.223061804092167 0.476426550195189
0.166448444332578 -0.226602476441426 0.484344680751583
0.166344584638826 -0.228687193680199 0.491271702048814
0.166586908451005 -0.223823164042085 0.50839967733728
0.16651561333411 -0.22525423083866 0.515615861975733
0.166208253157331 -0.23142369885745 0.524395720529524
0.166502735829821 -0.225512713742013 0.529299162167353
0.166519771146479 -0.225170773408655 0.549036310747179
0.166291203363371 -0.229758686009402 0.551116138489934
0.166636788525946 -0.222821949342261 0.566718580807533
0.166521714065589 -0.225131774285734 0.564243408538517
0.1663316265681 -0.228947293748359 0.584701654331807
0.166497679726275 -0.225614202065754 0.588987111313618
0.166446347076149 -0.226644573490576 0.607078940741037
0.16646924331303 -0.226184990200782 0.605225152508262
0.166553261635518 -0.224498537651813 0.621936412808604
0.166456882244006 -0.226433106989444 0.627094898267434
0.166436361006581 -0.226845018250445 0.637546863587845
0.166332798632967 -0.228923767549247 0.644746154063608
0.166350734444303 -0.228563752092514 0.653658611527464
0.166502004807062 -0.225527387150848 0.666202734285294
0.166660158589849 -0.222352855189092 0.679564924796571
0.166466569345771 -0.226238663242175 0.685647832832553
0.166625062219948 -0.223057324889596 0.69700736936655
0.166358098338352 -0.228415940787517 0.70227266202631
0.166598329568721 -0.223593914367551 0.721115538605337
0.166497434335186 -0.225619127663127 0.727335811859587
0.166540825611772 -0.224748158964467 0.735898084919249
0.166584567747336 -0.223870147670782 0.737704978429385
0.16635148111819 -0.228548764527383 0.750423972401685
0.166604315369108 -0.223473764761819 0.7597279469114
0.16648558230378 -0.225857026825861 0.765350577431308
0.166639033156721 -0.222776894130733 0.783114428500658
0.166246255825554 -0.230660892664788 0.791000029555623
0.166363195066349 -0.228313637032012 0.804539204487257
0.166570815121334 -0.22414619640028 0.810665751647217
0.16653153834837 -0.224934576981068 0.814302425642542
0.166539561474438 -0.224773533282418 0.828115569607741
0.166598041572519 -0.223599695153386 0.840867115685799
0.166313708829573 -0.229306946439774 0.853076003808268
0.166372614502118 -0.228124565993798 0.852485907863478
0.166498394633555 -0.225599852133887 0.86988989186424
0.166628939768722 -0.222979493033156 0.872677292264808
0.166583000673141 -0.223901602670024 0.884407638610912
0.166227346888232 -0.231040441132302 0.898912572099681
0.166544885717141 -0.224666662752133 0.896922041679634
0.166423207008888 -0.227109051050464 0.916616332742957
0.166342202392587 -0.228735011169567 0.920146599094986
0.16633475836464 -0.228884430957228 0.930384338521067
0.166627461780763 -0.223009159854483 0.941178313270791
0.166605927513927 -0.223441405085287 0.94810766405289
0.156029689972407 -0.226533681510671 0.955555555555555
0.138768475971166 -0.227650407589231 0.955555555555555
0.13276886357409 -0.232166921499723 0.955555555555555
0.124754177751778 -0.234390945299276 0.955555555555555
0.111981596263894 -0.229734677661991 0.955555555555555
-0.410912667799957 -0.273727480810406 0.596931119587676
-0.418217924289208 -0.270022993278342 0.610394358556451
-0.414135914700985 -0.272166396127344 0.621234645438229
-0.413627114349761 -0.272412818588738 0.634396820146728
-0.415878518241517 -0.271322417437747 0.63940898968977
-0.41441624856199 -0.272030624680105 0.657956711001992
-0.402265301983885 -0.276326470410205 0.67549061938599
-0.407736785009321 -0.274782188573141 0.681170340204594
-0.41979593245789 -0.268978329809477 0.692262880238318
-0.416926662736915 -0.270814779528631 0.696573108754005
-0.421523876254887 -0.267834406858505 0.711288941373
-0.419436863119163 -0.269216038731649 0.717439130153563
-0.393302616797089 -0.277488986401657 0.74735837605364
-0.410069100007544 -0.274016327395634 0.743040824414995
-0.416667521103297 -0.270940287144835 0.759030256935329
-0.420574865983251 -0.268462664925879 0.765129110404441
-0.41801820540556 -0.270155209971469 0.777958832202633
-0.411244885398031 -0.273566581003559 0.798346813444546
-0.415091435138291 -0.271703617952157 0.809082654612385
-0.417990847463832 -0.270173321311368 0.806255972221926
-0.421919677867551 -0.267572380657454 0.826963323536927
-0.414682647872668 -0.271901602021821 0.839217402843318
-0.419524513421806 -0.269158013005913 0.840784040976113
-0.420690872560718 -0.268385866949776 0.853141741619673
-0.408089311936234 -0.274666429472181 0.875688458825711
-0.398311016036154 -0.277060449702508 0.899562175327277
-0.41315372238872 -0.272642092039441 0.897408501653967
-0.420944866093089 -0.268217719680414 0.900823471999444
-0.409825590352618 -0.274096288546336 0.916304138683275
-0.407563850820821 -0.274838974891171 0.931774968664457
-0.420446571646671 -0.268547597570302 0.930389555887682
0.166666666666666 -0.213807244543603 0.164078333778959
0.166666666666667 -0.212345565718522 0.168350374071275
0.166666666666667 -0.218290504919467 0.167395614917911
0.166666666666667 -0.219889111903795 0.181892209651531
0.166666666666667 -0.218875620574126 0.200614580416928
0.166666666666667 -0.215313855277732 0.203403209553799
0.166666666666667 -0.219427070461347 0.217879434946345
0.166666666666667 -0.22107108126615 0.227659093680617
0.166666666666667 -0.215297814962867 0.236745629346334
0.166666666666667 -0.218528659682921 0.241732201416637
0.166666666666667 -0.217008010702973 0.2585349865007
0.166666666666666 -0.212437132379932 0.263536857934309
0.166666666666667 -0.218240332142145 0.271534972553163
0.166666666666667 -0.214031135811539 0.280148938952114
0.166666666666667 -0.219020238525693 0.293160503018626
0.166666666666667 -0.214499608940468 0.296187387437653
0.166666666666667 -0.214498459541968 0.307347498734425
0.166666666666666 -0.214052662151295 0.322882829149467
0.166666666666667 -0.213034598935824 0.32424507822016
0.166666666666667 -0.213729018598049 0.335470371207518
0.166666666666666 -0.21539343085876 0.350056820468283
0.166666666666667 -0.214767301742581 0.358070603477119
0.166666666666667 -0.220123515397141 0.361556072443508
0.166666666666667 -0.221753181267075 0.375603161561865
0.166666666666667 -0.216133142551189 0.379067166178808
0.166666666666667 -0.21603579838308 0.391134056258499
0.166666666666667 -0.213641190369344 0.400317300805905
0.166666666666667 -0.212861909527553 0.412711207360112
0.166666666666667 -0.218313050221758 0.425218272606613
0.166666666666667 -0.21818883315476 0.431700389020779
0.166666666666666 -0.21610980815263 0.43423593702068
0.166666666666667 -0.213642404149405 0.455447522160431
0.166666666666667 -0.215106099800367 0.457218204943144
0.166666666666667 -0.215813895431848 0.467007107325792
0.166666666666666 -0.220205443305582 0.481329713159264
0.166666666666666 -0.216270604618721 0.483383195893278
0.166666666666667 -0.218618535235542 0.498746568193143
0.166666666666667 -0.22180374744285 0.501754427937352
0.166666666666667 -0.216808704486076 0.513670825031458
0.166666666666666 -0.219638659000156 0.522832906631758
0.166666666666667 -0.218093575197648 0.532333713658711
0.166666666666667 -0.213292995225074 0.549865577834066
0.166666666666667 -0.216762639679644 0.551669598443565
0.166666666666667 -0.213636414480204 0.557881855295395
0.166666666666667 -0.219426547710805 0.571505384348882
0.166666666666666 -0.214316050758099 0.580990904119326
0.166666666666667 -0.215535540172558 0.589947071438986
0.166666666666666 -0.218238265325029 0.601341437227847
0.166666666666667 -0.213267314672132 0.609502736397648
0.166666666666667 -0.217716239686237 0.61799246589644
0.166666666666667 -0.219304833920952 0.626744245019975
0.166666666666667 -0.214577385123149 0.637433407854467
0.166666666666667 -0.221637062869564 0.65021019512114
0.166666666666667 -0.218673522814591 0.661729228154514
0.166666666666667 -0.216140878266571 0.672284275002816
0.166666666666667 -0.216779649641452 0.674530653848398
0.166666666666666 -0.218591914977265 0.683715556883943
0.166666666666667 -0.213422842810093 0.698343415057356
0.166666666666666 -0.217996962467687 0.700237300104922
0.166666666666666 -0.22046054579879 0.717998973861884
0.166666666666666 -0.219008407283624 0.719110862340563
0.166666666666667 -0.219890364324288 0.734121017058753
0.166666666666666 -0.21619694292041 0.742719591747696
0.166666666666666 -0.220166819500694 0.754728165005758
0.166666666666667 -0.213975009762369 0.765482490153502
0.166666666666667 -0.219141806412904 0.774540677158674
0.166666666666667 -0.220524550044233 0.783050492170291
0.166666666666667 -0.22064059157664 0.79009855192892
0.166666666666667 -0.221639606030377 0.796896490893731
0.166666666666667 -0.214428550390393 0.814716346285305
0.166666666666666 -0.221242796304912 0.819138440034928
0.166666666666667 -0.2141804342104 0.824476766287024
0.166666666666667 -0.213811283852344 0.833274719157703
0.166666666666667 -0.218701922120318 0.849378534603906
0.166666666666667 -0.218494447324387 0.850240985035661
0.166666666666667 -0.216151352219804 0.864098081251111
0.166666666666667 -0.215503713136454 0.876252213785483
0.166666666666667 -0.220780228055279 0.888019748901166
0.166666666666667 -0.214453805348539 0.893694559197591
0.166666666666667 -0.221852811020885 0.906652491885843
0.166666666666667 -0.219180579262525 0.912788861476609
0.166666666666667 -0.220034612900291 0.920355539565249
0.166666666666667 -0.214216722081223 0.93312264874644
0.166666666666667 -0.214936135009018 0.938808306799258
0.166666666666667 -0.213812844223566 0.952243071137398
0.166122452162023 -0.219301221949097 0.955555555555555
0.139122759356757 -0.221374064039467 0.955555555555555
0.125058655728386 -0.223348054082977 0.955555555555555
0.111640193865433 -0.218038111595941 0.955555555555555
-0.426554999312816 -0.263802118748768 0.581441041624941
-0.432403067632395 -0.257676357342565 0.59057062888296
-0.42292850587599 -0.26690452241204 0.606185351033358
-0.431538731515849 -0.258664780917487 0.61052964318033
-0.422320404966325 -0.267307093715736 0.63138969196193
-0.429350687765419 -0.261166948748361 0.636494042821932
-0.43228206964689 -0.257814726270002 0.643304214275091
-0.428858717989689 -0.261729547620688 0.65205458895678
-0.424755118421127 -0.26537604120432 0.670101498576858
-0.425456681610324 -0.264762552799302 0.687989146780895
-0.427731163518789 -0.262773611104873 0.692395720935018
-0.42743957796152 -0.263028590786263 0.694580834597761
-0.432631496469792 -0.257415134371834 0.713550309547145
-0.4307249629846 -0.259595377227669 0.723849053691475
-0.432068765421307 -0.258058653280758 0.736511384338523
-0.428858786803785 -0.261729468927371 0.748010430496892
-0.423673669494612 -0.266321724198034 0.770022365061083
-0.428771309662163 -0.261829504628057 0.764927751221884
-0.430500269302884 -0.259852328809227 0.775454002525025
-0.428642954091216 -0.26197628742455 0.794965343191227
-0.425123526111817 -0.265053883699426 0.808665969048102
-0.421227954354517 -0.268030311293658 0.818991210319199
-0.42947540611105 -0.261024325351412 0.835890463786142
-0.431077533218503 -0.259192190638178 0.836252315653944
-0.428642954091216 -0.26197628742455 0.847399694565201
-0.423436242023277 -0.266529344841391 0.870186640529473
-0.424528620600054 -0.265574104314146 0.87482264515626
-0.422287162146919 -0.267329100926931 0.893826094132428
-0.430814758443193 -0.259492690383403 0.896028947492649
-0.427923951804269 -0.26260502560953 0.909115789908541
-0.427375464247942 -0.263084655614761 0.926747896754666
-0.429763347255095 -0.260695046255566 0.93150623838487
0.166666666666667 -0.203446565942814 0.162036077035082
0.166666666666667 -0.207807381659957 0.164436776319594
0.166666666666667 -0.208646077015736 0.177065749993997
0.166666666666666 -0.207112270881072 0.186742490536277
0.166666666666667 -0.211442263923058 0.195723126006972
0.166666666666667 -0.211328525431521 0.2033721850025
0.166666666666666 -0.210812049217943 0.21681912631901
0.166666666666667 -0.208883247839378 0.226140231131445
0.166666666666667 -0.21005643602083 0.232137066870313
0.166666666666667 -0.206878527842144 0.244837242262375
0.166666666666667 -0.203947699703781 0.250511010781268
0.166666666666667 -0.206494619633451 0.259291958223752
0.166666666666667 -0.204480751050339 0.268687202863455
0.166666666666667 -0.204330579438472 0.284026700406384
0.166666666666667 -0.205116798625081 0.290072977958171
0.166666666666667 -0.210155116068763 0.30259503013228
0.166666666666666 -0.204305323370773 0.301451404453124
0.166666666666667 -0.203480873813646 0.322944913599184
0.166666666666667 -0.211476276477784 0.322457163228685
0.166666666666666 -0.205489078884286 0.340061927166519
0.166666666666667 -0.211643779642704 0.340039705449293
0.166666666666667 -0.208340928277764 0.359486690655466
0.166666666666667 -0.209569872879619 0.367942631152457
0.166666666666667 -0.204080065455713 0.381525232681152
0.166666666666667 -0.209137494573552 0.38248929245256
0.166666666666667 -0.203239102038075 0.391310114122327
0.166666666666667 -0.212193639991879 0.3968060523174
0.166666666666667 -0.203592023600263 0.413860918620889
0.166666666666667 -0.203905113610232 0.430024759046988
0.166666666666667 -0.205874189206348 0.429787293661306
0.166666666666667 -0.20859917368891 0.441059114427836
0.166666666666667 -0.206437911566854 0.449970704734091
0.166666666666667 -0.204380082773474 0.45469341786942
0.166666666666667 -0.210418229887512 0.463071938107052
0.166666666666667 -0.205995256740593 0.476240533073258
0.166666666666667 -0.205470277293569 0.484554804305173
0.166666666666667 -0.207970107765501 0.50022905086087
0.166666666666667 -0.205694137302774 0.508289656794797
0.166666666666667 -0.207075641498214 0.513080394353858
0.166666666666667 -0.204385550992455 0.532863128564546
0.166666666666667 -0.205103861262524 0.536262033486352
0.166666666666667 -0.211785172283761 0.546742605582869
0.166666666666667 -0.209606022478327 0.554537988905795
0.166666666666667 -0.210006151492634 0.565448919714336
0.166666666666667 -0.206078375134271 0.570563120188102
0.166666666666667 -0.20885621127416 0.582024167246403
0.166666666666667 -0.204835957470624 0.592355198373278
0.166666666666667 -0.203488616599309 0.607435991114523
0.166666666666667 -0.207313447240853 0.61344706844458
0.166666666666667 -0.209931013969396 0.624965915718333
0.166666666666667 -0.206474436494384 0.626497050422868
0.166666666666667 -0.208123796131022 0.640079938124924
0.166666666666667 -0.209911716104951 0.648631363248963
0.166666666666666 -0.204485569820799 0.657119586643518
0.166666666666667 -0.207204468443545 0.664774786802697
0.166666666666666 -0.21030246393131 0.67626028256314
0.166666666666667 -0.204199468626552 0.692360235599973
0.166666666666667 -0.211741376193008 0.690543644644443
0.166666666666667 -0.206492970636094 0.703182830565796
0.166666666666667 -0.20749448640944 0.710306915130921
0.166666666666666 -0.212274825865806 0.721281304400505
0.166666666666667 -0.208266347071054 0.737201671585757
0.166666666666666 -0.204375426288299 0.741526055282711
0.166666666666666 -0.204461448927013 0.750495745633432
0.166666666666667 -0.211756445905457 0.763595172961751
0.166666666666667 -0.210466090056007 0.777443031890856
0.166666666666667 -0.203494206751831 0.776229796050792
0.166666666666667 -0.206003143049353 0.788083271712188
0.166666666666666 -0.206045103945969 0.801554148516931
0.166666666666667 -0.209261465471074 0.808570008702508
0.166666666666667 -0.207764143171069 0.81665860253637
0.166666666666666 -0.209861491967779 0.825027242775874
0.166666666666667 -0.206527144872863 0.836892015338936
0.166666666666666 -0.210056701697974 0.84745922172259
0.166666666666667 -0.209224807456286 0.857789672451293
0.166666666666667 -0.203421156801246 0.863891516856864
0.166666666666667 -0.206233217996151 0.875621578965826
0.166666666666666 -0.205629540496521 0.885293326654329
0.166666666666666 -0.206710146643543 0.894734313842382
0.166666666666667 -0.206377910255598 0.910279792711079
0.166666666666666 -0.20335157051679 0.91148147867787
0.166666666666667 -0.211178170623133 0.92249584708976
0.166666666666666 -0.209209047215531 0.933509614139971
0.166666666666666 -0.206547934083192 0.946835676438229
0.166666666666666 -0.205393210008705 0.952135712527079
0.166432511600984 -0.205198492435098 0.955555555555555
0.146341360032084 -0.208255816157686 0.955555555555555
0.134703670323324 -0.213486473880032 0.955555555555555
0.127128957579454 -0.214481574004016 0.955555555555555
-0.438066990111074 -0.249050995282259 0.579528779278719
-0.43795309928614 -0.249286151166183 0.587531663077683
-0.434146318378405 -0.255393082178928 0.590541168106881
-0.434389248916541 -0.255026125369368 0.606334891238399
-0.437856605831355 -0.249485385860161 0.617441327589231
-0.433575985530715 -0.256254593966548 0.628263660263801
-0.43655112858845 -0.251760515071262 0.638230059008707
-0.438040876853273 -0.249104912586166 0.643541733668006
-0.436359885933616 -0.252049395156116 0.663279135895113
-0.435497897080834 -0.253351465623345 0.67427379125939
-0.438090277301011 -0.249002913097089 0.692441497736811
-0.435442877529587 -0.253434574972807 0.692784697662519
-0.433787089272057 -0.255935712874019 0.706600697223429
-0.435639434658765 -0.253137667150625 0.71410888588528
-0.438656422535416 -0.247833965702929 0.734544764380635
-0.4382265099798 -0.248721626909037 0.738692912409576
-0.434526901728348 -0.254818194999495 0.756867940313516
-0.433269440048476 -0.256685605129019 0.770227001902936
-0.436461436051221 -0.251895999426403 0.780342417029855
-0.434198566896992 -0.255314158591009 0.78719745683733
-0.435749939695829 -0.252970744637907 0.79778610928497
-0.433710006992518 -0.2560521489038 0.811702249310577
-0.43424962379874 -0.255237034990512 0.827668161545494
-0.433302046420021 -0.256648317659815 0.835411311388506
-0.438355183362184 -0.24845594876517 0.842885779443952
-0.435996764463456 -0.252597905430683 0.857877368840527
-0.436185934127574 -0.252312156685616 0.865863023165706
-0.434217692543739 -0.255285268496067 0.879058548038006
-0.433766899301579 -0.255966210674783 0.89692540872048
-0.438718624196368 -0.247705534930993 0.898615688835273
-0.436078447724627 -0.252474519424361 0.919612129166134
-0.437708280785245 -0.249791639742738 0.925071018942367
0.166666666666667 -0.198375810141127 0.15727852571655
0.166666666666666 -0.193835656008061 0.165482958912342
0.166666666666666 -0.194352229235515 0.171315350855031
0.166666666666667 -0.193768404669437 0.19177659074367
0.166666666666667 -0.200951701299417 0.202434559517879
0.166666666666667 -0.19462953747114 0.206066094506654
0.166666666666667 -0.196318258924323 0.215518927429812
0.166666666666667 -0.195642967688764 0.221629566657509
0.166666666666666 -0.200695581832082 0.238973496690925
0.166666666666666 -0.198924368445838 0.238846955748494
0.166666666666667 -0.201478421501011 0.244877040892684
0.166666666666667 -0.198904345095955 0.264030808845665
0.166666666666667 -0.197678599012121 0.278570711876318
0.166666666666667 -0.195958503310061 0.272608523344363
0.166666666666667 -0.196688524315876 0.29794801834668
0.166666666666667 -0.195618206085242 0.303236814729394
0.166666666666666 -0.195590050380401 0.307136916572045
0.166666666666667 -0.197581109045851 0.322375392966636
0.166666666666667 -0.194158012637312 0.321875859909953
0.166666666666667 -0.200660195661045 0.338158255416726
0.166666666666667 -0.199036557759059 0.345811341716674
0.166666666666667 -0.199452752049781 0.349573378657689
0.166666666666667 -0.201853006237785 0.360105167463645
0.166666666666667 -0.199724235222221 0.36774554880848
0.166666666666667 -0.201256925181659 0.381715807276733
0.166666666666666 -0.202353975556143 0.39075645774894
0.166666666666666 -0.19462717626039 0.407386313762724
0.166666666666667 -0.195059502754371 0.416071640455353
0.166666666666667 -0.195086811645879 0.42252384936581
0.166666666666667 -0.196203855122122 0.439884947967034
0.166666666666666 -0.196443914887958 0.445508760993256
0.166666666666667 -0.195058792380936 0.444084771512531
0.166666666666667 -0.195417664177617 0.458279816250838
0.166666666666666 -0.201390760207047 0.473661041146254
0.166666666666666 -0.19649983547069 0.476013325715182
0.166666666666667 -0.195122793681877 0.48766372109276
0.166666666666666 -0.198992947472407 0.494156414311883
0.166666666666666 -0.19899829469369 0.50328157654299
0.166666666666666 -0.1992176300081 0.516155955949994
0.166666666666667 -0.200207483043938 0.521861421941297
0.166666666666667 -0.198892078883347 0.532490948841545
0.166666666666667 -0.198812700119345 0.543587718769066
0.166666666666667 -0.193873834203776 0.555021017488786
0.166666666666666 -0.198471951947362 0.570511795905242
0.166666666666667 -0.200313092047158 0.572250161440292
0.166666666666667 -0.199632248106281 0.587005542638908
0.166666666666667 -0.199149171519737 0.595099694669104
0.166666666666666 -0.199900903390827 0.606087209231306
0.166666666666667 -0.201304722364547 0.611975464720499
0.166666666666667 -0.194076712213025 0.62546961307928
0.166666666666667 -0.202897292635224 0.635059412011642
0.166666666666667 -0.202523441502059 0.638376647601253
0.166666666666667 -0.197984558521359 0.643412215763318
0.166666666666667 -0.202889146573488 0.662193301888425
0.166666666666667 -0.201290307956422 0.668482915985328
0.166666666666667 -0.194390607864254 0.673239165390498
0.166666666666667 -0.198105448198592 0.679642648179815
0.166666666666666 -0.202137146803286 0.697617686355141
0.166666666666667 -0.197428141973134 0.708719776288631
0.166666666666667 -0.19933801006247 0.71275262289934
0.166666666666667 -0.194977138796329 0.720513820576756
0.166666666666667 -0.19916322444935 0.733307412736268
0.166666666666667 -0.199751611463672 0.742368121111651
0.166666666666666 -0.198897846099114 0.752632378154998
0.166666666666667 -0.200526382095298 0.759518211349353
0.166666666666666 -0.195272299791436 0.771064762480412
0.166666666666667 -0.199912096156798 0.781314368870899
0.166666666666667 -0.199861969345619 0.788643801791666
0.166666666666667 -0.194404878714569 0.805253989296346
0.166666666666667 -0.194899865860744 0.815167164753992
0.166666666666667 -0.201569946883063 0.818608533841633
0.166666666666667 -0.194040611506052 0.831608236599041
0.166666666666667 -0.197232263387957 0.84308547518446
0.166666666666666 -0.194978230312456 0.845903411560051
0.166666666666667 -0.193925326200064 0.858079384181672
0.166666666666667 -0.193697113375353 0.866619341641764
0.166666666666667 -0.198942442832633 0.872288619144699
0.166666666666667 -0.19473464319502 0.885474725742945
0.166666666666667 -0.198518420994419 0.891861235979959
0.166666666666667 -0.197965712435315 0.905644161761542
0.166666666666667 -0.202546536388596 0.908339666027215
0.166666666666667 -0.197850319616108 0.926154566044217
0.166666666666667 -0.194566484071159 0.928941069337269
0.166666666666667 -0.194386543594775 0.944595892567345
0.166666666666667 -0.203174236461986 0.944023980732952
0.156417945110686 -0.19700566207831 0.955555555555555
0.152386271580328 -0.196498781082586 0.955555555555555
0.140940117118199 -0.199063119896718 0.955555555555555
0.113212849179538 -0.19757637622937 0.955555555555555
-0.440504017719958 -0.243947478865885 0.569357943341795
-0.441496803150642 -0.2409241001936 0.581613344729704
-0.439700173140396 -0.245678883445415 0.594812603871735
-0.442314886989591 -0.238432748936446 0.596778834366294
-0.441193743031925 -0.241847024192111 0.610960904736228
-0.441396135200055 -0.241230669292402 0.620795679164532
-0.440506847382368 -0.24393886155471 0.63642000638122
-0.44138581163376 -0.24126210816045 0.657316355980612
-0.442896599005197 -0.236118730562746 0.666226383727557
-0.439371789698807 -0.246356912588826 0.664826065090271
-0.4399751256999 -0.245111175623433 0.688943203532695
-0.441223379018824 -0.241756772252512 0.68777263215248
-0.443004361090606 -0.235538166363597 0.71160714341391
-0.442766777484764 -0.236818139141906 0.716552468079245
-0.440537787343598 -0.243844638557462 0.730615616483766
-0.441785243525496 -0.2400456984256 0.737476269954468
-0.442280626435526 -0.23853708429962 0.748911788545021
-0.440390487772872 -0.244253557501213 0.767409632797529
-0.440788202492745 -0.243082036893753 0.772903003135087
-0.440086428849015 -0.244881362638683 0.786372584257323
-0.442945914499287 -0.235853045185334 0.796395324733245
-0.439751927730481 -0.245572023244993 0.806561501725379
-0.440677559804166 -0.243418982556486 0.826241663485578
-0.442355725992958 -0.238308379895606 0.831200849238255
-0.442999561329313 -0.235564024897794 0.835632438589862
-0.439222122957836 -0.246665936733546 0.849648711580697
-0.441890962136083 -0.2397237483016 0.866633205926814
-0.442147559542841 -0.238942319502408 0.88023951910985
-0.440727943694653 -0.243265545997872 0.890843181221949
-0.441991956978658 -0.239416183702428 0.900838608806942
-0.442546704537734 -0.237726783468731 0.914408516272071
-0.442992482621372 -0.235602161171711 0.920893012123951
0.166666666666667 -0.193543259056129 0.154296029154429
0.166666666666667 -0.190744721439775 0.17232290847236
0.166666666666667 -0.187256134009409 0.184769030381905
0.166666666666667 -0.19220704726604 0.192203996878328
0.166666666666667 -0.189258585186787 0.196567303077254
0.166666666666667 -0.191734152764259 0.206425955160078
0.166666666666667 -0.189772206600038 0.21335062716144
0.166666666666667 -0.185660134863329 0.219650706584041
0.166666666666667 -0.1904016406781 0.230859606330776
0.166666666666667 -0.186087578251617 0.241541244586406
0.166666666666666 -0.193138467904038 0.255738684265179
0.166666666666667 -0.193300891434289 0.261413023319714
0.166666666666667 -0.193404851920623 0.274046052498193
0.166666666666667 -0.189843337350069 0.281362603704767
0.166666666666666 -0.193080775841117 0.294841400607635
0.166666666666667 -0.185041161849895 0.303681782298943
0.166666666666666 -0.187533265694164 0.307590172187347
0.166666666666666 -0.186940606680907 0.311535132599123
0.166666666666667 -0.192397221336776 0.332455288381957
0.166666666666666 -0.189508706045506 0.33975267338723
0.166666666666667 -0.188736689670131 0.343320684362114
0.166666666666667 -0.189675545079167 0.354755485008805
0.166666666666667 -0.1888190260113 0.368313667233508
0.166666666666666 -0.186091047385329 0.370825142991808
0.166666666666667 -0.187408701602456 0.384043510172391
0.166666666666667 -0.185968937002554 0.399643759042915
0.166666666666667 -0.185752676248471 0.408136499538972
0.166666666666667 -0.189249436307373 0.414185547633202
0.166666666666667 -0.186751074468013 0.425657117165222
0.166666666666667 -0.190257292948752 0.429157857011225
0.166666666666667 -0.188547962408365 0.438405439054574
0.166666666666666 -0.184996542109869 0.448703682687745
0.166666666666667 -0.184322312973608 0.459666397288009
0.166666666666667 -0.191219135438074 0.469329724562645
0.166666666666667 -0.188636637235505 0.477809744607539
0.166666666666667 -0.191802475492134 0.483375012589496
0.166666666666667 -0.187783733621527 0.496401556672184
0.166666666666667 -0.184508807476754 0.507305885536344
0.166666666666667 -0.193647441925769 0.516949760604475
0.166666666666667 -0.184808570395522 0.519340177306451
0.166666666666667 -0.18438523925696 0.533492134238883
0.166666666666667 -0.18640857481301 0.544827551197444
0.166666666666667 -0.19261151609172 0.556216231113421
0.166666666666667 -0.192743331648424 0.561063015886392
0.166666666666667 -0.191882044591604 0.574593060450482
0.166666666666667 -0.186369923453244 0.577269886579468
0.166666666666667 -0.186417196422377 0.58465005092691
0.166666666666667 -0.187866297150194 0.597187114701004
0.166666666666666 -0.192376242922817 0.605930866736072
0.166666666666667 -0.191832728117287 0.618180016417984
0.166666666666667 -0.184844281146817 0.632818890822654
0.166666666666667 -0.184879172202353 0.638290423711794
0.166666666666666 -0.186036326173063 0.650294111641679
0.166666666666667 -0.1867268460427 0.657778301475864
0.166666666666667 -0.193709002116593 0.664043329619497
0.166666666666667 -0.193487434920798 0.677837510139403
0.166666666666666 -0.191903278990161 0.683580538876714
0.166666666666667 -0.184529776965576 0.689373116171847
0.166666666666667 -0.188569951905728 0.703535573241504
0.166666666666667 -0.191958486246111 0.718289434517581
0.166666666666667 -0.190349643113805 0.724944994650359
0.166666666666666 -0.191906607460039 0.735243558218396
0.166666666666666 -0.18459471817558 0.739731439544515
0.166666666666667 -0.188089613387154 0.748450812930232
0.166666666666667 -0.191110986139058 0.763556441765771
0.166666666666667 -0.187139694096242 0.778434812853194
0.166666666666667 -0.189020520116033 0.780851630015156
0.166666666666667 -0.192017780922914 0.789128828973544
0.166666666666666 -0.192826203795675 0.796287832151236
0.166666666666667 -0.185300637129037 0.80230876020168
0.166666666666667 -0.193483318141606 0.816786139703946
0.166666666666667 -0.191552673135513 0.831652155232041
0.166666666666667 -0.185880110725053 0.837655849100498
0.166666666666667 -0.186300548531258 0.844983768258792
0.166666666666666 -0.191090640592202 0.853733711422524
0.166666666666667 -0.185259533041335 0.85957164741476
0.166666666666667 -0.187672519355843 0.876082858541876
0.166666666666667 -0.189956210817719 0.880932386674957
0.166666666666667 -0.191933729364951 0.894353817035304
0.166666666666667 -0.188414278897906 0.909425423086118
0.166666666666667 -0.185445843237233 0.920456133620297
0.166666666666667 -0.186840656272205 0.922061934102734
0.166666666666667 -0.188062731975711 0.928765271894675
0.166666666666667 -0.189530682594413 0.938941505003099
0.166666666666667 -0.193369516918901 0.947792534636792
0.166666666666666 -0.191020559906661 0.955112993026432
0.146483872598227 -0.189039993582027 0.955555555555555
0.129487166076057 -0.192330254799911 0.955555555555555
0.115192027786246 -0.188131917708143 0.955555555555555
-0.444185490031786 -0.226037049538345 0.562827557431313
-0.444201254826544 -0.22572061167673 0.577194765249958
-0.444171195678425 -0.226323972056516 0.592368031468965
-0.444019947998111 -0.229359881706209 0.604685398272797
-0.443104236058169 -0.23500009371644 0.610731579048286
-0.444122813926447 -0.227295111761887 0.621233075501081
-0.444199768964937 -0.225750436541358 0.633270736348982
-0.443532265905364 -0.232694098945576 0.652017877586023
-0.444038526545251 -0.228986964975049 0.654652382642272
-0.443337437999881 -0.233743726989528 0.674614438273117
-0.443145620155569 -0.234777138441649 0.681641908618077
-0.443123206078447 -0.234897893442671 0.698784706436515
-0.443425701949051 -0.233268208269097 0.701775023206874
-0.44403662802942 -0.229025072815891 0.715997319453065
-0.443611190755426 -0.232268894271821 0.720753377731848
-0.444031369001769 -0.229130634321107 0.736210738372012
-0.444051975749621 -0.228717006657376 0.745186029363966
-0.443568918864097 -0.232496632503158 0.756895984827441
-0.444136941938071 -0.227011528127867 0.773760827746339
-0.444307664090534 -0.223584718348025 0.78474945233883
-0.443848476792407 -0.230990524634602 0.795512023281404
-0.444148488439875 -0.22677976168904 0.807546329894623
-0.444111770317703 -0.227516783911061 0.821165085335404
-0.443182374225193 -0.234579127268091 0.82452671936933
-0.444015306398631 -0.229453049922873 0.84628578164425
-0.444128447031969 -0.227182041601896 0.85360993219262
-0.444049882771767 -0.22875901782509 0.858185216799245
-0.443535532673936 -0.232676499352245 0.880091221874552
-0.443437995396435 -0.233201977781737 0.88227084801104
-0.444128589999476 -0.227179171895521 0.903025808298966
-0.443984528510846 -0.230070837159893 0.910742172072708
-0.443896810140872 -0.230730130529969 0.921357046245984
0.166666666666667 -0.177735129423418 0.161882087829356
0.166666666666667 -0.175175243657295 0.165576224163498
0.166666666666666 -0.179213117252046 0.17126853633635
0.166666666666667 -0.179388896195196 0.18133505413978
0.166666666666667 -0.17978433622051 0.202031997103765
0.166666666666667 -0.177403560872726 0.201368297641811
0.166666666666667 -0.177202367772259 0.214140151227185
0.166666666666667 -0.183753508773165 0.218735526379636
0.166666666666667 -0.17914205140419 0.232398128936964
0.166666666666667 -0.182479740410538 0.243533265462568
0.166666666666667 -0.179350341162129 0.248880638024979
0.166666666666667 -0.176004626792348 0.257257704400667
0.166666666666667 -0.182455984879869 0.269660948930416
0.166666666666667 -0.174612914222604 0.279765392395356
0.166666666666667 -0.178908834418726 0.293591006580789
0.166666666666667 -0.181804445976663 0.296179912230506
0.166666666666667 -0.180776234897314 0.305801054360723
0.166666666666667 -0.183324777360472 0.317979410115045
0.166666666666667 -0.180658570356145 0.323442188604275
0.166666666666667 -0.181556418682713 0.335168415229643
0.166666666666667 -0.174652055982027 0.35149789310081
0.166666666666667 -0.181828620085861 0.358449388283844
0.166666666666667 -0.182562967280177 0.36584499641783
0.166666666666667 -0.179046063312912 0.381215868967347
0.166666666666667 -0.177089874538198 0.384349495456119
0.166666666666667 -0.175397551066749 0.395621252578338
0.166666666666667 -0.178049118901347 0.401280971453628
0.166666666666667 -0.177891522535453 0.404614927241442
0.166666666666667 -0.177958986929709 0.424429700566185
0.166666666666667 -0.178655425477135 0.425772732203476
0.166666666666667 -0.176607920815279 0.44485072152597
0.166666666666667 -0.183275991496739 0.454039257933063
0.166666666666667 -0.179668308102846 0.463568155776955
0.166666666666667 -0.179245035759229 0.465103681311533
0.166666666666667 -0.182267857124328 0.474403608135163
0.166666666666667 -0.179276475811948 0.484149833368835
0.166666666666667 -0.179064609875403 0.49569769073888
0.166666666666667 -0.176381651870088 0.506990236807351
0.166666666666667 -0.175758345007566 0.514698312864737
0.166666666666667 -0.181357798160089 0.529445494290998
0.166666666666666 -0.177382022258503 0.528767768680087
0.166666666666666 -0.17993701294538 0.544767021786351
0.166666666666667 -0.182281567736242 0.558718461035553
0.166666666666667 -0.178754878332726 0.556979380820156
0.166666666666667 -0.179748939482801 0.575140978222766
0.166666666666666 -0.175247426337055 0.577264904302656
0.166666666666667 -0.18310913111843 0.589956400317675
0.166666666666666 -0.180268088884904 0.607904121366058
0.166666666666667 -0.179274144242977 0.615928014190338
0.166666666666667 -0.176903911990157 0.622829460312366
0.166666666666667 -0.177605040072634 0.622547610697326
0.166666666666667 -0.183145157404889 0.642488360127006
0.166666666666667 -0.183380926504916 0.645912334116082
0.166666666666667 -0.180258934255606 0.659347725464159
0.166666666666667 -0.178178929549845 0.666133879412867
0.166666666666666 -0.176666248138024 0.679747837661298
0.166666666666667 -0.179822355919905 0.686896225802825
0.166666666666667 -0.175689119665374 0.702447093271358
0.166666666666667 -0.177188293862333 0.70566567864304
0.166666666666667 -0.179323819041658 0.711184581823885
0.166666666666667 -0.18004494379374 0.720255332434821
0.166666666666667 -0.176911325370969 0.734633538358297
0.166666666666666 -0.17652319218531 0.739329079728161
0.166666666666667 -0.175064728217093 0.748903162032773
0.166666666666666 -0.176905118198893 0.763850473056905
0.166666666666666 -0.175898561793005 0.77439371601514
0.166666666666667 -0.179684492653421 0.77468324945742
0.166666666666667 -0.181865458465044 0.79485769960684
0.166666666666667 -0.182359559928108 0.796434412622279
0.166666666666667 -0.182102462748217 0.806214269192739
0.166666666666667 -0.181993500033568 0.819445993346012
0.166666666666667 -0.179538450784538 0.826147764872267
