ply
format ascii 1.0
element vertex 844
property float x
property float y
property float z
end_header
-0.0707278326037084 0.00649061887755238 0.717399323923565
-0.0605601364878591 0.0125142848621263 0.717399323923565
-0.0556717508152213 0.00740407029913826 0.717399323923565
-0.0270386763694158 0.0115172153645022 0.717399323923565
-0.0270030311237981 0.00513717294745855 0.717399323923565
-0.00328950061479294 0.00569306064599275 0.717399323923565
0.000568325105126717 0.0136177817767738 0.717399323923565
0.0280893026404085 0.00504583590444637 0.717399323923565
0.035712882764897 0.0143657431671833 0.717399323923565
0.0397713376244125 0.00537708856080765 0.717399323923565
0.0625450851651638 0.00969220637024617 0.717399323923565
0.0765773772357934 0.0143317577534444 0.717399323923564
0.0950127867650286 0.00674721279045778 0.717399323923564
0.10125454985485 0.0104300176519044 0.717399323923565
0.111476236602946 0.00728548327736606 0.717399323923565
0.128674648573777 0.00671383331436021 0.717399323923564
0.146679492724869 0.00974047570340578 0.717399323923565
0.161892982613062 0.00823132585305084 0.717496390675314
0.162157940188558 0.00621877325928173 0.722691080587627
0.162157935940008 0.00621880553023091 0.731882774488704
0.161909252019291 0.00810774744378596 0.738886405076957
0.161798984346782 0.00894531357075101 0.753619444920906
0.161525170873372 0.0110251333875309 0.761196577603911
0.161938980340959 0.00788193842222641 0.776823794546068
0.162191050576731 0.00596727489217393 0.784483239374192
0.163253119582542 0.00748569431527562 0.796058653469109
0.169128482940507 0.0123539206081287 0.801508364033338
0.174472865631163 0.00550433674051184 0.803697339079125
0.22900142699793 0.00910484496898154 0.78405488590568
0.235917207283083 0.00732669933135877 0.787545816634623
0.252010689322367 0.0104847501096481 0.794953755886079
0.255539379111723 0.00830811507828705 0.796093078456542
0.269059617651509 0.0057568874917785 0.800458413423902
0.279336595648478 0.0133408256273087 0.802805314232905
0.289031081981496 0.0120001213323541 0.804621629932536
0.306917278979608 0.0101994573409445 0.806491895430997
0.320273223458395 0.00650028520975935 0.807119711967353
0.352117972480225 0.00849560336073081 0.803920530176313
0.366779883229293 0.00572494595336384 0.800964509463411
0.398561589767854 0.015172968486604 0.788941775282179
-0.498335301604459 0.0126446396843769 0.491641206115216
-0.498005960357431 0.0151462348159783 0.499297431268753
-0.497579710040262 0.0183839274156651 0.510528128523599
-0.49725179465624 0.0208746920424795 0.51536579508158
-0.498106776317417 0.0143804615732925 0.527066940919458
-0.497950594406558 0.0155667809650319 0.529083309166612
-0.497550899628653 0.0186027642181359 0.54532071290995
-0.49807899054229 0.0145915154889844 0.548643029172079
-0.498029349914532 0.0149685734914348 0.555367785387561
-0.49731823259444 0.0203700458001572 0.564672000965377
-0.498194567558101 0.0137136208958029 0.572595654931648
-0.498035378622124 0.0149227809109534 0.586351809506495
-0.497653094090734 0.0178265202124887 0.590989032103623
-0.49760220572045 0.0182130557603636 0.601413079952334
-0.498057064004931 0.0147580640753096 0.60975466212069
-0.498002353776842 0.0151736295153259 0.609626909590646
-0.497914010661341 0.0158446620982206 0.626757737371933
-0.49726273718979 0.0207915752482632 0.633123572828721
-0.497381785564587 0.0198873130657859 0.635204409167654
-0.497788960691258 0.0167945109227742 0.65041442333172
-0.497599460776217 0.0182339056818058 0.657055342550547
-0.498022146541304 0.0150232885432568 0.659474523151651
-0.497834318571691 0.0164499836159325 0.672475937340291
-0.497641803240094 0.0179122827376719 0.678907995580247
-0.497695546196698 0.0175040644540177 0.691580315687739
-0.497720705762153 0.0173129585812372 0.702356052952361
-0.498062744275045 0.0147149181402283 0.70725114438401
-0.498126173348317 0.0142331264960511 0.714336489196029
-0.498102563254886 0.0144124629603392 0.721647922301097
-0.497387698771902 0.0198423977970026 0.732759193395449
-0.497636349856662 0.0179537052972985 0.738475046575947
-0.498118616389225 0.0142905272991606 0.751688298708884
-0.497792619032558 0.0167667230618011 0.752999949860335
-0.497787806973135 0.0168032742819512 0.767605635930104
-0.498151594743756 0.0140400318270928 0.77254170344095
-0.497283609139782 0.0206330370482706 0.780600414218256
-0.496995848880666 0.0180711112059903 0.795351586549332
-0.495466509763362 0.0164229405208545 0.79729021628822
-0.492255486988255 0.0151906089913001 0.800198655299209
-0.483799918652062 0.0192536822864244 0.804275428665368
-0.475967268328634 0.0196503065455591 0.805617647393233
-0.46934566087931 0.0151527176660688 0.804924124886351
-0.357770570827197 0.0185949750603184 0.717399323923565
-0.350726018490821 0.0141364712609763 0.717399323923565
-0.334066135411938 0.0212477804703349 0.717399323923565
-0.326994583032965 0.0142083169277266 0.717399323923565
-0.319804231281249 0.0192206543230265 0.717399323923565
-0.306995358811494 0.014288807308201 0.717399323923565
-0.297011386072841 0.0215528091332616 0.717399323923565
-0.278188736923822 0.0225879382498554 0.717399323923565
-0.277322700530006 0.01446775387761 0.717399323923564
-0.262206607326665 0.0137017939550137 0.717399323923565
-0.251164513031874 0.015786093030724 0.717399323923565
-0.241388728755879 0.0181420801958635 0.717399323923565
-0.236413990724593 0.0168633954748611 0.717399323923565
-0.219599443584028 0.0151946616595957 0.717399323923565
-0.204882434375935 0.0229146028245313 0.717399323923565
-0.193436949727226 0.0212308993529205 0.717399323923565
-0.177157026754362 0.0224219264214977 0.717399323923565
-0.165260069257106 0.0208665192945834 0.717399323923565
-0.157036457742931 0.0166292882642561 0.717399323923565
-0.146881599339051 0.0195111055502231 0.717399323923565
-0.125353764200601 0.0208356337215091 0.717399323923565
-0.121621228435587 0.0200840058870118 0.717399323923565
-0.112861595846597 0.0222211010822744 0.717399323923565
-0.0954478252943969 0.0221771213382364 0.717399323923565
-0.0800002360951821 0.020995912662575 0.717399323923565
-0.0733120719302475 0.0223478873387556 0.717399323923565
-0.0571796585296079 0.0224849476473626 0.717399323923565
-0.052898910223216 0.0156328419560506 0.717399323923565
-0.028768079921289 0.0202786096327874 0.717399323923565
-0.0183623577314878 0.0226886505788642 0.717399323923565
-0.00801095886526943 0.0184660391895945 0.717399323923565
0.00537185675385238 0.0214668953243368 0.717399323923565
0.0142087754978312 0.0244207280335756 0.717399323923565
0.0243174140392164 0.0184663076392482 0.717399323923565
0.038452514736936 0.0183505611296378 0.717399323923565
0.0508773674304082 0.0175877302770507 0.717399323923565
0.0692884714651598 0.020644596685907 0.717399323923565
0.0837945813234693 0.0188373609604819 0.717399323923565
0.101102898184969 0.0157158714572322 0.717399323923565
0.121657433399412 0.0252233179617929 0.717399323923565
0.125594219777894 0.0198395144499688 0.717399323923564
0.139552584834832 0.0219698739502065 0.717399323923565
0.160732014695733 0.0170497526858459 0.717972363682754
0.160343766175133 0.019998792982953 0.728214579776761
0.160227536022297 0.0208816486443884 0.738151688086022
0.160364837473967 0.0198387405781929 0.744837950548519
0.159509268974936 0.0263374285234266 0.759109794099128
0.160422364500233 0.0194017794318457 0.764698942143459
0.160605997145959 0.0180069510078489 0.772460173512789
0.159527001110392 0.0262027395826306 0.789395359540265
0.164671183801767 0.0262589028720809 0.799713895559972
0.170407426792621 0.0241420639786446 0.803052285103052
0.176967559990788 0.0207044520395087 0.805032597119577
0.228619272178565 0.0248097063258287 0.780427542771315
0.239026207738193 0.0243649833992163 0.786395410700215
0.250513348188026 0.022030259774332 0.793926020680828
0.257241971851859 0.0261136667455763 0.79278934722416
0.269446026808086 0.0204532449802594 0.800583174935909
0.281494346693384 0.0232985516552083 0.801713347587091
0.29172973403098 0.026298994329357 0.801316802384113
0.297216903825435 0.0201607380748597 0.805895793663534
0.321873595527469 0.0224412636843008 0.806206253574998
0.337227084665486 0.0224901691194633 0.805225939016677
0.374173221044995 0.0191320995283904 0.798577392106169
0.377769362356227 0.0201497569321923 0.797416291185702
-0.496583936113895 0.0259475813122165 0.483112460733179
-0.496915562459148 0.0234286291363707 0.496723986980304
-0.496739588045406 0.0247652875132813 0.507372526321467
-0.496619883853568 0.0256745311207491 0.514527346170828
-0.497233439511074 0.0210141132118594 0.518787277877028
-0.496864638823912 0.0238154325481509 0.534355103978147
-0.496748589406787 0.024696915385555 0.537002785715065
-0.497155006827981 0.0216098685870376 0.544952818400745
-0.497124488081116 0.0218416814840534 0.554267308059775
-0.4964568917244 0.0269125792562177 0.567776307425037
-0.496556348067921 0.0261571333258839 0.576237755170164
-0.49627139320662 0.0283215803855527 0.577589603930791
-0.496561038586423 0.0261215053006826 0.584439038604891
-0.496585392765292 0.0259365169463756 0.592825356645523
-0.497050409725075 0.0224043624616145 0.604863250537948
-0.496361673965023 0.0276358299436142 0.615123464952727
-0.496346982398421 0.0277474234710501 0.621361280908452
-0.496567299847724 0.0260739462994066 0.623665447553812
-0.496149920712684 0.0292442555809542 0.640990544221625
-0.49692553953108 0.0233528457512111 0.645530449716213
-0.496749926763794 0.0246867571505688 0.658467225013305
-0.497004032392367 0.02275663327727 0.660605175211555
-0.496774683609979 0.0244987102343428 0.678976122681886
-0.496679944419775 0.0252183258279683 0.681932706805584
-0.496747351440351 0.0247063186742036 0.687936806283672
-0.496601722169682 0.0258124828058177 0.699701747612136
-0.497087919480755 0.0221194475806386 0.702290765796422
-0.497158063178922 0.021586653296809 0.711289076605472
-0.496301735364643 0.0280911088139583 0.720871436136386
-0.496383477145805 0.0274702183435149 0.730485615188298
-0.496839952662388 0.0240029425610756 0.742268182081528
-0.496171641384996 0.0290792706949054 0.74126521554444
-0.496559856494942 0.026130484176913 0.753874633096879
-0.496277173257119 0.0282776765432026 0.765580855829625
-0.497145108150896 0.021685056504216 0.771844293653309
-0.496543627343293 0.0262537568222915 0.780167991349476
-0.496297524361171 0.0281230945608991 0.794799897468382
-0.4962626205389 0.0225362559063588 0.795512976744166
-0.486230559837852 0.0237527379066335 0.803065572634112
-0.479324966939303 0.0277333915381599 0.805104006305668
-0.470658781445508 0.0259974710360043 0.805430380621973
-0.359398043947768 0.0298770375747249 0.717399323923565
-0.360950934199471 0.0231035355840665 0.717399323923565
-0.340873332935878 0.0279028883657414 0.717399323923565
-0.339246329401191 0.0266877425322791 0.717399323923565
-0.323765479711129 0.0243667985794254 0.717399323923565
-0.31440271977096 0.0243103005933436 0.717399323923565
-0.309646012644567 0.023150610574682 0.717399323923565
-0.290480971204242 0.0250162031142155 0.717399323923565
-0.280612977640744 0.0256494108666521 0.717399323923565
-0.280545157895073 0.0283874372491256 0.717399323923565
-0.253867012287893 0.0300057484435205 0.717399323923565
-0.248649778818459 0.0303096991412546 0.717399323923565
-0.237650642713873 0.0279141888419442 0.717399323923565
-0.230187845740269 0.0248751972187207 0.717399323923565
-0.211733098055387 0.0266056999582778 0.717399323923565
-0.20327409551067 0.029026991172719 0.717399323923565
-0.189015427202103 0.0238311687458328 0.717399323923565
-0.175252711581932 0.0264197464628146 0.717399323923565
-0.171332852989416 0.026105684972655 0.717399323923565
-0.158761655188321 0.0288995651197247 0.717399323923565
-0.148361206921637 0.0253596925906589 0.717399323923565
-0.13706210862979 0.0285285192957309 0.717399323923565
-0.122882586173826 0.0288161775749631 0.717399323923565
-0.119231465048389 0.0254034155775556 0.717399323923565
-0.0896218640442302 0.0306151365936739 0.717399323923565
-0.0854823013457161 0.0245844702694471 0.717399323923565
-0.0732165340300851 0.0296841893040847 0.717399323923565
-0.0571464326584131 0.0296220154428755 0.717399323923565
-0.0503813847843955 0.0344538587402849 0.717399323923565
-0.0397754265687225 0.0290777135563511 0.717399323923565
-0.0245580936491113 0.0331420410688466 0.717399323923565
-0.00874160527826894 0.0254145863212375 0.717399323923565
-0.00327088155084121 0.034012319335571 0.717399323923565
0.0173426659291835 0.0348150620040094 0.717399323923565
0.0314591249094113 0.0350452295611252 0.717399323923565
0.0447826574276717 0.0272613259122987 0.717399323923564
0.0557862259146633 0.0340605410913261 0.717399323923565
0.0649062199433055 0.031914026289638 0.717399323923565
0.0919894368603949 0.0282799181857051 0.717399323923565
0.0891632718235635 0.0272715443457235 0.717399323923565
0.113207643685256 0.0284730007640138 0.717399323923565
0.126869807614367 0.02720687118417 0.717399323923565
0.137823279387585 0.0316804866687707 0.717399323923565
0.158690517495193 0.031445861481168 0.717399323923565
0.158131678070936 0.0368012702981289 0.725510881863476
0.159209538455439 0.0286141078496004 0.736828401305732
0.158446536913594 0.034409679949089 0.743001002206886
0.159402072755517 0.0271516646479522 0.75840636942123
0.158502161429827 0.0339871698011525 0.76304476102438
0.158604435843648 0.0332103185017522 0.780092280408666
0.158680982293395 0.032628890491276 0.79478287145468
0.165441096000763 0.036097625923251 0.801177139653088
0.167243946373167 0.0358851674463021 0.802224185167514
0.183855118930555 0.0296777642732092 0.805516812004502
0.190888291921054 0.0341345359218573 0.803810661355705
0.278173053271938 0.0275750536115547 0.797792675544975
0.306338309850117 0.0314804163547625 0.79883561786049
0.339811622484867 0.0293447941105423 0.799906262452644
0.359718568319534 0.0304303016531526 0.795499658871857
-0.496029276852842 0.0301606366755132 0.487615008852064
-0.495224464713457 0.0362737917932293 0.495927276091972
-0.496115065615907 0.0295090063256451 0.500025859595448
-0.495351921494308 0.0353056614258776 0.508225588523594
-0.495116066921201 0.0370971547695629 0.515943558616992
-0.495239319016225 0.036160962161881 0.527312284067272
-0.495383521169073 0.0350656380663293 0.530339187302904
-0.495200562396807 0.0364553479132263 0.545163174240647
-0.49524633273242 0.0361076876982438 0.552929292556298
-0.495072033886711 0.0374316188723901 0.566771337564753
-0.495278581758246 0.0358627320276957 0.573458138181147
-0.49614267551744 0.0292992883025228 0.579987385826637
-0.496051076984717 0.0299950482341705 0.59388015359633
-0.495703430198104 0.0326356877433595 0.595858683669123
-0.495328712966173 0.0354819476989099 0.604657009769494
-0.495736331950696 0.0323857741207959 0.619433128604536
-0.495494526464948 0.0342224691336446 0.617124949340173
-0.495684090318164 0.032782588715955 0.631707764222974
-0.495139054764051 0.0369225447676939 0.637320805425765
-0.49594890540359 0.0307711184417241 0.649425128782162
-0.49593831277653 0.0308515774322798 0.660010301263026
-0.495458766844541 0.0344940904174195 0.657870656343298
-0.495662113726383 0.0329495175033661 0.675837978246222
-0.49516174933539 0.0367501623841117 0.684315449587924
-0.495977764212869 0.0305519140224537 0.68541680936453
-0.495187241485517 0.0365565302799333 0.699589692563039
-0.496007044376285 0.030329509100759 0.703236197907171
-0.495812157953541 0.0318098184478347 0.712038576543064
-0.49574973424448 0.0322839735926712 0.728071604433002
-0.496112830235052 0.0295259857289659 0.733485856235281
-0.496066349963834 0.0298790384402271 0.743294507755733
-0.496018856704259 0.0302397855619776 0.747510558573961
-0.495959603724019 0.0306898566303218 0.751829266095419
-0.495503675336189 0.0341529765572955 0.76080319188708
-0.495305777720849 0.0356561581829092 0.772234626594958
-0.495987114884355 0.030480888621054 0.77781620883036
-0.495571712646464 0.033636181877951 0.78689659159523
-0.496133337777047 0.0293702154825165 0.789287633644924
-0.493389364716735 0.0297316384998305 0.797651029311506
-0.481614235180586 0.0308234547037651 0.804477230161298
-0.479254151049794 0.0353843112517776 0.804886304341923
-0.461319617400269 0.036875914856706 0.803242326489202
-0.352078169434401 0.0378410732578104 0.717399323923565
-0.342408432094356 0.0373093939945618 0.717399323923565
-0.330941709224885 0.040086339445222 0.717399323923564
-0.329636306725989 0.0354631695131757 0.717399323923565
-0.31144685836839 0.0350958710654692 0.717399323923565
-0.308660590443737 0.0320746943690764 0.717399323923565
-0.291816187419235 0.0337964219621594 0.717399323923565
-0.274754075039267 0.0353533533380473 0.717399323923565
-0.27764888799657 0.0346473730935197 0.717399323923565
-0.261204241657404 0.0360595898427616 0.717399323923565
-0.254828463209296 0.0327829285023136 0.717399323923565
-0.241107027692347 0.0379544842646976 0.717399323923565
-0.225071187767328 0.0324451311474664 0.717399323923565
-0.219230672772595 0.0357578246460543 0.717399323923565
-0.206767527867765 0.034979308283021 0.717399323923565
-0.197108042031907 0.0413209392894212 0.717399323923565
-0.17904800159466 0.0336458619565347 0.717399323923565
-0.174058519103242 0.035242195712274 0.717399323923565
-0.16274756412493 0.0377681764656682 0.717399323923565
-0.150892062050728 0.0378382419072451 0.717399323923565
-0.133733477997494 0.0384299847210565 0.717399323923565
-0.122444832143639 0.0336231646880571 0.717399323923565
-0.11109592236549 0.0349510877750119 0.717399323923564
-0.0946144866086597 0.0405988655895308 0.717399323923565
-0.0865454983637746 0.0399240898992646 0.717399323923565
-0.0717115354836703 0.0353205799213212 0.717399323923565
-0.0550071177056812 0.0378092005185496 0.717399323923565
-0.0490738119433388 0.0441960808074447 0.717399323923565
-0.0258051167559 0.03962433861867 0.717399323923565
-0.0179196022071124 0.0433899967029577 0.717399323923565
-0.0125958633020796 0.0359768863767249 0.717399323923565
0.00796347441228775 0.0361463500576553 0.717399323923565
0.0138437425717243 0.0431743159196716 0.717399323923565
0.0378310647540814 0.0380905027247986 0.717399323923565
0.0367645520308472 0.041105053854789 0.717399323923565
0.0569835903543584 0.0404040738613447 0.717399323923564
0.0701727378136473 0.0364337240534805 0.717399323923564
0.0771807418442711 0.039318702330459 0.717399323923565
0.0999036244880068 0.0427940976740742 0.717399323923565
0.116298152383881 0.0447238722631776 0.717399323923565
0.130569858215882 0.0374662789939333 0.717399323923565
0.136517091958768 0.0441687260948074 0.717399323923565
0.157494813542482 0.0416387366593837 0.722159785834353
0.158137281251092 0.036758709919422 0.73287417459727
0.157307174919689 0.0430639935001803 0.745805320913665
0.157835810565746 0.0390486071175105 0.74586176162794
0.157854570852058 0.0389061085956021 0.756968102012375
0.158076410894159 0.0372210661834492 0.763545270262549
0.157948912400201 0.0381895133933056 0.778480059594544
0.157241728981738 0.0435611047525592 0.792036125149172
0.157881068637651 0.0416299192317324 0.795085213390037
0.165288277265986 0.0372852910961985 0.801179228194206
0.175036934739182 0.0424723150255219 0.805250001856883
-0.493990627075972 0.0456457191025874 0.483994921333808
-0.494631420496239 0.0407784098451828 0.492533612001089
-0.494985401171969 0.0380896596716825 0.503720501933128
-0.49498245300411 0.0381120532298208 0.507385526442019
-0.494365786071133 0.0427961036221631 0.521786101672628
-0.494292781727083 0.0433506266687283 0.526611554329392
-0.494967741412658 0.0382237988610993 0.539396185541521
-0.494300987558322 0.0432882971923512 0.545276072916648
-0.493958872027372 0.0458869226435936 0.551990383785861
-0.4947807537282 0.0396441113343483 0.563386412935911
-0.493933635829094 0.0460786106004493 0.565475341944764
-0.494271430641106 0.0435128042678478 0.58168391318443
-0.494515483389726 0.0416590395988001 0.590702851154619
-0.494750534962673 0.0398736456468886 0.591993285303105
-0.494085045712351 0.0449285383569953 0.602008387357971
-0.494865694483851 0.0389989222402763 0.61692824686003
-0.494815891401329 0.0393772142091656 0.622414791728063
-0.494751913001057 0.0398631784061639 0.627698810129737
-0.494178614572447 0.0442178123030916 0.629204588060397
-0.494792807300739 0.0395525553611647 0.639143304440346
-0.494585639909069 0.0411261479284651 0.654599060461828
-0.494626934300577 0.040812485884336 0.657727436288254
-0.494848899083981 0.0391264959679118 0.671073192625559
-0.494502952147425 0.0417542238340488 0.678315928307981
-0.494797457995203 0.0395172298295611 0.688337171414475
-0.494488820656131 0.0418615631671579 0.693612422377662
-0.494912506682756 0.0386433482879178 0.707699933473561
-0.49435518668646 0.0428766139418848 0.715197179150446
-0.493970678714953 0.0457972419478362 0.72226120652735
-0.494994073965733 0.0380237832627845 0.727079750072065
-0.494311837119566 0.0432058865929078 0.742016240850176
-0.494957628893706 0.0383006110685181 0.745361408661335
-0.494230608638773 0.0438228781599666 0.747819535229441
-0.494472643019697 0.0419844445156343 0.759574610449206
-0.494843187657313 0.0391698785605167 0.765783748162142
-0.494674036596903 0.0404547084233029 0.777124214256541
-0.494599300986731 0.0410223817416307 0.789258731693594
-0.493723681646731 0.0456561257492984 0.794952533110983
-0.486537070410672 0.0380219315947165 0.801908921256033
-0.485650315247199 0.040429609422679 0.802245047634572
-0.473196495998971 0.0393116089194587 0.805631555530132
-0.472297440902297 0.0427759600367154 0.805665348076285
-0.354044451086392 0.0398507244311808 0.717399323923564
-0.34296280736665 0.0415519818001016 0.717399323923565
-0.336417958153807 0.0425048076319481 0.717399323923564
-0.319422764854775 0.0470791420959731 0.717399323923565
-0.311295250471743 0.045787443277855 0.717399323923565
-0.304026596668618 0.0413062882762885 0.717399323923565
-0.300776683937555 0.0432353639550391 0.717399323923565
-0.282453578108358 0.0429951056254082 0.717399323923565
-0.272171917060483 0.0467721699395861 0.717399323923565
-0.256768421074272 0.0444387533698072 0.717399323923565
-0.250412552181512 0.0428753070856055 0.717399323923565
-0.236344225570581 0.0499495076318038 0.717399323923564
-0.237539391468845 0.0468556317317843 0.717399323923565
-0.225125988100412 0.0485324278459778 0.717399323923565
-0.198466058239483 0.0502698859985284 0.717399323923565
-0.190402474725888 0.0443974494038855 0.717399323923565
-0.175433495182078 0.048162227325493 0.717399323923565
-0.174632528703089 0.0470538657829693 0.717399323923565
-0.163791111390094 0.04921720720143 0.717399323923565
-0.142850099733699 0.052088335887165 0.717399323923565
-0.132651292777195 0.0453786071575918 0.717399323923565
-0.119874911040852 0.0494028004806014 0.717399323923565
-0.114639322995743 0.0438369656372645 0.717399323923565
-0.105219409417167 0.0474390628679704 0.717399323923565
-0.0820640792876017 0.0488563057830076 0.717399323923565
-0.0701758616971154 0.0441870551097428 0.717399323923565
-0.058879843009022 0.0525277972495459 0.717399323923564
-0.0469334799090984 0.0443716870354155 0.717399323923565
-0.0275482123686943 0.0501242502515874 0.717399323923565
-0.0228762373626621 0.0545395102735493 0.717399323923565
-0.00951359690981205 0.0516344025801007 0.717399323923565
0.0022896754527778 0.0449621485213002 0.717399323923565
0.0255581534376406 0.0521935194731738 0.717399323923565
0.025188030704965 0.0506735184920387 0.717399323923565
0.0407464420278818 0.0544722760200093 0.717399323923565
0.0572314901425287 0.053892211522399 0.717399323923565
0.0616093738538282 0.0472873879878429 0.717399323923565
0.076642515607563 0.0543579282592057 0.717399323923565
0.0981871705689232 0.0560501325461203 0.717399323923565
0.108895495437293 0.0479659979541006 0.717399323923564
0.129901979029512 0.0480835268010024 0.717399323923565
0.140933140286543 0.0473452682179063 0.717399323923565
0.155775505899326 0.0546981747609224 0.718966925798276
0.155554870423857 0.0563740675811416 0.732105873054274
0.156383990195296 0.050076277667295 0.743286219943002
0.156500207039977 0.0491935230913417 0.741745595377686
0.156024999794058 0.0528030804839368 0.759797073574251
0.155908465125615 0.0536882491710428 0.771029093142356
0.156367752757727 0.0501996132505068 0.778959652674332
0.156152700740435 0.0518330954953001 0.789222241859547
0.160829101599719 0.0523325010099821 0.799379231378868
0.170682521986864 0.056044920074967 0.804653107644054
0.175053596132951 0.0508285392994708 0.805413420614998
-0.493769209517961 0.0473275524294763 0.481388033501585
-0.493433140584701 0.0498802494114439 0.494513179168387
-0.49369962835627 0.0478560738245636 0.50306675824212
-0.49293077009233 0.0536961321449829 0.508473186351853
-0.493240455203043 0.0513438401916364 0.518607182268065
-0.492893818962585 0.0539768038407169 0.52386152342954
-0.493222742605561 0.0514783807268106 0.535765037788344
-0.493584603314253 0.0487297757605245 0.539254336188473
-0.493416820543754 0.0500042124295947 0.556976825498088
-0.493660092557704 0.048156378029118 0.558082281092934
-0.493765946414116 0.0473523381639288 0.566253085350166
-0.493393894412615 0.0501783536844777 0.577294168060905
-0.493456996109977 0.0496990487072155 0.579331001088306
-0.493245871184459 0.0513027017285238 0.593150557360173
-0.492867323347019 0.0541780580216186 0.606661356111766
-0.493513291003989 0.0492714465345028 0.614807859075196
-0.493833271214841 0.0468409555319367 0.612659975423525
-0.493035911967821 0.0528975003118042 0.633165403823177
-0.493820547277852 0.0469376034286456 0.634274329014336
-0.493667396946228 0.0481008956899441 0.644356333401769
-0.493159822668666 0.051956305096251 0.656141786329432
-0.493169439489578 0.0518832580892552 0.657810266060057
-0.49343136786388 0.0498937145629115 0.669621458631536
-0.493223233959299 0.0514746485246293 0.681494744210543
-0.493424178219258 0.0499483253356186 0.678831588506381
-0.492881236825045 0.0540723746636788 0.693493513243989
-0.493206233668469 0.0516037785536178 0.701592801153208
-0.493286378897568 0.0509950151000781 0.709587813949999
-0.493165360070128 0.0519142443563208 0.722931345354799
-0.493865697175482 0.0465946559080318 0.723214138287322
-0.493250669058947 0.0512662582536475 0.732541472724973
-0.493419661131027 0.0499826360271327 0.750281926525254
-0.493820040941192 0.0469414494374131 0.752643887182855
-0.493270106886267 0.051118613296839 0.757171718437049
-0.493922196162381 0.046165503495929 0.768233075900488
-0.493424090102035 0.0499489946523746 0.775991257362617
-0.493690814829373 0.0479230192077348 0.783097722811164
-0.490946470865504 0.0480097783509849 0.797736899944635
-0.489783342281971 0.0529713818159074 0.79815370674161
-0.487052335721898 0.0513617660713482 0.800568914283327
-0.472958602584363 0.0499500333289655 0.805542857755495
-0.469909821017085 0.0542359922744082 0.805656855408605
-0.35691528612222 0.0488291446175299 0.717399323923565
-0.344829496115028 0.0573548179670961 0.717399323923565
-0.334901056007808 0.0545560705368222 0.717399323923565
-0.329905447906971 0.0532559753759745 0.717399323923565
-0.321790935336025 0.0552841286261217 0.717399323923565
-0.302402195948216 0.0497548359582384 0.717399323923564
-0.29666825872979 0.0583822287065233 0.717399323923565
-0.290386810824997 0.0572562804673539 0.717399323923565
-0.271049189775165 0.0573425629610693 0.717399323923565
-0.258985409299016 0.0520502822335844 0.717399323923565
-0.248767138326377 0.0535092386409974 0.717399323923565
-0.233580950838281 0.0582832282262507 0.717399323923565
-0.223297372630263 0.0536978485174877 0.717399323923565
-0.219103372428621 0.0588917296390508 0.717399323923565
-0.203347793133898 0.0576370243712457 0.717399323923565
-0.194604691491569 0.0546909625427738 0.717399323923565
-0.184832448439862 0.0567098279391811 0.717399323923565
-0.16938732646874 0.0579301554710089 0.717399323923565
-0.166243184009028 0.0563295053383967 0.717399323923565
-0.145963452210341 0.0591334861878398 0.717399323923565
-0.128299179994437 0.0564066552748241 0.717399323923565
-0.125341386084833 0.0606301184804735 0.717399323923565
-0.108657746959448 0.0618210430337937 0.717399323923565
-0.0922002598815391 0.0594229352661248 0.717399323923565
-0.0819922904596378 0.0605497716894723 0.717399323923565
-0.0750269572927798 0.0552602114257509 0.717399323923565
-0.0654457983121571 0.0594337054011057 0.717399323923565
-0.0378245248985077 0.0635420839041587 0.717399323923564
-0.0315485717822442 0.0562583411834891 0.717399323923565
-0.0259287998594165 0.0607308483425574 0.717399323923565
-0.0181065810114256 0.0595170299738336 0.717399323923565
0.0127337307658167 0.057319105467131 0.717399323923565
0.0190751668257301 0.0616512291702081 0.717399323923565
0.0294287207964311 0.0581341889576599 0.717399323923565
0.0394254407039817 0.0576189916457157 0.717399323923565
0.0632154913374791 0.0613962987032933 0.717399323923565
0.0702933013592514 0.0583245124135255 0.717399323923565
0.0841156400468569 0.0615988022578817 0.717399323923565
0.0984926713676039 0.0633344067724199 0.717399323923565
0.122201760737038 0.0581105902368837 0.717399323923565
0.126083830464524 0.0587864258825222 0.717399323923565
0.148245824126454 0.067717178742248 0.717399323923565
0.155121078639115 0.0596690433141585 0.720305750193668
0.154990813661685 0.0606585040522164 0.728155683332086
0.15426243915706 0.0661910576913263 0.730844707278042
0.155089478409743 0.0599090708863855 0.748479086870568
0.154833291814633 0.0618550012698273 0.767425290992745
0.15501254027981 0.0604934740032695 0.775613023175902
0.15489762367007 0.0613663523143249 0.779915000226337
0.154196521227704 0.0666917540743648 0.789962626636343
0.161141464508161 0.0580517760144324 0.800250018086126
0.163781814225393 0.0625105971505635 0.802249653501848
0.186943499453987 0.061214917843894 0.803962583110134
-0.492594122746796 0.0562532226043591 0.480768142508246
-0.492520027547999 0.0568160315153604 0.495499145530603
-0.491772877869434 0.0624911967591363 0.496751031447622
-0.49224195281614 0.0589282188035255 0.506101167401659
-0.492672589277117 0.0556572101339693 0.515620271245995
-0.492348149605406 0.0581215741046961 0.526188361631173
-0.491774286900255 0.0624804941074884 0.534970340007565
-0.491926656843772 0.0613231294823639 0.543554999994172
-0.492092009942633 0.0600671480016338 0.545063351888441
-0.492331252237946 0.0582499223530757 0.562889676047191
-0.492168126969896 0.0594889817787539 0.569718862529133
-0.492627362374822 0.0560007425630757 0.575396939644533
-0.491784397600908 0.0624036957114158 0.583604031494779
-0.491961579978986 0.0610578619344319 0.592396051643184
-0.492857249805007 0.0542545741697873 0.606911812056251
-0.491973379114325 0.0609682386036518 0.604643644134838
-0.492041638711522 0.0604497554875072 0.624069049338084
-0.492516547237821 0.0568424670957082 0.623120594569201
-0.491777892747577 0.0624531049778582 0.634802786527952
-0.49253653091326 0.0566906760108064 0.645916356985156
-0.491932287002822 0.0612803641786054 0.652519432474212
-0.492647334287966 0.0558490408216762 0.660229676488697
-0.492232183499828 0.0590024241280767 0.674113660934074
-0.49249245341448 0.0570254778534397 0.680352189690383
-0.492786684644077 0.0547905697811374 0.681559446332969
-0.492205396559832 0.059205891137722 0.689410437074713
-0.492642859590187 0.0558830295257355 0.705926002359078
-0.491800356610635 0.0622824749976517 0.710296181057158
-0.492630611908205 0.0559760599065169 0.715954656690289
-0.492592435075827 0.0562660417380637 0.723604838967907
-0.492758091865471 0.0550077534968264 0.739676548741318
-0.492817149636326 0.0545591651909629 0.744806068701531
-0.491902366808566 0.0615076306171716 0.755620301343601
-0.491742315580345 0.0627233403921807 0.755952062301325
-0.491951183786778 0.061136828854151 0.764508479224521
-0.492473078474092 0.0571726451365817 0.78077099208403
-0.491785318123806 0.0623967036458322 0.783165182829751
-0.489572518912152 0.0551230527523456 0.798094486918765
-0.489666608731809 0.0599239191522525 0.797371131302908
-0.479948802652965 0.0624737829372936 0.803539450897134
-0.471794413411021 0.0552791916536737 0.805578147633194
-0.465374255878734 0.0565044117881645 0.805266481267926
-0.355749006210608 0.0651663542678242 0.717399323923564
-0.345802900304664 0.0606653841063638 0.717399323923565
-0.336484277184515 0.0631916161396681 0.717399323923565
-0.327521007993202 0.0659319029730437 0.717399323923564
-0.322072368037034 0.0617952008217244 0.717399323923565
-0.306305917721725 0.0649417058103446 0.717399323923565
-0.294166336003056 0.0618502017344711 0.717399323923564
-0.280359629246024 0.0611828583995017 0.717399323923565
-0.268950141505616 0.0605852783720575 0.717399323923565
-0.25461766492109 0.062604686972616 0.717399323923564
-0.248358426656953 0.0667514365982333 0.717399323923565
-0.244107209917933 0.0661852474738584 0.717399323923564
-0.225165972225404 0.0685007831717934 0.717399323923565
-0.217820657074629 0.0604276798327794 0.717399323923565
-0.214171887142898 0.0651086768343234 0.717399323923565
-0.185682465327799 0.0632241587544189 0.717399323923565
-0.178005551393739 0.0679284227929163 0.717399323923565
-0.166044506487937 0.0616869043396391 0.717399323923565
-0.151771746508714 0.0657824848174858 0.717399323923565
-0.148984757240514 0.0655486601522162 0.717399323923564
-0.134894011062662 0.0627174799495013 0.717399323923565
-0.115985696566201 0.0652587810050125 0.717399323923565
-0.113459189561001 0.062970007112127 0.717399323923565
-0.0977078778479595 0.0714795144078146 0.717399323923565
-0.0786157487439379 0.0646687231881455 0.717399323923564
-0.0715423077681978 0.0703855452651887 0.717399323923565
-0.062608207349651 0.0655644943770355 0.717399323923565
-0.0563789014441864 0.0714970201507507 0.717399323923565
-0.0348078034298216 0.0709861242045725 0.717399323923565
-0.0257460705454843 0.0739190379087162 0.717399323923565
-0.0108696971269282 0.0740816570656484 0.717399323923565
0.0052517618073546 0.0719642968029505 0.717399323923565
0.0132923333513263 0.0736349698403865 0.717399323923564
0.0217545350332228 0.0693756897795728 0.717399323923565
0.0454781270389684 0.0665133504896201 0.717399323923565
0.0552935569736354 0.070518878449613 0.717399323923565
0.0714816498209586 0.0747154942674092 0.717399323923565
0.0855654164027892 0.0697665301014074 0.717399323923565
0.0977823735288165 0.0677260633541468 0.717399323923565
0.113762384290999 0.0678407408642002 0.717399323923565
0.126928295881171 0.0773603236938081 0.717399323923565
0.137582276360083 0.0748109395006449 0.717399323923565
0.150639787067865 0.0703487692170434 0.717399323923565
0.153512669092938 0.0718861267394839 0.728626705183508
0.153341514395615 0.0731861757355916 0.739998037452507
0.153650761365546 0.0708372117918934 0.743101955010848
0.153757054708113 0.0700298336979425 0.764711889662194
0.152756365152207 0.0776308255077879 0.77231025188161
0.153832212346077 0.0694589547602933 0.784071624108477
0.152932775140879 0.0762908586108137 0.788367574784873
0.158291687949324 0.0737297587631407 0.799607765759116
0.16666507019079 0.0742511347961419 0.804194773411421
0.179964987842091 0.0696377384317114 0.805412245143512
-0.490801750627407 0.0698676405017437 0.482841192535066
-0.491720947977876 0.0628856434465148 0.493694993580229
-0.491378020479644 0.0654904364015764 0.496229343784725
-0.491335493080706 0.065813464066963 0.50579051903678
-0.491027168118557 0.0681554246662621 0.515847952357105
-0.491113943738251 0.0674962983960868 0.529233276361838
-0.491205085439163 0.0668040084465433 0.527723877651595
-0.490862219351601 0.0694083349412594 0.539726462493022
-0.490765481833301 0.0701431293437431 0.552536894105464
-0.491306685803937 0.0660322770579618 0.561239087143337
-0.491094973183794 0.0676403940631288 0.570301017176533
-0.491629798191059 0.0635779948146062 0.581283980898957
-0.490629639628178 0.0711749533319835 0.581308679761976
-0.491548157301971 0.0641981189336603 0.597592171969698
-0.491686011238364 0.0631510143293443 0.599453913279861
-0.491663927305779 0.0633187584511031 0.609700595593112
-0.49160533217828 0.0637638326317892 0.60975969487094
-0.491033404673001 0.0681080533321935 0.629291050473406
-0.49130213207413 0.066066866069872 0.629673024343026
-0.490952078454135 0.0687257872936154 0.646992174607802
-0.491699824802412 0.0630460898934147 0.644706810754731
-0.491058895976092 0.0679144276619058 0.656014459965282
-0.491744490430863 0.0627068207624171 0.665748657468051
-0.4914729304089 0.0647695239160949 0.677787447856846
-0.490845454891889 0.0695356736550607 0.686762099928844
-0.491696356159201 0.0630724368543546 0.693992863477586
-0.491264445450304 0.0663531243977889 0.700728622782828
-0.491339298399008 0.0657845598048194 0.706494363896652
-0.491039468166859 0.0680619965237846 0.715501162497836
-0.491590492016651 0.0638765548505182 0.722820099104275
-0.491670613730764 0.0632679700110254 0.738714973788482
-0.491128216789273 0.0673878838100824 0.739356278750753
-0.491542974249171 0.0642374881282776 0.748158925463944
-0.491739800207232 0.0627424465478496 0.754922615855756
-0.491419075428097 0.0651785931080176 0.76693437460112
-0.491461291703356 0.064857928661594 0.777686445752819
-0.491317887114957 0.0659471946537079 0.784009219567315
-0.491172155616436 0.0670541352829583 0.792744383612608
-0.489351923846581 0.0709842858123961 0.796103996222524
-0.482589088290882 0.069970174158049 0.801756671221723
-0.475018478834977 0.0677069823726906 0.804881727303901
-0.474129816270438 0.064792327983359 0.805177526826223
-0.462022387933497 0.0671102796960047 0.804811854932517
-0.347296926082587 0.0682008266635627 0.717399323923565
-0.327807278952968 0.0724429852133483 0.717399323923564
-0.319261808483278 0.0681286492719811 0.717399323923565
-0.315627055163019 0.0682733938948466 0.717399323923565
-0.302943616620581 0.0724065611583271 0.717399323923565
-0.297231422538473 0.0675547120242438 0.717399323923565
-0.285818942898973 0.0741251227226431 0.717399323923565
-0.265479352564639 0.0716030398290374 0.717399323923565
-0.255322725723662 0.0689639646628486 0.717399323923564
-0.254676562255513 0.0763315233606663 0.717399323923565
-0.235051787672889 0.0748880607623645 0.717399323923565
-0.227864384957679 0.0782905549570006 0.717399323923565
-0.214355378986701 0.0705936281940516 0.717399323923565
-0.205339578195202 0.0787326991784345 0.717399323923565
-0.186014449147258 0.0778482079312797 0.717399323923564
-0.182261126757286 0.0797809073167083 0.717399323923565
-0.168024156971816 0.0777065651869708 0.717399323923565
-0.164115856972243 0.0800961538214122 0.717399323923565
-0.148993185159213 0.0794429723373257 0.717399323923565
-0.129986872208117 0.0720803806845701 0.717399323923564
-0.128297531468309 0.0758672079937346 0.717399323923565
-0.10673692241937 0.0784613457694394 0.717399323923565
-0.0989808525298742 0.0799185353688734 0.717399323923564
-0.0810343016496595 0.0763971420642519 0.717399323923565
-0.0823984194905069 0.0773322617773518 0.717399323923565
-0.0664041755676127 0.0757584281254388 0.717399323923565
-0.0552479670443273 0.0771147493167463 0.717399323923565
-0.0370963147036928 0.0805354533502505 0.717399323923564
-0.0268678809513828 0.0793996215719362 0.717399323923565
-0.00475948751427705 0.0772759931678602 0.717399323923565
0.00584208750635196 0.0846227515830701 0.717399323923565
0.0141003386865398 0.0849607810820937 0.717399323923565
0.0220689108889751 0.0782427755713837 0.717399323923565
0.0418833376139704 0.0823316719903966 0.717399323923565
0.0661426828834391 0.0798124485063452 0.717399323923565
0.0652576396756949 0.0813682377564887 0.717399323923565
0.077669004313348 0.0785462278891529 0.717399323923565
0.0992836929089116 0.081045815828475 0.717399323923565
0.122489009663881 0.0874254221424302 0.717399323923565
0.133164898728583 0.0858706543956586 0.717399323923565
0.139241752789845 0.0838496565694347 0.717399323923565
0.15043229761399 0.0848467116949359 0.725252359047706
0.150907266385271 0.0837000356456045 0.729226017646177
0.151817646156241 0.0815021844556214 0.742337584576988
0.149223120642353 0.0877659231391758 0.754779514816814
0.150355147422633 0.0850329687332582 0.763907411369058
0.15048104525713 0.0847290244737444 0.771560345113804
0.14906931957218 0.0881372317687045 0.78490805033501
0.149999807353651 0.0877052129344753 0.795435155626065
0.152225909496993 0.0857424948177977 0.796896979104782
0.16029758643127 0.0896512002882965 0.803227709534349
-0.489761241903788 0.0777710889185003 0.482319788879542
-0.490077021601934 0.0753725039775918 0.487450469237878
-0.49060761205914 0.0713422693301005 0.500075117050945
-0.490524017727459 0.0719772313187597 0.505263939998145
-0.490264583649339 0.0739478287846264 0.514547425517384
-0.489931497332377 0.07647787054659 0.520253258268136
-0.490560719394918 0.0716984544772207 0.527837766971977
-0.490187586292855 0.0745326817718086 0.53954530801795
-0.48966078769197 0.0785341144110614 0.548691326097845
-0.49001817048983 0.075819522554396 0.55780836313852
-0.490423088035539 0.0727438684412589 0.566374034805789
-0.489961211917603 0.0762521658636493 0.571781767800276
-0.490607856357427 0.0713404137003791 0.587750395440362
-0.490101089801677 0.075189687850413 0.59149830979537
-0.48989172725304 0.07677995429027 0.600725550521186
-0.489973384911871 0.0761597027923691 0.602792664743524
-0.48978092091474 0.0776216119901333 0.609968239743789
-0.489663523585688 0.0785133332350949 0.623606666520515
-0.490600775937886 0.0713941948262247 0.635169342634423
-0.490537616521234 0.0718739382250236 0.63813773630172
-0.489697457493985 0.078255579611597 0.646613396328628
-0.490280203563966 0.0738291837538599 0.655671301255497
-0.490134107084072 0.0749388966918665 0.664528347524822
-0.489661507651009 0.078528645779225 0.671708667350726
-0.489810025389857 0.0774005415535582 0.683681650314941
-0.489667937552581 0.0784798058279165 0.693517259001908
-0.490067690516843 0.0754433806055487 0.695405373300535
-0.490063082514099 0.075478381861339 0.707886995152415
-0.489954900627936 0.0763001048680903 0.716393063075
-0.489689652050449 0.0783148678414281 0.727073521177824
-0.489922050031143 0.0765496299237834 0.7335588508712
-0.489628556214017 0.0787789367922819 0.743365213126966
-0.49014399244226 0.0748638099417552 0.750847689278939
-0.490048025717682 0.0755927495846547 0.75570579795618
-0.48969404282587 0.0782815165909679 0.765535315024168
-0.490001103105125 0.0759491622119618 0.777859024375598
-0.4896014930453 0.0789845019673636 0.786970685084308
-0.489817033471325 0.0773473098899268 0.793140112400935
-0.488298935954688 0.0741210534222345 0.796814500163299
-0.483808205919919 0.0756800329286921 0.800594026929051
-0.477228161659049 0.0735947774359803 0.804042345101745
-0.467589167508457 0.0769558584514711 0.805681246671801
-0.463774177228184 0.0787634973646971 0.80543512377599
-0.341480866812847 0.0776970640193881 0.717399323923565
-0.333732345517399 0.0833817046403243 0.717399323923565
-0.328154196630826 0.0808841772985355 0.717399323923564
-0.317322181616987 0.0842091802083236 0.717399323923565
-0.304678349172614 0.0839627903960161 0.717399323923565
-0.292475409748194 0.0771765512132889 0.717399323923565
-0.281332411478182 0.0831547251846134 0.717399323923565
-0.267151875745825 0.0815137996636475 0.717399323923565
-0.268002397097711 0.0826087583723252 0.717399323923565
-0.256259922940972 0.0867784980911855 0.717399323923565
-0.242230849287976 0.0867130754865451 0.717399323923565
-0.232084236460913 0.0820146033317279 0.717399323923565
-0.215003563715903 0.082539347144699 0.717399323923565
-0.199243016806933 0.0799066827608117 0.717399323923564
-0.196543199101479 0.0856614430366737 0.717399323923564
-0.178041157965735 0.0863359134982759 0.717399323923565
-0.17297477053241 0.0819290554653727 0.717399323923565
-0.150301821475459 0.087678042546183 0.717399323923565
-0.145088815284827 0.0878972880575346 0.717399323923565
-0.131664732289733 0.0829466972363588 0.717399323923565
-0.116083258238104 0.0839421642410514 0.717399323923565
-0.105502801786925 0.0883831196659158 0.717399323923565
-0.0996699099431205 0.0855105376512506 0.717399323923565
-0.0894016739990021 0.0908564493780254 0.717399323923564
-0.0758178820946813 0.0837590665180687 0.717399323923565
-0.0578991500165325 0.0911796346625685 0.717399323923565
-0.0557408230792155 0.086713424075712 0.717399323923565
-0.0414748750591674 0.0921000978176218 0.717399323923564
-0.0285339973546492 0.0853452844633486 0.717399323923565
-0.0126695332710323 0.0876029636375806 0.717399323923565
0.000154843745860526 0.0867635732992244 0.717399323923565
0.0134987719982014 0.0879110244632355 0.717399323923565
0.0274094243775801 0.0958454520177827 0.717399323923565
0.040676267996809 0.0946041667549177 0.717399323923565
0.0567660475699195 0.0946238659571838 0.717399323923565
0.0806750860610609 0.0873663769309659 0.717399323923565
0.0853413621032573 0.0943365696237627 0.717399323923565
0.0916646856018855 0.096426852534472 0.717399323923564
0.112550107318109 0.089618220527335 0.717399323923565
0.134005131149352 0.0948952890953786 0.717399323923565
0.140553430286132 0.0932333646901336 0.717399323923565
0.148017240927499 0.0906771743013602 0.72510727558593
0.144823198598772 0.0983882746101691 0.735113314600184
0.147180808226592 0.0926965014719089 0.741129683256105
0.146109115537512 0.0952837964965851 0.760817160809666
0.148592836199881 0.0892875643883469 0.761289432062576
0.148387840019673 0.0897824689468446 0.776033364598127
0.144446286453304 0.0992982210235951 0.788289649858703
0.152755716062987 0.0917302303568931 0.799444517926215
0.15592833934087 0.0907203585309538 0.801278522492553
0.166919010961269 0.0999802603476579 0.805599245621845
0.177276043347851 0.0941827785448181 0.804933765661811
-0.488803644312716 0.085044764759223 0.476787150255475
-0.48947429180809 0.0799506912880465 0.486704049409481
-0.489215117190953 0.0819193179520791 0.49413004457033
-0.488938166020657 0.084022970942877 0.509366993427522
-0.488587101299908 0.0866895722393421 0.51319265561803
-0.489132209549978 0.0825490640069949 0.51570815534949
-0.489249318061769 0.0816595365469185 0.523628731062447
-0.489307498376481 0.0812176131821703 0.543617041531719
-0.48899433562364 0.0835963204500115 0.541438185146773
-0.489074543695618 0.0829870796574081 0.556121500827845
-0.488857882668978 0.0846327835415839 0.565693648422287
-0.488740705167853 0.0855228350276711 0.577701475135368
-0.489230852463956 0.0817997966874527 0.583427703830671
-0.48877472625614 0.0852644192063882 0.586632781023479
-0.48854321564156 0.0870229169092322 0.597043488204105
-0.488531653991075 0.0871107363634488 0.609027085802448
-0.488638385438925 0.0863000305294796 0.617331258433473
-0.489005542492394 0.0835111958305794 0.627226098138314
-0.488631001830893 0.0863561146005567 0.633581088117348
-0.489550205996595 0.0793740657784973 0.642809276889212
-0.48873234527139 0.0855863347456094 0.649177834674161
-0.488761687726464 0.0853634566717986 0.658939088505844
-0.489405887892148 0.0804702706138872 0.665796315045542
-0.489183235995081 0.0821614796767421 0.672068841684434
-0.488504712180395 0.0873153797327216 0.683714496615321
-0.48860596198195 0.0865463111361511 0.684149339557845
-0.489274966414026 0.0814647179697762 0.701421322983518
-0.488461985213027 0.0876399232708377 0.703601261549485
