ply
format ascii 1.0
element vertex 867
property float x
property float y
property float z
end_header
0.120497353069924 0.22906077509287 0.291293871991733
0.117636775791599 0.232788751982956 0.295229704919049
0.123882138303028 0.22464963709547 0.299047828263258
0.115017018889733 0.236202885648144 0.324077925759419
0.12244420502561 0.226523588227055 0.31387743052283
0.118725115159936 0.231370400503877 0.339148247244679
0.119958300043244 0.229763282674547 0.337083659426296
0.118084303176027 0.232205522940528 0.355760381421209
0.120250523687987 0.229382449406173 0.360182347307317
0.116015274238027 0.234901933949673 0.367987250308639
0.121225982109271 0.228111207241404 0.378909542153803
0.124140852184782 0.224312474600462 0.382058341932976
0.116454197822205 0.234329917598033 0.396515663527491
0.120032706733373 0.229666313988061 0.407922221649379
0.121176844456106 0.228175244677771 0.409343969697063
0.120951218192974 0.228469286548664 0.417551602466762
0.118552724794896 0.231595064001631 0.434028646163279
0.121164477119946 0.228191362104049 0.442882331344988
0.124823208949578 0.22342320995125 0.439838819216072
0.116600468911441 0.234139293403228 0.469778984413572
0.124902088828496 0.223320411691638 0.460105430693363
0.117995767568029 0.232320904791271 0.480633560329228
0.118540856663292 0.231610530851866 0.490896913014138
0.118143464966651 0.232128421793884 0.500261153973312
0.124038488243423 0.224445877886106 0.496378337011219
0.115790186425878 0.235195274097582 0.520198876848163
0.117827245734318 0.232540526720841 0.528017003739917
0.115925330350916 0.235019151105487 0.5394997642531
0.122776062920277 0.226091102598547 0.543034369397578
0.120793559946365 0.228674750775882 0.547665273721759
0.124729191663416 0.223545735664062 0.55645742980724
0.124760740640336 0.223504620236854 0.559731919172917
0.117940569819294 0.232392839897947 0.579739024239298
0.124504255273711 0.223838878474402 0.588508208627291
0.122314085693889 0.226693163041651 0.594400772252608
0.12156810760694 0.227665340612146 0.607869611693718
0.117439882944627 0.233045347736861 0.620336521513956
0.117415316501681 0.233077363348628 0.631680084523078
0.122398850174765 0.226582695819458 0.631901403348408
0.11632504491802 0.234498232939743 0.650450053675022
0.119573118471714 0.230265261071715 0.652707757054503
0.124431197679044 0.22393408898545 0.663856525010901
0.123051218417408 0.225732512973209 0.669646672362929
0.118512044076115 0.231648080146533 0.68005579163667
0.121367091631498 0.227927309731689 0.683671399364437
0.11680816565598 0.233868617735888 0.708408341260072
0.117053648641883 0.233548698080059 0.709720995246039
0.123768986923377 0.224797098844404 0.711064385281093
0.122224263888886 0.226810221096964 0.727008639604565
0.118004990139146 0.232308885702589 0.737426017611404
0.121062480015549 0.228324287318455 0.746790960259295
0.123577027792161 0.225047264854753 0.753862942691499
0.117452786301196 0.233028531755186 0.760130393671761
0.117827359267926 0.232540378760963 0.77907986293504
0.118243278343284 0.231998342468908 0.785063038672838
0.123166289896876 0.225582548901476 0.789360145604174
0.121476074371592 0.225035999458836 0.796531703853627
0.124971216984543 0.210162292867687 0.801653313281936
0.120790662708022 0.212117439345357 0.802876032215092
0.12170450699521 0.195881695710058 0.80546207860883
0.121112706057632 0.183096492938444 0.805140123416915
0.12460752694098 0.17328302501719 0.804389443013177
0.123422161435789 0.0564991559449828 0.717399323923565
0.128099568857578 0.0416478663657504 0.717399323923564
0.124954629400613 0.0249745564405617 0.717399323923565
0.131978001308784 0.0152698877910037 0.717399323923565
0.127407743725709 -0.00237892039378861 0.717399323923565
0.131200892832694 -0.00763384765901177 0.717399323923565
0.135387834535632 -0.0302140526356304 0.717399323923565
0.129204790286229 -0.0505240863717361 0.717399323923565
0.133888080243703 -0.053018647604789 0.717399323923565
0.130850856421939 -0.0677063136810302 0.717399323923565
0.128834179619847 -0.0765101689619706 0.717399323923565
0.129487585353623 -0.0888307455099212 0.717399323923565
0.137981822934143 -0.112213232791769 0.717399323923565
0.133636651197209 -0.119084218217504 0.717399323923564
0.131608233520574 -0.130292022528235 0.728931013952783
0.133047375625859 -0.126817626139473 0.737383405935203
0.138920648995683 -0.112638289914521 0.755730311957168
0.136377008013937 -0.118779182470458 0.767955024372216
0.139654035428691 -0.110867738441491 0.780112047694822
0.131604022503567 -0.130302188822604 0.777623579957955
0.134362539819498 -0.123642538906442 0.784767130969113
0.138787188556513 -0.131155371792139 0.801062800490864
0.138020975735297 -0.135588882480345 0.801651117474567
0.138514826573002 -0.149197423946941 0.804302582503406
0.138243608199869 -0.164140973612523 0.805450019358431
0.13550735078539 -0.20109114858178 0.799723041740568
0.130889314303006 0.215517707540336 0.199820987792356
0.129083374864247 0.217871253638741 0.219505312497956
0.133976076215991 0.211494961095414 0.221467376797558
0.131201198069577 0.215111252702364 0.235928128342016
0.127440558356938 0.220012213793988 0.246166796283368
0.125171135392205 0.222969783383337 0.259140416175381
0.128211707646848 0.219007232473129 0.266213689200987
0.125029219252837 0.223154732096977 0.280271018971147
0.126562695959709 0.221156266343921 0.281407159913827
0.127650559846413 0.21973853452457 0.291365799891167
0.126828327880845 0.22081008808446 0.305904119733405
0.128341513692725 0.218838065940595 0.311079639504163
0.132796501672339 0.213032212569859 0.313242505309142
0.133459634395167 0.212168001179908 0.321823595460353
0.126872820431364 0.220752104263721 0.338962767310679
0.12840505170222 0.21875526159448 0.349840864280512
0.125968853528009 0.221930176868382 0.359233181381182
0.12673011947096 0.220938075776048 0.371229700477282
0.134137415649928 0.211284699451468 0.375244220363497
0.125629147085107 0.222372890924089 0.385804437771248
0.132372703343349 0.213584517305166 0.394029123619356
0.126558500979808 0.221161733348166 0.404300220842385
0.128422134691019 0.218732998610034 0.410294417974597
0.127547701390701 0.219872582273866 0.418480438625095
0.131685682757937 0.21447985996374 0.428790608226367
0.129152754574498 0.217780836239981 0.437299335229444
0.134748698642188 0.210488059945968 0.44843871850951
0.132413760966924 0.213531009968374 0.448734627695478
0.126282609261187 0.221521282436029 0.473265886999135
0.128570825024232 0.218539221595094 0.479970579733736
0.130505021245593 0.216018528003363 0.487599700939991
0.130945620648898 0.215444327681717 0.490354249587487
0.131980532281374 0.214095604583627 0.494607641363494
0.134330147419066 0.211033526519774 0.504594319072546
0.133845376591433 0.211665292162359 0.517053001403989
0.129196072895415 0.217724382705054 0.531359072073243
0.130679847966426 0.215790689384923 0.541859136938065
0.125844251256815 0.222092561709715 0.55498601854741
0.127464855405543 0.219980549263762 0.562701058343939
0.13368655979233 0.211872266244583 0.561908522283022
0.133845248724333 0.211665458802008 0.571304895673817
0.133080566440206 0.212662012156844 0.583263443179041
0.126845687093951 0.220787465117487 0.594452575061425
0.131296538503992 0.214987002629176 0.607860578368153
0.128175713583056 0.219054140850334 0.61861928858592
0.133794111978311 0.211732101506908 0.617867842451032
0.131731654363513 0.214419948600923 0.629051730490327
0.125432882005911 0.2226286685551 0.649191937354156
0.134004969214439 0.21145730700674 0.645141496395436
0.133966987847735 0.211506805287523 0.657545539600222
0.128788716571806 0.218255259801768 0.666514796712323
0.131403095693627 0.214848134595985 0.677666814680351
0.125884544032498 0.222040051142103 0.697521034012786
0.12592781113291 0.221983664359037 0.700753312487052
0.134615980711339 0.210661021320882 0.70183260022023
0.125753670142421 0.222210609316294 0.720800257772345
0.1317559859372 0.214388239076732 0.724133721297991
0.126676707486067 0.221007683629974 0.739048895473362
0.126936634738427 0.220668939839605 0.745280177500603
0.131599403520128 0.214592301255601 0.756426862945055
0.130325194601458 0.216252882648712 0.761372372291939
0.13476770012397 0.210463296732787 0.769957604145005
0.127291527494781 0.220206434594887 0.787334516972454
0.129604194917949 0.216451904377802 0.795162529754476
0.132210262040656 0.207519791439251 0.798653111562449
0.132323381262339 0.20165725795562 0.801263383812118
0.129167700087096 0.202860335381976 0.802317264698652
0.134990305212886 0.188498784204775 0.804132594100698
0.135426596953607 0.180040667604744 0.805366430794278
0.129267742804982 0.145088648352289 0.79838866786362
0.137046085771643 0.158646174261849 0.804868670915026
0.139774145219206 0.0171378683545023 0.717399323923565
0.136746159912533 0.0171121706624099 0.717399323923565
0.140471235673696 0.00409536335949844 0.717399323923565
0.141790168756711 -0.0139982519862181 0.717399323923565
0.142816169957751 -0.0255994533479727 0.717399323923564
0.142559017480771 -0.0470282694169816 0.717399323923565
0.139294605624678 -0.059704816406857 0.717399323923565
0.147146263957602 -0.0672183900974939 0.717399323923565
0.144491653756184 -0.0893971838188145 0.717399323923565
0.147389071987938 -0.0921937082747054 0.72188126564174
0.148958334756758 -0.0884051728152937 0.728267941436659
0.1417090281905 -0.105906547045354 0.73121560434372
0.147150988585304 -0.092768492454321 0.758040547287558
0.147863545565374 -0.091048227729071 0.768891557723994
0.146156985738145 -0.0951682276089691 0.770765516471833
0.14196071518127 -0.105298920898763 0.77556338266222
0.140609948121212 -0.108559961054763 0.782835201020336
0.148986590754542 -0.0978486560249651 0.798503989679148
0.141367154757414 -0.113654786561939 0.797624100782498
0.144095796125331 -0.123584970415155 0.802257261832268
0.148565974332232 -0.13600198435959 0.805355245399017
0.144254905415984 -0.151381887014115 0.805501651600058
0.150204321817788 -0.183144706984311 0.799117245931154
0.136932173675451 0.207642499881655 0.198421199279327
0.139237633523407 0.204637966111732 0.198534052639253
0.13846306484501 0.205647403666427 0.212853359449758
0.135503403079981 0.20950450997364 0.228002401467706
0.141337156671695 0.201901814274015 0.231790089822573
0.144275163456676 0.198072929286248 0.235711166896036
0.140596728130392 0.202866759535816 0.249021824096048
0.134801134964878 0.21041972359978 0.268156740963221
0.142855629616805 0.199922901803975 0.263835937216321
0.139427301047899 0.204390786581409 0.279790373181282
0.13764685145718 0.206711113663099 0.290566419752453
0.138617632233391 0.205445967524075 0.295026249236424
0.137106137652415 0.207415785612914 0.31665707339293
0.143870966518576 0.198599688991605 0.315720778138824
0.144362807452555 0.197958709407042 0.319066913504307
0.144550223291984 0.197714464329825 0.327132482622465
0.135171265274699 0.209937360388763 0.34735260640733
0.138636691370887 0.205421129172505 0.349804516939581
0.140400005236751 0.203123133802228 0.363234104808973
0.14424193564482 0.198116232613743 0.365758363052566
0.138933533540518 0.205034276925313 0.390583775366061
0.138500172444671 0.205599044101023 0.388614815413833
0.143604568933683 0.198946865083501 0.392022116994702
0.140369993572765 0.203162245764216 0.406576930621354
0.141680063933997 0.201454928829252 0.418962265105824
0.140789118047426 0.202616032114459 0.419914112143434
0.142834420680617 0.199950541827746 0.425294766722035
0.140082655946465 0.203536711449382 0.451458968757958
0.134870348918381 0.21032952221942 0.467189503170264
0.140023331158918 0.203614025017752 0.45609398381883
0.140230064495973 0.203344604887489 0.472616110601731
0.141914514643741 0.201149386715632 0.480560793343746
0.140489100765902 0.203007022248032 0.496081434020693
0.138434930484531 0.205684069078851 0.497601963947659
0.143211905853506 0.199458593572565 0.50600407474591
0.141823285211627 0.201268279226314 0.514337871316024
0.137939308088522 0.206329976760678 0.531689102518138
0.145083562383809 0.197019403293031 0.530380320226826
0.138751149277852 0.205271964724026 0.549874840095702
0.136141455613205 0.208672983723137 0.563321528769134
0.137295934991947 0.207168436904339 0.574765015478815
0.139585803948694 0.204184221579425 0.578569521413526
0.143733477480838 0.198778868194072 0.581685220880364
0.140949380947832 0.202407173436325 0.588625687633565
0.135969738250178 0.208896770147591 0.601837188882604
0.13765651057391 0.206698525657097 0.618924441642617
0.14059284706072 0.202871817444288 0.615328659720101
0.141116501318433 0.20218937792904 0.633783798619636
0.139148904090044 0.204753600560608 0.639784497203905
0.138605858134769 0.205461311828141 0.654145098465084
0.144524947138149 0.197747404854831 0.657194041112881
0.136170527688437 0.208635096257053 0.672625782477719
0.135432194624099 0.209597310640107 0.681024984834461
0.138475525219261 0.205631164990547 0.687125358516727
0.141635298561379 0.201513268198672 0.703042319877379
0.135513559461272 0.209491273919845 0.718842539716751
0.142589102179731 0.200270247122528 0.712270169563534
0.141418843413938 0.201795358038899 0.718739439705227
0.135621640362016 0.209350420147677 0.738202857137778
0.140152938152762 0.203445117894878 0.736381188052344
0.135458542981301 0.209562972792469 0.760958713545956
0.141538385415605 0.201639567869207 0.759980539556676
0.142825075928081 0.199962720146354 0.77345494928112
0.140670677931792 0.202770386278315 0.78418530764855
0.14451410867007 0.197761529821434 0.784782503014997
0.138680392567227 0.203998679054269 0.795588476121887
0.139589720351197 0.189550425887807 0.802218620061111
0.143824448301442 0.182968578873504 0.802603677634396
0.143028290653342 0.1732371989317 0.804923460337044
0.142961429249757 0.162159911173306 0.805662182931835
0.145005106780764 0.150605626004976 0.805532124598432
0.140993531248843 0.135353361001003 0.803088375766752
0.148328375157624 0.128813698690301 0.804635848916707
0.147172455844943 0.109231003144501 0.800680136785968
0.147461380950921 -0.00767549699753071 0.717399323923565
0.149752058492871 -0.0245461531160132 0.717399323923565
0.148400194059068 -0.0447427481007103 0.717399323923565
0.14938491132157 -0.0548058363153069 0.717399323923565
0.156362228770588 -0.0502415720985 0.732733882795144
0.15346758933438 -0.0722285415009362 0.732505720180691
0.153886381000165 -0.0690475029831731 0.738623693803139
0.151680846663563 -0.0818324476461618 0.741793314293235
0.155944703960488 -0.0534129878919853 0.764124232659396
0.153489081069969 -0.0720652955619484 0.768500943754222
0.156042659045511 -0.0526689451520652 0.792487103065466
0.153903698428162 -0.0689159640582462 0.791390856649479
0.15878753903269 -0.074429548302959 0.800088377591888
0.151010261549369 -0.0834513833235742 0.792305113127968
0.151813789670299 -0.0965371128579387 0.80024364525759
0.152568151724257 -0.110570226186312 0.80357660657174
0.152220757344226 -0.124183632616737 0.805063602126977
0.152385539829803 -0.138044559257769 0.805702333314355
0.1570594461029 -0.155562504692071 0.803384317592009
0.145057191955045 0.197053769904889 0.190663841042727
0.148813731771581 0.192158151901891 0.194511554070058
0.152323786258603 0.187583759834348 0.188572539074636
0.149148631439201 0.191721702157693 0.209276154194732
0.148463302427256 0.192614840314803 0.219823686184108
0.152327513307129 0.187578902650144 0.22481684706635
0.151461745973196 0.188707192606703 0.239608427746136
0.144937850119633 0.197209299212839 0.24836624222601
0.15496194678826 0.184145642094472 0.245238734675739
0.149608765911151 0.191122043238928 0.263107870392671
0.150485633513797 0.189979287130538 0.276033726348377
0.151262207599115 0.18896723607866 0.277948042391612
0.149876747606477 0.190772802694123 0.288477486261657
0.147085054131719 0.194411008463622 0.305317499135228
0.154995181172204 0.184102330202065 0.306005642511202
0.153133406632392 0.186528642020858 0.319382618133655
0.146982745904296 0.19454433914145 0.331193210189943
0.153388231122725 0.186196548279435 0.333624461404858
0.1505661169345 0.189874399094584 0.349402910423421
0.149467197431962 0.191306538873003 0.368304575607389
0.145565795940877 0.196390944285824 0.376800808051261
0.145675573336054 0.196247879599065 0.3801945609754
0.153605677147101 0.185913167103244 0.382251794332289
0.154106815175439 0.185260071309419 0.39561249918881
0.147943106159403 0.193292773289927 0.408533552589697
0.145360997977444 0.196657842188076 0.414361790762322
0.148955351462501 0.191973589527391 0.429409428118205
0.151703265912598 0.188392437693627 0.430248818689512
0.153397840413878 0.186184025207389 0.436955943336655
0.148584947940414 0.192456308795564 0.449919911407616
0.148372089496502 0.192733711320493 0.469327682284069
0.154903891181245 0.184221301634569 0.466354458482403
0.147570727276939 0.193778066897864 0.483379109943368
0.153308472840631 0.186300491296355 0.481532080127955
0.144747417161624 0.197457476275542 0.50903670041509
0.153346335044664 0.186251148311387 0.503630013971869
0.149559474934073 0.191186280490909 0.518611235189407
0.146826333061366 0.194748180326994 0.530119324702498
0.149021082637883 0.191887926991846 0.53731055508221
0.150942909238587 0.189383353803607 0.543325525541858
0.149432117854254 0.19135225546874 0.559815479180905
0.146715215651846 0.194892991354446 0.566360225559972
0.146261544196801 0.195484227505595 0.579364895661785
0.1487323486742 0.192264212419318 0.588048023990879
0.144609445245554 0.197637284777304 0.602888463539365
0.145986700787244 0.195842410410488 0.607281397634204
0.14621109525364 0.195549973848355 0.618738314333048
0.151677117526489 0.188426514933863 0.620341271493995
0.153399850560306 0.18618140553356 0.622304128424823
0.151512133336427 0.188641526516469 0.636727943431019
0.1525057933636 0.187346563557079 0.642014635052333
0.149221257993233 0.191627053389736 0.662641553301935
0.152894493470034 0.186839999715949 0.67183322985312
0.153490110199364 0.186063776881797 0.676196250621162
0.1474309562261 0.193960220077707 0.687611042891059
0.154618957075006 0.184592634991408 0.691089270461695
0.149169975790148 0.191693885657972 0.705799334177473
0.150526478654768 0.189926056706467 0.712630324848568
0.149443449565481 0.191337487695151 0.728518219863306
0.145392195950726 0.196617184197715 0.739679437330926
0.152579821786531 0.187250087838004 0.737838947650118
0.149426778325482 0.191359214078115 0.754279437477054
0.152789862262672 0.186976357760174 0.759885081423242
0.146100757645753 0.195693768618532 0.771372713937818
0.154971877042868 0.184132700734708 0.777405896433465
0.149631286014862 0.191092694468374 0.791796745806919
0.153520381455762 0.182737175502585 0.796898331856587
0.153733387094551 0.180876078494642 0.797977693996553
0.154416195245264 0.166254959267458 0.802686139945711
0.151351358494705 0.160039006117696 0.804640474443435
0.150182125825262 0.148484730499479 0.805551551540249
0.155875328279479 0.132691301880426 0.80561188069045
0.150578734096874 0.126371462242096 0.804904204232683
0.152613095722066 0.118295532827015 0.804620241241258
0.157942252474503 0.104336289461867 0.804522116753588
0.156137989224658 0.0764386424054136 0.798138852381642
0.157837109425084 0.0593458207901698 0.797625593044795
0.161825750484855 0.056083360902561 0.800597524620756
0.159280885786442 -0.0280721710667 0.754449335160126
0.163165502241276 0.0351885124344858 0.799444093059354
0.162870047293457 0.00877934297895656 0.795822464159642
0.164009655115993 -0.009216992482848 0.797151527783365
0.165902760566783 -0.0170113605509805 0.799725432858739
0.16076537515395 -0.035110557729838 0.79733433405764
0.160920757425583 -0.0480952749210105 0.798998173766884
0.16624290052307 -0.0486090986356059 0.802621848432658
0.160105465506573 -0.0662273108869107 0.800282984091019
0.168294844935405 -0.086933837122423 0.805203269577941
0.160517245668322 -0.0975682896636379 0.804472636725639
0.167321700984077 -0.106559394336911 0.805567650762643
0.166217860341087 -0.11291726284991 0.805458908655083
0.164941151659895 -0.140405709920244 0.802786273660458
0.156334637679301 0.182356716496199 0.169754815950888
0.157842797540488 0.180391244298799 0.182257564480382
0.159900545196858 0.177709535342113 0.187573527548655
0.158115257430622 0.180036167656896 0.198705371505421
0.155502978671943 0.18344055561614 0.213832102749346
0.160718330145607 0.17636435287323 0.218499348851119
0.162059171434827 0.173127275647806 0.213237569189395
0.161572895916062 0.174301248600257 0.226762000283651
0.162618957742328 0.171775831952207 0.238229083372582
0.155015720915255 0.18407556228777 0.257604047335883
0.157229082528985 0.181191053273484 0.265153188641429
0.157261647401496 0.181148613905364 0.274277882554529
0.15771400737077 0.180559086915749 0.28153157286053
0.158741467684335 0.179220074565523 0.292860269056507
0.157576849597384 0.180737834406107 0.300534983075378
0.156781173622418 0.181774779525244 0.321210471474547
0.156590702775733 0.18202300596543 0.325312918574268
0.154943432259291 0.18416977069839 0.336059290116601
0.156309523785855 0.182389445559349 0.344033165859442
0.154756437578672 0.18441346691076 0.355186237513473
0.161734615735298 0.173910822419354 0.351925206556864
0.159048912959719 0.178819404081883 0.367894180380163
0.156032612390187 0.182750323516213 0.37882816091664
0.159503389297578 0.178227118987029 0.383319790042716
0.159564589790194 0.178147360952222 0.3990112566336
0.159009877910225 0.178870275548814 0.400290356301692
0.158230855655891 0.17988551711667 0.423364197780224
0.164354522508428 0.16758580795551 0.417145840801585
0.154901306228897 0.184224670410057 0.435039510004019
0.160231108483432 0.177278736879721 0.440862602308504
0.155719408443622 0.18315849884625 0.457423079473894
0.161015930776653 0.175645881393588 0.454064120000497
0.161463704096247 0.174564860972554 0.465698471461994
0.159545466522872 0.178172282879407 0.480872577734747
0.160010189007956 0.177566644745516 0.491850511779795
0.156635212338853 0.181964999973438 0.494751990996475
0.16373591553944 0.16907925728982 0.494394777297942
0.157434820072572 0.180922930886535 0.516789676002516
0.159277539817889 0.178521451759403 0.527569815390655
0.159753208339889 0.17790154847247 0.534132809353678
0.155691204555186 0.183195254869272 0.546925051802906
0.161685423715674 0.174029582460291 0.548393180135321
0.15521337732688 0.183817971437034 0.568506197339122
0.161665570638484 0.174077512028496 0.570188517526314
0.163854655817271 0.168792592900679 0.57381524649924
0.159972190631648 0.177616165193648 0.591509513898315
0.158282722744344 0.179817922610982 0.605227640769371
0.164160731502355 0.168053660830638 0.599848911707573
0.159923888579914 0.177679113653027 0.62050882959618
0.161007700172929 0.175665751828725 0.62426382193228
0.155045718109789 0.184036469182739 0.640326717637343
0.162063455547999 0.173116932883683 0.642888488698154
0.154927120208885 0.184191028976363 0.665796963572705
0.162068739077607 0.173104177314845 0.665758041229466
0.156576571113677 0.182041422705982 0.68093745504179
0.155410377130168 0.183561236294946 0.693601744862625
0.160466820384494 0.176971551149577 0.694188681106866
0.16372045180582 0.169116590045249 0.698512248741478
0.165327538784265 0.165236738865974 0.700470018851964
0.16176033172491 0.173848738528463 0.715920515445364
0.159448697914881 0.178298394184636 0.734739324320955
0.160094628857447 0.17745660059118 0.736611628429353
0.1618868281604 0.17354334911831 0.751272409314645
0.15854574301289 0.179475147923441 0.765418933866518
0.163252897493862 0.170245366006324 0.770200886747461
0.155975311009294 0.182825000129691 0.781065210708545
0.159273836728173 0.178526277719878 0.786783955195427
0.155305928665545 0.175642518380571 0.799545683686997
0.157750951886514 0.169612099051105 0.799893601662244
0.163474053975861 0.159177493343223 0.798826513594074
0.161409281473328 0.139976692137962 0.804169754793753
0.1623127777067 0.132055148516452 0.804776926407358
0.165578062733153 0.122461416776121 0.804930426282327
0.159294524554924 0.106944694918163 0.805049123503576
0.165131729714438 0.100007865553652 0.805473003538855
0.16629442938302 0.0836942858469056 0.80447921874403
0.164244841073878 0.0636904262841378 0.802614436029315
0.169903559541475 0.0489138110974604 0.804155858668278
0.168463530173227 0.0480088903216715 0.8035318448472
0.163896768680917 0.0223116634670343 0.798656122215066
0.167220730515058 0.00572194614034231 0.799587857439878
0.169837334664797 -0.00414709945716819 0.801289149884509
0.167148936061205 -0.0109361780729764 0.800090287236363
0.166583882552621 -0.0234251780395125 0.800867091195462
0.176924408265852 -0.0425717416986142 0.805473213337552
0.174336036863259 -0.043076687518845 0.805105557004694
0.168848479467903 -0.0546927882547596 0.804038087662958
0.178286132892958 -0.0686117941983285 0.805550624319519
0.174886554924328 -0.0825377816343506 0.805670104391201
0.176169495682424 -0.105681376718411 0.803962906482007
0.175257634820716 -0.120839357140925 0.801570378738034
0.176168714552819 0.139063825293458 0.131650991860534
0.174050337071912 0.144178040938093 0.150667255129156
0.167334859411988 0.160390638182494 0.166488398022946
0.175273645378651 0.141224713432998 0.156678852601858
0.17277082796338 0.147267049181088 0.1773194541787
0.166549068979054 0.162287704102865 0.201309278881587
0.170815390446508 0.151987892954696 0.200374367362884
0.174046481446687 0.144187349240803 0.203510204697654
0.175026315984159 0.141821819411554 0.206794104233198
0.168006990111511 0.158767971132017 0.237694975593583
0.170204360347088 0.153463050107733 0.238221736590287
0.175993814151931 0.139486072213348 0.234271356709439
0.172704015397278 0.14742834898431 0.256632255360773
0.170596612333896 0.152516070041314 0.273591919729197
0.171085445374913 0.151335922683954 0.273072080426699
0.166233592544193 0.163049331590518 0.296088894501698
0.166557950727989 0.16226626166413 0.298689050850511
0.170206222453397 0.153458554585427 0.305975148826559
0.165603071104637 0.164571545001261 0.326295044705601
0.166722260948171 0.161869581702129 0.340409223252456
0.173892834907884 0.144558284798591 0.326136521338999
0.169401647649815 0.15540096998818 0.344994200385923
0.166109238989961 0.163349547627674 0.357765345924229
0.175487075865732 0.140709446656464 0.354364157154285
0.171494953277787 0.150347283150936 0.368313026614256
0.171166935947001 0.151139187039615 0.380838741722118
0.166205725785931 0.163116607896252 0.396211756129882
0.166719878765122 0.161875332800755 0.405503840461058
0.171925387511766 0.149308122985556 0.408454773841674
0.176095954136708 0.139239484476839 0.406954395553933
0.174873321615966 0.142191180490213 0.421332154979505
0.171610373990968 0.150068632899796 0.432834678445992
0.17525317907284 0.14127412346606 0.441056278192517
0.170155060817559 0.153582069700541 0.461123667626316
0.16964098756914 0.154823152308926 0.466324156184303
0.175053759203997 0.141755565618028 0.469797383665137
0.175823264524178 0.139897815437727 0.472569121607726
0.175215609050162 0.141364825524347 0.478212232776286
0.175523263726917 0.140622081431198 0.498044553520338
0.169830185466548 0.154366388179032 0.51810985317314
0.169606558016673 0.15490627260144 0.526928287908659
0.1671078202541 0.160938759196657 0.534096753339859
0.172323476018159 0.148347052314395 0.539019434722548
0.169320360159417 0.155597215349949 0.548384804081003
0.168673460300337 0.157158969763238 0.565672254048069
0.168650200035285 0.15721512501059 0.576886303565012
0.169993255444449 0.153972702426767 0.58241489006505
0.173904980828983 0.144528961951148 0.576257357109858
0.16868197830527 0.157138405480204 0.605904385594574
0.176412736546815 0.138474704086039 0.5915002730445
0.170173948365203 0.153536471126858 0.615629645457978
0.174521862047885 0.143039678946098 0.620880174090246
0.170719598728498 0.152219154619479 0.638183973966129
0.166962074401796 0.161290620809949 0.651238089938578
0.167100649377319 0.160956071224636 0.658555649407625
0.168773828209592 0.156916660195487 0.667856200124
0.167033272069235 0.161118734435608 0.681960319056821
0.174033489539651 0.144218714478968 0.682035449253513
0.170913329157866 0.151751447989454 0.687099880743159
0.17142976500385 0.150504661565983 0.705918247557952
0.167918024730955 0.158982752560338 0.715841205429258
0.172096153959549 0.14889585631132 0.715697714025298
0.168611908775446 0.157307568289414 0.733687417733118
0.175831850359207 0.139877087398355 0.729913720837173
0.167628439753696 0.159681872539898 0.763309914235999
0.172929049265515 0.146885069167619 0.759926115751335
0.17370556201368 0.145010401559642 0.768019173295799
0.172319400146129 0.148356892339929 0.773292189773851
0.173617601898115 0.145222756063588 0.777727064536729
0.16705584764089 0.156073444370942 0.796796216439456
0.166558177600688 0.144107713910339 0.801054402860137
0.175945821706921 0.131399000180675 0.798091071526518
0.169036234578406 0.12489094773597 0.803655744561409
0.175872716337401 0.112669943882151 0.802993993307783
0.17743751069398 0.0961025835042388 0.804726517271185
0.171781677197521 0.0926795038182708 0.805659302366294
0.173310278741423 0.0694589199811285 0.805467540210565
0.172411357020181 0.0550318691568725 0.80502401576416
0.174445345949495 0.0391127274956849 0.805009647355266
0.180262123428269 0.0306152480608011 0.805607754490757
0.176557505168497 0.0218716275341199 0.804972991688968
0.17720860390068 0.00266187982685363 0.804536420977196
0.179338947735325 -0.013059511080763 0.805361008591875
0.184819532048252 -0.0225235011308425 0.80551509275672
0.186048976207353 -0.0415350765377713 0.804951773431005
0.183563387830258 -0.0524593726862686 0.805195264187403
0.186577861176373 -0.0683577032479553 0.803732563913449
0.184530320871849 -0.075317519988458 0.804185321656762
0.184117920157874 -0.0995259579707981 0.801552795130575
0.176759175431135 0.137638326632978 0.135385477822078
0.186735116278225 0.1135542749425 0.11080648538387
0.17953420935278 0.130938802103298 0.142132261820991
0.178984497931977 0.132265922870792 0.149781557968023
0.178280223843756 0.133966190926202 0.159688242356333
0.183015918767182 0.122533212014807 0.157678735921991
0.180800542604097 0.127881603193485 0.181681581883994
0.180955483905601 0.127507541802022 0.184392189527037
0.179801722443601 0.130292968371325 0.190129899201406
0.186779830426669 0.113446325438897 0.192371016105084
0.183246098822372 0.121977508203779 0.20919465960247
0.186589929744586 0.113904786241086 0.208929703308892
0.18693312698493 0.113076234808879 0.227087606234617
0.185719418391609 0.116006386555644 0.2277678797211
0.179258366071575 0.131604746693872 0.251787664621849
0.183582998275329 0.121164160975293 0.260878995358771
0.182058473056183 0.124844690435535 0.268951627248412
0.176878502785982 0.137350244914544 0.294588261091457
0.179053852350988 0.132098486491806 0.294095329719429
0.178499789535229 0.133436112456017 0.303931078454437
0.182853775424457 0.122924660671862 0.306274609132013
0.184187091736701 0.119705750347908 0.308109008184787
0.185988734532034 0.115356199876864 0.318539634463954
0.187336282170953 0.112102932091043 0.317840960950414
0.178878291085622 0.132522328879679 0.349357875304593
0.178761069967277 0.132805325693383 0.359551220516957
0.182342568461769 0.124158823454363 0.363016553337623
0.176407547346963 0.138487231922697 0.383558154903042
0.187618233633635 0.111422241045904 0.373467268729153
0.182593347096769 0.123553390272592 0.400444337671378
0.1830671463322 0.122409537732572 0.401348003956298
0.179358364158582 0.131363329956009 0.42053922177075
0.177601840453612 0.135603953307177 0.432590854914887
0.181025416548053 0.12733870946816 0.429267174816659
0.176062259955262 0.13932082942666 0.457696780266178
0.17845736550364 0.133538533128449 0.458401704776848
0.185372132566345 0.116844808705018 0.454420204530068
0.183757729415744 0.120742322686334 0.468952902131665
0.176807811161264 0.137520909593687 0.487284656191014
0.178150614123295 0.134279096471154 0.501632188675879
0.178194773444117 0.134172486439922 0.513609266828061
0.178617993272456 0.13315074339048 0.513002026904303
0.182795995750072 0.123064153145391 0.515397660027303
0.176749922533118 0.137660665104863 0.539707020328885
0.180319070087237 0.129043980673597 0.538615032392721
0.18105918973545 0.127257173781103 0.547771430094655
0.185458568707963 0.116636133399643 0.549488877590193
0.178223318566373 0.134103572418631 0.57782434253523
0.182703236195252 0.123288094520677 0.579826900635078
0.177185845571953 0.136608253792357 0.58844770850686
0.180999167765038 0.127402079636113 0.590474767569535
0.177780231149786 0.135173280069073 0.606766090938218
0.186406448879058 0.114347748235079 0.607579480996188
0.187390573151924 0.111971862068467 0.613625116293339
0.181597163836545 0.125958389410033 0.628677394154454
0.184204243755056 0.119664341712573 0.636561202482038
0.177489815113645 0.135874406402256 0.655772224625495
0.182295083273716 0.124273462839371 0.659462986522468
0.178502747541146 0.133428971198015 0.680997522681239
0.179018812020791 0.132183081332197 0.688869419070077
0.178750060752988 0.132831904287832 0.694027124553397
0.178826014460971 0.132648535815907 0.704051041772412
0.181329918756815 0.126603576105996 0.709471994332099
0.183131013816657 0.122255347985402 0.712259525678996
0.178400571896355 0.133675645025414 0.736017688992493
0.184580189592006 0.118756728174291 0.725383708082603
0.187368507122754 0.112025134175356 0.744599937261465
0.186926711900435 0.113091722192873 0.742614562847989
0.184335568368172 0.119347296050514 0.768147509236155
0.1830833925368 0.122370315925091 0.770864990679741
0.187005941358815 0.11290044535991 0.771391384855686
0.178706871236744 0.129624802736976 0.796076602439513
0.182846704540803 0.117661694232955 0.796920156914692
0.186917804645786 0.107090493630844 0.797238394681864
0.180480863191355 0.100940200346688 0.803087406508136
0.182505203930571 0.0844194086482167 0.804463094340771
0.187597016202557 0.0699278176973819 0.80324194446607
0.185152814664262 0.0591453790961123 0.804621126904394
0.187071785089693 0.0471472779451648 0.804542226569788
0.190221629306415 0.0246739799240773 0.804497782065496
0.188042491080124 0.0135970728481397 0.805358873857731
0.189592012424537 0.00758628351885383 0.805167141416726
0.18942834052305 -0.0023180735047222 0.805366430794278
0.194869924761201 -0.0209839962087697 0.802910026452599
0.186741698618504 -0.0270013018165443 0.805235554200633
0.196148255228787 -0.0510560957031932 0.799603310333718
0.193106616065277 -0.0755851190809935 0.799449911484022
0.190972643018738 0.103323980414636 0.0971571619245732
0.193395840175682 0.0974738649740383 0.103023413397308
0.198203255443718 0.0735493008642902 0.10199508026541
0.187696372040559 0.111233598244166 0.140295173164908
0.200003411132623 0.0598757608867482 0.102236072438808
0.200694307340273 0.0546278831760242 0.114569924224739
0.195268774496776 0.0929522015346175 0.159155400789938
0.189972171716998 0.105739331800062 0.182137348782032
0.189894951238206 0.105925758527254 0.193315638709715
0.201060157560379 0.0518489748620109 0.149173492739422
0.196845706701886 0.0838609073032877 0.191059773398803
0.189529732635196 0.106807474231872 0.218902536790758
0.19753286235667 0.0786414419123785 0.207898751702997
0.189235451051915 0.107517932821386 0.249320722228624
0.189221233985898 0.107552255854981 0.244251224804242
0.193189898638795 0.0979710518254455 0.257650331181158
0.200730981937015 0.0543493119569849 0.222802222436657
0.192371786109185 0.0999461501899784 0.27619337913006
0.197032146656409 0.082444755251944 0.265450492505784
0.190362218162584 0.104797676381174 0.30061975663869
0.200705917272542 0.0545396969852396 0.256493762845568
0.190503191869168 0.104457335746801 0.324157415478314
0.20101560350668 0.0521873964986375 0.27657797635499
0.194001247321086 0.0960122828328466 0.327572208697384
0.19361048659821 0.0969556626696551 0.337092860303703
0.200258835039249 0.0579356236975072 0.313155541149796
0.198632753700399 0.0702869377146986 0.335076939518853
0.198892813287227 0.0683115890384986 0.34017133265188
0.19164675901453 0.101696520434981 0.380636508151078
0.194779074654099 0.0941344415363013 0.393066311563758
0.190823761365128 0.103683412521969 0.409111437579602
0.194550148432231 0.0946871183259171 0.401283683029364
0.200743923298755 0.0542510125553221 0.381133104146669
0.189053182050982 0.107957969115438 0.437512624524684
0.195430276414111 0.0925623014154386 0.427216031425047
0.194700040582278 0.0943252466643817 0.445899693609095
0.191446329394736 0.10218040034139 0.465879024508819
0.194795607990621 0.0940945265310392 0.453618561410436
0.199771237555533 0.0616392942897945 0.448498288868179
0.190047493075867 0.105557489953943 0.491720173832784
0.190138409982919 0.10533799712389 0.498386770587441
0.198585792385166 0.0706436443180187 0.473003894323514
0.193112049939965 0.0981589952099756 0.515200746384571
0.198450522488798 0.0716711211896823 0.505766905063494
0.199965538331844 0.060163433369027 0.498592413396084
0.190673123276698 0.104047085038068 0.554546180426788
0.188268499666224 0.109852359970877 0.555519690206153
0.189729067700655 0.106326236813386 0.570691854129182
0.193024040661979 0.0983714684025048 0.571636904645357
0.199094407875394 0.0667803261163267 0.550307849182666
0.199608535187252 0.0628751414728164 0.55560312697491
0.196211212840973 0.0886803666568188 0.593231524037453
0.194780443424146 0.0941311370330908 0.607386615957287
0.197255719093723 0.0807465539917234 0.604004326726374
0.195429849716108 0.0925633315555452 0.625567420632078
0.193295550650197 0.0977159853066278 0.635122767380945
0.188438027250255 0.109443084178312 0.660335595577137
0.190725142381396 0.103921499810003 0.663144361606074
0.193028044509626 0.0983618022592138 0.670702718847548
0.191020907264215 0.103207460218629 0.687943598442
0.192856054145364 0.0987770237292122 0.69035904881066
0.188518024103517 0.109249954690219 0.702950534275836
0.193499378017438 0.0972239025122522 0.705094073569235
0.199121893436349 0.0665715525536562 0.693251428115559
0.195575050464646 0.0922127859391572 0.722307514351777
0.190072564116004 0.105496963108824 0.74622600235792
0.200717952721356 0.0544482786754145 0.7166667040935
0.190892673594901 0.103517043682238 0.760723303100643
0.200579098539027 0.0555029809019053 0.731170004584471
0.194215800703623 0.095494305146871 0.772180996600395
0.195781757392571 0.0917137512703239 0.782294127768116
0.196616693831284 0.0856004327570309 0.781831852732695
0.196255010795649 0.0828537589564996 0.795460650603041
0.191072456426767 0.0837306566329203 0.800236064759355
0.195120208981439 0.0587313792140537 0.799617676865655
0.19174218321707 0.0565874176415175 0.802048673956615
0.200169361032488 0.0342647522237003 0.79812343073241
0.196409536589616 0.0312803561677929 0.801260761257257
0.202164931247525 0.00663118606003391 0.79946596701086
0.199302566975401 0.00227070325988645 0.801807127690801
0.20031086193678 -0.0126719992829011 0.80033140911371
0.198366348785231 -0.0278853115443314 0.800283708081207
0.201206557689956 -0.0473716171405929 0.7951495569714
0.207687039666634 0.00151280784887762 0.100941793803856
0.201515111320201 0.0483932579697399 0.16083547297243
0.201920097581966 0.0453170819063424 0.160644269434615
0.205966961774368 0.0145780965732626 0.140000537936426
0.204829188274151 0.0260664364039021 0.164270424780009
0.20809087009089 0.0273495682525624 0.17538640789164
0.211751781044146 0.0311446489080947 0.191976425517008
0.212039685001947 0.0331107380272427 0.202602681333666
0.207940007696747 0.0331107380272427 0.212781424176656
0.206457803891759 0.0331107380272427 0.21456356671736
0.208024339466993 0.0331107380272427 0.231652332605486
0.204036640666072 0.0331107380272427 0.241632155330739
0.202960891434293 0.0374114677220352 0.255646754546114
0.205817692583151 0.0331107380272427 0.259221240487402
0.211139388528878 0.0331107380272427 0.267147738624559
0.209488645653909 0.0331107380272427 0.28036020848677
0.208454910370411 0.0331107380272427 0.293926578553357
0.203134948948902 0.0360893696395874 0.294820273296846
0.209179828449035 0.0331107380272427 0.317480809246107
0.205794036081982 0.0331107380272427 0.320753955164711
0.21275263008785 0.0331107380272427 0.330318266578053
0.205656688064427 0.0331107380272427 0.336176999521694
0.210017778764999 0.0331107380272427 0.350802595729215
0.206989596703296 0.0331107380272427 0.35502408578102
0.205938143215812 0.0331107380272427 0.365608540681473
0.206127821879756 0.0331107380272427 0.376025631604716
0.21015301048751 0.0331107380272427 0.393006125119256
0.202534446730785 0.0406506368325492 0.406570370625806
0.212354956956302 0.0331107380272427 0.400928633756239
0.211616086410007 0.0331107380272427 0.4133149266118
0.209650465391495 0.0331107380272427 0.435411525649835
0.206091687693045 0.0331107380272427 0.436227204797211
0.211905957397587 0.0331107380272427 0.451298427306273
0.203942972841219 0.0331107380272427 0.457069958269162
0.208828627298315 0.0331107380272427 0.469165083953759
0.206835832766773 0.0331107380272427 0.483280233760089
0.207040488492919 0.0331107380272427 0.483571855677332
0.206814641303301 0.0331107380272427 0.503450943977757
0.212455141766513 0.0331107380272427 0.509888644414247
0.206967593167118 0.0331107380272427 0.514598866990653
0.211155504669924 0.0331107380272427 0.531497329570783
0.209721392971449 0.0331107380272427 0.543215774033014
0.208027035248451 0.0331107380272427 0.552103365812847
0.206056148376983 0.0331107380272427 0.554536469375976
0.204629361576552 0.0331107380272427 0.570475504917913
0.212393698468958 0.0331107380272427 0.580681025757563
0.202074446269875 0.0441446872253693 0.594225015521505
0.207618318298361 0.0331107380272427 0.599959724737135
0.210416636180546 0.0331107380272427 0.61007969261371
0.203526399337627 0.0331160087395049 0.621213000067671
0.210964611025065 0.0331107380272427 0.620283557011426
0.203810963341632 0.0331107380272427 0.635698717083329
0.203688468794311 0.0331107380272427 0.650348611701649
0.207282413102957 0.0331107380272427 0.648440488895174
0.206665526476353 0.0331107380272427 0.662593224081496
0.208609132775948 0.0331107380272427 0.679002873316064
0.206989368246633 0.0331107380272427 0.685385273966923
0.205442102885996 0.0331107380272427 0.698898832269953
0.212579220523656 0.0331107380272427 0.704265519443119
0.207293949039253 0.0331107380272427 0.712455410184661
0.209801496651085 0.0331107380272427 0.721933642051008
0.211357912656252 0.0331107380272427 0.733611806685218
0.208399704917138 0.0331107380272427 0.744383199685025
0.204004628914802 0.0309392527570413 0.754693942243924
0.206577820680131 0.0302436090587231 0.757809992187546
0.204221639856439 0.0278351327094074 0.766014059468823
0.208784960799229 0.0213586334101047 0.769909954259736
0.214002833963214 0.00599888738977312 0.774120385047601
0.207549058507972 0.00256087880226663 0.778472750137731
0.205772219976182 0.0133987002504213 0.795046268181665
0.215693405693488 0.0320795147859166 0.201901472675746
0.216451410042271 0.0307077158133926 0.200617324756431
0.216021786418913 0.0331107380272427 0.2139835028791
0.215757130215351 0.0331107380272427 0.23209061831877
0.217826011059357 0.0331107380272427 0.240819782033832
0.212661336535662 0.0331107380272427 0.253306891948103
0.222634810976608 0.0331107380272427 0.255903941903402
0.220179670853783 0.0331107380272427 0.272455367915307
0.21459964274421 0.0331107380272427 0.271278345243809
0.218400926773044 0.0331107380272427 0.296467577951196
0.213181606540854 0.0331107380272427 0.297146701748418
0.221814514799145 0.0331107380272427 0.312835583391937
0.217904832938712 0.0331107380272427 0.319851920154024
0.221386323887443 0.0331107380272427 0.330109272373469
0.221770339275991 0.0314185442545191 0.33994121422458
0.218230854048402 0.0290588800366114 0.343787483817933
0.214367014909306 0.0325312287205078 0.354824677827448
0.222942636852663 0.0225749436666074 0.360398765255277
0.214317590265485 0.0325886106626949 0.377392732602603
0.213312272396609 0.0331107380272427 0.395432388040448
0.217033146383953 0.0294358538161454 0.391911720440627
0.219174605715933 0.0269496225338728 0.400974744015825
0.21851129249934 0.0277197282484243 0.414992518900488
0.216374318835489 0.030200751676289 0.430500257374782
0.220121821207245 0.0258499066763789 0.42662601098831
0.212551747272321 0.0331107380272427 0.453160288019319
0.218598698678433 0.0276182497970345 0.461376922797713
0.220498874567351 0.025412148253896 0.457308411990226
0.214378732548945 0.0325176245573142 0.479926342111016
0.21720638473136 0.0292347243376727 0.478024499094422
0.220248853035988 0.0257024229012965 0.487410314538641
0.216435408914459 0.0301298261802481 0.506966636557996
0.22264548390876 0.022919937817894 0.514144519980104
0.214416397419845 0.0324738956950022 0.533502253565697
0.219801099996825 0.0262222635520514 0.532985860250888
0.219149892910696 0.0269783140661076 0.540784455999001
0.214248182117049 0.0326691934257243 0.56308856860759
0.217758281847342 0.0285939725597333 0.558351896095972
0.222957245502743 0.0225579830443438 0.570200994422023
0.222316231566526 0.0233021993256409 0.574378309749767
0.22277697830687 0.0227672730060323 0.592786438624655
0.218821894711737 0.0273591195152703 0.597712047635235
0.215397989206622 0.0313342690066678 0.610076998146071
0.213535137372302 0.0331107380272427 0.631688592219869
0.217820906688957 0.0285212652064132 0.63284468991599
0.218350117874459 0.0279068517619581 0.643673873271885
0.219339897180872 0.0267577193748034 0.645405745349138
0.214976928605087 0.0318231197747573 0.662219386557218
0.219791661863957 0.0262332212110792 0.664057705589998
0.223431362958211 0.0220075333432209 0.675338033144574
0.213804066828189 0.0331848106534762 0.699325630743611
0.221152890385503 0.0246528368058983 0.699696423599653
0.214540567130153 0.0323297348354113 0.71993748231397
0.218077916021029 0.028222877732185 0.719714751610849
0.216558653495379 0.0299867393945797 0.727762393573465
0.220985648840392 0.0259382028825241 0.739084706858135
0.213923224902514 0.0331107380272427 0.755918787344713
0.218191685567881 0.0331107380272427 0.761538406441042
0.219594568137177 0.027146693836627 0.772164976800713
0.218183826137107 0.0202254985685884 0.776889716160394
0.221393699253357 0.0119671730524605 0.779015814732033
0.221504899565359 -0.00237348193359154 0.779089469613691
0.221303924937305 -0.0139986520964734 0.778956351619874
0.226424192661512 -0.0187308391001168 0.782347823338721
0.223273193431305 0.0331107380272427 0.220217272801627
0.224293846293228 0.0331107380272427 0.226502152768248
0.230067369855509 0.0331107380272427 0.247505299098529
0.225907560467121 0.0331107380272427 0.24551165410569
0.229788043663573 0.0331107380272427 0.255080213157456
0.226473130972105 0.0331107380272427 0.271738902158698
0.227936065907352 0.0331107380272427 0.274293327226272
0.231830779429962 0.0331107380272427 0.294052295295489
0.228541899018952 0.0331107380272427 0.301006191384318
0.227348449550275 0.0331107380272427 0.308894379088462
0.2260635516326 0.0331107380272427 0.318383409533562
0.22870569071343 0.0331107380272427 0.325875459715429
0.228039326397424 0.0260055818872502 0.340396958170568
0.226854947654341 0.0242759912892168 0.34199786002866
0.228789005723388 0.0174452948192215 0.346095181575789
0.228885427947257 0.00300845740890277 0.346129441927152
