ply
format ascii 1.0
element vertex 832
property float x
property float y
property float z
end_header
-0.461581532979216 -0.0309247377008305 0.712421586998184
-0.460990602180399 -0.0323513708497562 0.727600312190007
-0.459252188297746 -0.0357974830760429 0.734970839254059
-0.460818292723307 -0.0327673626779952 0.736913109656271
-0.46166547855131 -0.0307220751621801 0.746904195516975
-0.459463614171348 -0.0355219475130888 0.756466542777902
-0.458843749463002 -0.0363297709287336 0.765403026139902
-0.460040004607075 -0.0347707808725864 0.774676363500045
-0.460663246558244 -0.0331416772324838 0.782825751966644
-0.459271728944299 -0.0357720172096529 0.786162922287728
-0.461808268055595 -0.0303773508043703 0.800121167699168
-0.461621175002105 -0.0308290333915312 0.81341534718622
-0.460602491347936 -0.0332883532851945 0.819854632203331
-0.461356807401721 -0.0314672732378307 0.824455183233941
-0.459765137439161 -0.0351289947399736 0.825201682793193
-0.457491329263923 -0.0380922792469175 0.835522005806198
-0.460216049683956 -0.034221305991441 0.845531042064348
-0.457715554631571 -0.0378000630585638 0.85870360195363
-0.461128041093497 -0.0320195639617596 0.862355943778265
-0.46085782346092 -0.0326719270351188 0.870807430665418
-0.459927974191159 -0.0349167817531375 0.880357183636478
-0.461239485740626 -0.0317505127832069 0.890485632476836
-0.458798227965599 -0.0363890956991595 0.898429522070188
-0.454785802683564 -0.0356855548713451 0.910628283865088
-0.454025473162665 -0.0353600719406686 0.911657936504322
-0.452709383561364 -0.0322475464350721 0.914324344263625
-0.438893615166579 -0.0381167659808512 0.917498802218654
0.00729556573880054 -0.0422627694321571 0.567180213171051
0.00912735675018075 -0.0398755329083845 0.570789182733294
0.012385140356791 -0.035629906653024 0.575744492783961
0.00689520507489604 -0.042784529607645 0.592127998165995
0.00694944498680349 -0.0427138427782268 0.605566072851877
0.0105261212895971 -0.0380526274699867 0.619705230984467
0.0122708901092485 -0.0357788004744751 0.623727722898813
0.0125409062532844 -0.0354269085844907 0.624136024997576
0.00773797030353039 -0.0416862165783412 0.643192428985481
0.0100671716027027 -0.0386507423468048 0.64688018522763
0.00838964953903356 -0.0408369316636797 0.662348832094986
0.0106576767322632 -0.037881181079168 0.667451716341057
0.00793572922735309 -0.0414284921311099 0.680397433571411
0.0100961482429825 -0.038612979253973 0.691252822279307
0.00514451322689684 -0.045066075643984 0.70968585185269
0.0116683633759784 -0.0365640286010871 0.706977935356349
0.00769912499348346 -0.0417368407720095 0.722828526111925
0.00653093466932236 -0.0432592560427643 0.739600853029234
0.00523104026008055 -0.0449533114189023 0.73823100293404
0.0118917057038767 -0.0362729632125408 0.750475904209519
0.0109806246257006 -0.0374603071903359 0.759959415047781
0.00691570628345319 -0.0427578119124788 0.776141930772165
0.00768652141471872 -0.0417532660756446 0.784844965490505
0.0110393128011445 -0.0373838232710111 0.789764745919777
0.00744417172670925 -0.0420691023381587 0.805742547639853
0.00780784116430446 -0.0415951590997579 0.814958983983205
0.00821557532293075 -0.0410637895988616 0.82241051667971
0.00907601982049117 -0.039942436497719 0.830296133771738
0.00808630941054786 -0.0412322522157223 0.841674948836709
0.0102516844850657 -0.038410280476893 0.845893322275969
0.0128236245145385 -0.0350584629730577 0.865701954258679
0.011585472669799 -0.0366720538725523 0.870747773961073
0.00675180632714357 -0.0429714104941484 0.88522860414298
0.010096621061502 -0.0386123630648806 0.89022929154962
0.0116388440684671 -0.0372135196877246 0.903021253268791
0.0155624918094219 -0.0376484253150234 0.910805598348873
0.0197980520680566 -0.0378492528987903 0.914233779656591
0.0318691757747666 -0.0443611151020801 0.917543734240094
-0.464227034255806 -0.0245379326396094 0.451369217070091
-0.46436620529055 -0.0242019440400425 0.471060245651174
-0.464088772898214 -0.0248717250842615 0.479410043218488
-0.463187347530389 -0.0270479584327318 0.478584471518968
-0.465427365230919 -0.0216400773201551 0.494090888410151
-0.463556583674007 -0.0261565435270915 0.495034019411119
-0.463800875680651 -0.0255667704514698 0.508722194421072
-0.462509620805326 -0.028684135483961 0.518763079526178
-0.465499831422809 -0.0214651284568831 0.523070868984654
-0.463900884554247 -0.0253253276724783 0.531331259117807
-0.462969392057794 -0.0275741494906637 0.540135759765265
-0.464198474508891 -0.0246068819679508 0.545505034560234
-0.463468438988022 -0.0263693436234477 0.55901818481164
-0.465431648424785 -0.0216297367754359 0.566490667884623
-0.4642867603825 -0.024393741014517 0.575257527136759
-0.464621568110919 -0.0235854436557806 0.590361974929205
-0.464755574320854 -0.0232619240463131 0.591905228353468
-0.462902519216727 -0.0277355948105226 0.598696816766515
-0.465306269293204 -0.0219324287753356 0.608041305663368
-0.463311563894702 -0.0267480736013383 0.616027112549718
-0.462683346036755 -0.0282647256741189 0.621654147747774
-0.462082665096182 -0.0297148977475104 0.631187410348866
-0.462787215747674 -0.0280139620092991 0.639817984472277
-0.462374049845245 -0.0290114327344533 0.644555669428453
-0.464890533096602 -0.0229361047395421 0.657531893063194
-0.463659152187601 -0.0259089212305007 0.668189256236096
-0.463984991524158 -0.0251222754850296 0.674716070928387
-0.462228143909437 -0.0293636808235105 0.688020526343301
-0.462560896906712 -0.0285603440245698 0.694106570742361
-0.462433202321945 -0.0288686260229553 0.696944847128019
-0.465353035737561 -0.0218195245911057 0.70366567775582
-0.465587730808893 -0.0212529205668738 0.719957625718856
-0.463577594050382 -0.0261058199914956 0.722174543681867
-0.464191779190635 -0.0246230458960884 0.738937085382752
-0.464754967752336 -0.0232633884322567 0.742622717673425
-0.463749979324432 -0.0256896451249297 0.754550327007816
-0.462671971106435 -0.0282921871851693 0.758115831091617
-0.463218130933851 -0.026973640722597 0.767660661580544
-0.463451261457692 -0.0264108138501377 0.778795669359798
-0.464634411698174 -0.0235544364932411 0.786764983290852
-0.465156677252514 -0.0222935759087918 0.800654291198542
-0.462328069176431 -0.029122439888712 0.80313879229679
-0.464426575564878 -0.0240561973049948 0.817809074057337
-0.46518844910866 -0.0222168718627805 0.821244586212205
-0.463460557628102 -0.0263883709094544 0.827565799744486
-0.463062230846719 -0.0273500168273276 0.839827872221952
-0.462806849476422 -0.0279665619950742 0.846300589575751
-0.464176271930381 -0.0246604837341094 0.857318117656593
-0.463583994192142 -0.0260903686824562 0.8596323053373
-0.464139064659662 -0.0247503100316979 0.868698906086907
-0.464040933033647 -0.024987220734121 0.885334237934334
-0.463119520902088 -0.0272117063986646 0.884378676960346
-0.465030699394197 -0.0225977133629014 0.891996464917903
-0.464040734243608 -0.0249877006557273 0.89800336386957
-0.461361974796738 -0.0241209016682309 0.909593944617213
-0.456054650469282 -0.02314390786616 0.914878087945835
-0.445640466221051 -0.0276668990246705 0.917629750323472
-0.443837966198058 -0.0287427711255996 0.917730355011025
-0.42779550202942 -0.0265145364318282 0.912735299360746
0.0178181710346807 -0.0285494432221745 0.571398858719008
0.0165850099481594 -0.0301565300389286 0.577561869431475
0.019594199165398 -0.0262348782993429 0.587693419925754
0.0160916088541012 -0.0307995428636932 0.591937403639893
0.0171078479947401 -0.0294751542307377 0.603006012690499
0.0195577604361713 -0.0262823661758258 0.614866910718758
0.0168540166781768 -0.0298059536429046 0.626549614809156
0.0171995521159047 -0.0293556430932419 0.639409103293453
0.0161820375938199 -0.0306816938356572 0.6461912440898
0.0171481384451113 -0.0294226466935312 0.656088770558101
0.0133971107982492 -0.0343110810971501 0.670857924532212
0.0169538747047956 -0.029675816128933 0.673452768830876
0.0168336000197934 -0.0298325611501388 0.683914166374487
0.0136844074330865 -0.033936668833098 0.696719508067553
0.0176222424315672 -0.0288047823490156 0.704244902947336
0.0143774285796347 -0.0330335060910015 0.722938278363818
0.0157508781638092 -0.0312435917445869 0.733193808756856
0.0183130217823768 -0.0279045411720063 0.73403498123659
0.015423907664994 -0.0316697079948132 0.752052657885509
0.0162629034718244 -0.0305763073716442 0.760212820850877
0.0178927412192383 -0.0284522614656007 0.775003503572133
0.0178509570655285 -0.0285067156348975 0.775521801460026
0.0172574721573343 -0.0292801602256547 0.785016115412052
0.0181239420033432 -0.0281509547375342 0.794261235848553
0.0127685898443935 -0.0351301855515775 0.815418251214284
0.0195246650493604 -0.026325496923641 0.819648916000064
0.0156842826251523 -0.0313303807402819 0.824605309799074
0.0133185247922752 -0.0344134963740853 0.841764120752587
0.0191460556819188 -0.0268189102576851 0.849360788146402
0.0142149702645324 -0.0332452258892712 0.863187558738994
0.0187229826790788 -0.0273702697295515 0.859713019089666
0.0169775080237142 -0.0296450165880734 0.875177588071932
0.0130060130974167 -0.0348207695441342 0.895472550272803
0.0204040350976387 -0.0251794795646079 0.896669928082424
0.0235848470329896 -0.0251108866576959 0.909263865318512
0.0211945760888462 -0.027813775434022 0.908666623077262
0.0284110471767682 -0.0270939427394419 0.914449944573094
0.0421069318855391 -0.0263479419205438 0.917912831459958
-0.467091840302338 -0.0176216790285041 0.457261048801214
-0.467638271422044 -0.0163024776084056 0.469651966569716
-0.468451414150193 -0.0143393774059643 0.470592675743065
-0.468411092178602 -0.0144367232566412 0.486753397417466
-0.46673467149156 -0.0184839608155427 0.490517506694546
-0.468620864302495 -0.0139302885501308 0.503192761374309
-0.466119953092021 -0.0199680223127485 0.511017572728082
-0.465712352844992 -0.0209520563571517 0.515841356792269
-0.468846227059277 -0.0133862147262542 0.528546823896311
-0.466120736689486 -0.0199661305411211 0.535150517045951
-0.468056946603201 -0.0152917063078273 0.542469277572811
-0.468933384932354 -0.0131757970070028 0.554242765737234
-0.466570500828246 -0.0188803038574581 0.563596154461734
-0.466233597937627 -0.0196936593851919 0.569341626397618
-0.468903517325673 -0.0132479037881278 0.574308781259672
-0.467952850134933 -0.015543017413317 0.587198212757875
-0.468425737240151 -0.0144013669504281 0.601628044418718
-0.465892015617283 -0.0205183120556334 0.60718415110363
-0.467089408057498 -0.0176275509869845 0.616452558538748
-0.465980560726286 -0.020304545252599 0.618175359627377
-0.466606206503479 -0.0187941027320577 0.633666584622175
-0.46784019971643 -0.0158149795814728 0.639407465164349
-0.467971170763812 -0.0154987875026062 0.647978785740586
-0.467682754706445 -0.0161950854599076 0.647846424838516
-0.465773358665314 -0.0208047752783475 0.666659752498058
-0.466923012495317 -0.0180292654099201 0.672022846614818
-0.465874095341994 -0.0205615754272784 0.672094584317071
-0.467633957810795 -0.0163128915871868 0.692772061874464
-0.46812069464597 -0.0151378049183999 0.696344485789579
-0.465915179725811 -0.0204623889506655 0.699867377262609
-0.466222236443671 -0.0197210884579902 0.712923680254653
-0.467494167201066 -0.016650375973087 0.720509606172688
-0.465693844793459 -0.020996738746177 0.724176830786069
-0.468739187718098 -0.0136446305554349 0.734795219269644
-0.466324568492191 -0.019474037038586 0.739353210828749
-0.468803705895245 -0.0134888698971455 0.7603591396222
-0.466625808287007 -0.0187467798404177 0.762005386492388
-0.467301520417743 -0.0171154664501337 0.770095376756501
-0.465734960150677 -0.0208974774931584 0.778017497911252
-0.467073270856827 -0.0176665096357018 0.78865018955485
-0.4658811632859 -0.020544511901242 0.801700868850605
-0.465985035690362 -0.0202937417336324 0.804779607318838
-0.466214993419815 -0.0197385746644141 0.814738648293583
-0.466400753308648 -0.0192901106214505 0.823652519411579
-0.468353062828612 -0.0145768185004009 0.830608142645641
-0.467156074438615 -0.0174666041055366 0.842342351312159
-0.468821781341421 -0.0134452319098451 0.846958222561062
-0.466774239315548 -0.0183884356382368 0.854386757297828
-0.468877032713496 -0.0133118432980401 0.860197036441789
-0.46695359304917 -0.017955437422063 0.871448984973751
-0.466895851317608 -0.0180948382935142 0.8751673106571
-0.466950217570323 -0.0179635865488744 0.884058780442782
-0.466360588023533 -0.0193870781975102 0.899687059480846
-0.467798523426355 -0.0157128970488571 0.90081654029538
-0.461316218785388 -0.0159958316788256 0.913269994710367
-0.454426106361263 -0.0176715760874319 0.916654462586492
-0.449143216041248 -0.0186026234029955 0.917689261941818
0.0206839292245763 -0.024814714436674 0.547592756376371
0.0215992559932735 -0.0236218373672679 0.550374913524705
0.0235699008464962 -0.0210536429936893 0.562747134685527
0.0264399490083604 -0.0173133234078716 0.565270594425185
0.0271415862644945 -0.0160291575332973 0.577464946121911
0.0273528323499137 -0.0155191643688815 0.585514738173574
0.0211887299406806 -0.0241568453352182 0.598284913337162
0.0209997050251204 -0.0244031874012759 0.606812574259362
0.0217538316446918 -0.0234203904563152 0.617286391526399
0.0261130318190978 -0.0177393701837351 0.626222862489452
0.0258070400422846 -0.0181381464311596 0.643416239091263
0.0275297707042928 -0.0150919973940342 0.651580413546613
0.0210551271709182 -0.0243309598546546 0.663351761286091
0.0273633836598629 -0.0154936912533012 0.661976111035164
0.023684736903733 -0.0209039857301798 0.681242745248505
0.0240976943918356 -0.0203658090537806 0.693031074844147
0.0211233556124353 -0.0242420428185202 0.698708641458859
0.0256128900004331 -0.0183911676918384 0.712268787595851
0.0261970032881727 -0.0176299364346424 0.71965724135119
0.0219322287536069 -0.0231878988175354 0.728850095360038
0.0236232820847233 -0.0209840752095975 0.736218986478891
0.021466583277206 -0.0237947398171294 0.748700563785008
0.0224359037492228 -0.0225314967835834 0.771009635214308
0.0266262885451633 -0.0170704809955458 0.776740511307916
0.0230460827076438 -0.0217362960829959 0.785515339431884
0.0268087524834211 -0.0168326893615789 0.783582561508203
0.0251694509720179 -0.0189690686849774 0.795223950876194
0.0204346619438937 -0.0251395658814789 0.814327537368769
0.0211222223844353 -0.0242435196700032 0.824540400958178
0.0258678464601739 -0.0180589019645341 0.83094832417485
0.0247746125067199 -0.0194836321911265 0.844494830290675
0.0218120103465245 -0.0233445704959278 0.856132125806653
0.0272702636785765 -0.0157185027750503 0.860463559959212
0.023539271920559 -0.0210935593871116 0.873696739592915
0.0254566761290472 -0.0185947495726176 0.88441320716556
0.0203652297785707 -0.0252300516410187 0.894280247255199
0.0245081336975629 -0.0198309141365448 0.900424308870339
0.0269473717188881 -0.0242750094399468 0.911950456402123
0.0345551670335665 -0.0202273600258336 0.915159571526972
0.0446121817017016 -0.0240725676875171 0.91774546310513
-0.47207849405637 -0.00558283190466075 0.46707391741638
-0.472511379902729 -0.00453775302342026 0.474218215186953
-0.471533343201699 -0.00689894249154528 0.474148893878535
-0.472083420239692 -0.00557093904607353 0.483396803670636
-0.472546982211425 -0.00445180144691565 0.49442081625814
-0.470928400675643 -0.00835940294240613 0.507356187844699
-0.469955952977207 -0.010707099364669 0.514192009920135
-0.470645613544836 -0.00904211146886586 0.518950201173601
-0.470451644070813 -0.00951039520374028 0.533825048880448
-0.471101539613382 -0.00794140857074079 0.541585000759288
-0.470617938331092 -0.00910892534522834 0.541036052724217
-0.469718854862404 -0.0112795048490395 0.554573981711287
-0.469759489119633 -0.0111814050741419 0.56174645151703
-0.472099419067241 -0.00553231445962342 0.570723308629866
-0.470050214306839 -0.0104795323842651 0.581909146132651
-0.470894678353971 -0.00844081582874207 0.583810580922377
-0.470831220197468 -0.00859401737081575 0.598158859678662
-0.471947608254482 -0.00589881818269981 0.608042170626131
-0.470600783255756 -0.00915034136076744 0.611360809789191
-0.470673865339925 -0.00897390560200073 0.623925712075034
-0.469262614175334 -0.0123809673034721 0.624133976912897
-0.469664547033255 -0.0114106155467141 0.636497866122035
-0.471769141106575 -0.00632967599161627 0.651731977832318
-0.4695212429088 -0.0117565823075182 0.652762999015429
-0.472449675192733 -0.00468672137115635 0.667380922442772
-0.471324250515943 -0.00740373688929237 0.676733258191615
-0.470872691597022 -0.00849389655556135 0.678566888149261
-0.471914177707298 -0.00597952666310916 0.695688921776636
-0.472278559921694 -0.00509983017922697 0.700254142125127
-0.469664015556153 -0.0114118986459418 0.700004233311544
-0.471107827111103 -0.00792622920847233 0.715123679295115
-0.470174314618898 -0.010179927727796 0.723288021466609
-0.469415901200677 -0.0120108996879519 0.730642739057965
-0.470530209870824 -0.0093207205838148 0.747483670070701
-0.472107995405199 -0.00551160934820882 0.751125693003251
-0.470803634382725 -0.00866061541889665 0.757338853279051
-0.472249359810181 -0.00517032548446373 0.767659602492164
-0.469970924558876 -0.0106709547691536 0.771134060066804
-0.470196800149524 -0.0101256428548015 0.784358034547124
-0.469383520387657 -0.0120890738859054 0.785266942840952
-0.471117141436381 -0.00790374243805913 0.80046711031486
-0.472142447992667 -0.00542843344428579 0.812935853200872
-0.471538786206721 -0.00688580191500252 0.811515844347903
-0.4713754544855 -0.00728011957153848 0.828984501491381
-0.4722812612238 -0.00509330865904687 0.834355251304339
-0.46988033506641 -0.0108896571504753 0.842739891085018
-0.470967509443675 -0.00826498602421692 0.851064726282952
-0.470944919894059 -0.00831952202126753 0.865334632492654
-0.470822075183175 -0.00861609538835023 0.870001155158808
-0.469349503458901 -0.0121711980166595 0.880911081644591
-0.471508714363061 -0.00695840176781024 0.884136833300012
-0.471238936869021 -0.00760970225274608 0.895854662546692
-0.468995398793459 -0.0111864417279083 0.905032360513078
-0.465996053494485 -0.0121961584615987 0.909956376564145
-0.466729173164948 -0.0114794663295386 0.909438502031206
-0.454281872305699 -0.00444031681435943 0.917776511527276
-0.447188075983796 -0.0044801238196911 0.916964227598834
0.0291680624816453 -0.0111368111660262 0.540136425521214
0.0296613338042003 -0.00994594884918633 0.547315961256216
0.030461611485102 -0.00801390761828655 0.562585674627774
0.0314825997300914 -0.00554902395021077 0.561431515864502
0.0290710358945601 -0.0113710540684776 0.585292779245002
0.0313408552095894 -0.00589122549399917 0.585491276442933
0.0278324310403898 -0.0143613107058368 0.597191393904084
0.0295681233924138 -0.0101709786894746 0.603001694471115
0.0309418355521313 -0.00685454416268663 0.611761120288229
0.0277392071508124 -0.0145863730843925 0.635241878790891
0.027638034335555 -0.01483062586713 0.637432498522288
0.0306478296661463 -0.00756433716004846 0.651869117141778
0.0288671790769801 -0.011863207962261 0.656849319088049
0.030073536905418 -0.00895080253177132 0.668683817995199
0.0300912546187651 -0.0089080281879133 0.676840918658138
0.0310370049773142 -0.00662478484568459 0.6933808302151
0.0306405885674774 -0.00758181871866119 0.694506874456625
0.030463841546608 -0.00800852377355301 0.707831339045378
0.0311316724683492 -0.00639623730491311 0.716498149217361
0.0291977040726526 -0.0110652500350054 0.732247786616907
0.0307077581697151 -0.00741965695396031 0.740369403245341
0.0276611797379487 -0.014774747922764 0.751157167437362
0.0297155344129852 -0.00981509700436754 0.760086542303484
0.0313642715326571 -0.00583469348926668 0.764974360858453
0.0301614421178014 -0.00873858057583188 0.781746874963372
0.0307138577732553 -0.00740493120836697 0.792584472305931
0.030272882392548 -0.00846953995314342 0.790119520887128
0.0286400196593603 -0.0124116193091004 0.809020434078836
0.0315479592448463 -0.00539123212325765 0.820013509892592
0.0282559605897212 -0.0133388199237732 0.824303299630726
0.0298287548101075 -0.00954175878609543 0.835132791913862
0.0313937433235133 -0.00576354229207332 0.849218006652636
0.0289194869687293 -0.0117369255405813 0.864013141259767
0.0289461720619698 -0.0116725020265657 0.868798557223115
0.0283055193031687 -0.0132191746056353 0.877470356950885
0.0312083974578567 -0.00621100679467043 0.886620845753686
0.0303387095361997 -0.00955347739913239 0.903797519890786
0.0307609167393547 -0.0137709578918884 0.909258863683278
0.0341206282102661 -0.0114597073872952 0.912025712338155
0.0481318663071704 -0.0116839048928156 0.917938758718749
-0.474156038426939 -0.000567196108800515 0.46388275692199
-0.474321297203611 -0.000168226128856667 0.480145166233135
-0.47606869148023 0.00405035683257152 0.484982827318851
-0.475960193786442 0.0037884202287393 0.493286038373389
-0.473850441633248 -0.00130497203274676 0.497603805154133
-0.473655458245206 -0.00177570357259615 0.507877165400896
-0.475969591796858 0.00381110903294817 0.51414445573155
-0.474433448851565 0.000102531900676443 0.524704940670241
-0.475502762803234 0.00268408414522969 0.537252619661944
-0.472921947752558 -0.00354655455208881 0.537640493948123
-0.475393825927014 0.00242108726121711 0.555353502277613
-0.475664140145037 0.00307368351246995 0.554959868193274
-0.475828770359894 0.00347113600995525 0.568370791594283
-0.474009466784284 -0.000921051356357469 0.573789377204961
-0.472651198645615 -0.0042002007180733 0.586990547552712
-0.474231765844243 -0.000384373950900344 0.590584308086202
-0.474981386654692 0.00142537077632203 0.600493312137725
-0.474148958182738 -0.000584289330376289 0.606469801819924
-0.473256238140396 -0.00273950616399961 0.615524702427576
-0.47480506845561 0.000999700988803554 0.625887860928357
-0.472871794924226 -0.00366763419043983 0.634184282696699
-0.475735353574218 0.00324560793902174 0.640440878449744
-0.475172557128836 0.0018868971277254 0.647871919261545
-0.472962307479197 -0.00344911755266359 0.655568253611996
-0.475765199324973 0.00331766195527421 0.670399615029435
-0.473172777600322 -0.00294099773177055 0.67829089300146
-0.475239742695485 0.00204909743392502 0.680206850648649
-0.475919029375687 0.00368904055000775 0.695809885472401
-0.475831622006618 0.00347802049415034 0.699015600062825
-0.472726521513159 -0.0040183552296914 0.709470528536287
-0.474058037594505 -0.000803791047585493 0.712607701843193
-0.473224348731453 -0.00281649400756522 0.726051590885778
-0.474505654254795 0.000276851164429106 0.734739861659955
-0.474226112649558 -0.000398021970179548 0.749919216110543
-0.475168019265301 0.00187594175603351 0.751143633431688
-0.472925402742108 -0.00353821346945711 0.76059889465473
-0.473125391114988 -0.00305539882733636 0.769780578517473
-0.47535065406913 0.00231686117640077 0.777790556199284
-0.475717400339513 0.00320226499631001 0.793113948077553
-0.472767509541734 -0.00391940137520845 0.796076448289504
-0.47534654273422 0.00230693553590234 0.805292361592619
-0.472855283142797 -0.00370749715710463 0.81043855760894
-0.473244298532845 -0.00276833092647917 0.817531025806194
-0.473607283108345 -0.00189200864137406 0.823417938884452
-0.473488302906488 -0.00217925225835265 0.835185344372083
-0.474111679750715 -0.000674287426549202 0.844128501916696
-0.475432545282948 0.00251456405543846 0.850933119604408
-0.473578817889267 -0.00196072975932848 0.861650889824698
-0.473685364193817 -0.00170350422586251 0.867660184383471
-0.475709060381434 0.00318213055640688 0.883755142880209
-0.474697347472092 0.000739639529444415 0.888017024996081
-0.475198363001904 0.00219167927475895 0.900930554545777
-0.474531620531409 0.0019359732549341 0.904810827252241
-0.47364204636684 0.00211328349563575 0.906928573145679
-0.463429407682825 -0.000841891381495183 0.915887704998045
-0.461748660288633 0.00259554324824213 0.917059065666079
-0.4540976609233 0.00406536113078482 0.917604561504692
0.0352043301313682 0.00343602806004837 0.530019818435844
0.0350370771153767 0.00303224356049428 0.544072711089594
0.0356334210687378 0.00447194522053917 0.550370426336266
0.0337163106706923 -0.00015636870299049 0.563022317571682
0.0341285951486954 0.000838974075361204 0.579229415053928
0.0347650009061186 0.00237539348610355 0.581968452930713
0.0316713585887039 -0.00509331975373032 0.601747973066741
0.0335026621209442 -0.000672161929373841 0.598985002032877
0.0353562138288462 0.003802707742403 0.607999425477327
0.0347086764308407 0.00223941417399655 0.621576325610731
0.0316522905810899 -0.00513935399631847 0.63142440596931
0.0328683646312313 -0.0022034915316166 0.636466176423242
0.031721777598359 -0.00497159749681729 0.654535774537112
0.0344832827361227 0.00169526565933393 0.665986154807161
0.0330869303572578 -0.00167582719157234 0.675445390245189
0.0340891846101929 0.000743828618809096 0.685871998142851
0.032182996993064 -0.00385811537889154 0.692334344986392
0.035062315175684 0.00309317362797791 0.705651583047587
0.0346205303589239 0.00202661073170524 0.715349107456693
0.0320211142838727 -0.00424893481093521 0.727393380655193
0.035048834239242 0.00306062776838712 0.733499957238905
0.0356769667486869 0.00457707379165493 0.738406122848606
0.0320348726184427 -0.00421571925302074 0.757520835891786
0.0356793086188471 0.00458272756635636 0.763946003229433
0.0332620778011813 -0.00125298385703796 0.774129857420568
0.0330841914462803 -0.00168243950760111 0.791152156202232
0.0339445512982941 0.000394652915651331 0.793055375623604
0.0349597442240783 0.00284554544550568 0.804385801846003
0.0351274094782045 0.00325032517595556 0.810312895109121
0.034677588656695 0.00216436164802947 0.824382918467095
0.0351423291428639 0.00328634443272326 0.839721268815316
0.0326116112828453 -0.00282334894747509 0.848610472371748
0.032305426999008 -0.00356254319809854 0.85788644850915
0.0329381423905607 -0.00203503311869145 0.868308808036911
0.0326885212629737 -0.00263767183036543 0.87845372253794
0.0319173020291364 -0.00449955976425814 0.885093277217955
0.0334654480368787 -0.00076200467583432 0.894498715796327
0.0376146526761661 0.00472697032910738 0.907481229751665
0.0418811828545833 0.00375737593402348 0.913336168556747
0.0479233170328379 -0.00496144469523893 0.917527972782526
-0.478808528901394 0.0106649094934412 0.473909509583005
-0.478313579692567 0.0094699964008045 0.477323344299587
-0.47876202128795 0.0105526301823126 0.480077321111585
-0.479122911133732 0.0114238953425219 0.496737980055116
-0.476974341994778 0.00623679058756328 0.506916284202627
-0.476529783996598 0.00516353263909373 0.505014141232516
-0.478754748172089 0.0105350713273592 0.521394400691058
-0.477073636710941 0.00647650923799473 0.523378714229767
-0.478427705954537 0.00974552157027522 0.53538258805043
-0.477598402835177 0.00774340673219979 0.545325530425233
-0.477557451141451 0.00764454059780394 0.554603624812211
-0.478794432348084 0.0106308774032587 0.558631812315425
-0.477660755962304 0.00789394049736519 0.571013997426259
-0.477593203290961 0.00773085392203505 0.578234894749075
-0.478964954911059 0.0110425552874825 0.588856964141092
-0.477632162081184 0.00782490876176546 0.591386095862999
-0.476572003653926 0.0052654599084128 0.607254006447106
-0.478937274986383 0.0109757300379249 0.608179698378871
-0.478511263225912 0.00994724666806335 0.622553470396224
-0.477243636514938 0.00688692507040419 0.628744817718021
-0.477785158524563 0.00819427485036498 0.639087317805858
-0.478652664408055 0.0102886193197302 0.641136246244232
-0.476910329841966 0.00608225158008498 0.651834798724712
-0.477569967151334 0.00767475691861002 0.66799675847466
-0.479331541681135 0.0119275740395869 0.672024223190838
-0.477730731071299 0.00806287535452974 0.679722374084606
-0.476808267189002 0.00583585053908824 0.68951882838227
-0.477693186017695 0.00797223357691888 0.690679569795144
-0.476832148035392 0.00589350400232624 0.709655861290288
-0.477436092266646 0.00735155435633515 0.714848710208966
-0.479594062825376 0.0125613561464225 0.718747808487386
-0.476954728315616 0.00618943897732019 0.728851672949617
-0.477000956879546 0.00630104460333047 0.732042691637689
-0.478458714115232 0.00982038189237097 0.750058489148376
-0.476754621275406 0.00570633784691894 0.758670310151229
-0.476827847820237 0.00588312236457643 0.76739603157424
-0.477734109740328 0.00807103218312354 0.773964749544967
-0.477473043792418 0.00744076323100465 0.78524140003988
-0.479626456798574 0.0126395621158566 0.783569786884901
-0.477629158498009 0.00781765747052951 0.795924521581542
-0.476726231301739 0.00563779838745732 0.80575024767781
-0.478946261695828 0.0109974258737475 0.821472633068955
-0.477747771355976 0.00810401424090441 0.820330337945455
-0.47721718151062 0.00682305704018707 0.833338277270715
-0.478221839515662 0.00924851602150601 0.839061002751505
-0.477958399826985 0.00861251635223788 0.845288287231879
-0.478774569463367 0.0105829241575873 0.861616723002908
-0.478419779358194 0.00972638507388239 0.861955685661303
-0.476374880588465 0.00478956273032217 0.873790860841192
-0.476115945114811 0.00416443719804742 0.878986909088686
-0.478222950351959 0.00925119781755907 0.88775619881375
-0.479218312867291 0.0126030897732384 0.902954995680205
-0.475896417696669 0.00602726256522444 0.905536235549135
-0.474302297744255 0.00569890775814984 0.908895279618762
-0.467896320011164 0.0071510817729678 0.915372191522469
-0.463447476872408 0.00942795930758533 0.91736624306855
-0.454874008131866 0.00751685863081596 0.917526216399967
0.0386961732955436 0.0118660831846815 0.532192660166495
0.0385707564146284 0.0115633000498247 0.539756439423981
0.0366845372416378 0.0070095641407819 0.547580769688511
0.0398323813972038 0.0146091321933881 0.559736215140102
0.0366142492921223 0.00683987401979166 0.572031633847542
0.0365382449424941 0.00665638328811935 0.580200805504637
0.0392004165387118 0.0130834340610736 0.58995359043678
0.0361982033144153 0.00583545017784029 0.601903764981276
0.0378435385158932 0.00980764073589807 0.60429869561269
0.0378721458534955 0.00987670495832301 0.627413839362922
0.0388508063781879 0.0122394004699935 0.624078269551267
0.0397349792835977 0.0143739826897165 0.632075807050101
0.0371738518358862 0.00819087407048525 0.65477824163898
0.038965290428746 0.0125157894175261 0.655386413921918
0.0371043201211067 0.00802300966164994 0.67382210369057
0.0388438645371022 0.0122226413830953 0.674305120172477
0.0382462565873864 0.0107798881659108 0.688388131775247
0.03920782490632 0.0131013194426285 0.701305652227668
0.0380771139441201 0.0103715417025623 0.70571607724885
0.03954530183737 0.0139160608265571 0.722407927869726
0.0387987921623029 0.0121138270445681 0.733399326838901
0.0372887415099767 0.00846824227985252 0.748562487119518
0.0385731812895661 0.0115691542157889 0.758411925805481
0.0397135086782176 0.0143221480630169 0.763809275045212
0.0400683292439001 0.0151787606848959 0.769583638748093
0.0362115910970759 0.00586777114431065 0.777109756085377
0.0378726952949877 0.00987803142742613 0.789685305101507
0.0366448366494615 0.00691371843271712 0.812051672754851
0.0393128586217317 0.0133548932628811 0.817778000890891
0.038256903994592 0.0108055932807911 0.820783494889288
0.0380504296990976 0.0103071202363272 0.834560782502543
0.0371060250478162 0.00802712571883608 0.848700062593043
0.0363283813497942 0.00614972775637728 0.855633477538665
0.0371666854591163 0.00817357290649548 0.868609156944434
0.0390230833890609 0.0126553139661284 0.873489585493271
0.0371696277463961 0.00818067621635014 0.882975218982791
0.0396667585627192 0.0142092833001377 0.897789730309015
0.0383738660777597 0.0110879647282589 0.897477631745175
0.0451395604452441 0.00532116250493374 0.915160863796014
0.0447446042005876 0.0053710052496814 0.91487038032608
0.0519695091877179 0.0129148721536786 0.916727601378646
-0.482105450341729 0.0186243819487762 0.473301498733158
-0.483009494872185 0.020806938515194 0.481874076461208
-0.479953730381289 0.013429670437853 0.491246521648059
-0.480006556778425 0.0135572046422717 0.49596623331712
-0.481135644069581 0.0162830624936823 0.505967803806183
-0.482428391069897 0.0194040298345636 0.513646661122113
-0.479614745877755 0.0126112894519866 0.521705386854331
-0.48203177325798 0.0184465097339555 0.530049186898922
-0.480392583008851 0.0144891544031982 0.534840199891349
-0.482156926624742 0.0187486566893672 0.549752871065264
-0.479583525813543 0.0125359175495493 0.562619528365084
-0.481072204840015 0.0161299066452795 0.560244909257035
-0.481123521443245 0.0162537958847696 0.576582614401754
-0.482879074324719 0.0204920754606897 0.585773873181688
-0.482547692662407 0.0196920493572127 0.591196556434512
-0.482840216815352 0.0203982651345757 0.596403010463797
-0.47981022034553 0.0130832065631883 0.606087651684721
-0.481404064455222 0.0169310866291154 0.608453444677481
-0.481059946777799 0.0161003130652284 0.622071519912744
-0.480870317910558 0.0156425084821167 0.633932633432194
-0.480104412735463 0.0137934498209124 0.638327276684526
-0.482867676734262 0.0204645592432292 0.65393890953024
-0.480895440269151 0.0157031592209525 0.656026671803927
-0.481244295947841 0.0165453713317556 0.668190276354993
-0.480107892340401 0.0138018503303464 0.675536393651834
-0.481151554112388 0.0163214727348062 0.686020279228547
-0.482658832326518 0.0199603642416281 0.689832291157414
-0.482746982806746 0.0201731783265241 0.695757667136838
-0.483079217152176 0.0209752629891456 0.704665250237672
-0.481282306681942 0.0166371373615385 0.711139410605218
-0.482679067006333 0.0200092150800675 0.729653296888338
-0.482676173372158 0.0200022292291977 0.737270831986912
-0.481133662683016 0.016278279003365 0.74142452975676
-0.483054971865178 0.0209167296884539 0.751132975943786
-0.480312621750127 0.0142961108479224 0.762078736254725
-0.481550304931603 0.0172841423705626 0.765742035818607
-0.482276807364932 0.0190380743982023 0.771184487603598
-0.482827159566449 0.020366742147185 0.781049325478614
-0.482076138239463 0.0185536162739475 0.793359584572082
-0.482490620249774 0.0195542643646005 0.802480190431682
-0.480787325702989 0.0154421475690321 0.807804047197677
-0.483062153463526 0.0209340676005847 0.81483777083467
-0.482462015407657 0.0194852061668112 0.822177683598402
-0.48107679885911 0.0161409975884843 0.828972421740524
-0.480890372979226 0.0156909257008896 0.842489906827012
-0.480916916044054 0.0157550063279864 0.851677349502415
-0.482365816566626 0.0192529616201077 0.864678916014762
-0.48062806873941 0.0150576672476586 0.868898000642724
-0.482402285693707 0.0193410058813137 0.872507134566218
-0.480518941395108 0.0147942105330201 0.880769231357369
-0.480004570263355 0.0135524087706465 0.887726813586418
-0.481166581769651 0.016357752708783 0.897415970935886
-0.478198392659552 0.0176149704097246 0.910129495276792
-0.476497501084649 0.0200913234485264 0.913106795411065
-0.468613800918574 0.019995967860959 0.917188235101171
-0.45929015010414 0.0151745306671023 0.917675424857937
0.044164840518998 0.0250686137636491 0.513240792055425
0.0443105750792189 0.025420448115442 0.527568340793062
0.0416167512721777 0.0189169821458397 0.539424685830231
0.0409202107452595 0.0172353845590112 0.547864549818364
0.0408892178146248 0.0171605610055362 0.554793881369425
0.0437453982908915 0.0240559906479228 0.563489475640592
0.0413605250929824 0.0182983974289907 0.574508131394575
0.0418215686973339 0.0194114551514619 0.587307082672787
0.0435325886559491 0.0235422227410417 0.589243240522517
0.0426234550506356 0.0213473800610869 0.608292728732184
0.0443238492952898 0.0254524949079109 0.606765024888164
0.0405382406400729 0.0163132271506498 0.631300384030592
0.0419186112355565 0.019645736563367 0.639304871108568
0.0423457182566526 0.0206768641262808 0.640848934942717
0.040584875980432 0.0164258148218302 0.65634608992768
0.0407034209096747 0.0167120075977584 0.661577009654555
0.0434051214009717 0.0232344895653199 0.676203124506435
0.04161445898047 0.0189114480641119 0.693362420444992
0.0432110202316344 0.0227658878898315 0.697204952683092
0.040769069475875 0.0168704972566312 0.706126625180031
0.0433857083105536 0.0231876222191443 0.719554020643559
0.0410435870057643 0.0175332412003989 0.730852742468678
0.0405068458578755 0.0162374334416822 0.740320315159729
0.0418799221285253 0.0195523327964562 0.745941507316852
0.0429368294730686 0.0221039328418249 0.765600882795846
0.0435909556813974 0.0236831332054764 0.768436168306051
0.0417841565495574 0.0193211342369044 0.782359529749941
0.0426103351900442 0.0213157059157093 0.794123869754368
0.040291647669147 0.0157178990558539 0.796616222421096
0.042439466681161 0.0209031928441813 0.809484366600969
0.0405490455765596 0.0163393125748567 0.816012069931295
0.042753619009028 0.0216616236547689 0.826963518193088
0.0414782082971944 0.0185825098166661 0.845368248428898
0.0442158110576925 0.0251916675294494 0.846906918533307
0.040810348885037 0.0169701545660761 0.863627429731074
0.0419934939100039 0.0198265193316049 0.877209608181768
0.0426770114284643 0.0214766765947927 0.874523031425375
0.0416949225384942 0.0191057042771694 0.894579251866356
0.0416673111834851 0.0183032046703201 0.902344463669408
0.0461952970362257 0.0171121994676783 0.912310373180714
0.0536825822586176 0.0176267302888087 0.916637561354933
0.057292431280633 0.0231753010885484 0.917132412539925
-0.485021908995013 0.0256653359836363 0.473618743389721
-0.485176417558609 0.026038352653373 0.483632562272863
-0.484259214760589 0.0238240292189441 0.490875463527133
-0.485096345571951 0.0258450417772163 0.501965232606229
-0.483359772523018 0.0216525835704314 0.510812316714854
-0.483938765911272 0.0230503972608785 0.518052068862744
-0.484737712118408 0.0249792240297527 0.524107743770799
-0.484897320656488 0.0253645531270553 0.532147287375572
-0.483915826808682 0.0229950173682964 0.539980322607441
-0.484013921407925 0.023231838680184 0.543651514256093
-0.484112996352496 0.0234710267550606 0.56175472057809
-0.486493327647208 0.0292176548496955 0.573371004653766
-0.48633173249289 0.028827529636528 0.576021144374242
-0.486291357472103 0.0287300557137604 0.588620347619159
-0.486008181121134 0.0280464075267103 0.594155700897238
-0.485603532531895 0.0270694994145723 0.609241593814058
-0.485830770906289 0.0276181013799268 0.613140784193137
-0.486205118658036 0.0285218567992378 0.626588578135506
-0.485014562510773 0.0256476000017492 0.625595876214054
-0.484406837952268 0.024180423130419 0.634735446885341
-0.484303625297524 0.0239312457395267 0.642856570105368
-0.483556134766998 0.0221266439629868 0.653125300046946
-0.483096201349966 0.0210162664697987 0.653014942236265
-0.485770635027163 0.0274729205249549 0.668089759667898
-0.483529619477869 0.0220626303923619 0.681435276703603
-0.484981849747033 0.0255686244038647 0.688169313400707
-0.483687664753024 0.0224441854391096 0.699259061258612
-0.484960047534711 0.0255159892071877 0.701324600246552
-0.486425997295732 0.0290551050020018 0.712649896898936
-0.484734548111006 0.0249715854401717 0.722566219948236
-0.483987056619501 0.0231669813436219 0.728362921909763
-0.48323889931275 0.0213607698268756 0.740394859276125
-0.485774339977319 0.0274818650658707 0.746210961398772
-0.483251170108407 0.0213903941481701 0.756720722500384
-0.483181724572335 0.0212227377931374 0.76114936496809
-0.484580286884858 0.0245991658958557 0.775948014888759
-0.486521657333428 0.0292860487623862 0.787735270978317
-0.484246188807 0.0237925817851295 0.786305089453954
-0.483371644428679 0.0216812448860905 0.795833034295913
-0.486092373713145 0.0282496664241933 0.807861608342967
-0.483215416189196 0.0213040765515007 0.815869931462379
-0.486454158701657 0.0291230926501219 0.826892257785362
-0.484593065239434 0.0246300155727791 0.825058785729042
-0.484535649143869 0.0244914008561687 0.837000258629843
-0.485835481749179 0.0276294743607202 0.838903003996011
-0.48356656487723 0.0221518244765664 0.845802970594908
-0.483254069340277 0.021397393513073 0.85987768599982
-0.484691493594657 0.0248676426428801 0.865809447031546
-0.486164321460315 0.0284233636511921 0.881680592174429
-0.484252118886799 0.0238068982642054 0.881607368311099
-0.486404311394048 0.0290027506040443 0.893034063743378
-0.483167126906157 0.0212585389034019 0.90043923219718
-0.478891134867751 0.0239553604883046 0.912424770351625
-0.479101922002614 0.0250930107620118 0.912734498551203
-0.467106697295079 0.0263875959498442 0.917769857699617
-0.463196030951642 0.0291469085289022 0.917449774749573
0.0461033372358301 0.029748558828043 0.518423977020652
0.0452701780391134 0.0277371345957127 0.527063805940208
0.0458027712185481 0.0290229282727314 0.531022785513368
0.0458117295527743 0.0290445556047167 0.544031747930961
0.0469414033087949 0.0317718293075578 0.557439612756311
0.0456275315185739 0.0285998622123878 0.557637465587965
0.0472820759335213 0.0325942857785027 0.5692789315933
0.0461612880331389 0.0298884644288554 0.584203262549677
0.0445443724457094 0.0259848848884723 0.589728626042072
0.0460915730933112 0.0297201576756249 0.599188673796538
0.0466049359732089 0.0309595253026936 0.614386441913671
0.048374410357693 0.0352314143599861 0.619015524860474
0.0443378751459095 0.0254863563067015 0.638154549664795
0.0482747659273016 0.0349908514247187 0.643965954077219
0.0473394380553784 0.0327327701910582 0.652909334305203
0.0483286341799704 0.0351209008908941 0.662988760952642
0.0462005405382488 0.0299832283590497 0.672248742431253
0.0452906166478034 0.0277864777620095 0.68929411350823
0.0478698417020313 0.0340132778683381 0.700130009703485
0.0470494169714276 0.0320325973568093 0.710463597841544
0.0456822807760729 0.0287320386123727 0.717262497422615
0.0470284918885917 0.0319820797380336 0.72611528673849
0.0446525847175136 0.0262461324226776 0.729859714635675
0.0460665104646505 0.0296596511376031 0.745130168327629
0.0453020863514868 0.0278141680761975 0.762244783749362
0.0443255552921792 0.0254566135487391 0.765726293915501
0.0444552975035773 0.02576983895511 0.778799467034919
0.0460370510226256 0.0295885297531275 0.783667827147403
0.0445222643955495 0.0259315113339392 0.792917226601706
0.0448113551110487 0.0266294380600534 0.809729731644155
0.0462718300319858 0.0301553364216854 0.816143768670924
0.0474954865535496 0.0331095045917312 0.824402558093913
0.0473305608082856 0.0327113386207309 0.840606923344061
0.0447949635671006 0.0265898653723456 0.848907762567649
0.0471972627517955 0.0323895286449136 0.852050175317893
0.046542063335489 0.0308077373280084 0.86746196785772
0.0463689252855403 0.0303897450996575 0.874237115252635
0.0468905429146221 0.0316490414541618 0.885576104756592
0.0446320858586284 0.0261966437995431 0.894819789354338
0.0504136707175609 0.0352852841842334 0.907792068421606
0.0566361908869963 0.0340545861548488 0.91487769023016
0.0707609175116242 0.0323333404782726 0.917411527847822
0.0678329753096309 0.0353568167496831 0.917912831459958
0.22578473062545 0.037547158415287 0.826044393957633
0.265059864020662 0.0342744763318365 0.81476136480481
-0.488322564882216 0.0336338241912493 0.484161640327206
-0.486919925305544 0.0302475527021268 0.492458592658777
-0.487612985992451 0.0319207492120058 0.493868761328578
-0.48862566825981 0.0343655804762392 0.506727567794571
-0.489067240895771 0.0354316311227486 0.515594171363939
-0.486810662033884 0.029983767829816 0.519669497721036
-0.487714689883314 0.0321662841246735 0.529059108559749
-0.489883453325928 0.0374021422414098 0.546899264424086
-0.486693927542386 0.0297019458372446 0.54545816004067
-0.487799353437547 0.0323706800255406 0.55233478598012
-0.488685257292365 0.0345094411268015 0.557792314284546
-0.487771920938132 0.0323044521134031 0.565759201567071
-0.489714598105564 0.0369944896783295 0.585940283075185
-0.487100747800812 0.0306840968225836 0.588295191974629
-0.48738518733555 0.0313707946050229 0.598384580995125
-0.489664010875652 0.0368723613017962 0.604057903991464
-0.486572531528637 0.0294088699344338 0.607115485697206
-0.489367511621862 0.0361565487820619 0.618338867070905
-0.489885366239339 0.0374067604229123 0.627031756803278
-0.48681587847336 0.0299963614287451 0.638703679921292
-0.486808832930625 0.0299793519839188 0.648905735912792
-0.488087942842743 0.0330673964815222 0.659588910843364
-0.488810017658305 0.0348106392943001 0.664559593600576
-0.488044947847048 0.0329635973798009 0.674845170942802
-0.486547015711255 0.0293472693020559 0.685329983880092
-0.489862053773133 0.0376287077803773 0.690350563126926
-0.487505942308155 0.031662322897611 0.700515988584823
-0.487681582832518 0.0320863566336304 0.703447457402218
-0.48934584463799 0.0361042400557423 0.711985861884216
-0.489266821005292 0.0359134601299335 0.724833848596969
-0.489680860138096 0.0369130390197029 0.73680822451796
-0.487501048599525 0.031650508439867 0.73658357655757
-0.488368171719876 0.0337439288372649 0.75219450011061
-0.487980252350736 0.0328074086351807 0.749608988170977
-0.488974681663747 0.0352081733694736 0.764342468724109
-0.488074078747011 0.0330339255935764 0.771530915989532
-0.486992380198273 0.0304224742868143 0.783351404231846
-0.487084662261266 0.0306452628948546 0.789305495263271
-0.489808357651903 0.0372208452467035 0.799433478363669
-0.487957999967414 0.0327536866295713 0.806098044793286
-0.487459335927541 0.0315498051414391 0.819251351253529
-0.489862166067857 0.0376295607434922 0.820144140603245
-0.487209285734447 0.0309461305739978 0.832787521653037
-0.489124984546868 0.0355710366283673 0.84475214950764
-0.487261772209237 0.031072844133277 0.851364604093453
-0.489526631061357 0.0365406970909264 0.856545892996345
-0.488459482215163 0.0339643718733744 0.863364134951084
-0.489363946857805 0.0361479426803275 0.8741947688574
-0.486851366981184 0.0300820382656423 0.882363188688266
-0.487496240054529 0.0316388995853212 0.886993943241835
-0.488595025250456 0.034291601707463 0.895341574616616
-0.486722331067983 0.0338398597694683 0.90706336185187
-0.483458329492399 0.0319787507103762 0.910948272635458
-0.473270756055306 0.0343776800745986 0.917427550339404
-0.464271014204319 0.029902360947211 0.917541161754664
-0.464936971095207 0.0361538552948535 0.917310495465778
0.0485307157506095 0.0356087689594353 0.50907597075077
0.0497575135969064 0.0385705209582557 0.51956112868669
0.0520333177023797 0.0440647980949939 0.527672401570644
0.0485701073959193 0.0357038688037876 0.542669442046357
0.0507191651830537 0.0408921532598107 0.54998786432578
0.0498134587098503 0.0387055844086744 0.561865438942901
0.052449899221707 0.045070514848787 0.563356384893171
0.0524899344917702 0.0451671685407465 0.582375274149574
0.0511925138566923 0.0420349180474403 0.594049245983193
0.0488317839680352 0.0363356119331456 0.602126297695491
0.0525971505460897 0.0454260109931919 0.612185937033367
0.0509008953743654 0.0413308887523687 0.612207091213455
0.0508111165035788 0.0411141433849012 0.633788736541848
0.0512762305903752 0.0422370281212958 0.640039157605292
0.0489901571569683 0.0367179586337832 0.654173971092164
0.050454856404138 0.0402540554211 0.661913767446707
0.0486652481050334 0.0359335587940658 0.674631270390282
0.0522686525097883 0.0446329465787395 0.682966143554883
0.0512893071909048 0.0422685978276443 0.691081029332952
0.0518441452829657 0.0436080954744195 0.705054464420104
0.0501821295144535 0.0395956344651989 0.709654140923478
0.0497976091711989 0.0386673202375054 0.725185045329704
0.0488541472680248 0.0363896017152799 0.732125570895756
0.0513541180132819 0.0424250649940148 0.740038695438007
0.0488885212273641 0.0364725877941103 0.755173805960194
0.0509277298331964 0.0413956728668191 0.765735937245689
