ply
format ascii 1.0
element vertex 845
property float x
property float y
property float z
end_header
0.292715676397118 -0.0185127865219265 0.955385460140889
0.288496946734377 -0.021776447926495 0.95774661303166
0.280651711686812 -0.0216141589671084 0.962299004484162
0.278677593148657 -0.0222427554607858 0.962817915396689
-0.425445299544426 -0.0203715432950343 0.458701606231723
-0.424623568919169 -0.0238548208261171 0.465867931750766
-0.423967114388201 -0.0262660199528766 0.471500608010349
-0.426962275041777 -0.0236706211780512 0.495669408427977
-0.427637982297948 -0.021764303683759 0.495182905041366
-0.428154138432038 -0.0240573744714339 0.513708300234928
-0.42972590655228 -0.0187853420584561 0.510331332147349
-0.431162492582014 -0.018099470183775 0.527384854826946
-0.430818227860423 -0.0192353528114734 0.541194630468564
-0.427313593643335 -0.0282646814259393 0.546545698552387
-0.430951781216141 -0.0189494726475179 0.558151053570189
-0.430035635433755 -0.0218116396609931 0.571746297628234
-0.427949163955361 -0.0271014560548619 0.593914456062526
-0.430446017020692 -0.0207787009904597 0.601576922054536
-0.431279587560962 -0.0181348446454946 0.606677252587291
-0.427267777037676 -0.0266287363055896 0.618930814799813
-0.428429455577073 -0.0206615159192834 0.636236823091627
-0.425726130660336 -0.0264821498300686 0.641603437880319
-0.425692486275786 -0.0236439429597129 0.660055766433723
-0.425629618077924 -0.0235159522982256 0.661753208852026
-0.425937304186344 -0.0184334287171608 0.683642517977184
-0.423125243964009 -0.0233048240135248 0.691424137415939
-0.422777326732349 -0.0200778134108555 0.702986380343382
-0.418496820363604 -0.0217929780680147 0.728062855624668
-0.420154238017162 -0.0181471166265525 0.726422323139221
-0.413518945832208 -0.0283045842698713 0.74223932877887
-0.412070865766449 -0.0267330019512164 0.757108216222846
-0.410954284743578 -0.0258378160487431 0.766015392274074
-0.410124413886712 -0.0192466795943294 0.783226491291612
-0.406687223917811 -0.0218204940202637 0.793586627924279
-0.400672586258726 -0.0255037060376144 0.813389173693951
-0.396864685044896 -0.0259530743962527 0.829765560323631
-0.397106553285972 -0.0237138745445515 0.833233933696285
-0.396388776680653 -0.0172481560516884 0.847248111659564
-0.391292240220284 -0.0204309913226308 0.85956633848511
-0.387705966609519 -0.0193523467732541 0.873240064986095
-0.379350530020987 -0.0241924066080893 0.894005197857985
-0.378362134847231 -0.0180168591666643 0.906641306979174
-0.368155823478841 -0.0275424407160349 0.922129354532414
-0.367525631182854 -0.0242976434324352 0.941269037081833
-0.369184258627077 -0.021526296526985 0.942619776107235
-0.373409742736017 -0.0244494602738979 0.952795073553419
-0.383940868334967 -0.0245403187876551 0.961039024935052
0.344345674273442 -0.00981326868693979 0.33297747480092
0.346336782318055 -0.00600818260333215 0.3454647817523
0.34534007975422 -0.00969373168383499 0.350569677931747
0.346348956115668 -0.00893760100176982 0.364369594159526
0.34662789558898 -0.00843209293297081 0.366294692228769
0.346931096363865 -0.00978788670325999 0.380536618958018
0.347910819482503 -0.00786845274506398 0.396563847886858
0.348461427647337 -0.00687132826332017 0.407986889976362
0.347550392551594 -0.00944010296674135 0.406680084070881
0.346649934217176 -0.0128119127195933 0.421334169489368
0.348228702061156 -0.00829095367066855 0.422269485082415
0.348774600208225 -0.00747963832515954 0.436988969604551
0.348455478244728 -0.00881812455737283 0.444930147919415
0.348207383564704 -0.0099060247513778 0.45200987042598
0.348828147190345 -0.00836152436667102 0.459580060276528
0.349253847920648 -0.00620639691193255 0.477250067501187
0.348214628383651 -0.00913427328045588 0.478785353675602
0.347387180885385 -0.0109884442311087 0.489141532104084
0.346732858934887 -0.0126017642081749 0.494514665738934
0.347745508017649 -0.00916477681715252 0.504199205263507
0.349064973968193 -0.00455416971635637 0.519350350189925
0.348529586556815 -0.00569072105436962 0.52726044549136
0.348591205773538 -0.00531307996828453 0.531075850597989
0.346159642507278 -0.0115881707640268 0.538643658221529
0.344945021941673 -0.0130650963127323 0.551644828796004
0.344606426941472 -0.0130024996142409 0.558293682941327
0.346050008433374 -0.00623422677945082 0.57480791158804
0.343939024709129 -0.0128653962235299 0.571486678166255
0.345768808680312 -0.00490836984807414 0.58845285045068
0.343339428435062 -0.0113440595702304 0.592255012529171
0.343453007326769 -0.0103462437114492 0.59652140798536
0.343968510907741 -0.00749798355436401 0.605168974604447
0.340953623832753 -0.0126603533595938 0.621502191819986
0.341073670167805 -0.0108385481280463 0.62713381289133
0.340568515574806 -0.0121852335102923 0.627575023054836
0.341078369308033 -0.00742990097603775 0.640102185632002
0.338712991307434 -0.0117588524565578 0.649719420579409
0.339680769338502 -0.00848799343339347 0.651513134426855
0.336683334751064 -0.0122985176893035 0.670099024127001
0.338190623164726 -0.00732461968295477 0.672432868318709
0.335985258080792 -0.0118723646114429 0.679445165487885
0.336188477752961 -0.00715516957064173 0.693309481275167
0.334573607442379 -0.00925145673339506 0.70032616217348
0.332419527548836 -0.0132129981612764 0.706514106911459
0.333134846259784 -0.00742280277941567 0.716638049550648
0.332812210201802 -0.00569190694515172 0.723890855217774
0.331687030000275 -0.00450086711146784 0.735996889705678
0.330828870109332 -0.00729820358762256 0.735144020396375
0.328120000588426 -0.0114049105983564 0.745307584552802
0.325755847736958 -0.0122644763785697 0.761593251318343
0.328055776992446 -0.00506644047195887 0.763065139806924
0.326131519381091 -0.00574349427090757 0.773808689210881
0.323637790044071 -0.0100574241756861 0.779936560661951
0.322322904224423 -0.00765680630742137 0.793032184713623
0.321979983654299 -0.0074576987904599 0.795546621452136
0.320271911301116 -0.00851972979704256 0.803737559520037
0.319643184816154 -0.00744357847843748 0.809848024708437
0.318158527891883 -0.00601089122793421 0.821938214753772
0.317096797907703 -0.00608254300147409 0.828271372515832
0.314740910176219 -0.0106452227450096 0.833032550193782
0.311655567607777 -0.012101670763588 0.84734127265301
0.311703185126851 -0.00977377642059401 0.851106429953928
0.309649852666494 -0.0122998544802227 0.856981591736136
0.309671357419802 -0.00548436769508564 0.868591763544748
0.307048654432111 -0.00978977719037333 0.874241256248511
0.304741991490333 -0.0126323951571535 0.880832870708908
0.304305705275942 -0.0093950012528521 0.888569689285785
0.301611700383004 -0.012673918520353 0.89633874715349
0.300983245052689 -0.00917850116738464 0.905475450593731
0.298227082724002 -0.0116413105036303 0.914956875300605
0.300651260885331 -0.0104500834505232 0.920943268060041
0.303907067646123 -0.00911916407312855 0.926811581848832
0.303461020643474 -0.00902631138777226 0.942289092807093
0.301287148085788 -0.00697704545117304 0.9495188024462
0.295549384150668 -0.00727164425722965 0.956728454228438
0.29454378871877 -0.00941342154448741 0.956929949334562
0.288856732866228 -0.00866932213227689 0.960488939082114
0.27860465674277 -0.0125476615014533 0.963590673228713
0.257680152532331 -0.00721472237235487 0.959352259525967
-0.427528514776577 -0.0140532597809894 0.458590332099262
-0.430987676601569 -0.00758623277535348 0.476717988303234
-0.431567412852738 -0.00711181957470832 0.482529155511516
-0.432678481875421 -0.00608226868311838 0.49311874360309
-0.433206437478092 -0.00789491596873301 0.50862490288476
-0.431503449681802 -0.0143215202556942 0.514456229069062
-0.433859697387705 -0.00999252833526104 0.533422567110174
-0.432940030265335 -0.0128366774855053 0.54288633732442
-0.432094417881661 -0.0154692341867947 0.5541007041751
-0.433289807805088 -0.0119021110394427 0.560501950081296
-0.434015857272713 -0.00976082461756403 0.568036524498103
-0.433621584142607 -0.0110354973736039 0.580073598639982
-0.432788329545315 -0.013691858062963 0.60010255993524
-0.434876707853141 -0.00741235832264256 0.604417387896996
-0.430936852171794 -0.0154866160308706 0.624574292505184
-0.429878930231626 -0.016962730017875 0.63293123806317
-0.431553501752285 -0.00892425704329431 0.647405693731169
-0.431486778239287 -0.00683662016944874 0.658527735037804
-0.429183996747662 -0.0123861836104963 0.665366574192199
-0.42948450247371 -0.00832240777713409 0.680699239990329
-0.426808455911307 -0.00944952333554369 0.699299170060314
-0.423767234614637 -0.0127604867700724 0.713274760712436
-0.422499826458391 -0.0136571308506155 0.720247955292878
-0.423270916475287 -0.00990481998099109 0.723631007532435
-0.419964834708245 -0.0127820152698394 0.740540888412125
-0.419723812463632 -0.00579096684174433 0.75889668820277
-0.415740683552733 -0.0148731485939587 0.764912808312903
-0.414288115073171 -0.0101778836911599 0.779122582335274
-0.410134961550563 -0.0109516790556976 0.797540286162327
-0.409253180147176 -0.00873759421989876 0.805171157052326
-0.403049257364072 -0.0149155969856023 0.824190062749402
-0.400148507684395 -0.0149583567911231 0.837276057774544
-0.401040868928761 -0.00981324472749485 0.841789636400487
-0.39459901013049 -0.0104129421481377 0.863571214547031
-0.392066659878591 -0.00949023950092371 0.873469491831598
-0.386338074375926 -0.0126818344458731 0.887897603395058
-0.381919449926837 -0.0145349517291597 0.899944597680382
-0.378663651015233 -0.0116992042338821 0.915158883335592
-0.371972537354586 -0.0164115165215458 0.924365950433829
-0.37127728503625 -0.0147356745434535 0.939499043589256
-0.378108417609395 -0.0157985941231694 0.953799609045757
-0.378972034095241 -0.0163869287158471 0.955192053546266
0.348180852620914 -0.000728145829702395 0.345832744014194
0.350035734942435 0.00411041495398117 0.349215444935262
0.350246467430445 0.00263221211109455 0.36253118754879
0.350108396516086 0.0020802126495469 0.363502665048385
0.350342736871371 0.000866872799551959 0.375565195133212
0.350734164346357 0.00107598014155658 0.381780614471555
0.350177486732583 -0.00120108239322787 0.394526645993875
0.351046700047347 0.000734443179002011 0.405639817163793
0.350090731578977 -0.00218231602553414 0.408505319023625
0.350328368960452 -0.00214730335713136 0.421004439857291
0.352307340749385 0.00276860053791739 0.436556855436625
0.351002376750358 -0.00120654618163948 0.440345279701693
0.352848208362777 0.00360779949106032 0.45046370234429
0.350805468539537 -0.0026234023066236 0.456559793730493
0.352449751057172 0.00274076315093283 0.471438958518938
0.350808050736946 -0.00149593777348056 0.481304234633393
0.35222591003297 0.0030025457344764 0.488855889530775
0.35159461146974 0.00105767242745573 0.486605253270746
0.352436195981853 0.00441699840830239 0.504283015706246
0.35126169402403 0.00137140544610817 0.511061649539935
0.350659720545202 1.25647968354871e-005 0.518405927618858
0.35178881491149 0.00380820120395852 0.528503885036465
0.35190030574441 0.00425802718742781 0.530937525874631
0.349134538498781 -0.00243937306761472 0.542073277548963
0.350403788274232 0.00290977345691741 0.552755886160641
0.348549754415138 -0.00194748951521983 0.556003667582554
0.347737414494725 -0.00253685250617054 0.567239401754618
0.348489331230702 0.000517722570857098 0.57283893510151
0.348225306083786 0.00301343035388393 0.593626693572971
0.346160577450444 -0.0032468846527982 0.591816535441232
0.346473434164027 -0.000566187107878138 0.603135999660243
0.345218508650542 -0.00399880223261159 0.604410202190986
0.345987479841134 0.00199275253751618 0.621816918060299
0.344051408019964 -0.00245462028876182 0.626235159645127
0.342359363410081 -0.00443632331658623 0.63737365051708
0.343735090274135 0.00063303664724204 0.641526757469859
0.342856334912956 0.000251994959437639 0.649787265564469
0.342105914270645 0.00132178024896873 0.6621706933292
0.342102268957767 0.00279814563190424 0.667850409186274
0.340217594912684 -0.000822785019924467 0.674857206973908
0.338247638655297 -0.00439615559141611 0.682988602100926
0.338345814120234 -0.000327338167411964 0.694897143185589
0.339333977985213 0.00409664528822458 0.699153111195028
0.337802990197794 0.00405917490545195 0.711112491540412
0.336203195513627 0.000995620256435474 0.715377765268472
0.333721056383447 -0.00163825891568382 0.727763748216174
0.333631406449885 -2.79971267142565e-005 0.732852719195909
0.331303541406902 -0.00339939449010358 0.742015982516491
0.332597885661306 0.00194638956495706 0.746368703367921
0.330837046985585 0.000593966418855087 0.756559941708651
0.329251616065946 -0.00305584571131352 0.759116422024187
0.32726509582319 0.000365125138019281 0.779774425907937
0.32538420607574 -0.00406151077815502 0.781921677755018
0.326254373978739 0.00372212280583996 0.793030330247404
0.324068443532536 -0.00232656121137616 0.79361813108381
0.324186422301138 0.00380092825562692 0.805826276442279
0.322358297019744 0.00172300880534158 0.812606946518069
0.320404997746164 0.0022645261942511 0.825678970127179
0.319712400506179 0.0014249380897395 0.828137405726413
0.318397534339313 0.00361580264301367 0.84079034127017
0.317353377305842 -0.000418595799240212 0.838654987746863
0.315447617406666 0.00353492069208698 0.855353330682363
0.314674701934856 0.00449020770878495 0.860841918482197
0.31059573395187 -0.00315832509124044 0.867990722641261
0.309535907994397 -0.00421265992599285 0.871452120521436
0.307523007719926 -0.00301885867096963 0.883521296736448
0.306442855530169 -0.00199507269345824 0.890656549625045
0.306997436001641 0.00339329577454303 0.897160475435393
0.305042291637696 0.00417714410769255 0.908237449867134
0.302053390170119 -3.28917053070177e-005 0.915873222021221
0.307766216230331 0.00114224180264465 0.93018585116375
0.307668882360727 -0.000883559104232446 0.936659467879603
0.30652686659019 -0.00428205263597861 0.937004219311844
0.305592627184802 0.00131072182000489 0.947155260155069
0.300372008641329 0.00274753740301286 0.954987157001898
0.294134618906675 0.00275215487805505 0.959691404184639
0.282567845937407 0.00309796412117588 0.963851422259448
0.256661256294485 0.000394628684243224 0.957048705701434
0.266133598926274 0.00447805881513135 0.961875518664823
-0.433979540218505 0.00455178358412552 0.462616700724937
-0.432532180595685 -0.000696595817008409 0.466600969437361
-0.432983180246742 -0.00109396354390692 0.474609213624075
-0.435985715111194 0.00333157663464513 0.495748819254138
-0.436830453364485 0.00413998048238742 0.503683326390414
-0.43454439622345 -0.00399265420321008 0.509261909184292
-0.435367855033404 -0.00542055915600332 0.531186576733123
-0.436023309001223 -0.0034929085954829 0.538771910761795
-0.43838179183903 0.00353319690910671 0.553097545407113
-0.437549286996012 0.000976930392937835 0.559022306143023
-0.436684022277024 -0.00168826968954203 0.566382893159578
-0.438999667820023 0.00518295356170072 0.584379408106769
-0.438567302788172 0.00386061073008801 0.586697340420137
-0.43817531417252 0.00294347679866181 0.607867023742237
-0.438911109338451 0.00560028602895534 0.609974700673777
-0.436759638987118 0.002716704165409 0.62754504241143
-0.434593380337479 -0.00218604585522059 0.635522452794506
-0.434915101174763 0.00253799000783428 0.653751546796138
-0.434955687455554 0.00573158993188029 0.668671707819422
-0.431959849633348 0.000594312146572916 0.686173926525066
-0.431711783044056 0.00217807942112309 0.691722185751915
-0.428007797169796 -0.00470764545174623 0.701958689671862
-0.428017815742477 0.00230152669743162 0.718554051108774
-0.426391618251421 0.0029976277526659 0.731892311493928
-0.42266833059942 -0.00487840025449516 0.739912609995924
-0.421035329395313 -0.00371576254714757 0.7544091424267
-0.421815455920865 0.00154940573693906 0.761324746879348
-0.420507651951647 0.00421790667076234 0.772247892625085
-0.412400025248771 -0.00186621943963211 0.801047808202469
-0.411720664700116 0.0021969184375137 0.810614498714227
-0.409067441964487 -0.00134919799476526 0.817606655430841
-0.406722942201274 0.00519849177295763 0.838929524064086
-0.401775604383667 -0.00239696694125227 0.84780232822956
-0.399745596181157 -0.00219255311038329 0.855135241319138
-0.398850933410931 0.005325497602418 0.866961653117481
-0.387577042306083 -0.00429293228767417 0.895243128253048
-0.389645892876378 0.00307794212538741 0.896539558180568
-0.37956525131999 -0.00520178721095284 0.9195250888111
-0.379514335551669 0.00230826234903538 0.924670221510895
-0.377047859350794 -0.00101839526805643 0.939062266921814
-0.378934136227942 9.5134817047953e-005 0.944215023727676
-0.390188378285329 0.00384038451370648 0.958034616626763
0.350535468334508 0.00731958617666931 0.337975363952663
0.350205491352067 0.00507588789209368 0.346192200492269
0.35277233263808 0.0102872743205987 0.36033863227564
0.35319817228272 0.00929129761357985 0.374549736513948
0.354136983600704 0.0114402406590763 0.378174822578832
0.353554165798391 0.0085558688669834 0.394851957895713
0.354060440022796 0.00965328389606258 0.401897944838385
0.353046756471609 0.00655056050060659 0.405125405723599
0.354922760128914 0.0112655132177152 0.418818869840103
0.352702370702319 0.00481780275114949 0.41921514804874
0.353828113770409 0.00750264353738949 0.430198533180546
0.354339013927511 0.00821572837416235 0.444859188874076
0.35444111195222 0.00820705869447606 0.45068327855652
0.354540319283756 0.00820555074069341 0.460210870030454
0.355613514760502 0.0117472083802805 0.46854402484863
0.353455552013865 0.0059492021788034 0.47712726949508
0.354370030994834 0.00923341104434238 0.489327165450433
0.354802247877646 0.0109129617108085 0.497530762429897
0.352618027510443 0.00488885294582569 0.503240247030172
0.354693460525423 0.0112458100235666 0.509932221295745
0.352933746713358 0.00676378849387885 0.521640749586287
0.354126985176186 0.0108900401401517 0.534513840241529
0.354672487425924 0.0131033415716944 0.538967067886455
0.353845154658741 0.0125614406497384 0.550782188659417
0.353356692492118 0.0125140038507307 0.559495595102168
0.352579369355044 0.012014844713299 0.570660204946054
0.352755725367716 0.013262454067522 0.57536074367048
0.352236296436119 0.0132652228234666 0.58496587330185
0.349252898638877 0.00448621136187532 0.584051205116168
0.350517113369657 0.00993854610118458 0.595484752618545
0.35018015683793 0.00997497740002357 0.601936514666935
0.348330570102535 0.00643765241112017 0.612889007717993
0.349038992317178 0.0105101985504785 0.620612583363228
0.348737869069742 0.0123379095576084 0.630923448778623
0.34737677646793 0.0107205390782492 0.639794425093769
0.346804177766748 0.0100779081891561 0.643670677829782
0.345359440407073 0.00919165756413334 0.656259204221427
0.343811442440473 0.00575399729776279 0.66024357882466
0.344281202983588 0.00931861860493082 0.668665762752822
0.344268597843861 0.012660127799893 0.681569008103286
0.342938609543425 0.00973363646365165 0.685095506283243
0.342126924854933 0.0101364418159582 0.693588516207052
0.340691807020928 0.00722656312838282 0.696974703765457
0.339976645619417 0.00923221748371915 0.708067704284165
0.337476470855707 0.00760280617081595 0.723329663103946
0.337356087105775 0.00659568030889936 0.721536942721516
0.335756090994736 0.00780349016099018 0.737429295657572
0.335492055508236 0.00853052893002214 0.741488210854757
0.333879334150074 0.00684565707841619 0.749607722534677
0.332091994188391 0.00480462118456719 0.758133525615566
0.333261699587107 0.0113861677773162 0.766404987377149
0.329567173933542 0.00503448106685328 0.775566962689033
0.331069485463686 0.0123599131409058 0.781848122017314
0.327007493563069 0.00484675592382587 0.790803694511502
0.326473419636402 0.00569404274515085 0.79585319287407
0.323433328255292 0.00469282648687619 0.812307531477832
0.324541371894877 0.0116985168089787 0.820321978045781
0.321551455502461 0.00512927383496596 0.824721637224866
0.320596652190723 0.00666208510039817 0.833787090896097
0.320690213051472 0.00778417286529062 0.835583229774712
0.319531316786088 0.00985653334513321 0.845899740369725
0.317723259280948 0.00900256051690273 0.853429024282772
0.316676152440532 0.0102920670011104 0.860856660378202
0.315562343216536 0.0107058942849195 0.867110759644972
0.313911734171429 0.0113777821881346 0.876479792992591
0.312262389311418 0.0109141769514803 0.883890395404542
0.307935117135327 0.00550834742310803 0.896130491179458
0.308318294969806 0.00945920536654446 0.901015999395885
0.305303954437154 0.00530649139533703 0.908876911654038
0.306178841645219 0.00708220038323248 0.919905365986462
0.309611204274258 0.00703130704863894 0.92814930464345
0.311849425251093 0.0116809931633926 0.938116255402052
0.308347977816062 0.00875601822950832 0.946536118915822
0.304695637687245 0.0131209303841252 0.954040723919592
0.300411108396123 0.00814578898209818 0.957049096188051
0.291777998672543 0.00769447437469289 0.96212473497365
0.282170529735383 0.0126816102757221 0.964521953564385
0.280004747689915 0.00513985072068081 0.96444244140797
-0.43336838989915 0.00627951975755649 0.447250200297654
-0.435484010151032 0.00948792419055432 0.46083833791983
-0.438352709776096 0.015870942689055 0.471230908383799
-0.438604398662722 0.0153612381172844 0.477010305322273
-0.438212943908459 0.012086434056121 0.486530187597943
-0.439925289869372 0.0152454402625454 0.495696110644472
-0.440573556661889 0.0127286317685199 0.51606039707845
-0.440521653438049 0.0125899122660528 0.515978077328563
-0.442526943024009 0.0161733431734478 0.536261615731557
-0.442776991184994 0.0168586503985494 0.546373926618344
-0.442345872955327 0.0155423331359159 0.54836621503527
-0.441653324987661 0.0132921376280763 0.571125649836117
-0.440736363637664 0.0104356735242194 0.583543454401297
-0.440798598790737 0.010532797548867 0.596648888311631
-0.442325756370664 0.0151544379961362 0.59552756508763
-0.439014718037811 0.00691572869581237 0.614844889662761
-0.440949877445304 0.0144907338045053 0.623242615594899
-0.437973270370811 0.00810124538867437 0.6358913822731
-0.436880202373367 0.00877833634735393 0.655225422399453
-0.436682211246693 0.0100435206434501 0.664278422785423
-0.437782062676647 0.0171470092012632 0.682646260444928
-0.436225149864241 0.0127900499913765 0.684331167718262
-0.434317704464053 0.0165975747933992 0.707289227593279
-0.431724518224059 0.011914544399972 0.714783348293519
-0.429198895907014 0.00566699463329393 0.718071752907461
-0.430352659600355 0.0162326969795433 0.734907372870983
-0.424501169173274 0.00780513642882677 0.756905665618432
-0.422858669320405 0.00616213577853653 0.764178148162306
-0.422737924302102 0.0143064438359418 0.777488957869968
-0.417395442125379 0.00734096319201173 0.791841862581197
-0.41645002775662 0.012499014635823 0.804378721512249
-0.412611791301661 0.0123045278543618 0.822214314396207
-0.411962817577305 0.0141466054095914 0.828162984786572
-0.407453429609541 0.00976013313149396 0.842020690834435
-0.405877228494558 0.00912315590436888 0.846793662837398
-0.401827186576384 0.0122079900605432 0.864520943091074
-0.396376923142224 0.0125850277665026 0.884009936108909
-0.389683004832045 0.00715313206810636 0.901125097411072
-0.386718818768463 0.00687369535439332 0.911163810547102
-0.380346871071816 0.00836828457648659 0.929858239215309
-0.381804085055636 0.0124577229746098 0.940066268365428
-0.385154055624809 0.0107807829457982 0.950008463617929
-0.390077629626895 0.0128551062625853 0.955452369735474
0.353593676020675 0.0172593383356442 0.335904780507858
0.354289916999116 0.0150143996203566 0.359223336120846
0.355644966198174 0.0201049610860098 0.362177113302482
0.353976642574133 0.0132795288189296 0.363486647695235
0.356126173034687 0.0179176150798784 0.38114528008777
0.357265761248902 0.0215930586109247 0.396330663022221
0.356574888239401 0.0184496518894755 0.399167216311809
0.356261636137828 0.0163539706468935 0.409477283215325
0.35596783523873 0.0145282255231931 0.417265329808811
0.356275954146765 0.0151758501677429 0.426153156424138
0.357571447319704 0.0202864460599659 0.43138398583558
0.357237032006881 0.0182185151061574 0.440111323447926
0.356785662337331 0.015355376885425 0.452859913077226
0.356814537548655 0.0159392287502022 0.469769952219805
0.356859945285002 0.0163551649930164 0.472774089087786
0.358013179821849 0.0220404236273394 0.483406598764014
0.357124997973194 0.0191553129420112 0.495320419776191
0.357064927655055 0.0189598172957197 0.496121243079228
0.357010337711863 0.0197876192532984 0.510382765035273
0.356977833749485 0.0198572593712381 0.513177318693458
0.356545261518902 0.0187994446152847 0.523654785438656
0.356196271931382 0.0179595299689487 0.532289573124846
0.355583653437803 0.0177420382018758 0.544812202394306
0.355754919847358 0.0199569603448055 0.551487582908499
0.355612896043821 0.0200826490196223 0.554754025157453
0.353131302236247 0.0137609205315446 0.571607037157401
0.353454914707881 0.015645480019901 0.575918137818613
0.353092865650714 0.0165248329332812 0.58675202787582
0.35316110429317 0.0192985176874211 0.597894221420667
0.352374506103579 0.0152150318696348 0.594547477510312
0.351570337779588 0.0144079415205701 0.604544761274014
0.351106438723217 0.0141694649538508 0.61158657956711
0.351687060265924 0.0210791460601313 0.625058897389111
0.348819305819551 0.0146006698288717 0.63866631623056
0.348944807999006 0.0151354091048175 0.639321287967302
0.348894879040129 0.0178034739926804 0.648076702801639
0.346479895460261 0.0138292881205171 0.661585621216115
0.347478095124112 0.019806599127685 0.66961391278461
0.346321009415856 0.0189131243424727 0.680400395806424
0.344341068056484 0.0137669936646357 0.684995736366892
0.345690727764545 0.0209555570191784 0.691716318388361
0.344767362526834 0.0198759153070917 0.697143183418601
0.34164749453177 0.0142930901086747 0.708678810328438
0.341344902219716 0.0163143899969169 0.716564109030398
0.340794074087363 0.0164046760032616 0.721149354344582
0.339306206884577 0.0169301332512272 0.734301159778404
0.33887160603572 0.0175069672947545 0.739294999537996
0.338909184782194 0.0194934010915004 0.743986987017205
0.3373019771455 0.0186832300518574 0.754862252082006
0.33465565444645 0.0137622821451321 0.76231692021827
0.334202635005194 0.0143400975088341 0.766891017492667
0.332891145229531 0.0170956599459874 0.780714815175166
0.332924426699714 0.0191854444617501 0.784920889739952
0.329514872277753 0.0139673928787061 0.794734361263352
0.32966141535203 0.0189735429005883 0.804402087522219
0.328226012040403 0.0144118659819069 0.803543675651312
0.328346586498757 0.0215603710251078 0.81789025752522
0.325016543583912 0.0140574806636536 0.822397235886803
0.324177562012061 0.0191977746966395 0.838366926784155
0.321227261884831 0.014272599497315 0.845052312639954
0.322373926756578 0.0191978879762229 0.847813722462177
0.32112541844092 0.0191721966883863 0.853982504244142
0.318823956019157 0.0170542947436339 0.861794171255464
0.317713760490004 0.0204989888629924 0.873240954406949
0.314387952124573 0.0135331835737328 0.877815556613621
0.313928685576046 0.0206901256726893 0.892405220029055
0.312953107770219 0.0173936117900401 0.891592619396846
0.310617726894551 0.0146588207018639 0.898512518858494
0.307821077526972 0.0155424735473527 0.913948657437481
0.308318677340058 0.0174393700850184 0.917085644218183
0.312301579473092 0.0186701766298648 0.924060154422115
0.314227564205886 0.0184084663012422 0.937933903232518
0.312293739049695 0.0208606320488752 0.947334228069789
0.308214615424374 0.0143110507035325 0.9500651496172
0.301959199154111 0.0221624898811432 0.959021567483612
0.29298411076803 0.0135123618929923 0.962606025612701
0.286313399510979 0.016161163279191 0.96399020091492
0.279354362164129 0.0181104828281046 0.963936891066264
-0.437784821173551 0.0211945243703386 0.443633559355998
-0.441092680323987 0.0273194434328865 0.460919529492348
-0.439265677223981 0.0201808522214305 0.464170441680652
-0.442417410488911 0.0274874422198954 0.47912451891547
-0.440878824059444 0.0197275561334231 0.488409740322641
-0.443566706886705 0.0268848006620853 0.497242842167168
-0.444692045102279 0.0265744984582819 0.514114593328753
-0.443237457394549 0.0195330233579093 0.521720124558462
-0.443991316825473 0.0205789279260878 0.538942504566731
-0.445520684681569 0.0260462673826581 0.54414772209788
-0.444845923706984 0.0230591525088403 0.553607925482104
-0.443731960967382 0.0196617561733833 0.558204370604722
-0.445340067540491 0.0248041685418511 0.585513412077436
-0.443799870714763 0.0196691481045968 0.586718360905035
-0.44540039198367 0.024942587856072 0.598907159368214
-0.445397467407258 0.0270962455986042 0.613363169511573
-0.442984023888903 0.0212583534710992 0.62626474447244
-0.441243358345508 0.0178430931964473 0.635222023031679
-0.443100967306934 0.0252380695806067 0.641863517499741
-0.441556662967086 0.0227749046602882 0.654584117664472
-0.441498792102352 0.025991951412589 0.668545806883005
-0.439528426995814 0.0218177317254243 0.679704916200846
-0.436978185629482 0.0226474012712085 0.702561793194234
-0.434477942725329 0.0196177057843324 0.713319706012851
-0.435551904298712 0.0275288918621309 0.723262420515477
-0.431303766253633 0.02154864357525 0.740715363901418
-0.430851930612784 0.0210140245468825 0.742690167844252
-0.429354683283222 0.0241410312381098 0.76088254956822
-0.426591735744839 0.0268047239484698 0.778826606597151
-0.423220556397017 0.0180100239562355 0.781001516244411
-0.420075723613178 0.0215447449346668 0.801393632641416
-0.418397299131327 0.0217561199962169 0.809656662663137
-0.415762194578618 0.0208239342251316 0.820652168663989
-0.412997145856176 0.0248597019037683 0.840033182007093
-0.408428566086234 0.0232487854761994 0.854219154079121
-0.403716161485658 0.0187225674989017 0.865455378472788
-0.402065826816343 0.0251529722142968 0.878664946288165
-0.398638084028116 0.0263101183334085 0.891986360310252
-0.394916991888346 0.0271285146997144 0.905941292440778
-0.383425795162092 0.017591524164388 0.929576653734138
-0.382985353532311 0.0175682748682056 0.93833378542231
-0.3837728693443 0.0172953384019557 0.941314190397201
-0.390827962288765 0.0210653210860983 0.95292481518435
0.355725947126088 0.0245095801969026 0.343962199063822
0.356746964555899 0.0255256143748801 0.358834813223024
0.356941887326924 0.0247475020789073 0.366034220849618
0.357866536921494 0.0272799008077872 0.372271642406918
0.35773240929795 0.0241144198184249 0.389055435707934
0.358729014646395 0.0276970705379088 0.397775200965633
0.358682164335039 0.0266720845767334 0.408894868622722
0.359665688901941 0.0302269232023205 0.417241593887254
0.359371060982453 0.0287293444461394 0.420565188946735
0.358100769886925 0.0223715739103439 0.433561602073092
0.359189531259731 0.0261048547745119 0.445519374085447
0.358608600344017 0.0238463961211161 0.442726082536526
0.359856827075595 0.0284477386653908 0.4521109184864
0.360032262677917 0.0297719780502727 0.472110710022227
0.359855761223194 0.0288756821356953 0.470131126890662
0.359599802297774 0.0285251431726464 0.480037529787621
0.358478148849021 0.0244439844948497 0.489192139627564
0.358724236298923 0.0265764323746705 0.50383468526494
0.358339988181711 0.0254585427221309 0.510742431551201
0.357724472759907 0.0234616972343679 0.519033156183385
0.359028698307062 0.0296673403244269 0.528042982479604
0.358825559776522 0.0292289206928646 0.533748488235435
0.356951796676941 0.0224299162150784 0.539803097648406
0.357544200581866 0.0265580584162917 0.547045627765104
0.356401323935811 0.0232740564256601 0.554064724627496
0.355901591678413 0.024561691567733 0.569349968354081
0.355641991303587 0.0241586632228112 0.572482429786959
0.354378131132545 0.0222287402094777 0.587877255360501
0.35486842051743 0.024262442035798 0.587668849344531
0.353632916770213 0.0233085442445693 0.606901806995304
0.355401694603314 0.0305241083486527 0.60560607411562
0.354592938153488 0.0304239250991831 0.617068041250236
0.352468398978224 0.0262304914183277 0.630007129668882
0.352154509912377 0.0257737135937594 0.632356606516626
0.351401148611989 0.0269506509088621 0.644109485663736
0.350856578282066 0.0269923514446498 0.65042913998572
0.349975828788627 0.02721685579494 0.661072519247063
0.349771844220252 0.0286615232274153 0.667283175361096
0.348880171704327 0.0261859373087512 0.670789126680059
0.347124405861723 0.0221281267566362 0.679889367282421
0.347467339148911 0.0273446903688167 0.689551298002427
0.346067995355948 0.0256853611154393 0.697731177685614
0.345556484914026 0.0272159124213453 0.704823388330697
0.343548094711263 0.0254650211830501 0.717773973104393
0.343976305839964 0.0301623697691139 0.723312788471188
0.342651623077661 0.0297174740516363 0.733217411623136
0.340085785941808 0.023141253641751 0.741433128755149
0.340405679303536 0.0251139266517592 0.742621628299202
0.339653349161548 0.0275306424469893 0.753370690250924
0.337884479001981 0.0242191319388695 0.76138035827992
0.337326169912474 0.027961555846195 0.771204976004494
0.334884251045123 0.0236550797942271 0.780154580326769
0.33489307730954 0.0250451476444081 0.78217249313535
0.332866813956839 0.0251866703771632 0.79514011032454
0.332321443976577 0.0293003738943093 0.804709694565455
0.331554388208573 0.0308103314252336 0.81179107200037
0.328460448663315 0.022939999254764 0.81952954242603
0.328629569497193 0.0272927225453418 0.824957519084695
0.32751928332424 0.0262099988987877 0.83033238907409
0.325246915551035 0.0236256571850418 0.840783372424608
0.324088286494722 0.0262703336435849 0.849881794855132
0.323856478672567 0.0310984303751335 0.856959114276817
0.322160491151591 0.0258874961240075 0.85930273861027
0.318465143463988 0.022299206711316 0.872596783116267
0.316907906798392 0.0226690748087025 0.880981935123021
0.316101744744505 0.0254425586318593 0.889761812061517
0.316692145441961 0.0298140403960139 0.892139244007763
0.314164704666021 0.0277128306194465 0.902540099056021
0.312065014045443 0.0255560378779769 0.910044883132989
0.310292029828271 0.0240324612463217 0.916248448933074
0.316648741850111 0.0259710393801521 0.934086725240598
0.3159853369541 0.0273198136144247 0.941808540453709
0.310383034387937 0.0246837275171616 0.951875382127757
0.308906755071906 0.025791594430186 0.954253476081236
0.304231918002345 0.0292370371388435 0.959108724084762
0.294484539808475 0.0229937830374913 0.96293951604739
0.288405662753584 0.0275842752213986 0.964325473979991
-0.43894712247598 0.031392883806401 0.432860503497794
-0.43970704930661 0.0324216108079951 0.436678423318056
-0.441861694485203 0.0324568478148153 0.455835720851204
-0.442149354526456 0.0298944113629405 0.467860094731351
-0.443694703977964 0.0357307183190945 0.471580241607011
-0.443915210631047 0.0301028155667393 0.492175471082641
-0.444715297749377 0.0312600990725655 0.499891634619314
-0.446462501327907 0.0369678793970171 0.50686439774621
-0.445889195578954 0.0302824273930558 0.51952242866142
-0.447194788890458 0.0337832954265299 0.532389918778252
-0.447424757484393 0.0348259597974666 0.532758844098173
-0.446948083229268 0.0324549642377039 0.552643345149306
-0.446708131798119 0.0311735465321274 0.571304134690845
-0.447477146715018 0.0346208890255377 0.576408835146307
-0.448551559479089 0.0394746086743943 0.579865442324714
-0.446799336950362 0.0313472893557915 0.595052030576521
-0.447775135178014 0.0379533966103228 0.613478762574117
-0.446414251053337 0.0352427402663353 0.625030554148042
-0.444187674650944 0.0303193044409723 0.642310959092777
-0.444959011978908 0.0366752099987978 0.651745298526637
-0.444476407350661 0.0351423498680504 0.653946436639177
-0.444158474022483 0.0393457877723892 0.672683959532354
-0.442228696191267 0.0335393884475851 0.682556694436754
-0.441534600613931 0.0365339018143859 0.693665197554691
-0.439573834194888 0.0386654053289314 0.71160661439223
-0.438297825013714 0.0348759695795627 0.714889114020803
-0.436300757853601 0.0341484508145333 0.728463099364673
-0.435472073128527 0.0379903454934818 0.740814343855716
-0.432205692221299 0.033062436732999 0.756955045844857
-0.432411419132094 0.0396636072090237 0.765073518396243
-0.427192690897756 0.0378274517080283 0.788482656594568
-0.423334112858495 0.032860694233914 0.801948516867954
-0.421465269482461 0.0382958274460181 0.816817449821325
-0.417363227466233 0.0303165940879441 0.827934940499652
-0.417358875581649 0.0398663964153884 0.838447149646082
-0.410021947200623 0.0331703692554508 0.860086010127973
-0.409238001733193 0.0306373612995152 0.859938659973828
-0.406534055310753 0.0328121602195974 0.87190735982509
-0.400312311524763 0.038127588740913 0.898885038243542
-0.393177713933665 0.0287069200115192 0.913847688551239
-0.393600996362801 0.0310050810349739 0.915027130163891
-0.390216659357769 0.0391154931502348 0.932429145427966
-0.387999535980211 0.0295092791746335 0.941938664934712
-0.392237326880826 0.0288657282325191 0.951418301999824
0.358529695314877 0.0357065689356359 0.347095448476739
0.358334391133575 0.0325218139233105 0.357663369939551
0.360453700151461 0.0390574735231323 0.368679226546968
0.359425553211136 0.0321220340219876 0.380221155700923
0.360668526299801 0.0370263536983268 0.383018812814867
0.359440370258508 0.031040334962627 0.39341883082367
0.361274812695884 0.0382476750912383 0.401220958342469
0.360667070976101 0.0343299907792355 0.419229351503562
0.361874589920467 0.0393959262346512 0.420034732007773
0.361750259969241 0.0377840680269791 0.434626881747985
0.361204327729131 0.035345524241865 0.436257300821305
0.361135418982674 0.0344503116377311 0.444369833756011
0.361072953738736 0.033341523245601 0.460695613111599
0.362150910411126 0.0387066782413836 0.471320607170165
0.360173926196385 0.0307733773049801 0.477495546702416
0.361502894984353 0.036452624872168 0.478006206879701
0.360084339515479 0.0311836401233794 0.488136502529308
0.360690727839183 0.0349068389381029 0.503604403327795
0.360430127575675 0.0347346133514424 0.51617613946911
0.360313540971707 0.0347753408075629 0.523385757009735
0.360450837767928 0.0360433804577195 0.532609139053227
0.359251339146562 0.031530947214241 0.536863844631839
0.358487380724832 0.0310121847969236 0.549075067736768
0.358843585541977 0.0322405047102103 0.547805904975001
0.359035535091772 0.0350725409846256 0.556855620713951
0.357982884978784 0.0350533233340672 0.576801206045289
0.358385873831081 0.036550141285102 0.575846039831554
0.357972702212155 0.0380251393342895 0.590324422858315
0.356518550431637 0.0337206345110252 0.598689795738709
0.357271597402646 0.0377044433660095 0.602227935032413
0.356951853188584 0.0387290703316259 0.612515844590614
0.356110013258738 0.0377650478526726 0.619519134863077
0.354059309415978 0.0308932947665396 0.624413196852993
0.354287665913999 0.0350023853044089 0.632861653424852
0.352444632015917 0.0313707717593217 0.64410291747149
0.353729120992517 0.0397961565872804 0.652121377091223
0.352674475293873 0.0379373989983494 0.659144012811536
0.351709386499131 0.0375514836022899 0.669107032709728
0.350474564333206 0.0372780446009831 0.682447222153403
0.350883316736934 0.0383582924703592 0.680693241278426
0.349108904480011 0.036769361710904 0.694309810731067
0.348359050142522 0.0363376902105791 0.699571265225846
0.346977988234607 0.0346613322347638 0.707569979166383
0.345875053001518 0.0329362129959607 0.713216249281265
0.346053038408532 0.0392063438174434 0.723806276017027
0.343300142119849 0.0341777913917094 0.736511981058616
0.341827923916563 0.031444084317197 0.743221444925558
0.341880939574246 0.0339152153487956 0.747534224298029
0.340553317620536 0.0314941920551517 0.753669527459421
0.340291564208233 0.0370264571698599 0.766057639179799
0.339788992374898 0.036182732963894 0.76796309179778
0.337268190264215 0.0321396857401349 0.777802253103581
0.335602812951975 0.0322747604347659 0.788488262834718
0.334569135140545 0.0327614206606264 0.795721792331263
0.333716009168156 0.0346844112821479 0.803961128427107
0.333175003934152 0.0360862538001567 0.809458116591531
0.33135674814355 0.0365521178874433 0.821600004355123
0.330938981621529 0.03567841438992 0.822926839514873
0.329149073319743 0.038410739405095 0.838271004561199
0.327180321230945 0.0321838240334847 0.841234544824375
0.325921379199346 0.0319202096657902 0.847370278531444
0.324774755418038 0.0335013901303287 0.855179835429525
0.323615462695715 0.0386065951629276 0.867352278344561
0.321868234347423 0.0344292143114312 0.871219245259842
0.321305387681695 0.0399097114519868 0.880790164190106
0.31702182972257 0.0315020076479034 0.892506908173572
0.318179133013694 0.0402015570557842 0.89718096892604
0.315819071048569 0.0373086997028573 0.905757826901553
0.313461728780249 0.0353211667086877 0.915424870258949
0.316436187995592 0.0357852175315339 0.922608811469143
0.317676500446987 0.031250559898618 0.931556798554182
0.317255774959859 0.0359263528315339 0.944519182146992
0.313128338168115 0.035132414987935 0.951863258966193
0.308941562664653 0.0370830345696958 0.957359927440837
0.299562237131473 0.0372431801240054 0.962787025953137
0.292462369225493 0.0321550229931341 0.963877468169855
0.2905367676194 0.0356368941856691 0.964396817932649
-0.441423142915198 0.0437224475164965 0.43121842851318
-0.444391865733317 0.0500065624824942 0.442580306694649
-0.445128840746985 0.0485302163294839 0.452103277611422
-0.446047796401407 0.050297366730498 0.459605786746268
-0.446451230158013 0.0463627315408256 0.477528286667335
-0.447561008858293 0.0477335036786244 0.488959317454636
-0.448868763116355 0.0504143985772857 0.499120247172802
-0.44723944066953 0.0428527321245283 0.499571335894643
-0.449176862988898 0.0454451358650027 0.518908235737177
-0.449582246246042 0.0446506548481473 0.532010528713235
-0.451015402167696 0.0510920172167102 0.539869487550978
-0.450347417275534 0.0480135732399128 0.543703609903229
-0.450333240497959 0.0478568553469767 0.55278001623218
-0.450973006969976 0.0506309610658575 0.56626374627814
-0.450440162626283 0.048053578726619 0.58130534299555
-0.450483760459665 0.0481110205319697 0.595178198191865
-0.450283374775708 0.0471426513586069 0.600746101048607
-0.448459122196607 0.0419170961346598 0.616298848509313
-0.447745653490638 0.0432340706524051 0.631434717744327
-0.447718073954375 0.0483135388730768 0.648694754479892
-0.446978940591798 0.0481346881155044 0.659257762370783
-0.445635797715023 0.0441371851996896 0.666274530604512
-0.444544450612183 0.0454242059219641 0.685844262058779
-0.442766202331378 0.0447167466841774 0.697834220217848
-0.444402266830418 0.0510389254274581 0.695998346992451
-0.44007767044501 0.0471134176526673 0.721582036246337
-0.436462435233605 0.0402929243622695 0.737231313423997
-0.436647072176531 0.0444214459617161 0.742561254131192
-0.436233963778298 0.0513556752638127 0.756856276396191
-0.434309911970027 0.0488681279576902 0.765645361546445
-0.429259630377516 0.0445431791567725 0.785586337737803
-0.428214574064571 0.0486591352757969 0.795047183903101
-0.426288945209304 0.0482063870427997 0.803924065161061
-0.42110509581858 0.0400003676625981 0.820382546428394
-0.418349258264443 0.0411548040814514 0.835005327684371
-0.417140644149662 0.043275802043204 0.842422740202726
-0.411823033225244 0.0485399706354592 0.865672127867418
-0.407585786336161 0.0413100342686532 0.875232387825846
-0.404020553203906 0.0414214292546415 0.88813778904885
-0.401219829954053 0.0409790745712884 0.897860006516511
-0.397666702354283 0.0472976627919732 0.915593067587376
-0.392587993914817 0.049865297089465 0.932038482297198
-0.392517779193289 0.0427546861359919 0.944181773366347
-0.396802988473456 0.0436087522529373 0.951969484296676
0.360398418588624 0.0411711438480413 0.358146813542616
0.362064535082218 0.0465664864938616 0.365653126804735
0.36164468524911 0.0422156910609123 0.377177999457512
0.361479853507304 0.0404367641550373 0.383470724387298
0.362995576136774 0.0460645829168218 0.394322874396578
0.362535471660985 0.0437389741008548 0.399337108131604
0.361726311631991 0.0399597899349281 0.403972805351702
0.3628979414215 0.0441677334313893 0.414276362486475
0.363272993356262 0.0447038810605145 0.428489053076105
0.363624110037139 0.0458018089506005 0.43377245648576
0.364278143557813 0.0475943147395462 0.447014453541937
0.362350532236331 0.0395537426969541 0.445104430973082
0.364507398217532 0.0478910411875338 0.460301541479202
0.363392075348452 0.0439944616052276 0.471578919481787
0.36368044723423 0.045800175201788 0.479407534795125
0.363154336570532 0.04437992448015 0.490351037919753
0.363465350316013 0.0463255027578432 0.498768576008331
0.363031805386518 0.0449951249229241 0.505632855496206
0.362945615255357 0.0451132759763572 0.512147848024834
0.362992140112986 0.0458009518557742 0.518745836548218
0.362952804169807 0.0467292572238955 0.533488589746092
0.362804066693517 0.047833318609952 0.542376718184755
0.362265323664654 0.0463883700589492 0.546147916089456
0.361215668145581 0.0422119556867052 0.547390304747937
0.3607033942622 0.043632402920939 0.563509913850545
0.360500005773333 0.0443316342902489 0.570516619486928
0.360700704219251 0.0456332577830145 0.572535508264381
0.359381831155131 0.0426923337302729 0.584442594089127
0.360018770502935 0.0481064735729715 0.59660568633603
0.358164038299844 0.043235136286505 0.610051642839214
0.359109368099098 0.0472215764661515 0.609942469494087
0.357332353490557 0.0466197853195115 0.629400772666315
0.356153703929389 0.0430660550264695 0.633278257716885
0.355980712041779 0.0467577259409438 0.645178985288144
0.355107472006329 0.0435519271950882 0.646510906979544
0.354288407801288 0.0443936117342038 0.658111058643236
0.352993627816924 0.0409650431659174 0.663648926767869
0.352774746345935 0.0445548815817884 0.675798864660142
0.352520643300364 0.0447814583512146 0.679304740647265
0.35090051113277 0.0409261288233757 0.687403483356238
0.350463742812062 0.0399696630480631 0.68944929559126
0.350200915116541 0.0466224364272218 0.704353935171971
0.349082619467828 0.0426436617244803 0.705799049303104
0.348343729460951 0.048610919689942 0.723254246413744
0.346294952865003 0.0426938172157958 0.728535762792858
0.346484857025397 0.0458171986216383 0.732988781559042
0.345277690532372 0.0455548775411934 0.742289432567961
0.344857134496363 0.0480288211095709 0.750453791996472
0.343652915560826 0.0482625337022425 0.760682644183191
0.342005344767822 0.0430412898415457 0.764041414896325
0.340379149150158 0.0408941876074048 0.771275497885396
0.339465219789445 0.0470679241664992 0.786238205098
0.338364012435909 0.0439501477582779 0.788520354670201
0.335821448829985 0.0415684198794533 0.80097460596315
0.335177699248785 0.0405503111973731 0.80350873664271
0.334007483399349 0.0427753758723738 0.814194924931116
0.33314549515597 0.0475777471475499 0.826785050497989
0.330665090104487 0.0399571337716876 0.831033451673587
0.330831050898762 0.044330586126926 0.836512242914989
0.329849311911749 0.0427853874063677 0.840387987141192
0.328878524816037 0.0451567300709434 0.848346066768509
0.326549413150614 0.0481244298354197 0.863911722040296
0.325606898772867 0.0451399756626939 0.865106126617677
0.321954838580149 0.0429248383998355 0.881136319746621
0.322192533828041 0.0468105003336177 0.884656116562373
0.320304682957633 0.0455180699570015 0.892762840323425
0.320176398684944 0.0477958148414262 0.896198764198625
0.316300393885273 0.0433328292210395 0.910636112062802
0.317353167141356 0.0466174925650805 0.91924917507091
0.321076483735435 0.0482601212379534 0.925981715994698
0.320711023846909 0.042382170409102 0.935829434523105
0.320619092242809 0.0441777799060138 0.939644010132986
