ply
format ascii 1.0
element vertex 846
property float x
property float y
property float z
end_header
0.396871961768196 0.037296892998572 0.696599212574203
0.398414259307746 0.0464848162777552 0.12733119684495
0.0638497011106648 0.320816774657308 0.525714647755979
0.0563329331574779 0.324445952273549 0.534814658270141
0.405309671312683 0.0464848162777552 0.156191102188269
0.0597218073305922 0.32411146551919 0.553684788156493
0.0434520908771949 0.332028058562342 0.574464906567542
0.0627839787296178 0.323724167607101 0.569234635695511
0.050151520561445 0.329874031835111 0.585423947499751
0.0396927837230327 0.335501146359231 0.608277885657125
0.0680197246370217 0.323087873121932 0.596279319406802
0.057350256562104 0.32876801411498 0.6185286037242
0.055166293485643 0.329866694791622 0.621953323064291
0.0592064764479355 0.328529449548716 0.627887629827149
0.034539339157793 0.340401139194372 0.657081955910241
0.0564735075921277 0.330935383583941 0.650369848270273
0.051538315031163 0.334232172448714 0.672475520434789
0.047051658740467 0.336390247423448 0.677763682545622
0.0435997648571922 0.338439224396602 0.688690741237915
0.043466831748032 0.339597634572535 0.708162971652135
0.0530891396541185 0.335338948596842 0.703345058754851
0.0336597361555492 0.344916861043127 0.730346813446834
0.045497531310732 0.339773939937297 0.726119232220381
0.045423358188228 0.340397863953028 0.736588225064905
0.0250221489538127 0.350643508795053 0.768270266464206
0.0300624187425197 0.347675330242091 0.775645644410666
0.0275497387213203 0.34302820673379 0.775645644410666
0.0466864140674876 0.33850517586025 0.775645644410666
0.0504503196772033 0.328611548033147 0.775645644410666
0.0540335430877869 0.32387634468854 0.775645644410666
0.0794738530871908 0.307383597701463 0.775645644410666
0.0835928005881698 0.304661677243181 0.775645644410666
0.0911461936344182 0.297601225692794 0.775645644410666
0.0939535911848109 0.29489257939302 0.775645644410666
0.102700071162446 0.285463952610914 0.775645644410666
0.113024244318233 0.27754892635621 0.775645644410666
0.131911441475616 0.2684880868838 0.775645644410666
0.138151603687305 0.265628727507041 0.775645644410666
0.150104777824562 0.251657678668714 0.775645644410666
0.160923013324133 0.244313880188435 0.775645644410666
0.174352920831596 0.231946279391298 0.775645644410666
0.178709473712701 0.233241061964292 0.775645644410666
0.182717756387215 0.226076667394523 0.775645644410666
0.455833572870112 -0.000301519200891397 0.531916946100673
0.45291072553537 -0.000998669248308363 0.546719171920777
0.451627050400934 -0.00108433692498529 0.552914928358672
0.448196568061728 0.00107617199683491 0.568464245746613
0.440871172584523 0.0100528079051773 0.596004681596678
0.438244072832821 0.0132745471700261 0.603763104099401
0.423932974742836 0.0200646732866765 0.630054508419007
0.399548889762543 0.0464848162777552 0.659407053331523
0.403231515070808 0.0464848162777552 0.673102332542026
0.395199937985392 0.0464848162777552 0.684072481076198
0.402596091549382 0.0427668879109739 0.693568779659533
0.410972774339461 0.0464848162777552 0.143985614548752
0.415666240504626 0.0464848162777552 0.15255834931456
0.421386808769043 0.0464848162777552 0.162184911988336
0.405893557336939 0.0448972947338126 0.177398955293428
0.421831904362352 0.0464848162777552 0.182789870080104
0.425656012027058 0.0464848162777552 0.193516311398885
0.424496502274387 0.0388669560634562 0.201081229070625
0.425113923133344 0.0387655057604045 0.202041103341972
0.429696737773477 0.0307681820482921 0.210808416642262
0.0684643118134344 0.3236924784586 0.610199597992201
0.0665825060231645 0.325448354855159 0.627431540615509
0.439442467615645 0.0245126386744482 0.233637178002569
0.442623830860101 0.0198697412837321 0.243085539108228
0.444691715267295 0.0233088158089559 0.251194355575364
0.446512744874357 0.0182551529918442 0.258335177767127
0.0668883798229435 0.328261865873031 0.679321276670619
0.452432545630051 0.0201294444644252 0.284375072866746
0.453613136932956 0.0233754871410054 0.290073287289751
0.0554215047997308 0.334827748620367 0.711373232283529
0.0715475729348573 0.32787906993775 0.706625082958305
0.458570303935025 0.0162244952232538 0.318563412651484
0.0576813113452114 0.335435851370756 0.738624803573497
0.0586517859426926 0.335225089357235 0.741999545975575
0.0711775468554634 0.330476675115785 0.74976349781598
0.0649175572861596 0.333554538031776 0.75832099808433
0.0644135843109598 0.330027208340069 0.775645644410666
0.0622657369604616 0.333304326491535 0.775645644410666
0.0792850882534958 0.320201351184681 0.775645644410667
0.091757811727076 0.313491867673871 0.775645644410667
0.100515562271647 0.299871273824782 0.775645644410666
0.109832729552234 0.302401290666812 0.775645644410667
0.113792303856872 0.290320221596081 0.775645644410666
0.121598299990257 0.282077622721009 0.775645644410666
0.144638646024246 0.26770929507 0.775645644410666
0.143333207121822 0.266072656377551 0.775645644410666
0.154209243705413 0.255051108820957 0.775645644410666
0.462389131640783 0.0145928576195337 0.485074981405498
0.171046716005337 0.242785895094711 0.775645644410667
0.45934274088014 0.0106344261120665 0.510018532211158
0.457679082493006 0.0139274802314081 0.520400332064597
0.454951162873575 0.0159930559895542 0.536870844695948
0.453009635172495 0.0151998255191721 0.546241776975163
0.449927225547888 0.0181021691161532 0.561119263313856
0.443175267637798 0.0237188347764614 0.588154322920309
0.441314849586448 0.0196848163982299 0.594694402596633
0.433912987704411 0.0265853251206434 0.613429956136986
0.430620457675296 0.0285166855851257 0.619622195734974
0.414231295247449 0.0464848162777552 0.658842571482301
0.414253594178618 0.0464848162777552 0.655981748302862
0.405375331958686 0.0464848162777552 0.68019402470323
0.432551566054827 0.0260205043034478 0.671706739676369
0.428286005557038 0.0464848162777552 0.165989941792096
0.431114651839858 0.0464848162777552 0.166134578544782
0.425368802589015 0.0464848162777552 0.186746294480989
0.431776187319519 0.0464848162777552 0.197555370834442
0.431086124697496 0.0464848162777552 0.209187484687132
0.430193232290166 0.0459854512698325 0.211758252784786
0.435565252220229 0.0420248336975528 0.222750871105079
0.440329547742695 0.0464848162777552 0.231901137559792
0.442303746066914 0.036679298230808 0.24183038730533
0.444096261737004 0.0368084385263883 0.248859397501769
0.446224298624364 0.028792507380952 0.257204090510172
0.446870534310141 0.03083934866869 0.259738181174164
0.450490018224421 0.0314962450668147 0.274999315436887
0.453141036193828 0.0257560735477193 0.287794656882947
0.45416766238897 0.0249100251257303 0.292749746910965
0.455185535698086 0.0280600566006798 0.297662590463622
0.457464339530097 0.0211922992092709 0.311661814832012
0.459623556133242 0.021456689646222 0.325136068192823
0.460676551329721 0.0261036467641385 0.333302951931938
0.461092503083225 0.0266581457374767 0.336952052060383
0.462774217044306 0.0178366764738262 0.351705548300508
0.46368776376529 0.0227296687590873 0.361334424209883
0.464344979996607 0.0245880744865524 0.370970456196354
0.464913580335806 0.0227691615013099 0.379307211734266
0.465581748659366 0.0207209231849964 0.393365425219479
0.46574839311672 0.0207945862118421 0.400705484048625
0.466030003325435 0.0269198819563412 0.42029286682619
0.465971242735719 0.0214436484060004 0.422881048828766
0.465509140921326 0.021463097371283 0.443234888113616
0.465247786173942 0.017342838513802 0.449194915838121
0.464500027980104 0.017656570529331 0.460158464105236
0.46418407643406 0.0182315084789313 0.46479091086898
0.462078311960963 0.0190035911389366 0.487801769125478
0.461393461951807 0.0196181863902757 0.493809884815153
0.459191578418828 0.0241877118095085 0.510961837898687
0.458793315179102 0.0180493633598234 0.513447137330223
0.455311153676023 0.0350434607072971 0.535133321492437
0.45214385941434 0.0261482980590863 0.550420510038903
0.450842995824781 0.0293095242994716 0.556699227873044
0.447442453206697 0.0341375057653187 0.571421364110341
0.444698570810597 0.0372302080783065 0.582180978467859
0.441609719584823 0.0464848162777552 0.603279830197031
0.42932249543714 0.0464848162777552 0.625478616126622
0.423398967391434 0.0443829154450006 0.630755366675876
0.437231881232592 0.0464848162777552 0.636049596402838
0.437159354649784 0.0464848162777555 0.646944787718475
0.431756003246134 0.0464848162777552 0.663569379412087
0.423053179003501 0.0464848162777552 0.678243342658678
0.447137417870268 0.0464848162777552 0.192353104636128
0.443197400459036 0.0464848162777552 0.205934601978571
0.444462675256071 0.0464848162777552 0.214796788781432
0.449561464830392 0.0464848162777552 0.227948144878424
0.440978366092378 0.045792123514528 0.23794961888498
0.444726223045123 0.0464848162777552 0.240388040256928
0.452785689828842 0.0464848162777552 0.250525600689125
0.451546992647024 0.0464848162777552 0.260596473641448
0.449761918541349 0.0456332362598132 0.271485086503255
0.450796086404406 0.0412502874119563 0.276476576969575
0.455214052849853 0.0451449401324805 0.29780023068264
0.454697433298667 0.0456321039570201 0.295306726816794
0.457424789979832 0.0349327268866093 0.31141501205187
0.459241937731186 0.0402986886821776 0.322754638266361
0.459435237756851 0.0373980261854524 0.323960896830995
0.461613387674624 0.0451467092271933 0.341521716723105
0.462062681579601 0.0297457054550426 0.345463323970938
0.463297987646058 0.0399265515983416 0.356300531622561
0.463866849954235 0.0279295906450165 0.363960166184555
0.46496331474454 0.0392374640644412 0.380036412156521
0.465081403410695 0.0332582894675565 0.381767815171366
0.465706362941256 0.0315272121330248 0.398854213592945
0.466088415248474 0.0406960721574532 0.41568217448231
0.466070627565604 0.0360328097724077 0.418503522509192
0.465760727010648 0.029181734264597 0.43215347127241
0.465327476885568 0.0304339043442646 0.448026499402768
0.465070625900868 0.03481287339736 0.451792420246449
0.463648201335062 0.039874537357473 0.472647852539992
0.463726651524976 0.0335852577158935 0.471497624497332
0.461828612131753 0.0393415674873732 0.489992358950295
0.460055800433671 0.0343717625580763 0.505545045868164
0.458252807641495 0.040574918451215 0.516820090045823
0.457163220040927 0.0422403430088528 0.52361949098016
0.453674999380846 0.0459688252649453 0.543030345619328
0.457343366255693 0.0464848162777552 0.555967685375416
0.450798379343459 0.0464848162777552 0.563991762035366
0.448008277326504 0.0464848162777552 0.581299225523243
0.445386389501708 0.0464848162777552 0.597667997051026
0.448115819772456 0.0464848162777552 0.602750272871644
0.445602439483548 0.0464848162777552 0.617183863308229
0.442902607872665 0.0464848162777552 0.629966403084143
0.449043228603389 0.0464848162777552 0.638953422999746
0.444046550068007 0.0464848162777552 0.648765310271117
0.4623143018472 0.0464848162777552 0.204917478494531
0.455459385849157 0.0464848162777552 0.217857690592874
0.468612673633157 0.0464848162777552 0.234443168785621
0.460950612852298 0.0464848162777552 0.251426320530444
0.475056572443122 0.0464848162777552 0.242679109772506
0.466569591164653 0.0464848162777552 0.269991607411491
0.45985538551039 0.0464848162777552 0.281626793317913
0.456584075767968 0.0464848162777552 0.2961062239497
0.463282631260584 0.0464848162777552 0.298623330303338
0.468114005433535 0.0464848162777552 0.300100186393123
0.46820753712963 0.0464848162777552 0.315532295090057
0.478277026715451 0.0464848162777552 0.324665843174599
0.472175590271824 0.0464848162777552 0.344037743493995
0.472235329108171 0.0464848162777552 0.348176790391034
0.463511406986264 0.0444931204177882 0.358748700542775
0.467119928930297 0.0464848162777552 0.365136148432602
0.465269659392233 0.0453761435432934 0.384528003634923
0.470824376424957 0.0464848162777552 0.396833508129356
0.465765363109214 0.0457764413141807 0.401452948112022
0.465931795638876 0.0422984040036287 0.408783672326906
0.468526211301493 0.0464848162777552 0.422590129430154
0.472404942047821 0.0464848162777552 0.437283498156732
0.464684042042245 0.0442943977789082 0.457460470196587
0.46436474236865 0.0454821304056119 0.462142006837683
0.463723967216115 0.0445260709488161 0.471536981538155
0.465425269742978 0.0464848162777552 0.480811969289079
0.470069555476867 0.0464848162777552 0.488893144359138
0.472631581222407 0.0464848162777552 0.50290649202637
0.473081643131222 0.0464848162777552 0.507680625338191
0.459021301881814 0.0464848162777552 0.526722011601639
0.467064469423219 0.0464848162777552 0.54191715510622
0.457897228739481 0.0464848162777552 0.558650210166463
0.474772766809475 0.0464848162777552 0.557019913347464
0.466484613085251 0.0464848162777552 0.568384268311195
0.457957040456725 0.0464848162777552 0.589171044999564
0.463476618669234 0.0464848162777552 0.598561401053807
0.471354116281967 0.0464848162777552 0.605966281886094
0.463662277955212 0.0464848162777552 0.619620286875533
0.45627812165962 0.0464848162777552 0.634649137067132
0.455193232620614 0.0464848162777552 0.639409797852177
0.479638712361171 0.0464848162777552 0.256024199661446
0.475578255281537 0.0464848162777552 0.269611748452256
0.474405096445863 0.0464848162777552 0.286717823752345
0.484331299382017 0.0464848162777552 0.290369187721652
0.481509753935059 0.0464848162777552 0.315720764510938
0.481406683660177 0.0464848162777552 0.336426078774207
0.488393946959416 0.0464848162777552 0.332927154136571
0.47763815614397 0.0464848162777552 0.363219453843955
0.481232718875054 0.0464848162777552 0.361735093669319
0.490226035984014 0.0464848162777552 0.366573229724718
0.487160446646248 0.0464848162777552 0.380015252877654
0.479009365157693 0.0464848162777552 0.400419687652856
0.48844300350388 0.0464848162777552 0.406653557025677
0.480860491331792 0.0464848162777552 0.425807178597723
0.481140129094823 0.0464848162777552 0.438197296116759
0.484434595075993 0.0464848162777552 0.439257261137814
0.486035686029137 0.0464848162777552 0.451994365899435
0.481904298095356 0.0464848162777552 0.458985320782973
0.479788817096786 0.0464848162777552 0.480116621939265
0.492708896745617 0.0464848162777552 0.47750032074982
0.485003461923219 0.0464848162777552 0.494800055491824
0.490873977489626 0.0464848162777552 0.500560393310699
0.48934282023966 0.0464848162777552 0.512719660612081
0.481692428788804 0.0464848162777552 0.53238018563169
0.485688959985549 0.0464848162777552 0.54171535795812
0.486042532167189 0.0464848162777552 0.549223833679114
0.493536552062397 0.0464848162777552 0.340955630198583
0.494323017510419 0.0464848162777552 0.432429862790078
0.496580124400386 0.0464848162777552 0.459290797726023
0.493245551167415 0.0464848162777552 0.47406742650105
-0.222929292360752 -0.366014597899774 0.764682743667876
-0.204497272000727 -0.370375943173181 0.775645644410666
-0.153690967923871 -0.37697103032248 0.775645644410666
-0.234604176016855 -0.355579547403068 0.665867053145718
-0.224583061703082 -0.360289168320314 0.675727866425394
-0.23805000957911 -0.355756118909193 0.694172886267544
-0.236167221440403 -0.35646830880231 0.692978333386639
-0.223385341298801 -0.362079167739387 0.698562806224049
-0.232450325765383 -0.359136860459675 0.712902635770795
-0.231645137449718 -0.360526060997924 0.731533626113717
-0.249346786714547 -0.35483807728527 0.760552398243047
-0.231214519955802 -0.361753189839427 0.750042500977003
-0.249437791893143 -0.355618694043705 0.774994237001518
-0.238321449820192 -0.354121685768205 0.775645644410666
-0.234013027030489 -0.360326445671691 0.775645644410666
-0.220882301114431 -0.36459714153204 0.775645644410667
-0.210482078433021 -0.365466259824871 0.775645644410666
-0.200750384776276 -0.359598814450768 0.775645644410666
-0.182268550365813 -0.362606508290347 0.775645644410666
-0.165974408335951 -0.363915474026051 0.775645644410667
-0.158036617600718 -0.368859438282709 0.775645644410667
-0.155842437021092 -0.366372834376299 0.775645644410667
-0.135122375937744 -0.375316076947549 0.775645644410667
-0.120063257300172 -0.379045734179131 0.775645644410666
-0.116957783851622 -0.374142385696618 0.775645644410666
-0.0914162833702272 -0.376059292058693 0.775645644410666
-0.0898481990595349 -0.374713939981189 0.775645644410666
-0.218821941186255 -0.348572781196247 0.426838513540699
-0.222137824375763 -0.348934128490976 0.457455369259446
-0.217564060359798 -0.350970578926334 0.45996028984773
-0.228516553204642 -0.347674904190107 0.481861791566444
-0.213968429888314 -0.354149191102226 0.489772773682039
-0.238411615488499 -0.346006790700916 0.52475701524049
-0.236461579551183 -0.347091027286245 0.529636868684733
-0.219115665353899 -0.354132781887545 0.527110364868407
-0.213222077687445 -0.35625544781904 0.521488703821142
-0.239490960212912 -0.347746666780054 0.563353104284799
-0.250748692429514 -0.344019188584846 0.579865352863058
-0.233222946937876 -0.351225774563091 0.578933248055459
-0.226940166489638 -0.354010889231373 0.582157628007669
-0.240691879692676 -0.349346169826819 0.600360577604907
-0.248848276204071 -0.346855025739902 0.616020744030327
-0.249008620909011 -0.347090642839187 0.621351137890281
-0.236022807654496 -0.352398647795642 0.62009995996577
-0.26288514880806 -0.343296495456663 0.655830639058779
-0.248565838163146 -0.348579144927848 0.644383881595661
-0.236575364937221 -0.353537562110636 0.644239175129495
-0.253681466818955 -0.348254209474325 0.676045451427281
-0.247019027749511 -0.350877479722878 0.673638178581456
-0.266087951955039 -0.344918385878382 0.707867329659029
-0.244190543432503 -0.353067143613361 0.691605357471969
-0.264437264576027 -0.346264323149475 0.719554050807062
-0.265071265619318 -0.346685363455345 0.731619363119683
-0.274258424177275 -0.343964581362938 0.75076185411878
-0.28515634589994 -0.340047496088291 0.761297578832075
-0.269288907050259 -0.346718361708561 0.763033419121575
-0.276539853206969 -0.342658947380751 0.775645644410666
-0.267098413169386 -0.343720942727871 0.775645644410666
-0.258991363796646 -0.342865440205238 0.775645644410666
-0.247564795908397 -0.345598820461348 0.775645644410666
-0.235040582801898 -0.347276042042299 0.775645644410667
-0.213761478985785 -0.352515551730457 0.775645644410667
-0.215567883530622 -0.356663658395367 0.775645644410667
-0.197183706644218 -0.351381952618752 0.775645644410666
-0.186820496684526 -0.356828044753098 0.775645644410666
-0.172712241995092 -0.36264818535035 0.775645644410666
-0.151832169651438 -0.360324472523414 0.775645644410666
-0.142068709412288 -0.359783767208116 0.775645644410666
-0.138647187646314 -0.36738045260735 0.775645644410666
-0.127548773130161 -0.367146698085187 0.775645644410666
-0.109206828027885 -0.361096480046698 0.775645644410666
-0.0976177598088731 -0.364897680048754 0.775645644410666
-0.0873834522564388 -0.365239718403265 0.775645644410666
-0.0681607749349751 -0.372021945141394 0.775645644410666
-0.0637057138792321 -0.368221494205455 0.775645644410666
-0.0436757564895357 -0.370438888775978 0.775645644410666
-0.211440645543554 -0.339717014025281 0.216590537763988
-0.2224282365697 -0.338336114456797 0.272541179966108
-0.219183871207849 -0.340758676709399 0.291578461143396
-0.210503942645383 -0.3444779886008 0.293766283964259
-0.226060866341278 -0.33991124444869 0.326894734859453
-0.229813032519909 -0.339008135035385 0.338385357301719
-0.224918626169024 -0.340928905140256 0.33650476306921
-0.228973573365485 -0.34044861418916 0.357670803317979
-0.211664340218223 -0.347424997567103 0.354258752025944
-0.238116490145623 -0.338153603052094 0.384004021692156
-0.236456940436908 -0.339155447462637 0.38955329643528
-0.234631560150538 -0.340842280538797 0.405979220626868
-0.224472833944708 -0.344616066067423 0.398318143768212
-0.241680970014818 -0.339266219508644 0.429696801641284
-0.245461013917749 -0.338348133997874 0.441126912121272
-0.246257249242537 -0.338699469298666 0.453148008941264
-0.238567786912754 -0.342027385031411 0.455668827128932
-0.244011139805498 -0.340461120334564 0.467818741248588
-0.244035224868836 -0.340782007030773 0.473657918647461
-0.233884173639836 -0.345168383280966 0.476864144858829
-0.270649768344015 -0.332440037891802 0.520993110705211
-0.269480287793873 -0.333121182043045 0.524465055113018
-0.256557902581195 -0.338450021323981 0.524045238048312
-0.264299923936726 -0.335966019372281 0.536802296725785
-0.264125259083619 -0.336241711201826 0.540390964164663
-0.268374513968357 -0.335419386484147 0.556941105719047
-0.26808355717945 -0.336157001677851 0.567831830663156
-0.26533721583089 -0.337777115954102 0.576347894557042
-0.276610483663038 -0.334315300060436 0.597662204743764
-0.263748647455679 -0.339290199344154 0.591438564774457
-0.284560177206493 -0.33234080907073 0.620929396201956
-0.266989938474109 -0.33920902301037 0.613700339735768
-0.280484427098413 -0.334807772833268 0.634672722417398
-0.26254890291545 -0.341607186427877 0.623559155220902
-0.265255950219108 -0.341203325784648 0.63622067947785
-0.26815936360466 -0.340900860406847 0.652107130123644
-0.271929227060545 -0.339807158757789 0.660363489795984
-0.307138834556022 -0.327467886021723 0.701373555415204
-0.294404166354239 -0.332510394286736 0.695883562897972
-0.295161642804334 -0.333051653224321 0.710973158899325
-0.28717899675941 -0.336359559956618 0.710997627888017
-0.28058119886722 -0.339345952994102 0.715471400805127
-0.307973518815632 -0.329875730619581 0.748580498929992
-0.307969317703498 -0.330458548511788 0.758835545277032
-0.31066894696753 -0.328756055092996 0.761946699037397
-0.306926365260833 -0.327812296982458 0.775645644410666
-0.297830155712322 -0.330947104356511 0.775645644410666
-0.282074576144809 -0.332665507184957 0.775645644410666
-0.276223890181436 -0.339587945375121 0.775645644410666
-0.265380467868777 -0.335696734354616 0.775645644410666
-0.262589076534037 -0.34105231854604 0.775645644410666
-0.241090447646613 -0.338760166773396 0.775645644410667
-0.233623090565825 -0.345945879244138 0.775645644410666
-0.223587331489269 -0.34190788310222 0.775645644410666
-0.206731454623503 -0.348068557744511 0.775645644410666
-0.19163446582171 -0.342204162144613 0.775645644410666
-0.178758722674335 -0.347160727118374 0.775645644410666
-0.179189393022458 -0.352148500043213 0.775645644410666
-0.152498539269289 -0.350657617110462 0.775645644410666
-0.148689521514774 -0.347847143018478 0.775645644410666
-0.133403163966056 -0.349977575889548 0.775645644410667
-0.119854266191793 -0.351374478428675 0.775645644410666
-0.119741525808053 -0.352041008221917 0.775645644410666
-0.101381997628634 -0.354442010527264 0.775645644410666
-0.0789120756729091 -0.356806304144932 0.775645644410666
-0.071443259648855 -0.358890570858805 0.775645644410666
-0.0605035332492659 -0.367100784626326 0.775645644410666
-0.0462228280163251 -0.363705911447563 0.775645644410666
-0.0383715018658833 -0.360848430489903 0.775645644410666
-0.241827154191755 -0.328085611947305 0.233446482923919
-0.221933277443789 -0.335739323098675 0.223093935405917
-0.222131115214246 -0.336383700159 0.235912337071267
-0.25591167939587 -0.324725080436399 0.27709907262378
-0.229671412152965 -0.334535144483307 0.258409315000004
-0.222462621228724 -0.337469870633831 0.257504788808469
-0.230879707930538 -0.335029019948293 0.275958239943957
-0.229098304295057 -0.336512395350602 0.28911495477594
-0.237772667421941 -0.333563286956728 0.300479246161417
-0.263755090847044 -0.325120970200137 0.341422563777154
-0.253735936323177 -0.329283357269839 0.341639944894889
-0.24937786152587 -0.330907210139624 0.338439936922926
-0.261094717872602 -0.327623255365373 0.366135906400996
-0.262400520868963 -0.327455731898767 0.37272504545965
-0.244704179743917 -0.33410978973695 0.360794662967667
-0.265855524826546 -0.326848173056507 0.38725933172419
-0.254385021362548 -0.331908220310848 0.392709294751174
-0.285754805118454 -0.321149846152572 0.432160628834287
-0.277956836853948 -0.324251448449704 0.42989419762855
-0.27328744573896 -0.326526443062813 0.435909971700664
-0.282402434203474 -0.324133762647691 0.460315330466911
-0.270152820225736 -0.328725534934468 0.451805593251376
-0.262877418096458 -0.332040160052592 0.45711870647079
-0.267673231662574 -0.330746995239335 0.469354749908715
-0.295228500459938 -0.321188825499667 0.502102909128209
-0.297987855623734 -0.320758790131271 0.514684872988157
-0.288609022892318 -0.324507631742911 0.512284734785843
-0.301457345466111 -0.320032704677646 0.527233257912905
-0.298131169230002 -0.322394930104728 0.544607643712936
-0.299074402698189 -0.322472513191741 0.552872055596811
-0.303833793872005 -0.321233654602601 0.568460366551854
-0.305446909727657 -0.320861956460221 0.581585910748746
-0.279497929553874 -0.330878734786097 0.558120329416143
-0.294770099304412 -0.326320124534086 0.58931072913611
-0.309741512135009 -0.318823135405246 0.600628769740572
-0.291034605489866 -0.328483219318518 0.600178610775035
-0.299388444773209 -0.325911632567297 0.615862440239109
-0.306774490901822 -0.32290489562311 0.627984751093745
-0.315786551050677 -0.317314132799639 0.648056493302887
-0.30849523453668 -0.322620884914378 0.643690777262301
-0.313282317336349 -0.320172847970989 0.662258946752761
-0.314104789050066 -0.319899064792293 0.667674139604454
-0.304739888537297 -0.326961004508403 0.673502077477823
-0.31820736105215 -0.318216209266621 0.689878556216937
-0.314512395607664 -0.321620136596817 0.69849688649657
-0.319991276742495 -0.318247846085575 0.711102822678967
-0.320238982484534 -0.318786470106455 0.722146168769395
-0.310492897835169 -0.326307064354823 0.722785108865771
-0.317861523737424 -0.321869630293735 0.7412243183966
-0.319778554909113 -0.320801011073049 0.747322226441438
-0.32642664981944 -0.316930856595267 0.765979617452235
-0.318275445978797 -0.322847001374851 0.760849756855896
-0.317078964449631 -0.318341219119006 0.775645644410666
-0.314114226603445 -0.326934225271615 0.774401439928864
-0.301155263190217 -0.326807883001581 0.775645644410666
-0.283090410858682 -0.328340113418907 0.775645644410666
-0.267349632634037 -0.330770404273859 0.775645644410666
-0.272403776970959 -0.327977380032522 0.775645644410666
-0.25063199571283 -0.329463015490726 0.775645644410666
-0.251136732494605 -0.334309852066395 0.775645644410666
-0.225792901723271 -0.333063311861864 0.775645644410666
-0.220799944835747 -0.333332774533117 0.775645644410666
-0.207529942429758 -0.335321683221081 0.775645644410666
-0.111186599977181 -0.34297109423125 0.707972719934402
-0.183883354264148 -0.342760009460713 0.775645644410666
-0.112415599895514 -0.344192118268103 0.730065880697943
-0.104589379701434 -0.343125859100191 0.729316712537235
-0.14374379887598 -0.344478698297312 0.775645644410666
-0.131193092258041 -0.347366931970433 0.775645644410666
-0.12702654685132 -0.349289832015515 0.775645644410666
-0.104690397854446 -0.351319973936507 0.775645644410666
-0.10751310565753 -0.346500173181834 0.775645644410666
-0.0861383149085228 -0.353484706834576 0.775645644410666
-0.0719005456714243 -0.353271401915535 0.775645644410666
-0.0635013260046219 -0.348584261061513 0.775645644410666
-0.050340574235828 -0.355488647158647 0.775645644410666
-0.0379135729576119 -0.35703212332998 0.775645644410666
-0.0241969245439542 -0.356376236644526 0.775645644410666
-0.0157807140528364 -0.359764676008858 0.775645644410666
-0.278176379670934 -0.315363187386844 0.274636210020897
-0.251896669026035 -0.324632903503455 0.246121880580553
-0.272817508429105 -0.318152780263499 0.284693559783196
-0.260054953132131 -0.322861611992591 0.274500034938171
-0.297259593850472 -0.310425924836948 0.328219583988143
-0.272796936146049 -0.319792691743732 0.313484856921932
-0.260702072725131 -0.324098975319117 0.30106797678391
-0.284701081815103 -0.316465280775644 0.341783015057362
-0.284190727450755 -0.316652041895483 0.341348256092452
-0.299725346224687 -0.31155992389826 0.374079049983113
-0.2843771082242 -0.317882652559227 0.364428943892388
-0.270946861408085 -0.322956271922802 0.355792367187633
-0.279759248506702 -0.320829399195302 0.382676716729392
-0.280232703173549 -0.32097621135059 0.38872874070346
-0.301016818212954 -0.313717514216848 0.421795516869448
-0.288387163454675 -0.319010866515886 0.413654226898386
-0.288053325080218 -0.31956867877353 0.421058260075426
-0.302128615314231 -0.314511284727121 0.446753948896854
-0.302451146047803 -0.3149365129306 0.456948911687564
-0.292040484349647 -0.319638889401315 0.451444187328675
-0.301016650698236 -0.316863026853656 0.469463676858865
-0.302378460320851 -0.317042720982139 0.488023155313795
-0.303756090844258 -0.315921563096835 0.487052255960953
-0.308010221453824 -0.314265739517291 0.511428786392187
-0.305883782539859 -0.316202170105062 0.516047359801423
-0.314908357363099 -0.310093806240379 0.528420411351311
-0.308101589516289 -0.315455739248925 0.53052568245822
-0.315725192466115 -0.310794225399134 0.54853405143874
-0.31891322876495 -0.309141512642214 0.560560320927433
-0.313662012263949 -0.313230277853939 0.561459996008006
-0.316888220286892 -0.311668454270009 0.57530757860767
-0.317494320379005 -0.311938570260656 0.586449395953067
-0.319486499600422 -0.31098371837822 0.595145325280109
-0.311405700102146 -0.317113570814464 0.594072913510736
-0.315910397284771 -0.31464380252681 0.609027937487951
-0.323702090431254 -0.310077298012295 0.630430857345346
-0.322754797248197 -0.310714970986308 0.629078873789177
-0.316381269016791 -0.315866760774938 0.633037493496839
-0.323236479245553 -0.311924598955477 0.653012120489582
-0.316100463416122 -0.317664734083655 0.657020267013946
-0.326903531853165 -0.310081254051739 0.667719756395069
-0.326907880879065 -0.311478799982772 0.688950078528403
-0.322409999073028 -0.31500543651319 0.690091101768072
-0.325771745430899 -0.312852060894765 0.696549888047534
-0.322786986931983 -0.31579488908205 0.706439140483862
-0.323270703246491 -0.315664666962722 0.710090673715946
-0.33764799831618 -0.30626582067915 0.734842358887746
-0.336637822577471 -0.307769023883016 0.74587619941238
-0.34064911227555 -0.305699370153843 0.761157201652515
-0.330665746581294 -0.312851569622773 0.75345383924559
-0.337634475933939 -0.308679130089301 0.771258709459478
-0.331383056939449 -0.313585186822883 0.772913240132528
-0.318600194881438 -0.316136276105965 0.775645644410666
-0.312311004108579 -0.310505929996188 0.775645644410666
-0.297005829054763 -0.311574871968895 0.775645644410666
-0.290102803670895 -0.320479842845358 0.775645644410667
-0.276189846163816 -0.320678080731709 0.775645644410666
-0.258831868317792 -0.317529524504033 0.775645644410666
-0.249569680213691 -0.325290912756283 0.775645644410666
-0.0887181139261781 -0.337349070816226 0.652407483212426
-0.0982544228546837 -0.339526521567128 0.67163787201556
-0.108522451329165 -0.341502929163989 0.684665627488945
-0.103228633699769 -0.341271461708479 0.694374493132731
-0.0809180125570308 -0.337894868671478 0.685210702928945
-0.103240801195196 -0.341872294159273 0.706873179158778
-0.0758775818900347 -0.337993459899503 0.701108097739614
-0.079452592441449 -0.338982178108766 0.7119137189442
-0.0668700307013916 -0.337299541716926 0.711369104539221
-0.0720530027268978 -0.338894335398591 0.730400730297479
-0.0881491448156465 -0.341791339628238 0.746626228244496
-0.0921047735448158 -0.343212274217517 0.765401796647907
-0.0834344076618629 -0.342138124010624 0.766806056604965
-0.0869621451334017 -0.342913884880453 0.77329964836174
-0.0602135869334387 -0.338865497544567 0.762310191946244
-0.0635400759937529 -0.339708364510558 0.770756102179009
-0.0415529895513685 -0.349463535138297 0.775645644410666
-0.0328509924525838 -0.34281860989589 0.775645644410666
-0.0279811947183224 -0.343582479583388 0.775645644410666
-0.00557750808003872 -0.349746941433706 0.775645644410666
-0.00331996143992296 -0.354044176476736 0.775645644410666
-0.301747321395228 -0.304380896314682 0.288794357069821
-0.300733068809034 -0.305400931221003 0.2924583940655
-0.298812518153066 -0.308290940617618 0.313922647967841
-0.295968407147208 -0.310171678510688 0.313077609840914
-0.310944766281279 -0.300918357659632 0.343275047907133
-0.310127763292746 -0.301659908783756 0.345012452791638
-0.313161665671792 -0.300282191652863 0.359413875446033
-0.304859551448875 -0.306483592139693 0.356852144999254
-0.302325768705614 -0.308470856863122 0.35750418463207
-0.311117369102573 -0.303480714761364 0.384114623928728
-0.305768730596404 -0.307989652788412 0.390249098128626
-0.308294887687349 -0.306576886503362 0.39821488024428
-0.306058401679976 -0.308781264249057 0.405614464799299
-0.309740154294215 -0.306967725396157 0.420944753660977
-0.308710623377867 -0.308266189784056 0.428650708651987
-0.316209272254775 -0.303270797383912 0.440146095802328
-0.309713041600398 -0.308545577722212 0.444541749137141
-0.316370757868272 -0.304240587001011 0.456721100596104
-0.318675257131282 -0.303548372327221 0.473029195048639
-0.317981333805023 -0.304918285893602 0.485720675250211
-0.325360941775005 -0.300079276877354 0.498201742050938
-0.315877235118467 -0.306975194360646 0.492424875909885
-0.328809587081115 -0.298349832155562 0.51209571386176
-0.315001124458948 -0.308663238940768 0.50781899647268
-0.320042148371109 -0.306124134332191 0.527960071703243
-0.331058565416971 -0.298734482163362 0.544078003831563
-0.33344186201907 -0.297936888631217 0.559705405316382
-0.319319046602472 -0.307971867124091 0.547553571120345
-0.33542797688003 -0.29761447175721 0.577915338567783
-0.330503571594464 -0.301758576962635 0.583454113514189
-0.330645608840586 -0.302072855462071 0.589868714349908
-0.325955054455322 -0.305922209295717 0.593659952064607
-0.334435887967817 -0.300827086316292 0.615065562479028
-0.340341142405202 -0.297163323924194 0.628212467893466
-0.34136094816134 -0.296943532225668 0.636740658849397
-0.331668287446404 -0.304403389572611 0.637080390470962
-0.340491557167934 -0.298447112291004 0.649417369370087
-0.334290617305124 -0.303548265594269 0.654615592215926
-0.338914731399306 -0.300426822713032 0.661083192163795
-0.338144693627383 -0.302234953485348 0.679530714948035
-0.341273167552037 -0.30029959366528 0.686580841044644
-0.342048098100682 -0.300546895046362 0.699340200817508
-0.336529145846159 -0.304750753138125 0.698870656027463
-0.350449952108065 -0.295879174899276 0.726304645226148
-0.348159320157801 -0.298040012441544 0.732414727144027
-0.340546240504475 -0.303716184386185 0.729905831100295
-0.352135311276201 -0.295864564951491 0.745681949131217
-0.342780499310836 -0.303495289503603 0.752539943870313
-0.341732202579976 -0.305058583946875 0.76404116285696
-0.348513336317391 -0.300434171357141 0.772814887684718
-0.341357272605892 -0.300891323326172 0.775645644410667
-0.323722204784551 -0.302900473002626 0.775645644410666
-0.325046898895125 -0.301574349441297 0.775645644410666
-0.300370596290259 -0.302175881325225 0.775645644410666
-0.295398835137911 -0.309031850735154 0.775645644410666
-0.284218386736014 -0.30894022064734 0.775645644410666
-0.281220384758526 -0.30910125930948 0.775645644410666
-0.0584291640495292 -0.331008740618803 0.603334824379949
-0.0547653607471106 -0.331081314348421 0.614909339284266
-0.0653144690163555 -0.332980155653641 0.625547382204416
-0.0545025824513938 -0.332081842260252 0.636499829097795
-0.0764300276390445 -0.33598876901966 0.657777461055056
-0.0671571675466541 -0.334910125579692 0.660742446810992
-0.0485980503861755 -0.332423854381934 0.659847287222469
-0.0480804203673892 -0.332763549405895 0.668354017726004
-0.0400084123559186 -0.332169372443064 0.678126420578944
-0.0376177118904654 -0.332174619742764 0.684800716054675
-0.0372613461454021 -0.332503995512337 0.692649378030148
-0.0378468222864652 -0.333086087196626 0.70318286938956
-0.0458511850258193 -0.334750684107918 0.715922922837274
-0.050717707569405 -0.336026053472194 0.72916099914757
-0.0383608689411807 -0.334177872337011 0.724543636305565
-0.0322670159281374 -0.333719057558265 0.731707408156462
-0.0535601347300345 -0.337900744447197 0.760457813115682
-0.0367556906644453 -0.335762686070865 0.762007317808994
-0.0361515618172976 -0.335930041807234 0.76715693942012
-0.0222591120070273 -0.33260125568507 0.769687961021372
-0.0189797076945977 -0.340392427140635 0.775645644410666
-0.00772704218886986 -0.335147460435114 0.775645644410666
-0.000908400592036248 -0.336855149570453 0.775645644410666
0.0216227720111669 -0.34451007572729 0.775645644410667
0.0221392332738404 -0.340607149973912 0.775645644410666
-0.318927739815912 -0.29279655507936 0.313021942101804
-0.323806382117028 -0.289986912870528 0.327174727232471
-0.314135875864463 -0.297012587272639 0.321192065075161
-0.314976509168658 -0.296849570369331 0.328497113676677
-0.312741224731723 -0.299596429189243 0.344131948283406
-0.315594382033402 -0.298059990087897 0.354026096660598
-0.320668030776147 -0.294955015958714 0.365970831645655
-0.32781227605251 -0.290677625784581 0.384226220297403
-0.327361450947812 -0.291305131480446 0.388493483704544
-0.328881693548377 -0.290928954974144 0.400471153301244
-0.32592994241081 -0.293346287824614 0.402780382878018
-0.324351001865387 -0.295218264985698 0.412788920429058
-0.328263950031469 -0.293575017194399 0.433388491490919
-0.326988193840197 -0.294910965294698 0.438799204242891
-0.331671658898428 -0.292331020357262 0.454163363037645
-0.326273223150543 -0.29656370132683 0.455532090948964
-0.329457566606152 -0.294476016372158 0.460923432228367
-0.324905110828544 -0.297973624397427 0.460989899527706
-0.325194162398939 -0.298576636398082 0.473489845338672
-0.333394575904802 -0.293851361630753 0.497239539187734
-0.331277635184553 -0.296171492674033 0.507783529072031
-0.33343267073068 -0.294811911929985 0.512239634824448
-0.342352910385174 -0.289103723680845 0.529464036948546
-0.332800325031379 -0.296611248142852 0.532155071022627
-0.333571293422118 -0.29643377055173 0.538430848670071
-0.340409143538898 -0.292497593569822 0.558294298219821
-0.341071020110654 -0.292250161580586 0.562241312245795
-0.335974758899893 -0.296443346076354 0.566525402273994
-0.348781438611323 -0.287641843763118 0.58206542610891
-0.346555039057414 -0.290188533076861 0.594770021098602
-0.339508409862145 -0.295616529105381 0.595087173011529
-0.342815683163143 -0.294316088769166 0.613838699925904
-0.35231317473503 -0.28765688633855 0.623363274578234
-0.340702645927609 -0.296404389549218 0.62091470506791
-0.352793723466034 -0.288736202725236 0.645308476345266
-0.355477626026449 -0.28761307444866 0.659498101624327
-0.351563242143658 -0.290815432840334 0.662510088615742
-0.345461298492376 -0.296019914507564 0.670425456218429
-0.347223844310638 -0.295058740637967 0.676355213503805
-0.350812842421575 -0.293448525667618 0.693688242765977
-0.352582559143909 -0.292435044229208 0.698908670169767
-0.359397566764057 -0.28825082317986 0.714747391611856
-0.355383027751144 -0.291632665992812 0.719314772535772
-0.360472413075333 -0.288242708216586 0.727123590347255
-0.355353139219702 -0.292390162609795 0.730447033035615
-0.357481464081348 -0.291975169618421 0.748907711928697
-0.367169846934835 -0.285612495776869 0.765146002458041
-0.359932844023087 -0.291282807302249 0.766921615979348
-0.362573314804414 -0.285521351620358 0.775645644410666
-0.349482387711026 -0.290033850701348 0.775645644410666
-0.339961074610899 -0.295808811918725 0.775645644410667
-0.328236751559735 -0.292431893557291 0.775645644410666
-0.31881671357126 -0.291897193747004 0.775645644410666
-0.305360705945026 -0.297171955828736 0.775645644410666
-0.298795103488887 -0.296377772428928 0.775645644410666
-0.291423242984656 -0.301378938493666 0.775645644410666
-0.0509158752880118 -0.329269371939408 0.587686703591234
-0.0231149319795188 -0.323334819556139 0.582691167915294
-0.0430929528626202 -0.329245553944019 0.608671604339827
-0.0291925418135843 -0.326832863491966 0.601750862540503
-0.0409991508642366 -0.329895032105225 0.627967915781426
-0.0347563342489714 -0.328885952611071 0.624063379145355
-0.0178536362306175 -0.323560732331118 0.629439991801041
-0.0342764535002911 -0.330089626701095 0.650487231760069
-0.0268219160060707 -0.328454466297684 0.652354623340524
-0.0203485868274213 -0.325932349377406 0.655449370795295
-0.0201077691025925 -0.326329485810358 0.665107083637378
-0.0285580297091942 -0.330307756601224 0.674398843720454
-0.0142681043512962 -0.324392460533838 0.674472407246894
-0.0278614489003829 -0.331448018526233 0.702169563922374
-0.0166076395969421 -0.326998705162912 0.706293340939237
-0.0143574289688198 -0.326428665648242 0.713329888595123
-0.0143671509842721 -0.326910218492249 0.722611300926883
-0.0253280807865149 -0.332045434320223 0.734176967605735
-0.0212121536096431 -0.330935060380598 0.745731922289758
-0.0192421995095473 -0.330779438105069 0.75856697219082
-0.0132673687552623 -0.328320391750844 0.758874254409523
-0.0140493325232791 -0.329241457801481 0.770481048735256
0.00124789125384098 -0.325041551537003 0.775645644410666
0.0013120541984391 -0.332473643196194 0.775645644410666
0.0127063320768371 -0.327776960344401 0.775645644410666
0.0361192907470164 -0.330389129904288 0.775645644410666
0.0430116255317248 -0.337632982837965 0.775645644410666
0.0593527068614728 -0.336348520798777 0.775645644410666
-0.335612941397268 -0.280794572806969 0.325161414071167
-0.323700819257194 -0.289966670361682 0.325640382729082
-0.331093627409889 -0.285245726538128 0.340064224800827
-0.337586336580298 -0.280963208978635 0.350665320310731
-0.327745590587055 -0.288611604100968 0.352140278596738
-0.337997483211413 -0.28216351569298 0.37363706161406
-0.331927014591728 -0.287439568835994 0.383003108915048
-0.33882352492526 -0.282519924620573 0.388644303428084
-0.333215457877079 -0.287250983607085 0.395128166634765
-0.342241664687395 -0.281364616109999 0.410884541598814
-0.334023331294769 -0.288281013554686 0.420132830261506
-0.340724991233104 -0.283516307375617 0.42585622631323
-0.337777976196773 -0.286298172965789 0.433745009005013
-0.342065753337055 -0.284190980402022 0.451672331022126
-0.348843787465909 -0.279737191070486 0.462995799198682
-0.352413964916581 -0.277987714039854 0.477999456127672
-0.346698168104147 -0.282788003939104 0.484279742151886
-0.342191450038398 -0.286232994550022 0.484080669850628
-0.340510580852379 -0.287858928434464 0.489175123662176
-0.353209782147393 -0.279719119392584 0.513493234614521
-0.355327127383678 -0.278920473554569 0.526011991259734
-0.35460359329499 -0.279802356811086 0.530963055368847
-0.351206621105424 -0.282264647728473 0.528776232676888
-0.353246115982114 -0.28197530874741 0.548108205883104
-0.359322072409595 -0.278296153916672 0.563006900107613
-0.358590941892823 -0.278950771893948 0.564425431339233
-0.351258053796547 -0.285129491717926 0.572790920304348
-0.353672087088346 -0.283595533049645 0.577616171036688
-0.353150902281796 -0.284998772813749 0.59282145128607
-0.36301338696849 -0.278218497935514 0.604755612835789
-0.361602293021612 -0.28037456623109 0.621021394998652
-0.35732998751146 -0.283737026718441 0.622297520686198
-0.354703777558985 -0.286077727091354 0.627231044095798
-0.357429766274449 -0.285136396867595 0.644665222791518
-0.358494109785819 -0.284292928525656 0.644259542160962
-0.368804509272594 -0.277959764570672 0.668178365323713
-0.364615797086531 -0.281290718937321 0.669949107773578
-0.370621183111469 -0.277409538526713 0.680965463457896
-0.373024609514367 -0.276404414658715 0.693681837252222
-0.361368787008144 -0.285495387909795 0.695911829655077
-0.374270655083687 -0.276589099095269 0.710970745739764
-0.375032096799316 -0.276954795764524 0.725367521944852
-0.368159480254771 -0.282166322616049 0.724427652428048
-0.372231983475612 -0.280088377546978 0.740294840032183
-0.364643792088531 -0.285718011685802 0.737370086406504
-0.373860366186693 -0.279730229356351 0.75380326848211
-0.378473823238071 -0.277401658009663 0.772162873551629
-0.370532902106547 -0.279212644654419 0.775645644410666
-0.361516372718689 -0.285941142173749 0.775645644410666
-0.357655009770733 -0.281096375905353 0.775645644410666
-0.344577344685087 -0.279804558539057 0.775645644410666
-0.334081963455062 -0.288957831858025 0.775645644410666
-0.320148414427373 -0.287066906747782 0.775645644410666
-0.311123188162625 -0.289786512405719 0.775645644410666
-0.0241467997398522 -0.321897885330417 0.54645484484947
-0.0188366191330272 -0.320337862783379 0.558884972035974
-0.00983443833036405 -0.316702442255565 0.560700431733598
-0.00744377655814368 -0.316202672287615 0.570233521111504
-0.00869218943325453 -0.316778290057008 0.571370713910518
-0.0199069415520771 -0.322357821430585 0.589528817835875
-0.00354011618743025 -0.315702584596787 0.591941353033736
-0.0167782904208622 -0.321966934795702 0.607119652110719
-0.00526706360056354 -0.317398759261883 0.611005597915584
-0.00517937915814079 -0.318047344632312 0.624317735672939
-0.00207817836546665 -0.317125623522123 0.631370028262792
0.00156721787869908 -0.316221247307625 0.64314067773035
0.00220095418032638 -0.316329628160019 0.650349330924183
-0.00220882840056361 -0.31895001941362 0.665777983488742
-0.00552452912796318 -0.320598572114141 0.671125818477906
0.00225672713926448 -0.317530672520371 0.674142401530706
-0.00343970000881043 -0.320777701757424 0.691392101817749
0.00147092346533588 -0.319311900232544 0.702436779426812
-0.00715081237808165 -0.323478434260726 0.714007189825987
-0.00257177274102265 -0.321751930134029 0.717315201400998
0.0011604805489927 -0.320963506253798 0.732038826476544
-0.0033648390527888 -0.323156281916994 0.738225974853664
0.0033895498513723 -0.320803923311903 0.746882991501999
0.0095840374503733 -0.318897290461967 0.759695660232239
0.000187414754057898 -0.323274473637974 0.769121850118647
0.0159304373008182 -0.318491275475121 0.775645644410667
0.0256656544065243 -0.326095427331851 0.775645644410666
0.0385373155059079 -0.319994194199623 0.775645644410666
0.0484197057511715 -0.328134712008721 0.775645644410666
0.0575378407670083 -0.328063714934159 0.775645644410666
-0.341500302966871 -0.27698336260285 0.335865681558823
-0.349707556726583 -0.271392823995567 0.346581883325003
-0.346065715228101 -0.275087810655241 0.360228973288459
-0.354515672441317 -0.269548334595896 0.374541377457302
-0.345029294930477 -0.276634106726973 0.371610691443271
-0.349076183308341 -0.274281592516389 0.383018925507771
-0.353527320243284 -0.272069307257751 0.401253251854748
-0.347167189118355 -0.277039395470538 0.402613984407913
-0.359468702811898 -0.268929423870519 0.422759648010152
-0.358902510852583 -0.269929249819314 0.431327829826267
-0.355388049673582 -0.272685961076551 0.432236677832372
-0.348018673031246 -0.278578594661352 0.435842223942784
-0.35273068382988 -0.276220013115318 0.45489308827653
-0.357609568398088 -0.272745625689244 0.458974505663562
-0.356229522505765 -0.274359584482862 0.467385693611406
-0.353971431361294 -0.27679662690839 0.478060059351474
-0.363021280971589 -0.270903431827621 0.493987900145501
-0.361848607398255 -0.27265586886807 0.506909212676806
-0.362479793127301 -0.272861304584026 0.5173625192947
-0.363649073195258 -0.272040836823442 0.518525698477363
-0.368015328994073 -0.270073750650867 0.53948893999304
-0.358912188788724 -0.276847356780522 0.536283984510364
-0.363009514407751 -0.274674928447351 0.55100793721865
-0.371867325193784 -0.268870776466355 0.566052039853778
-0.375472747268106 -0.267025967372415 0.580020796423381
-0.364635131194833 -0.275423548897167 0.581257232155966
