ply
format ascii 1.0
element vertex 850
property float x
property float y
property float z
end_header
-0.381020283695732 0.00582841014842872 0.143717656885565
-0.385949953460172 0.000912857549422864 0.150142127602311
-0.388257276966754 0.00273762714012387 0.153149090139442
-0.392545124437627 0.00985149900416872 0.158737121758358
-0.402092132697798 0.0171707547627718 0.171179025157737
-0.405753748921478 0.0215736485968588 0.175950936326043
-0.411425723787404 0.0228781906854135 0.183342797885436
-0.415564150684964 0.0273622838730091 0.188736100821985
-0.419215614591963 0.0306369237692577 0.193494781233599
-0.423434612736979 0.0311530851042931 0.202661320815903
-0.425254096381829 0.0243556100857045 0.207053942907817
-0.427456771414085 0.0405402240030193 0.21237167084419
-0.430620001147498 0.0401889048476016 0.220008382967497
-0.438190047178792 0.0421597966776085 0.238284090764036
-0.43246011548699 0.0362167402459873 0.478631619403552
-0.430245635695613 0.0417425636895283 0.483977846549494
-0.418141451414804 0.0255884383472321 0.510987526839212
-0.387882108201867 -0.00264570816537892 0.553837114503391
-0.3868468263256 -0.00264570816537892 0.562966881647525
-0.381750389291358 -0.00264570816537856 0.584379192950037
-0.382989385173039 -0.00264570816537892 0.591791859889091
-0.374964681107052 -0.00264570816537892 0.611321252211333
-0.401593671284362 -0.00264570816537892 0.112898276363391
-0.409388334213044 -0.00264570816537892 0.123074890815058
-0.394264626537423 -0.00264570816537892 0.132724948855009
-0.393456677836629 -0.00264570816537892 0.147500507792149
-0.397871033581553 -0.00264570816537892 0.155420868742628
-0.406180106029617 -0.00264570816537892 0.166333910633596
-0.404032424262407 0.00147590831146972 0.173707662355445
-0.405507295444605 0.00573222318118957 0.175629751901757
-0.41034478770341 0.0115251239309405 0.181934094554356
-0.416689243057825 0.0118203850036267 0.190202349749088
-0.422346297211004 0.0150666102936689 0.200033894712953
-0.424560628013471 0.0133286012302113 0.205379762167849
-0.428365529128563 0.0241976499604056 0.214565606043395
-0.428241996389091 0.0222955077582672 0.214267371628363
-0.433585307424216 0.0287956720877678 0.227167265597341
-0.435462216723013 0.0363324742160907 0.23169852548184
-0.441105026185063 0.0364498131316246 0.245321472615007
-0.442083275771865 0.0338781289690677 0.247683176034852
-0.444983378121159 0.0376023872130174 0.254684642458787
-0.449713481789863 0.0350824188030407 0.266104122887204
-0.451644087452693 0.0395701740936156 0.271657646146981
-0.456192273469705 0.0420618536895986 0.306204548791138
-0.452210777774879 0.0355702040029289 0.427120344873401
-0.451715838669074 0.039478814792394 0.430879780621869
-0.438189797181992 0.0208360461496496 0.464798944147396
-0.440392510416333 0.0351286068022764 0.459481123983033
-0.423944986737033 0.0149910258691058 0.499188958717051
-0.424201497238922 0.0180175408126734 0.498569687584499
-0.398683972996137 -0.00264570816537892 0.539694804720411
-0.408377482969445 -0.00264570816537892 0.548049719674878
-0.406387883624134 -0.00264570816537892 0.552436553983483
-0.390052196738422 -0.00264570816537892 0.577242553407791
-0.405290135850131 -0.00264570816537856 0.583528261987938
-0.391646566219847 -0.00264570816537892 0.596525929443616
-0.416227112290718 -0.00264570816537892 0.130786568809126
-0.406764516002873 -0.00264570816537892 0.163133371110386
-0.413723377232756 -0.00264570816537892 0.177711285250768
-0.418908930139857 -0.00264570816537892 0.17264009679398
-0.424616991147857 -0.00264570816537892 0.187620059470222
-0.423714983978712 0.00432207389677955 0.203338196870194
-0.421325042124353 0.00548782114471105 0.197568366832118
-0.426739264909416 -0.000667068593257275 0.210639456909528
-0.431728868320754 0.0103527619969073 0.222685425136043
-0.432832059848159 0.00875830427900533 0.225348765083399
-0.437799440907027 0.00915469500051846 0.237341083805192
-0.441838531360422 0.0119351925094278 0.247092310757432
-0.444316297803321 0.0192422870493892 0.253074168108271
-0.446127341298859 0.0224223223647297 0.257446413877244
-0.450732449325786 0.0285727950814782 0.268564128132046
-0.45178441539463 0.0212699136468208 0.272723542689079
-0.452906919741438 0.0254369015510712 0.281249809697891
-0.455127440497477 0.024938444071592 0.298116339362967
-0.456642695560181 0.0212649789347471 0.309625844237335
-0.456857245236273 0.026548918754269 0.311255510821888
-0.457494966841611 0.0396344163217434 0.316099487328414
-0.459244685784594 0.0282860590490326 0.329389922185685
-0.460509594291253 0.0290952192533954 0.338997856177366
-0.461850546838691 0.032738069651934 0.349183402004536
-0.459049125115832 0.034453914423349 0.375177939934114
-0.458910990064399 0.0352261176367669 0.376227179819151
-0.457884527922996 0.0379194879190146 0.384023933851261
-0.454578517598196 0.0247023861544225 0.409135575372579
-0.454616065232634 0.03385914128131 0.408850372773867
-0.446372770914059 0.0175922742011737 0.445043497982898
-0.445912385065692 0.0198561410331574 0.446154967741951
-0.435008714795105 0.0166351921042012 0.472478756388844
-0.42765083697832 0.00425337934453919 0.490242244804409
-0.421635453769813 -0.00264570816537892 0.512109051633766
-0.419650395311276 -0.00264570816537892 0.509782574663943
-0.423508789037787 -0.00264570816537892 0.525576822331684
-0.417970168062881 -0.00264570816537892 0.53535328153706
-0.418893435673894 -0.00264570816537892 0.550254223091774
-0.412099539403693 -0.00264570816537892 0.567127908930922
-0.431247835894519 -0.00264570816537892 0.162009309406074
-0.430620498804271 -0.00264570816537892 0.16521706763103
-0.427379598495722 -0.00264570816537892 0.181699641947115
-0.438413594104686 -0.00264570816537892 0.178657714266928
-0.432805145147641 -0.00264570816537892 0.204771036057697
-0.435515834762778 -0.00264570816537892 0.210411945188031
-0.430633683565646 -0.00192659529118196 0.220041415246957
-0.433222520632377 -0.00257259859927753 0.226291420804232
-0.437864792928874 -0.00247874574371377 0.237498857542662
-0.442541369983817 0.00332762850494355 0.248789113294193
-0.446377161241638 0.00505296243242762 0.258049532571255
-0.448758769827592 0.0105906859523496 0.263799244319728
-0.451861883910143 0.0155044106873341 0.273311974484388
-0.45268967155652 0.0206447580638658 0.279599645903825
-0.454321695588564 0.0199336109332405 0.291996099157286
-0.45591947647922 0.017862032843228 0.304132449928723
-0.45759583988936 0.0183972761547717 0.316865694195715
-0.457947768421503 0.021725299012656 0.319538856791121
-0.458937399844538 0.0192004411761548 0.327055853742722
-0.460876523481732 0.0138284292068093 0.341784960085025
-0.461599344882036 0.0192930578923366 0.347275333709145
-0.461488737124221 0.0166157929617457 0.356647246987934
-0.459841746967831 0.012759296670593 0.36915737924195
-0.456986302975172 0.0130597642469003 0.390846629692851
-0.456703793358705 0.0213914723998606 0.392992503274014
-0.454556504077717 0.0227579531151325 0.409302784661284
-0.451753363248227 0.0151794942137079 0.430594753145439
-0.446803573357787 0.0146983129909192 0.444003448880544
-0.444839137550068 0.00667116417538023 0.448746016449951
-0.4346923118441 -0.00241434028215262 0.473242620684335
-0.427307779739693 -0.00264570816537892 0.497317866737686
-0.425993880076381 -0.00264570816537892 0.506051701915077
-0.432808926062941 -0.00264570816537856 0.506786414702107
-0.437591460586698 -0.00264570816537892 0.510486257414181
-0.426287537504838 -0.00264570816537892 0.539701063155728
-0.43605783215164 -0.00264570816537892 0.538989624512191
-0.431683409057925 -0.00264570816537892 0.54938630614684
-0.443911055499889 -0.00264570816537892 0.193283193069192
-0.446284665647864 -0.00264570816537892 0.205980214112305
-0.454978179786891 -0.00264570816537892 0.213914095827562
-0.449493143299952 -0.00264570816537892 0.225743917550918
-0.447681559598236 -0.00264570816537892 0.23515564529777
-0.459270415131595 -0.00264570816537892 0.24507118669698
-0.447620663933339 -0.00163018743563656 0.261051613634407
-0.448592530087585 -0.0023448965740813 0.263397906084797
-0.46114564574392 -0.00264570816537892 0.278763882359338
-0.452956346414628 0.00349243300412794 0.28162524255406
-0.45515208179285 0.002165972127941 0.298303508583639
-0.456267799254312 0.00286434296095355 0.306778224080181
-0.457937589744729 0.00457636372492407 0.31946154206516
-0.458788395202048 0.00481777487302791 0.325924051116717
-0.460768286132016 -0.00127714926865106 0.340962815790769
-0.461404146195407 0.0054825350259304 0.345792652482389
-0.46163742671521 0.00313077952814213 0.35551783741567
-0.459349891324824 -0.00126063705799135 0.372893393765194
-0.458280213387887 0.010491213691661 0.381018404353979
-0.455852205433451 0.00639193631438444 0.399460955759612
-0.45478824225134 0.000866344820375386 0.407542558475919
-0.453507864569652 -0.00121098599029026 0.417267992517439
-0.453350462370793 -0.00264570816537892 0.441797904847014
-0.450461144165767 -0.00264570816537892 0.444124880331767
-0.456977983877174 -0.00264570816537892 0.450698907846908
-0.445998985986137 -0.00264570816537892 0.478017459221488
-0.452566397786862 -0.00264570816537892 0.482684857396942
-0.44076831379849 -0.00264570816537892 0.499481587418882
-0.450238937449088 -0.00264570816537892 0.501715755809964
-0.45007429715818 -0.00264570816537892 0.51265227285074
-0.446927112275827 -0.00264570816537892 0.522057870141425
-0.467923244686676 -0.00264570816537892 0.214921332310639
-0.46507506989972 -0.00264570816537892 0.232226970398124
-0.47472087064445 -0.00264570816537892 0.230074515163256
-0.463610096635257 -0.00264570816537892 0.254236188798885
-0.47318667310977 -0.00264570816537892 0.253451381002995
-0.470495035615281 -0.00264570816537892 0.273813594995682
-0.461816646061307 -0.00264570816537892 0.284949310935237
-0.472615989124075 -0.00264570816537892 0.293477712329196
-0.472222043925887 -0.00264570816537892 0.297498042460352
-0.458368923432473 -0.00264570816537892 0.322754185669353
-0.470596404967884 -0.00264570816537892 0.319807509141533
-0.470436391281418 -0.00264570816537892 0.3316898465966
-0.470094596480639 -0.00264570816537892 0.347174706385225
-0.470818151922685 -0.00264570816537892 0.360709337506705
-0.466971595858417 -0.00264570816537892 0.375694061216984
-0.466958819157208 -0.00264570816537892 0.386986436698508
-0.468173550597183 -0.00264570816537892 0.390841969477003
-0.472751753205321 -0.00264570816537892 0.403978367880701
-0.461505608641958 -0.00264570816537892 0.415309598586112
-0.462949252928732 -0.00264570816537892 0.423354016656264
-0.470219537220121 -0.00264570816537892 0.432996464411961
-0.457904928499677 -0.00264570816537892 0.447083121248435
-0.463240859027693 -0.00264570816537892 0.454768841160074
-0.459770438749925 -0.00264570816537892 0.478649835036797
-0.466213174082542 -0.00264570816537892 0.488727008251612
-0.483570524306782 -0.00264570816537892 0.272475729855495
-0.485151021378542 -0.00264570816537892 0.284509022153666
-0.48063010656789 -0.00264570816537892 0.291495054364513
-0.479317017460672 -0.00264570816537892 0.310022824883487
-0.48421173815374 -0.00264570816537892 0.32067257099205
-0.488356893307756 -0.00264570816537892 0.333084494940578
-0.485241413589796 -0.00264570816537892 0.343172477289779
-0.486581206519486 -0.00264570816537892 0.348896533067563
-0.490092853078078 -0.00264570816537892 0.353343054756563
-0.498195389606891 -0.00264570816537892 0.360900150007155
-0.486312878027163 -0.00264570816537892 0.381410645689878
-0.487699416313096 -0.00264570816537892 0.388803116054599
-0.480544040198146 -0.00264570816537892 0.401381090015364
-0.490940996293637 -0.00264570816537892 0.407417163361406
-0.48902615274866 -0.00264570816537892 0.43234187322614
-0.482867586107789 -0.00264570816537892 0.445163103825133
-0.481928094447748 -0.00264570816537892 0.450617895177314
-0.492985588841792 -0.00264570816537892 0.377082191348386
0.175622422731977 -0.326667849960612 0.260410780682041
0.239868042802502 -0.318209753619276 0.399442045693249
0.202311128457575 -0.323154215194462 0.383943057164482
0.217605903157803 -0.32114061990514 0.429400606332908
0.258709731115616 -0.315422030793263 0.51258752602114
0.257792543754815 -0.315801942237344 0.529560282322033
0.197060627923028 -0.323845456703419 0.490393250314776
0.205909903315001 -0.322680427496227 0.524145529588856
0.249622370442704 -0.316925572023157 0.620259793790216
0.248972330611286 -0.316474846646832 0.703082431365766
0.272614325523721 -0.309662559210129 0.259466476531236
0.258634860969644 -0.315453043023142 0.250918493701144
0.289415273891569 -0.302703378535436 0.297704035449748
0.283199692764094 -0.305277956536467 0.298408463218069
0.26412379166877 -0.313179453484638 0.293065055847913
0.274231250507169 -0.308992806952645 0.309811006452161
0.258901451258358 -0.31534261770996 0.302803597026494
0.271013550119482 -0.310325622092878 0.331600292928656
0.280896057507604 -0.306232153502466 0.343542446891376
0.268467264694017 -0.311380328049779 0.339499113395425
0.261961857859293 -0.314074955789476 0.345568784872687
0.278160454976958 -0.307365277171921 0.361751785903643
0.264728253175196 -0.312929077330744 0.362495035090381
0.275455303509022 -0.308485787598214 0.380255089315528
0.273714807230887 -0.309206724761877 0.385633259265221
0.277951998927483 -0.307451622494773 0.40790839477499
0.28194092023936 -0.305799357188154 0.418173022545799
0.275920384175919 -0.308293144878388 0.416806201320489
0.283244744911041 -0.305259295326187 0.436236317580847
0.262856284615865 -0.313704472096355 0.433238473542197
0.278121000397891 -0.307381619793669 0.450691165872216
0.286066200630806 -0.304090610101425 0.473306226038343
0.275215246198766 -0.308585222591869 0.468263880028635
0.289198325469393 -0.302793241514237 0.490892882234381
0.264862864124443 -0.312873319649922 0.475635594939851
0.259821250700543 -0.314961624306343 0.477068559752977
0.288061357811795 -0.303264188937994 0.508584160450992
0.26271421866766 -0.313763317738852 0.500447936971837
0.277391205436447 -0.30768391076445 0.524853544758666
0.287400745069021 -0.303537823695527 0.542311163363388
0.279043857577085 -0.306999359833913 0.544497984649636
0.264199186653051 -0.313148223859614 0.534678928993939
0.260768452091354 -0.314569280643971 0.541379316295341
0.273442761742747 -0.309319409692648 0.566496827762728
0.281636968030734 -0.30592525831528 0.582156367504583
0.286812550083391 -0.303781462035895 0.598512513729746
0.265756648976759 -0.312503101842249 0.580385153612473
0.284093673220419 -0.30490765770696 0.60767113369059
0.28752994165892 -0.303484308715779 0.62490253434591
0.272648753028575 -0.3096482988707 0.618219375647756
0.270689031066055 -0.310460042286056 0.630133878089194
0.260409417118817 -0.314717997798962 0.622806068623124
0.27523528678237 -0.308576921510342 0.650626736769991
0.263373501999186 -0.313490233641488 0.65085510956015
0.290076733095063 -0.302429393162393 0.681309463840662
0.285710806507184 -0.304237819167417 0.691422084539998
0.27264490519726 -0.309649892694616 0.682247235986353
0.280655524676587 -0.306331785463269 0.696322523969013
0.275777752278155 -0.30536004618564 0.703082431365766
0.267592436300764 -0.311742693835013 0.702650270522519
0.261176266266944 -0.313721652923408 0.703082431365766
0.246902599807568 -0.31393388732458 0.703082431365766
0.234913192781616 -0.316291543925535 0.703082431365766
0.222468378542256 -0.310603207243903 0.703082431365766
0.215029683554708 -0.318843166658551 0.703082431365766
0.198840711237534 -0.320622780442168 0.703082431365767
0.195304957755008 -0.316339733343757 0.703082431365766
0.174140842075514 -0.323350789816662 0.703082431365766
0.15983807419711 -0.32420363641315 0.703082431365767
0.151386529143901 -0.319699699535547 0.703082431365766
0.146685253620224 -0.319939676834649 0.703082431365767
0.303398139524988 -0.296911485949233 0.294852203780735
0.304104386610961 -0.296618948827837 0.304483295249059
0.291110044197935 -0.302001381689432 0.30017397409186
0.289371119162864 -0.302721668022909 0.305223872919749
0.301112344395952 -0.297858293292486 0.331035032887532
0.295973208210506 -0.29998699319938 0.327837522815799
0.295427894992675 -0.300212869329947 0.343883629070364
0.306508257759766 -0.295623232795804 0.357919767119322
0.310845262377772 -0.293826786662952 0.365969468504716
0.30133402169134 -0.297766471550266 0.376724710333216
0.31504694745665 -0.29208639171846 0.389924233436418
0.289538536467084 -0.302652321504925 0.374020903074864
0.294670436358629 -0.300526618969106 0.396034396948068
0.297506387103116 -0.299351929708517 0.399930527656927
0.309734082448165 -0.294287052460031 0.422961022323071
0.304256225145135 -0.296556055247691 0.431740351136114
0.303916731313154 -0.296696678197239 0.440505534223976
0.306380343485238 -0.295676216623135 0.455253242143254
0.304520870319509 -0.296446435627249 0.465527596876879
0.307816981136712 -0.295081141823678 0.475373333607841
0.292809595750701 -0.301297404386324 0.468544692766578
0.320030733099694 -0.29002204011315 0.502469528902127
0.29262746795434 -0.301372844189662 0.480499111095703
0.295341845522297 -0.300248512187613 0.497596900840777
0.308734804764615 -0.294700966829134 0.514799661816404
0.317073442829159 -0.29124698985108 0.528226910023165
0.303412208837627 -0.296905658249125 0.531428896998103
0.293622174945516 -0.300960823063329 0.52869561854871
0.298956652134269 -0.298751210263578 0.545301501806662
0.319082822993061 -0.290414677335228 0.570878610395164
0.315948493866463 -0.291712958968406 0.575557697927462
0.294080992854372 -0.300770774462822 0.564616280985264
0.298180155207785 -0.299072845821669 0.577801453197768
0.301451205214048 -0.297717932545874 0.582435840019622
0.296697125944975 -0.299687136655721 0.5946046084007
0.312113761220435 -0.293301357238466 0.621387899444745
0.301922430809605 -0.297522744513257 0.617256874688787
0.292230913253074 -0.301537102525149 0.618772731140598
0.293462023621961 -0.301027159913578 0.623019290582224
0.308116427210618 -0.294957107198667 0.647736359400925
0.307807129897682 -0.295085222340491 0.656466515132068
0.294275823582021 -0.300690072933062 0.66080556631025
0.303951261768405 -0.29668237521436 0.670836702914757
0.301574328480586 -0.29766693321903 0.679249336985511
0.315689532881608 -0.29089741465801 0.703082431365766
0.306597382981896 -0.292071508222347 0.703082431365766
0.295721480314769 -0.300059168067666 0.703082431365766
0.287963372415721 -0.301322848861225 0.703082431365766
0.274893808051087 -0.298255012886913 0.703082431365766
0.26262234736132 -0.301697805381975 0.703082431365766
0.253930559993606 -0.30228248181434 0.703082431365766
0.249790392788689 -0.307068829443641 0.703082431365766
0.240924528578455 -0.304786546512634 0.703082431365766
0.216506937006094 -0.303347080596501 0.696596037882354
0.212229022986296 -0.309383086144191 0.703082431365766
0.189984152819038 -0.308165413826103 0.700112598766675
0.188567481087599 -0.309631366176848 0.703082431365766
0.172129632762848 -0.309910521214082 0.699104494084645
0.163497121808369 -0.314039306856192 0.703082431365766
0.154656501463128 -0.312933821951157 0.703082431365767
0.132711481839806 -0.312587966410684 0.703082431365766
0.126407675894606 -0.31763848405151 0.703082431365766
0.125809696483003 -0.319147102314632 0.703082431365766
0.107144158731001 -0.316105134937109 0.703082431365766
0.336878427982091 -0.282907205152695 0.323598733938863
0.333655492313398 -0.284378480062766 0.333927362394333
0.333336267714133 -0.284510707221225 0.341369250074802
0.325368722679909 -0.287810972433219 0.34607705008185
0.335408960074818 -0.283652169934802 0.365948487824768
0.341424391677312 -0.27941896452298 0.379997203143548
0.341377395453585 -0.279455025993779 0.385141448122422
0.337259012353462 -0.28261517249334 0.394331869415553
0.340184524634515 -0.280370347966424 0.403787819011048
0.341381535688243 -0.279451849079989 0.411685091316124
0.342288100803408 -0.278756217200762 0.422237908824581
0.320976766521918 -0.289630180239207 0.414781715418494
0.32709525903 -0.287095817661081 0.424114351411186
0.334678265128102 -0.283954833691689 0.442069532444832
0.337068417545713 -0.282761421033094 0.452585072824634
0.339642835653518 -0.280786000540633 0.464594043779781
0.337367698323392 -0.282531774815398 0.473596341617441
0.337254472791145 -0.282618655822019 0.471264552235694
0.327008329453049 -0.287131825070826 0.478458992186448
0.328621461197521 -0.286463644024371 0.494445461733254
0.324562288572917 -0.288145008377495 0.492789710971985
0.336515055838203 -0.283186030405381 0.507428895745103
0.336590514948006 -0.28312812859394 0.517487652278163
0.339545293792627 -0.280860847042953 0.529845460580671
0.341540586733003 -0.279329804920878 0.539291521991274
0.330498029922824 -0.285686343807625 0.543265615104
0.33925243004643 -0.281085569299211 0.560572845224587
0.332078416770219 -0.285031726141638 0.563909670841761
0.339419947066828 -0.280957028968513 0.582702799779756
0.331825695105733 -0.285136406882573 0.580835773746464
0.331091168693841 -0.2854406576843 0.590950932127706
0.34048906557919 -0.28013666548063 0.601347725666605
0.320805272315174 -0.289701215465509 0.598756461935072
0.334374024648213 -0.284080854224682 0.619616429473697
0.327399996060611 -0.286969591450044 0.625740137422157
0.33451855260939 -0.284020988783021 0.63780565733512
0.330505772803998 -0.285683136601231 0.643690371258962
0.338293834277303 -0.281821125703424 0.656217514964149
0.333298590296077 -0.284526313718779 0.662171545343797
0.338611537065855 -0.281577343779612 0.676446865725108
0.33715294345449 -0.282696562022106 0.678225476441193
0.326643422268205 -0.287282974575795 0.683144934950165
0.339154620344274 -0.278992536454236 0.703082431365766
0.330703277424184 -0.282548081185588 0.703082431365766
0.319647798003203 -0.281784833096163 0.703082431365766
0.308040573934089 -0.282945848974234 0.703082431365766
0.30025907118153 -0.285375614726356 0.703082431365766
0.249666146094576 -0.2913639901213 0.676402378478347
0.283704158320224 -0.289170635901959 0.703082431365766
0.231528903481371 -0.292007202339797 0.671777576692332
0.201077611921441 -0.293719258414356 0.665688587197412
0.208219664610506 -0.29408679949292 0.669155490223109
0.201425127777723 -0.299212473239371 0.680371955788635
0.169778191450154 -0.297511830699941 0.667057183876659
0.175162439352358 -0.30183902124228 0.67816903802087
0.175430237356731 -0.303481647864817 0.682616975120056
0.16093996666564 -0.299927928140046 0.67654661549729
0.151078847526415 -0.303282372632778 0.688880522868876
0.14731978968657 -0.302042149182616 0.686904700131871
0.145034364305836 -0.304248688341131 0.693551678548936
0.144604153863197 -0.30740471539214 0.702068204536051
0.132805260676328 -0.308567291423155 0.703082431365766
0.114855896865298 -0.308860524125013 0.703082431365766
0.112069118694524 -0.30541629975753 0.703082431365766
0.095702019183723 -0.310815604394386 0.703082431365766
0.080458471129221 -0.312314368272328 0.703082431365766
0.352104160553526 -0.271224089638883 0.338609217681546
0.353702663608222 -0.269997515104649 0.353109743724359
0.346211106598028 -0.275745988980553 0.354557881440683
0.347601439058742 -0.274679149361184 0.367300410603287
0.350038345324864 -0.272809245416014 0.368907292484035
0.342161514149838 -0.278853350556364 0.382532537026267
0.348261034220646 -0.274173024192315 0.39448167545222
0.348273887808356 -0.274163161287572 0.40672851311038
0.34189317656603 -0.27905925322631 0.399926271544089
0.349021400559291 -0.273589574579922 0.426396272628701
0.352310135015949 -0.271066039875032 0.435385127034019
0.35195268771928 -0.271340318832547 0.446317111033343
0.342982160879856 -0.278223646172826 0.44074550622094
0.350709720825853 -0.272294080875037 0.450693237312329
0.346276108529631 -0.275696111244164 0.462011236318917
0.342855134334531 -0.278321117069243 0.471091466991508
0.349315382553057 -0.273363994262125 0.482728889485925
0.348241397254996 -0.27418809216602 0.488695493466855
0.34334331890052 -0.277946519876645 0.495501982306585
0.346472942545159 -0.275545075191896 0.505208126657097
0.355610254665957 -0.268533769004021 0.523301344703205
0.341269626996015 -0.279537719639725 0.517571044134415
0.346166275233372 -0.275780389296562 0.53782278370947
0.344976713908841 -0.27669317180473 0.539950380259157
0.355713739312763 -0.268454362441686 0.558511437157363
0.342278385147057 -0.278763672286087 0.553772359236785
0.344344015740929 -0.277178658184214 0.568938885798364
0.34899742563071 -0.273607971189657 0.579842827911955
0.348124316464637 -0.274277931416237 0.584728004541896
0.348808823298785 -0.273752690848938 0.600499076437785
0.348320094860992 -0.27412770536905 0.606410757171157
0.348230674990994 -0.274196319648561 0.613657672322097
0.351127958422583 -0.271973155879679 0.628756205477615
0.344753571517317 -0.276864394983909 0.632429171691885
0.34432558420655 -0.277192801197973 0.632523900437956
0.343763672400225 -0.27762397129183 0.649523902532349
0.354849157794345 -0.269117779174076 0.6649060550844
0.349297068714827 -0.273378046964453 0.668390563356052
0.350526404279781 -0.272434744608181 0.678542215446098
0.345636037195294 -0.276187255253232 0.683448015305947
0.341366181605097 -0.279463630682363 0.685433282317501
0.351395096940259 -0.271768173285537 0.698675664282726
0.34171295397836 -0.274996034680581 0.703082431365766
0.333175681481246 -0.275194082106547 0.703082431365766
0.279767959103322 -0.276586949422594 0.669763028625366
0.303493442818645 -0.282442585392356 0.703082431365766
0.236446204644567 -0.283600296620098 0.651207664048815
0.234027797791026 -0.288281973243369 0.662774399465318
0.20150692202119 -0.284849744788198 0.642326025685002
0.223154634467496 -0.291395405196031 0.667233125674314
0.196405210246218 -0.290307002324174 0.655012290943736
0.16927846516609 -0.288587286798101 0.643573316668292
0.186173977860953 -0.294283868782574 0.661983949130855
0.154390646981198 -0.289631156894076 0.651536391627671
0.149675709739155 -0.289543626110079 0.652949869942249
0.154438070633716 -0.295255009607968 0.666428237004842
0.144273015553888 -0.293661534278176 0.665751667462166
0.133603027094357 -0.294201290978931 0.670906352180591
0.1341342666594 -0.29681406155713 0.677647200933204
0.131268398902591 -0.300618606768907 0.688732943842606
0.1246821756056 -0.301506502285088 0.693385281266996
0.103811532422229 -0.295565608142807 0.684920298458266
0.0944736258880136 -0.295568957869824 0.688188112694335
0.0914641554754501 -0.296854428317126 0.693980280433996
0.0889172996754189 -0.298859408841629 0.701539104375715
0.0751714568210665 -0.306635569175983 0.703082431365766
0.0693807927997195 -0.301201609064327 0.703082431365766
0.356628851466227 -0.267752172189305 0.347008442834303
0.364586923148904 -0.261645729014916 0.363210430420184
0.362569405154182 -0.263193825020999 0.377029234154686
0.361226263576902 -0.264224453801923 0.383524814604921
0.365985495300655 -0.260572566858241 0.387944162018464
0.357655027764591 -0.266964759421146 0.396954827583745
0.365112250927533 -0.261242630832839 0.410489964921078
0.358083159287011 -0.266636242549588 0.405822768800174
0.362853067262993 -0.262976163429441 0.417771288963843
0.3582219397341 -0.266529752567133 0.430673504600368
0.361676355191006 -0.263879086359358 0.440336771226462
0.367590556599598 -0.259340960006202 0.456277056326867
0.359121577175675 -0.265839436478817 0.456974024885591
0.359319601421975 -0.265687487130356 0.458216686421737
0.358784672259536 -0.266097952713353 0.476435050494228
0.360761844373207 -0.264580815190654 0.482894986135649
0.366292971960071 -0.260336631719298 0.491949963359093
0.362599304785783 -0.263170882226741 0.501127116892558
0.365396921930976 -0.261024195089202 0.516130635879919
0.36357858343574 -0.262419455289877 0.519852272143037
0.355861499495944 -0.268340982065382 0.528095748436722
0.358053964523046 -0.266658644479887 0.533898377652326
0.360738238429804 -0.264598928668103 0.548387195492847
0.361613844605089 -0.263927052418967 0.554791252907575
0.365769826925527 -0.260738055022931 0.565798537355722
0.362274564696003 -0.263420064061708 0.579836516425598
0.357885137184429 -0.266788190253116 0.585787289043905
0.3586455097424 -0.266204735868466 0.582245473414073
0.36058697733462 -0.264714995388669 0.601189853306577
0.36193894668195 -0.263677592821542 0.601160645161772
0.365800045571344 -0.260714867440456 0.620671601237711
0.356578937017028 -0.267790472893265 0.618457949882542
0.365619271340024 -0.260853580386878 0.635256039227004
0.358116246703597 -0.26661085368188 0.641546151251243
0.367875440029365 -0.259122361262114 0.657366851791587
0.363083352414966 -0.262799459417402 0.6565769286577
0.364097836808138 -0.262021018163638 0.670924560110055
0.35948371978849 -0.265561554678507 0.669043942810097
0.365245931702575 -0.261140053966375 0.695035878201046
0.358402986912597 -0.266390830180975 0.695505174497102
0.366024228779231 -0.259920136686715 0.703082431365766
0.348596263694033 -0.265177402118697 0.703082431365766
0.344978656914596 -0.267039987180635 0.703082431365766
0.240460808532507 -0.272107483235279 0.628007419924402
0.239922894311527 -0.275756939642571 0.631628901119614
0.217526722655333 -0.275404182759173 0.628007419924402
0.227564439615239 -0.278995172729658 0.635900097949188
0.202601525909824 -0.278189273060664 0.628007419924402
0.191137870187152 -0.280709897226275 0.628007419924402
0.183316237058847 -0.285019375129449 0.636427143757749
0.171901503269543 -0.286439081284275 0.636963149186882
0.160915600623387 -0.282692997847048 0.63086665916848
0.1567420066405 -0.284909864644663 0.638199987204873
0.142307606500416 -0.283908719484246 0.640583642591472
0.146132668842899 -0.287964540455441 0.650000359820946
0.143193432771204 -0.290078105336702 0.656629050938817
0.121425900110875 -0.284964800859724 0.650670958889607
0.12110714842355 -0.285075664541076 0.651076094397777
0.104551183724216 -0.28668879379748 0.661130415153163
0.110042076234601 -0.293137708448778 0.676309662032882
0.100789462121169 -0.290209368972717 0.671776029047065
0.090673106453877 -0.287710028674824 0.672200593835109
0.0850695504837033 -0.28775459148513 0.678044334017494
0.0815868616865746 -0.28866049138533 0.683845697134771
0.0737103619364063 -0.287679130546212 0.689480849245283
0.0755628810132881 -0.29062579929307 0.69486437518949
0.0605079349448427 -0.29455331983633 0.703082431365766
0.0492952338193697 -0.295830188984193 0.703082431365766
0.0525739461740319 -0.291515763841963 0.703082431365766
0.380148434751474 -0.249704961188516 0.369610533584804
0.376592797620953 -0.252433297518225 0.373878452206032
0.370674517301819 -0.256974553729522 0.378808560808234
0.367885306634225 -0.259114790349925 0.380856614739054
0.372713755059903 -0.255409791562838 0.404364215622687
0.369098802627313 -0.258183642124624 0.408389187679712
0.380455555381552 -0.249469299240493 0.422000137301301
0.380203640912313 -0.249662600011402 0.430737398850233
0.378808189869746 -0.250733367256767 0.434972654225471
0.375184206123545 -0.253514147789224 0.449233003669326
0.378253938175112 -0.251158659540193 0.450868075445173
0.375146061269263 -0.253543417365367 0.464347879495068
0.376858467669393 -0.25222944172016 0.469062961341486
0.370697638345078 -0.256956812329039 0.480168515830412
0.369300127416189 -0.258029160180771 0.478387035393373
0.375018115522746 -0.253641593589667 0.493277245812761
0.375268400033493 -0.253449543529897 0.497943005349483
0.378885183585328 -0.250674287900896 0.520420974333655
0.369664295027057 -0.257749724544804 0.522718961024736
0.377145291435288 -0.252009354103794 0.535020259824623
0.374150239596091 -0.254307538210406 0.545808583592571
0.368659325523818 -0.258520864766735 0.54075131381612
0.379327090124408 -0.250335201087295 0.561400640652554
0.368484611983268 -0.258654927181564 0.565108501817387
0.371582324519304 -0.256277968751664 0.569720482800853
0.377689520878353 -0.251591752164478 0.58734095678119
0.369646265996429 -0.257763558706572 0.592288501337105
0.373344590226797 -0.254925734714314 0.59748708246433
0.380810701791555 -0.249196785815413 0.618852237331201
0.3772895445704 -0.251898664780123 0.624703894464974
0.371262740393768 -0.256523194276116 0.627140484834529
0.369990538036104 -0.257499389479323 0.627459172845684
0.379935039724481 -0.249868704951829 0.650185867549902
0.381040420154908 -0.249020516715578 0.656621128944526
0.374502775587643 -0.254037027829855 0.661434537097526
0.376628046296215 -0.252406250258406 0.669563802213351
0.375751728623332 -0.253078672458852 0.680779234397587
0.370753446292326 -0.256913989384971 0.68347226772175
0.379098655655797 -0.250510485020045 0.700254990204074
0.369920286398931 -0.257553295456475 0.699853821030337
0.359392068945469 -0.255367924594902 0.703082431365766
0.351630727111389 -0.255273750278761 0.703082431365766
0.252439304984128 -0.265622128056383 0.628007419924402
0.233033078760597 -0.262631804658999 0.628007419924402
0.238769554859378 -0.268181651295699 0.628007419924402
0.222166172567377 -0.272443615819535 0.628007419924402
0.213096663382832 -0.272895285539939 0.628007419924402
0.19380583798073 -0.270149703427 0.628007419924402
0.182885702244366 -0.269352928524185 0.628007419924402
0.172650549048228 -0.273532216985779 0.628007419924402
0.166656145697158 -0.270647317248244 0.628007419924402
0.153461825015902 -0.273201043017418 0.628007419924402
0.137619908464045 -0.275547568091063 0.628007419924402
0.13603803168224 -0.276606919626882 0.628007419924402
0.12628819218804 -0.28170567933372 0.640334338606714
0.122160637602961 -0.279558297982036 0.636082316370578
0.109508314777259 -0.280158860748209 0.642090028993468
0.109282067111655 -0.281491703691869 0.645702252557007
0.0958090784276349 -0.281673132648419 0.652032635270902
0.0968873297447155 -0.28527698387735 0.660062505965412
0.0875304010077106 -0.280375530697475 0.657298102976194
0.0808428861469537 -0.280961922454515 0.665589430956187
0.0852187536888601 -0.286478140800099 0.674738493565368
0.0803023844315397 -0.285267072506949 0.676777348908203
0.0640549356364732 -0.279744640150326 0.679760149211185
0.0674508795540469 -0.284250476627687 0.68741597485593
0.0623756145512105 -0.287285253638876 0.700105783613205
0.0506483588961605 -0.281861319389212 0.698706758417384
0.0378377891096173 -0.28797608740669 0.703082431365766
0.0320780420218705 -0.286242594017102 0.703082431365766
0.387226792063088 -0.244273546592757 0.379993444917694
0.389064484141485 -0.242863435865408 0.389843301868639
0.393022304459664 -0.239826493521697 0.402605347691277
0.382475176533225 -0.247919589425321 0.394600286208957
0.390325585567415 -0.241895758706713 0.422305432987345
0.386501013605915 -0.244830455990239 0.413812263170908
0.394295973312409 -0.238849173037238 0.440810589596112
0.389985301333849 -0.242156867982712 0.438930451105555
0.385820870013822 -0.245352348524153 0.446231795197795
0.388672405712398 -0.243164288225451 0.454592681826367
0.383559317084726 -0.247087699121392 0.453666451667654
0.385560361854029 -0.245552243465752 0.474284699941245
0.388151818034702 -0.243563749200156 0.483799030119433
0.383558772751097 -0.247088116803275 0.491714228886802
0.389833635951997 -0.242273244923349 0.502054677904172
0.393963921352687 -0.239103965467345 0.514769566706061
0.384408368469684 -0.246436199079532 0.509510975058374
0.391598951193898 -0.240918670895948 0.52575192526769
0.388096274663563 -0.243606369127834 0.529580752170907
0.383837014198397 -0.246874614631588 0.536164124298629
0.39083124648005 -0.241507751441682 0.558322791437019
0.392568537194084 -0.240174681390838 0.565308524396506
0.386449140513271 -0.244870259614175 0.567695967585838
0.381300024268231 -0.248821315473235 0.572506665484297
0.388134982954956 -0.243576667211189 0.589715044795328
0.393555979303534 -0.23941699041119 0.600364232364349
0.38246885762851 -0.247924438091443 0.600350133713763
0.391639574521669 -0.240887499520208 0.618233368348331
0.387784616682655 -0.243845512707604 0.62400710864075
0.386004702684864 -0.245211288754391 0.626615175784129
0.382658860607131 -0.247778643678151 0.640958222563265
0.382521497068652 -0.24788404642839 0.643284891566494
0.387673177405834 -0.243931023072229 0.656163427934475
0.386291694006841 -0.244991072567722 0.661910643897596
0.394236299231745 -0.238894962569814 0.686681132209565
0.392705441063178 -0.240069631357324 0.685103289669909
0.382599761637273 -0.247823991912684 0.695080625522624
0.393314697397638 -0.239602132529296 0.702964913246475
0.386423114567212 -0.242410413296772 0.703082431365767
0.366338431940297 -0.242691223117502 0.703082431365766
0.361254929627665 -0.248509812412181 0.703082431365766
0.268738004591084 -0.257252621160315 0.628007419924402
0.249748348218022 -0.25309500785204 0.628007419924402
0.246456822161753 -0.257054579095465 0.628007419924402
0.23401709931079 -0.259233837741333 0.628007419924402
0.216822768205424 -0.256853095694516 0.628007419924402
0.212945650587374 -0.257369192124374 0.628007419924402
0.203820660408616 -0.259691398342674 0.628007419924402
0.187051609856167 -0.260012317754058 0.628007419924402
0.17536019033858 -0.26134082455304 0.628007419924402
0.166806833359887 -0.262543916748249 0.628007419924402
0.154133339793686 -0.263359892837924 0.628007419924402
0.146968915736142 -0.264335441229757 0.628007419924402
0.123440714227631 -0.268886072712987 0.628007419924402
0.123386380119519 -0.265389755971873 0.628007419924402
0.11447249504184 -0.270368209345623 0.628007419924402
0.0972123724083559 -0.267965281935876 0.628007419924402
0.0874309994431147 -0.270037173366146 0.631861316980666
0.0825463295940608 -0.270601318638313 0.638252987124637
0.0786783522612032 -0.273367004386441 0.649042750584438
0.074521805710144 -0.271492554993006 0.648665413855491
0.0713327567399689 -0.271759717331255 0.652588467619689
0.0661779526443994 -0.275180390800326 0.666312929197116
0.0588195093800485 -0.273576118916293 0.66987924054734
0.0617344639013972 -0.277208370822386 0.675869236596771
0.0431501790356545 -0.271237129608773 0.680134451764593
0.0554574462697114 -0.278661876336037 0.685882538376597
0.0403534929784674 -0.277258490501314 0.69787043543786
0.0413761560511048 -0.279400462246481 0.702115268947433
0.0400242419962331 -0.279497185886946 0.703082431365766
0.00820134321278664 -0.274570465122835 0.703082431365766
0.0102627327073345 -0.283388984401645 0.703082431365766
0.404276856902228 -0.231159833871206 0.395612200319728
0.394588681643468 -0.23862457003521 0.395964263144822
0.404808928344068 -0.230466424868037 0.411396322770969
0.398934336170452 -0.235290032036223 0.41885343689232
0.397974275693508 -0.236026712350273 0.423690360547078
0.394404648849131 -0.238765783364978 0.429623711262832
0.399428626940224 -0.234910749388667 0.445839364242448
0.404591986143208 -0.230749149448637 0.458011199294982
0.39699037684211 -0.236781684492393 0.457307918741365
0.398756247876206 -0.235426683990641 0.468219792764658
0.395124517444847 -0.238213408763687 0.466961568654444
0.405126995834941 -0.230051911243653 0.489624679866624
0.397241765197469 -0.236588787422863 0.492333973445681
0.398925261498521 -0.235296995276903 0.499736556722934
0.398432197210526 -0.235675336811889 0.509048427999888
0.398308485370982 -0.235770264245104 0.525280686538217
0.395137452589705 -0.238203483277944 0.531089208435654
0.405713745988972 -0.229287243555403 0.544630578466734
0.395450745186005 -0.237963085413669 0.549979135120706
0.39509338073053 -0.2382373008049 0.550448613273312
0.40325651457993 -0.231973507895771 0.57099284581905
0.400811671912665 -0.233849501655725 0.578269238005453
0.398544186626457 -0.235589404310678 0.58250966507079
0.405404332153521 -0.22969047951647 0.597085238322032
0.404678738013379 -0.230636092210289 0.602050502325142
0.404523453072454 -0.230838463485322 0.614854897031918
0.402496563239754 -0.232556639068638 0.624060336839895
0.405495627288222 -0.229571501380511 0.627047517396269
0.399134902682224 -0.235136131938855 0.629814266936223
0.400271823138794 -0.234263742189343 0.643942009643048
0.39472452752101 -0.238520331827166 0.645074219216619
0.403943245525626 -0.231446560707657 0.663650182185363
0.395561033152921 -0.237878458480205 0.668639027116449
0.39448631259055 -0.238703120572248 0.674704578771531
0.396926705046871 -0.236830541579253 0.683588121710235
0.400760399373805 -0.229171460933644 0.703082431365766
0.394134946356446 -0.23897273336634 0.696243671442851
0.389077273953151 -0.237784160231976 0.703082431365766
0.381611947009674 -0.236937484145666 0.703082431365767
0.282539405622102 -0.239948562064997 0.628007419924402
0.277293020791526 -0.243802780108145 0.628007419924402
0.263262831612019 -0.24604379813981 0.628007419924402
0.24617261755507 -0.243930166658462 0.628007419924402
0.242265248535418 -0.248701475816514 0.628007419924402
0.234806558820746 -0.253377450634847 0.628007419924402
0.218780630624582 -0.252203506950505 0.628007419924402
0.201320642380432 -0.249320141551255 0.628007419924402
0.193030419368186 -0.253523231386444 0.628007419924402
0.189847689672499 -0.253066343214476 0.628007419924402
0.178613475778363 -0.250806094275599 0.628007419924402
0.159745081788789 -0.252991667301232 0.628007419924402
0.149750052814601 -0.255059382100186 0.628007419924402
0.149453264553464 -0.252614265020262 0.628007419924402
0.140427823014106 -0.255897878419334 0.628007419924402
0.114399941489824 -0.259796426703051 0.628007419924402
0.115437052508035 -0.260612700361203 0.628007419924402
0.0940958690310303 -0.260701082472127 0.628007419924402
0.0823379349023259 -0.26317021701199 0.628007419924402
0.0710889296824508 -0.261024582159909 0.628007419924402
0.0617789572740277 -0.259634757202297 0.632412205146542
0.0650632140949518 -0.262966824026996 0.637282787429349
0.0590874080689796 -0.265232478470248 0.648994108244964
0.0535029670159109 -0.264028552555123 0.65173419011203
0.0482047433079984 -0.265734462421046 0.661369478491828
0.0425616698191924 -0.267146318974884 0.670631233323857
0.0376047649941415 -0.264001139207803 0.667933795036471
0.0404016126799337 -0.268879167393376 0.677122039229832
0.0359787039410782 -0.269043032355684 0.68205242823992
0.0221060097837595 -0.265443732244328 0.687355986068694
0.0173473289475382 -0.266453260014192 0.695807469793932
0.0159080068307807 -0.265692214240723 0.696535880483846
0.00887765454517117 -0.265071793887944 0.703082431365766
0.412094486649982 -0.220971700428454 0.398002570996573
0.405970246948312 -0.228952964997033 0.407499177452919
0.406761830584045 -0.22792135311822 0.419199295205411
0.41241989019313 -0.220547626274612 0.424732786745415
0.40744607959087 -0.227029622451183 0.431568310119023
0.412224021280437 -0.220802887611384 0.44897187592285
0.410697022417422 -0.222792911273964 0.456683790607121
0.411873723250408 -0.221259404892175 0.461188954755517
0.407695486368927 -0.226704589209862 0.466205106127257
0.407574482997088 -0.22686228387424 0.482387902569836
0.407902144650592 -0.226435266893687 0.480841105597781
0.409721264392167 -0.224064543890231 0.499271092556636
0.409398494052705 -0.224485186386219 0.498197698255246
0.411994853552978 -0.221101544808445 0.517801510040631
0.406695663630874 -0.228007583570435 0.524714172437918
0.41300956667948 -0.219779144915833 0.539158616016605
0.406214275955884 -0.228634940202656 0.529930231013055
0.408786067268031 -0.225283316511012 0.549790167074274
0.406350822803756 -0.228456988885928 0.550102362870522
0.405896890730027 -0.229048564681958 0.561050580434058
0.406557228764245 -0.228187995401111 0.569079296787393
0.409052342127056 -0.224936300358582 0.576001849692401
0.409605210751118 -0.224215787939856 0.59669837579792
0.410519497554808 -0.223024266179235 0.595856752870204
0.409796306249853 -0.223966747437269 0.613543201608364
0.406897612409864 -0.227744398797641 0.608320244586988
0.40956914837581 -0.224262785342362 0.62296490544112
0.411618973111093 -0.221591401737464 0.634456727408013
0.408907488804462 -0.225125076883927 0.642346237300583
0.408584259963021 -0.225546316911326 0.648542846990165
0.410453492438322 -0.223110285721776 0.664705279786439
0.408468784895593 -0.22569680694913 0.665462536082657
0.412352388899371 -0.220635595673339 0.675507901626218
0.408392232486326 -0.225796571991238 0.679626115167784
0.410329276480264 -0.223272167110029 0.699422019313226
0.409170795381557 -0.224781929071821 0.702511850730507
0.404163014425664 -0.22194111442246 0.703082431365766
0.389337583932161 -0.227966589767873 0.703082431365766
0.296332741101503 -0.232021764068607 0.628007419924402
0.284171994772531 -0.231127874556318 0.628007419924402
0.273550148996981 -0.238041680145394 0.628007419924402
0.267046236267416 -0.240778886321582 0.628007419924402
0.253811519189791 -0.235162239261253 0.628007419924402
0.2362426398032 -0.24332564475636 0.628007419924402
0.224943911377159 -0.237843077026448 0.628007419924402
0.215335001623454 -0.23969175831485 0.628007419924402
0.210599369685244 -0.241750468698263 0.628007419924402
0.191748315016535 -0.24098077865536 0.628007419924402
0.180592120378201 -0.243963764719007 0.628007419924402
0.178643622486778 -0.249178924633641 0.628007419924402
0.1661138645018 -0.248668770686292 0.628007419924402
0.148825393831661 -0.244741316504356 0.628007419924402
0.152201168299812 -0.247966195428549 0.628007419924402
0.12329972600309 -0.25324209118855 0.628007419924402
0.120752831818291 -0.245999845014829 0.628007419924402
0.10307961044951 -0.251426510670206 0.628007419924402
0.0931172812312216 -0.251543818307285 0.628007419924402
0.0839258306736191 -0.249033163043036 0.628007419924402
0.0783058599129988 -0.257843195580702 0.628007419924402
0.0610380513178035 -0.251146205627265 0.628007419924402
0.0541843243501848 -0.259312537414859 0.639387200014824
0.0534653077730848 -0.258942754852791 0.639209449178443
0.0493846166734648 -0.258471785332263 0.642221464798267
0.0401436012439234 -0.258088543658672 0.65073032723378
0.0341989148889338 -0.261362873405615 0.664901502432541
0.0219568119142359 -0.254409640607847 0.662756876624138
0.02206059995167 -0.257403296114402 0.668938279236302
0.0185276888165106 -0.257619605161102 0.675147663385157
0.0178217817989664 -0.2620869607687 0.685773119777073
0.00925188450508851 -0.256405564879736 0.687670629291866
0.0121295392343925 -0.262550205445706 0.696021073396775
0.00106666403149808 -0.257341222534595 0.702978527614687
-0.00997755991399868 -0.265642966373588 0.703082431365766
0.417743873255102 -0.213609276463673 0.413144535674002
0.416393016287879 -0.215369747538438 0.421227754695938
0.419143294895264 -0.211785514674911 0.430374686607036
0.418918092170578 -0.212079004579754 0.429660457879281
0.418484026361162 -0.212644690156069 0.447588090162657
0.419420309355309 -0.211424502401936 0.461888535440363
0.419996888314836 -0.210673090072435 0.465663178706314
0.419021561591675 -0.211944160604868 0.473372589457838
0.417509901040234 -0.213914194990629 0.478478006913509
0.417725673989561 -0.213632994208293 0.483689934196486
0.413526014255164 -0.219106097331458 0.487127242247868
0.413871875590445 -0.218655362063836 0.497681336569119
0.41781793567222 -0.213512756442511 0.515690717155129
0.415560197341919 -0.216455098319796 0.512874331343158
0.419759542469494 -0.210982405200223 0.536811191670526
0.415736378611564 -0.216225494418975 0.541885931314132
0.41453691879032 -0.217788660891723 0.542383311172504
0.417096479712692 -0.214452976154356 0.553773351410601
0.413662173087473 -0.218928651686457 0.556327015924918
0.41335382665898 -0.219330496575695 0.571075882434188
