ply
format ascii 1.0
element vertex 842
property float x
property float y
property float z
end_header
-0.0174038633053533 0.49770873792818 0.524647607825535
-0.0164631761939901 0.497832581735839 0.541335870475198
-0.0178627704097033 0.497648321661732 0.546083480275356
-0.0203850987974846 0.497316250829745 0.554872131185885
-0.0190021983236535 0.49749831313104 0.561397243536042
-0.0178785413396219 0.497646245379419 0.568043285874267
-0.0128077830512844 0.498313823372741 0.575079039949716
-0.0190840251995396 0.497487540418459 0.591431968355753
-0.0185928152809021 0.497552209431088 0.599592103464881
-0.0186709747612712 0.497541919540287 0.608000231694902
-0.017239110292224 0.497730428073844 0.616714044655476
-0.0171437913376918 0.497742977052275 0.619895469776478
-0.019758290314753 0.497398771732005 0.634055163209816
-0.0135212279265305 0.498219896573023 0.643343235134755
-0.0185621006346987 0.497556253090972 0.65004520737454
-0.0148129674418529 0.498049835839599 0.658365693332979
-0.0149000517604639 0.498038370971553 0.666017020701965
-0.0182830886122042 0.497592985720591 0.668036007530552
-0.013890105704986 0.498171332892185 0.6878236347986
-0.0172631657540209 0.497727261112218 0.687836936830845
-0.0173194061090144 0.497719856929017 0.700059319836483
-0.0157282213799175 0.497929340372726 0.708302433411166
-0.0175296206653344 0.497692181657649 0.718155148453197
-0.0183307571880118 0.49758671003353 0.718453139689648
-0.0166371743394512 0.497809674445414 0.734782187076735
-0.0179057243125854 0.497642666673136 0.733438734071323
-0.0153552602102677 0.497978441642214 0.754578834408794
-0.0188954871759138 0.49751236192016 0.753798333706811
-0.0206549132084637 0.497280729088655 0.765969110751504
-0.0134559656369267 0.498228488516448 0.77742904451842
-0.0199527061431532 0.497373176402626 0.787691862050068
-0.0172780776228862 0.497725297927437 0.786614798816868
-0.0152441433658881 0.4979930704523 0.79660392613489
-0.0138210771246035 0.498180420677197 0.80658428756632
-0.0134174682526246 0.49799108934182 0.815209155617592
-0.0196891962235649 0.496150615736518 0.82151623105934
-0.0178958577859872 0.495258991865017 0.828525227046387
-0.0185720931340118 0.492936155885681 0.834882910484156
-0.0163910415349148 0.487447451016657 0.839803727778234
-0.0147894202134144 0.484328815089618 0.842640338944591
-0.0137829239135786 0.472286794016228 0.845348651072197
-0.0165364599440564 -0.110752225012176 0.357356675560062
-0.0201622012488892 -0.110274887113788 0.359504916918298
-0.0242277896959418 -0.109739642240571 0.371505329312724
-0.0256139871482219 -0.109557145883829 0.387186798264484
-0.0205381919548768 -0.110225386998276 0.400410584239972
-0.0163995318083265 -0.110770251943234 0.407231495425898
-0.025874888728125 -0.109522797539211 0.41790793635189
-0.0217822844765644 -0.110061599110566 0.428229602825807
-0.0247803470828461 -0.109666896680525 0.443178773785512
-0.0183934913477238 -0.110507742189784 0.447580389764392
-0.0220912087619384 -0.110020928456831 0.460237821819752
-0.0250514096155241 -0.109631210621096 0.466059429655695
-0.0198709516662083 -0.11031323084877 0.482384645490191
-0.0175963930703589 -0.110612682168822 0.490181099767101
-0.020113331236962 -0.110281320972916 0.496999580797707
-0.0191586866492857 -0.110407002317192 0.515760874008252
-0.0248210349009146 -0.109661540027655 0.519853122441769
-0.0235498195220277 -0.109828898707257 0.537248409393499
-0.0167505916693542 -0.110724034035727 0.54700112164645
-0.0210051852155755 -0.110163906169148 0.557958114581966
-0.0189208568145677 -0.110438313208933 0.562362363071959
-0.0165003344860426 -0.110756981018949 0.571544037466182
-0.0257533387079655 -0.109538799902947 0.590130301954745
-0.0156896348042456 -0.110863711656851 0.587318271168215
-0.018664623458239 -0.110472046970259 0.597138361709304
-0.0208443023197209 -0.110185086804206 0.620005463613745
-0.0201528530281134 -0.110276117830402 0.625220279111114
-0.0246061596068229 -0.109689828896792 0.645408891023645
-0.0210079190455921 -0.110163546253598 0.650932858232097
-0.0173657356949837 -0.110643048788377 0.655618162094504
-0.0233594759874287 -0.109853957908987 0.667517432684728
-0.0162961868092723 -0.110783857570474 0.677916209428264
-0.0235500676210784 -0.109828866044398 0.692768213309466
-0.0236550532403815 -0.109815044425405 0.699044943662192
-0.0186367537885187 -0.110475716081885 0.710182259507057
-0.0202772700784805 -0.110259738014978 0.724375250761922
-0.0177889041755209 -0.110587337601014 0.730315121178253
-0.0248464576771361 -0.10965819305567 0.738519413356665
-0.0181881479321212 -0.110534776163311 0.754407946174241
-0.021724393239414 -0.110069220636525 0.765565820544064
-0.0170739994961642 -0.110681456587589 0.76910362549084
-0.0193194504047851 -0.110385837367259 0.786087001402567
-0.019550906144761 -0.11035536564101 0.788883607705468
-0.0223193501130194 -0.109990893078158 0.804354399682559
-0.0256136082174678 -0.10955719577101 0.810680664036551
-0.0243233264965077 -0.111335125932144 0.823696573281058
-0.0216615711321803 -0.112724015880285 0.830150813425715
-0.0224389302216655 -0.113863528573303 0.834260632736499
-0.0243284693901613 -0.126480491338537 0.845221778450484
-0.0260283928580124 -0.128728568951308 0.845348651072197
-0.0219617878738109 -0.236360667634607 0.792658322828657
-0.0267554672767984 -0.244633560665259 0.795476415980185
-0.0222287459531611 -0.25741089952854 0.800389639984796
-0.0188855938888901 -0.258647677261919 0.801001747204057
-0.0182125853705364 -0.284397472817837 0.797392678162414
-0.0206670198505636 -0.301620953503828 0.794688600380242
-0.0176382973589859 -0.334785681200135 0.789831184290797
-0.0206462596742328 -0.336719517620256 0.789404453584051
-0.0113730781813135 0.498502705852173 0.490714352364084
-0.00436262983864884 0.499425648885692 0.49541518060985
-0.00411547262016078 0.499458187750803 0.506330562866913
-0.0102465160281415 0.498651020573326 0.511355338514137
-0.0107126180749954 0.498589657074727 0.524214676438748
-0.0117351417196303 0.498455039283068 0.531085655370585
-0.0103232942069052 0.498640912534332 0.542532614602897
-0.0109084196518932 0.498563879308096 0.548504031648022
-0.011811528601876 0.498444982759238 0.552269104758285
-0.00553327231531387 0.499271530879857 0.570108339574464
-0.0055093996772944 0.499274673772276 0.579606778551022
-0.00592878294489046 0.499219460917651 0.585101884786249
-0.0113570228675884 0.498504819574324 0.593484059474798
-0.00876078978866612 0.498846620143484 0.597298598965128
-0.00461390887432374 0.499392567373054 0.604320583788093
-0.0108777652577338 0.498567915035649 0.617573314797123
-0.00654549057578997 0.499138269817762 0.626276237983609
-0.0114338026640601 0.498494711322355 0.632690425108827
-0.0119015131852414 0.498433136064093 0.64219013374298
-0.00425548541632347 0.499439754716494 0.652065697586398
-0.00968333987227424 0.498725164120827 0.658929032248855
-0.0122856240387282 0.498382566910881 0.663860519291349
-0.0124247041192677 0.498364256670914 0.674875264955665
-0.00934117185472502 0.498770211394932 0.679445674529023
-0.0102548636232229 0.498649921591584 0.68895098313711
-0.00816161466065934 0.498925503045578 0.697673913897463
-0.0111802626609794 0.498528090496999 0.706265359911149
-0.00760238828936709 0.498999126594076 0.711831206776449
-0.0118510005027555 0.498439786184902 0.730982648895588
-0.0104545559023523 0.498623631604288 0.731373574256721
-0.00948170455675967 0.498751709913716 0.740210124997046
-0.00511097037080858 0.499327127985587 0.754662127942171
-0.00458669407335095 0.499396150269574 0.758269721268075
-0.0125633328327242 0.49834600585455 0.76142176137349
-0.0102549476637294 0.498649910527442 0.775730310478638
-0.00628377679778464 0.49917272509029 0.784571698461218
-0.00738855933081967 0.499027277710525 0.793717483035737
-0.00915202763610649 0.498795112703717 0.798916407004117
-0.00773579061090493 0.498981563845261 0.808776791200557
-0.0125504329462419 0.498347704156824 0.810803169033472
-0.00976872840942875 0.497685808976927 0.820092090734111
-0.00628900265207403 0.497015917379651 0.827102856981666
-0.0107809854204675 0.495644793129548 0.831949106483679
-0.00919790561642259 0.486924738315733 0.841055866421418
-0.00816606682275859 0.483280190785239 0.844276627078086
-0.00963010533898359 0.476198074905596 0.845348651072197
-0.0131491865303316 -0.111198168017104 0.360163679744948
-0.0124727844113881 -0.111287218045436 0.366891351561794
-0.00895811934432552 -0.111749932479698 0.377591853841936
-0.011234325439338 -0.111450264262266 0.379909544192004
-0.00575750695526664 -0.112171301094526 0.395346089309112
-0.00997902838238765 -0.111615527255028 0.410135572964331
-0.00710084430013444 -0.111994447377972 0.415689755733394
-0.0133984405834635 -0.111165353098475 0.433234179942813
-0.0106796157079323 -0.111523293183841 0.439586060657974
-0.00986314230775193 -0.111630783946189 0.454422026062506
-0.00553376293980498 -0.112200757552982 0.458995941201568
-0.00934415382895577 -0.111699110075642 0.461603429133706
-0.0123232865424375 -0.111306899813268 0.477697968134071
-0.0144906251614031 -0.111021564270963 0.487877516673941
-0.00795912753784397 -0.11188145224609 0.503187921840079
-0.00578179916645923 -0.112168102964251 0.503360099654313
-0.00558197890781759 -0.11219440980037 0.526930806923379
-0.0106861098428005 -0.111522438214767 0.532074453815506
-0.0140282211501844 -0.111082440913935 0.542164642750346
-0.00870325882866195 -0.111783485503122 0.549929893364314
-0.00854098606545004 -0.111804849117689 0.561423203186582
-0.00651214949425037 -0.112071950519484 0.578634151120713
-0.0131530977194469 -0.111197653099288 0.582301369035263
-0.00724481280253594 -0.111975493565058 0.589802000194845
-0.00615723028117813 -0.112118676520327 0.612646244161156
-0.0137077328140726 -0.111124634003831 0.608034021537015
-0.0143202754390209 -0.111043991237378 0.621472173514708
-0.00527231775132806 -0.112235177465028 0.633190108890029
-0.0118794406775932 -0.111365333229918 0.649296222718027
-0.0132470957641577 -0.111185278021934 0.661786897333739
-0.00871006764745691 -0.111782589105121 0.667767901043556
-0.0133620427348006 -0.111170144966158 0.679389529611009
-0.00867601023857205 -0.111787072848063 0.688575214168417
-0.0105787786966847 -0.111536568628222 0.696629877178384
-0.0118126696814211 -0.11137412379833 0.710968721966667
-0.00834736683654741 -0.111830339572755 0.714660450132144
-0.0154216440810737 -0.110898993304888 0.727842371716625
-0.00895139396668041 -0.111750817892462 0.743208824179902
-0.00662284837500658 -0.112057376735353 0.750190118712481
-0.0102786071066566 -0.111576086967753 0.761710348269975
-0.00823542875636262 -0.111845076500586 0.768036495463016
-0.0149190497011389 -0.110965161110279 0.777420864661719
-0.0114828341638163 -0.111417547468016 0.787265719459629
-0.0062621856348065 -0.112104858885886 0.801206960860003
-0.0136864229868152 -0.111152444164271 0.813857584358208
-0.00513697508672116 -0.112827614121715 0.817273535308716
-0.00866973090697645 -0.114554711328587 0.83089842074807
-0.013180090946026 -0.123350629133334 0.841304806955311
-0.0100223550577832 -0.12304503140742 0.840690266357109
-0.0145423110550174 -0.135137812712199 0.845348651072197
-0.0107870894198464 -0.228974870194107 0.790483115081885
-0.0159736772448131 -0.239643302475804 0.794147362868584
-0.0159458974267544 -0.253864561105152 0.799380320810459
-0.00587484805508124 -0.281404190698543 0.798399332228004
-0.0102193240836851 -0.283927676713234 0.797823590614173
-0.00970610656842861 -0.297205397390813 0.795847379221469
-0.0114372464478657 -0.332995252516307 0.790380199477802
-0.00315024306042863 0.499585262633087 0.489725916707429
0.00257912931824105 0.499660451183653 0.496616163522558
-0.000242586561348747 0.499968062873317 0.50999484983933
-0.000603070679587554 0.49992060423881 0.513781946113058
-0.00330828239697757 0.499564456359713 0.521533078949701
-0.00083732167590772 0.499889764510082 0.52752144654654
0.00236376966467927 0.499688803819924 0.541483438023511
-0.00263085138106361 0.499653641844901 0.552685143238931
-0.00105693824766419 0.499860851439899 0.558200999796551
-0.0028190013754959 0.499628871428213 0.567490025314597
0.00390230577345476 0.499486251698575 0.574659692734018
0.00269664967832048 0.499644979334731 0.578452890287795
-0.00137826519912168 0.499818547944198 0.594596250163699
-0.00108348620436772 0.499857356335093 0.600567598986067
-0.00227532968869534 0.499700447163648 0.613891498392192
0.00335384308700545 0.49955845818108 0.615107055235015
0.00324329146734583 0.49957301257792 0.625321478780861
0.0033440716795762 0.499559744611273 0.631909090557223
0.00222049630851494 0.4997076661151 0.638761654320985
-0.00242092056808358 0.499681279760751 0.65058845220719
-0.00296813168499334 0.499609238050502 0.657696612609905
0.000877016305597737 0.499884538612943 0.669466165243617
0.00281870370960247 0.499628910616672 0.677670612306228
0.00192434540016917 0.499746655121847 0.678090032379218
-0.00406749645304474 0.499464503933028 0.69486350444105
0.000277383809753195 0.499963481728656 0.704673978542082
0.00418507375123349 0.499449024588063 0.707118683029467
-0.00234562463496459 0.499691192658404 0.713144314173406
0.00258689861743535 0.499659428336009 0.730588343896211
0.000265981816756104 0.499964982829511 0.732954509220705
-0.00150722629693457 0.499801569893578 0.741434249839488
0.00294748364844179 0.499611956416085 0.742061011584732
-0.000265754721347719 0.499965012727188 0.757081106227377
-0.000283587627449287 0.499962664980561 0.763525306523262
-0.00119534992581852 0.499842629196775 0.768875331566133
-0.00336925328951382 0.499556429389431 0.781982640605678
-0.00183144197616273 0.499758886089651 0.78605215775411
-0.00199415071399922 0.499737465077936 0.8044407428184
-0.00185454334422072 0.499755844736849 0.810182227488545
-0.000111868178923531 0.499985272274844 0.811795572839403
0.0035943790466562 0.497431437543375 0.826725183629852
-0.00112339989068842 0.495882374342824 0.834329938969936
0.00175866240408874 0.491074639994028 0.838354706280712
-0.00309476537385654 0.489374859975951 0.839652997318383
-0.000699228359616726 0.480091073083069 0.845348651072197
0.00187604046071917 0.473000136180643 0.845348651072197
-0.000852141266136167 -0.112817104739081 0.356532798023914
0.000748869601178302 -0.112830700711702 0.363964258189772
-0.00321778380352147 -0.112505661990634 0.372656877302927
0.00340465028144105 -0.112481060552101 0.390099181315302
-0.0023104985376951 -0.112625108361905 0.392259366069639
-0.00143726552368609 -0.112740071669175 0.412427257629931
-0.00351863270787986 -0.11246605448098 0.419527715395959
-0.000386881024546537 -0.112878357411914 0.423830011540807
0.00037479907699641 -0.112879948030484 0.440568312696908
-0.00378544367754506 -0.11243092815044 0.446581817427372
0.00381601312464409 -0.112426903606378 0.454692537108675
0.00477841199491881 -0.112300201391432 0.469497433409589
0.0023007676278979 -0.112626389460484 0.48234729198255
0.00487558231561136 -0.112287408676021 0.491427157819404
0.000725352000139963 -0.112833796862616 0.497704836986262
0.00177097860240179 -0.112696137508884 0.513296498267561
0.000861542984908889 -0.112815866979323 0.520764848535835
-0.00337588166271208 -0.112484848012609 0.530628740838825
-0.00423720080133846 -0.112371453196789 0.537420934317466
0.00369218360777054 -0.11244320607155 0.546903884946862
-0.00463686328367756 -0.112318836632797 0.56561817682521
0.00396093174695601 -0.112407824707805 0.564607863417838
0.00300902122963181 -0.112533146104889 0.585352033327912
0.00389597242373275 -0.112416376764948 0.594504007552347
-0.00330390836019809 -0.112494323477644 0.602258759352173
0.000690408781752749 -0.11283839722459 0.617638698061424
0.00197508482915656 -0.112669266414359 0.624737457165408
-0.00320235100205215 -0.112507693757493 0.628690770536746
-0.00403738062510111 -0.112397760022059 0.6418989032279
0.00499200697555374 -0.112272081078759 0.656727404594791
0.00500066726021213 -0.112270940930654 0.661536419833197
0.000611329125378003 -0.11284880825886 0.680794995403187
-0.000828299581429691 -0.112820243556419 0.687452938246071
0.00130643164695248 -0.112757296275816 0.698563681664241
0.000538478438765252 -0.112858399233704 0.703289507813931
-0.000390256525668285 -0.11287791301876 0.718138103234574
-0.00240895313221519 -0.112612146568637 0.721860713969425
0.000606605440864621 -0.112849430143724 0.742984083563923
-0.000385228786240134 -0.112878574933213 0.750870996634515
0.00236866911280243 -0.112617450060405 0.759937774600492
-0.00304301827484271 -0.112528670308977 0.773664535891653
0.00370851765863468 -0.112441055652958 0.776142215011356
-0.000817872785326806 -0.112821616270168 0.79644367672755
-0.00336678479428407 -0.112486045638058 0.803885916122712
-0.00387208464672592 -0.112419521650453 0.811515004226407
-0.00115011426270118 -0.113863571469868 0.820449974033574
0.00318583967288618 -0.117615570655861 0.835297750526124
-0.00374327961727791 -0.124146777168343 0.840924633193906
-0.00398020594130669 -0.12682424793859 0.84323231861023
0.00395800059017399 -0.136871841636185 0.845348651072197
0.00490927190711892 -0.227709898056021 0.790314783861676
-0.000292675889923121 -0.236729967195597 0.793838720934765
-0.00357228590679784 -0.253770002917115 0.799927090745136
-0.00186343148228185 -0.266497965271172 0.800824638283505
-0.00130909342118301 -0.282856437629949 0.798386385395483
0.00526659272641112 -0.306995708206924 0.794573212351955
0.00179045748453042 -0.356674830775249 0.777885008952188
0.00719277950214766 0.499053052613947 0.491617568633531
0.0106323570843685 0.498600223634601 0.503261149390578
0.00938687411079601 0.498764194578775 0.505153883879839
0.00803686857401879 0.498941926179449 0.514008993122745
0.0104149371045431 0.498628847517972 0.520248268221983
0.00612507561570261 0.499193618497281 0.536385621757792
0.0103918121248053 0.498631891979311 0.540598271837178
0.00935259782584457 0.498768707137297 0.548164865283854
0.00806373353568551 0.498938389340148 0.55927904582771
0.00933592049509007 0.498770902749544 0.569603889659318
0.0120823483450226 0.498409328663657 0.569627963206176
0.0118315706111407 0.498442344178662 0.581408808067288
0.00612080958747461 0.499194180130552 0.594876565737053
0.00615174235468966 0.499190107754491 0.600184205036934
0.00414176308682048 0.499454726545205 0.604549797016835
0.0117487817410869 0.498453243540177 0.616788465672196
0.00976124803979174 0.498714907315992 0.623605844331153
0.00494080463413197 0.499349530729825 0.631116554844192
0.0112231306996956 0.498522446812635 0.63662678037124
0.00762613190613677 0.498996000687626 0.651122157591981
0.00639151357585578 0.499158541274375 0.659001383309729
0.00418642813170776 0.499448846280491 0.670771189186232
0.00475347469922178 0.499374193183629 0.67177823834932
0.00503054739111189 0.499337715871728 0.680943165438316
0.0122482427229311 0.49838748825447 0.691234634209511
0.00651304790000106 0.499142540977058 0.698852195053299
0.00524484037240274 0.499309503665526 0.702693564094836
0.00854280713323964 0.498875318104501 0.717907935858872
0.00595176618334377 0.499216435116907 0.731206548861204
0.0109311147635527 0.498560891439964 0.730810053064321
0.0109137976677048 0.498563171278883 0.740990224585863
0.00553351020348651 0.499271499561286 0.750330362257885
0.00426112335006346 0.499439012468436 0.764081201094462
0.0067798155458275 0.49910742035021 0.771145850556747
0.00928411013192804 0.498777723713255 0.772297524504572
0.0119425409884063 0.498427734651336 0.777045083123547
0.0101872832164992 0.498658818720918 0.793575242952485
0.00950290386205484 0.498748918972228 0.79831204005929
0.0101958486867559 0.498657691055366 0.807828963823682
0.0044888863050199 0.498828681131851 0.817309131644272
0.00987761669122509 0.496695202878272 0.826159792896397
0.00741941344289219 0.496567612634554 0.82896420112107
0.00819509722269715 0.493302287144345 0.835734897583428
0.00824765829615893 0.488841946685043 0.839529055240623
0.0111404745373579 0.485689509953085 0.84189035258065
0.00906745942253022 0.480928405366878 0.845348651072197
0.00754926529249476 -0.111935411634357 0.354639771104725
0.0136510950787689 -0.111132090503142 0.366918489438506
0.0145789831570562 -0.111009931720153 0.379529041240669
0.00585272030932921 -0.112158766018661 0.379968104573911
0.00739100194244058 -0.111956247399668 0.395680775073858
0.00995057165735896 -0.111619273653951 0.408276295577269
0.0144130147790308 -0.111031781871641 0.422875951343125
0.00657351923892763 -0.112063871039321 0.43582523045844
0.0118099772920543 -0.111374478258115 0.442777249556051
0.00986866618571836 -0.111630056713858 0.447930802126206
0.0106512792172507 -0.111527023753612 0.458573682812052
0.00702770745420972 -0.112004076026404 0.466805273654413
0.0149178686026276 -0.110965316604848 0.482659861070313
0.00943190903742451 -0.11168755688327 0.496198241928809
0.0102799877643838 -0.111575905200715 0.500950262126061
0.0103877738154904 -0.111561714897882 0.511716308093879
0.00617878872276391 -0.112115838297647 0.513728958257285
0.0138686038500957 -0.111103454930149 0.533224065314307
0.0074997155333373 -0.111941934983905 0.541867291580139
0.0066057069948633 -0.11205963344086 0.55700311847278
0.0155565759407028 -0.110881229188563 0.565083275177929
0.00616071471654168 -0.112118217785708 0.570719655692097
0.00543222905223382 -0.112214124742871 0.585189103703628
0.0103318024672833 -0.111569083665667 0.593498510045004
0.00603709167902887 -0.112134493067356 0.597754584626711
0.00810991585094596 -0.111861600588063 0.613764040983216
0.00621964992885268 -0.112110458817812 0.630733592683806
0.0134403394677155 -0.111159837005717 0.632367447294149
0.013442128433824 -0.111159601483861 0.644074802699942
0.00943039329640637 -0.111687756434361 0.659604345012684
0.0129434362092385 -0.111225255560755 0.664400817989364
0.00557022542615302 -0.112195957175586 0.676774826558634
0.0154111940522411 -0.110900369077283 0.690873429140165
0.0110537039754598 -0.111474043529103 0.700174265404235
0.0129133517990832 -0.11122921624849 0.705509624955905
0.00988046702987615 -0.111628503103251 0.718623030768365
0.0122700548299333 -0.111313907901169 0.724031039011161
0.00564225661662185 -0.112186474089457 0.743632765878185
0.0152116741497857 -0.110926636370759 0.753414586961864
0.00517164816111384 -0.112248430868011 0.761157334130808
0.0128750089017053 -0.111234264186695 0.769535629770673
0.00867387063695742 -0.111787354531959 0.787040744354295
0.0100903929773447 -0.111600865827959 0.795290060747334
0.00948046331688127 -0.111681164591111 0.801416494615836
0.0113830779159421 -0.111430680627198 0.807394364491021
0.0151127583941894 -0.111795244342245 0.819019797028276
0.00662875254871283 -0.114621560874321 0.829643883619356
0.0141710592374502 -0.119861069143979 0.838442974783072
0.0116907403990739 -0.133611837222621 0.845348651072197
0.00520990286225736 -0.130932698911598 0.845348651072197
0.0145225884792868 -0.231130153541941 0.791117146872982
0.00559401469691892 -0.248215148884467 0.797801517422125
0.00655347757826176 -0.257865082040816 0.801294886959595
0.00913560649322782 -0.26250981624778 0.801097487008337
0.0111398617130909 -0.28942946904817 0.796953660802121
0.0143038026709436 -0.306638197720919 0.794219834319587
0.0151315067209779 -0.331504553158836 0.790438204849021
0.0208630628266789 0.497253325671545 0.488872220051287
0.0174982052853737 0.497696317570884 0.499394166702964
0.0129718072977525 0.498292229171029 0.513235888528398
0.0206855695981784 0.497276693098382 0.515273185404953
0.0186228479372801 0.497548255556866 0.524494537071171
0.0202812600837305 0.497329921455758 0.53038517602677
0.0177306853823159 0.497665710985482 0.540340321330586
0.0152767799434978 0.497988773765346 0.547235822752989
0.0133715098403435 0.498239607333004 0.55861721361021
0.0144247544814686 0.49810094504543 0.567592837857583
0.0143240918495638 0.498114197532334 0.571368300765076
0.0128631370741415 0.49830653587738 0.578294440315465
0.0124643536086659 0.498359036716607 0.590312091125997
0.0181314144750691 0.497612953999565 0.597499996073239
0.0173381052206275 0.497717395144272 0.603544244540056
0.0152434648401969 0.497993159781903 0.620479237047749
0.0133581129495819 0.498241371067133 0.621118409397992
0.0187180236824645 0.497535725432303 0.634553070617787
0.0143531668805804 0.498110369731883 0.639107912832756
0.0205477330928138 0.497294839618572 0.647929344170166
0.0165420092202499 0.49782220317104 0.654381654826483
0.0166992658254056 0.49780149994621 0.661560271306681
0.0130313431053074 0.498284391133268 0.675250283688514
0.0183625483096536 0.497582524652965 0.682426788339447
0.0130736897488698 0.498278816091878 0.691516005370413
0.0130876207903834 0.49827698203547 0.698582354067023
0.012872187418762 0.498305344376907 0.707939741676305
0.0156037554902766 0.497945726617962 0.716616622405705
0.0208171286771848 0.497259373017051 0.72564943116941
0.0192818765605125 0.497461492792637 0.727775317222053
0.0135169088210121 0.498220465194053 0.738939043238183
0.0171607446315792 0.497740745108793 0.752155559613324
0.0160599428901448 0.497885668407401 0.759280917196688
0.016810277834615 0.497786884937935 0.765155238605391
0.0182488658063111 0.497597491238462 0.770847443613852
0.0127622066888502 0.498319823614686 0.783196388793219
0.0203530221180454 0.497320473804708 0.791606164377588
0.0207692340021572 0.497265678470639 0.797429912566658
0.0200807533472201 0.497356318668402 0.808186889788222
0.0194864950501211 0.497095064264757 0.815812168585953
0.0198526065547299 0.496365967917907 0.820044067968463
0.0129661146354282 0.495655320750313 0.830095705360402
0.0166734334163064 0.493304561964922 0.834782001399892
0.0146508079606714 0.485879386804848 0.841334853625701
0.0139407673501388 0.483167598929078 0.84372484194269
0.0183244180128201 0.47637380705277 0.845348651072197
0.0191793184738415 -0.110404286085959 0.364936121855671
0.0203699183748834 -0.11024754063536 0.360917064302329
0.0238694602720449 -0.109786817204186 0.371841594689083
0.0218473227143006 -0.110053036664129 0.383459763869165
0.015598657134921 -0.110875689094243 0.40218288438874
0.0159296838894237 -0.110832108595244 0.414774524783827
0.0167059068919587 -0.110729916898276 0.417279091113988
0.0203580278175608 -0.110249106056929 0.432601435665062
0.0164498476615211 -0.110763627735493 0.44091033237392
0.0234971122350538 -0.109835837753228 0.444444284842197
0.020788358291643 -0.110192451975228 0.457472026746679
0.0162512273115499 -0.110789776600638 0.473054068259026
0.0197393780816828 -0.110330552839789 0.480295018789872
0.020005856870486 -0.110295470241689 0.496070665191457
0.0218105717527432 -0.110057875020007 0.500272212416559
0.02274897380665 -0.109934332045868 0.512242574066552
0.0196788922585124 -0.110338515949478 0.519257805687853
0.0217083037862707 -0.110071338853216 0.530772585551102
0.018777245394474 -0.11045722001107 0.544956336731371
0.0218725879513368 -0.110049710432571 0.559408372841793
0.0259746203312006 -0.109509667624578 0.564094205628094
0.0205381955752289 -0.110225386521647 0.576762247400244
0.0226794234631677 -0.109943488522296 0.583615327849993
0.0184168638299894 -0.110504665144119 0.594671110137228
0.0234970429706492 -0.10983584687206 0.606175947613367
0.0192468946855344 -0.110395389508912 0.610252175080471
0.0160677367282289 -0.110813933594216 0.625456353188215
0.0232078756005583 -0.109873916478553 0.639251245108909
0.0201956808879133 -0.110270479435693 0.649712229614336
0.0229280646079822 -0.109910754294578 0.66073413922402
0.0205596117424122 -0.110222567029749 0.664911032389887
0.018080403199787 -0.110548961026425 0.676809294965176
0.0186275948699668 -0.110476921876386 0.68601478111541
0.0198293896326167 -0.110318702594296 0.695799873200839
0.0179376861252394 -0.110567750085738 0.705933017474896
0.0255008879228038 -0.109572035679331 0.720114525905987
0.0190832204586633 -0.11041693762967 0.731787742245824
0.0167126890555376 -0.110729024009501 0.738772997654933
0.0240985331313667 -0.109756659190127 0.753409169636097
0.0160919575517884 -0.110810744862301 0.755538235898472
0.0194241711329444 -0.110372050621847 0.778640310754792
0.0170893149744991 -0.110679440266613 0.776987313248833
0.0213307822738374 -0.110121040503221 0.78987208096404
0.0170899942298879 -0.110679350840945 0.794506554261361
0.0218681404897945 -0.110353161934772 0.815584543617239
0.0220404393346915 -0.110917728397871 0.819234410782544
0.0163156948047362 -0.11288323523089 0.826766156976364
0.0230225716802231 -0.117330175703123 0.837279557383779
0.01938541396339 -0.129356938630807 0.845348651072197
0.0224615956360759 -0.134923291977761 0.845348651072197
0.0236404686012781 -0.234366131591825 0.791875221971744
0.0205692150339024 -0.246593619473647 0.796503161566185
0.0260762487034544 -0.256737112673281 0.799963794701087
0.0221645868951506 -0.260774169966974 0.800771759501213
0.0261705741045252 -0.287729925906841 0.796532300081608
0.0237199488731648 -0.303050964790177 0.794335707768952
0.0246853739261558 -0.32040306052327 0.791679357148874
0.028875679912326 0.496198444620008 0.494238482228007
0.0250994954320912 0.496695588738182 0.491013224087361
0.0222312124058261 0.497073205362377 0.502849529145766
0.0253927314920372 0.496656983478507 0.511109033552887
0.0255738774531468 0.496633135160299 0.521839171922361
0.0245020363078721 0.496774245724092 0.525283848902239
0.0253091813385811 0.496667983064884 0.534282682206917
0.0286579929069407 0.49622710365796 0.548441391457414
0.0215636066461875 0.497161097328037 0.55540218550929
0.0227546572474878 0.497004292541623 0.563780799758386
0.0224363739440555 0.497046195333461 0.571002519801361
0.0215539778602378 0.497162364981756 0.585010147643913
0.0256176220573072 0.496627376073906 0.587644043093186
0.0256519459718994 0.496622857244823 0.593777605652616
0.0265555748976207 0.496503892239859 0.604703670885976
0.0235198995770232 0.49690354647768 0.610749269018309
0.0279552687070327 0.496319619053993 0.622534458406111
0.0229033628292677 0.496984715080377 0.630608032473762
0.0260916315548994 0.496564971539667 0.640208989283657
0.0228659450495214 0.496989641224534 0.65169723467717
0.0272997389492904 0.496405921183842 0.650245377876412
0.0233457276933286 0.496926476641179 0.658627720915941
0.0289939083788059 0.49618287954711 0.671267980360102
0.0292440340382856 0.496149949879329 0.677554319006704
0.0291702789428983 0.496159659921847 0.693733919742782
0.0252748890282589 0.496672497733185 0.691922906192525
0.0250825301837735 0.496697822255496 0.70584457014101
0.0218356871897992 0.497125277244926 0.713528409890305
0.0254651037974018 0.49664745548375 0.725726676538995
0.0223880160991859 0.497052561764516 0.725833757205252
0.0211456484064543 0.497216122574185 0.739554949484596
0.0267210243007222 0.496482110412717 0.74927603837723
0.0222156550546043 0.497075253526521 0.759182447969607
0.0278209053724925 0.496337308322569 0.765801815005856
0.0233257110121268 0.496929111887252 0.768466313466178
0.0244248167298839 0.496784411874396 0.776277008788079
0.0250435124363665 0.496702959039391 0.786982024152777
0.0282355274290724 0.496282722293265 0.791883249114433
0.0210814299586245 0.497224577093234 0.805505937308866
0.0257884687868067 0.496018512181152 0.817346582600482
0.0265736785153297 0.495360097870021 0.820796255281268
0.0267305639088481 0.494139812055624 0.828252185816921
0.0278330552401273 0.490027910189546 0.836321893438576
0.023453753958529 0.487121456209847 0.839289286788432
0.0216763488134445 0.48164190172797 0.844157033958769
0.0259789049284438 0.477661847484793 0.845348651072197
0.0312189401491339 -0.1088192398224 0.358973756489513
0.0362209319178194 -0.108160715113141 0.367515640163798
0.0358133604892345 -0.108214372909659 0.377671075426111
0.026266934295012 -0.109471183761162 0.390390160759489
0.0329984911250596 -0.108584957491835 0.401145313650363
0.0297678671216829 -0.109010277210645 0.410624394503753
0.0340935124922526 -0.108440795193932 0.419231057276347
0.0286313511192022 -0.109159902380919 0.437130437371726
0.0290223593696994 -0.109108425168164 0.4427352777066
0.034208285462601 -0.10842568504573 0.451053065379917
0.0319114486158797 -0.108728069353152 0.457733788314447
0.0279394329300014 -0.109250995138654 0.469377994969724
0.0260364331918164 -0.109501529807094 0.480121818477977
0.0328188720958282 -0.108608604785647 0.497851936337801
0.0339299337091187 -0.108462330749285 0.507360984823505
0.0360752713745457 -0.108179891687462 0.519516011229544
0.0348622922828525 -0.108339583414406 0.531188142255954
0.0320312037749066 -0.108712303287367 0.532009805311134
0.0260406682658446 -0.109500972249021 0.543547115455283
0.030582331446347 -0.108903050948107 0.554084399212089
0.0295107058693493 -0.109044133131797 0.560003442693557
0.0333794618216556 -0.10853480174812 0.57374113666235
0.0340631235947017 -0.108444795968194 0.580351631212158
0.0287958779721588 -0.109138242009807 0.597917362679348
0.0303695525069716 -0.10893106382691 0.600819179905411
0.0343739906485145 -0.108403869544141 0.621937904214813
0.0327246429805852 -0.108621010284014 0.626972674167675
0.0351910582307646 -0.10829630055624 0.633265128302381
0.0267881293490977 -0.109402567130562 0.652082251184228
0.0309652417857902 -0.108852639845567 0.661738169786077
0.0353344963328932 -0.108277416571846 0.668119882343115
0.030470777392518 -0.10891773731791 0.677101985257539
0.0350360811637205 -0.108316703674186 0.694149854160196
0.0335464295151799 -0.108512820034251 0.697449542717766
0.0283063840680024 -0.109202685104843 0.70909899699279
0.0361388766240508 -0.108171517897506 0.718923278680537
0.0278552396345526 -0.10926207939628 0.729013300443528
0.0267827576931833 -0.109403274322479 0.741776654356178
0.0349633098642392 -0.108326284197515 0.750226192852117
0.0331294626924005 -0.108567714757882 0.764984486240426
0.0310737459999235 -0.108838354994778 0.773505538894912
0.0340492159270442 -0.108446626947377 0.783603474470662
0.0360073974481918 -0.108188827459388 0.793846746758462
0.0337624537465624 -0.10848437990465 0.801662797874028
0.0337146407138083 -0.10849067460983 0.810529405581523
0.0337147545793924 -0.110825133528235 0.828211361163245
0.0344633194932906 -0.112435607919541 0.834392789716112
0.0338234550891806 -0.118846972300844 0.839783277493858
0.0277599269320174 -0.122722484575456 0.842404972391651
0.0348844278838449 -0.135349103077205 0.845348651072197
0.0360329555395969 -0.234945956569298 0.791484730515762
0.0321209108412725 -0.244985985940745 0.795369137940116
0.0365538472828342 -0.251820312912499 0.797666970348535
0.0361571697705187 -0.27390418130691 0.79816416713086
0.0349244204664376 -0.291268458081941 0.795605030751379
0.028165369902194 -0.315659364963501 0.792236848210108
0.0286847563747443 -0.33369547567217 0.789497598011102
0.0351080489553246 0.495377937669611 0.48947943093709
0.0351190822819681 0.495376485104602 0.492053808065687
0.0314861822103208 0.49585476547252 0.505761824975462
0.03334338442109 0.495610260162947 0.505999816497434
0.033519044104539 0.495587134126895 0.518235428298631
0.0302128084735499 0.496022408305328 0.5308601007534
0.0326504638487143 0.495701484886929 0.542153273448247
0.0328097221284374 0.495680518136643 0.541205213950239
0.0359101997370819 0.495272332515751 0.553382120884106
0.0309456647618596 0.495925925944599 0.563955141190584
0.0336901835852967 0.495564603186818 0.574791301720306
0.0338261925315166 0.495546697269354 0.578741974161635
0.0302727884113303 0.496014511796714 0.584791721192995
0.0366345432143073 0.495176970887863 0.592135354895102
0.035698796790793 0.495300164241627 0.600567337393453
0.0315591120717718 0.495845164074111 0.613434067924269
0.0366820210309877 0.495170720314717 0.622564196239518
0.0338903524798741 0.495538250451908 0.63308372610433
0.0370486499725397 0.495122452698873 0.637992592438808
0.0299125267281567 0.496061941147088 0.645999337506002
0.030827554743699 0.49594147542348 0.652024718207411
0.0300374836604632 0.496045490254859 0.659157215975628
0.03647751698482 0.495197643783162 0.67368512199233
0.0351087484887163 0.495377845574293 0.67551293963082
0.0317699538947288 0.495817406221523 0.686932550567153
0.0302021782698925 0.496023807798189 0.693288752917848
0.032579527078995 0.495710823889834 0.710321387214525
0.035576930078545 0.495316208298667 0.711532099809376
0.0358410951027417 0.495281430313457 0.723143272833111
0.032749904246942 0.495688393310142 0.729313234844735
0.0293060108943034 0.496141790471442 0.7419994423007
0.0359585032471732 0.495265973238005 0.744073971849262
0.0351844987901321 0.495367872857919 0.752451948223554
0.0351343840444821 0.495374470589349 0.767957133153803
0.029415895124721 0.496127323938061 0.772047920201469
0.0325583967009783 0.495713605756875 0.784698674717433
0.0359009723088912 0.495273547329719 0.789216455372793
0.0332382802730633 0.495624097386541 0.796516390378666
0.0359447489747314 0.495267784022325 0.804857113288929
0.0303902480697932 0.495999047939311 0.809843888704707
0.0368698292300775 0.49453063037537 0.81752677960319
0.0321127450442332 0.493671779719471 0.82675715275509
0.0313500653509897 0.493356561072132 0.829340353205938
0.0375531092772943 0.482327797569176 0.84179188508938
0.0363527620213196 0.483496329498396 0.840930971916969
0.0348185167284165 0.478686155190532 0.845201157129251
0.038724718396649 -0.107831085369777 0.362151885261188
0.0392216500587963 -0.107765663075325 0.361150493700222
0.0409951917109645 -0.107532171887241 0.381472650723019
0.0460341616646956 -0.106868778907565 0.390705753895556
0.0428747821761933 -0.107284719108053 0.404519080205019
0.0439620824159483 -0.107141573315862 0.408418513510226
0.0402038163821397 -0.10763635842581 0.421783939605842
0.0373253599824209 -0.10801531440003 0.43403189532216
0.0393778144676164 -0.10774510364087 0.440062342210521
0.0438494399641852 -0.107156402975971 0.447828089735359
0.0436583295548973 -0.107181563138669 0.467427787895021
0.044799026462487 -0.107031387541794 0.466782985977779
0.0361485145287081 -0.108170249043286 0.488595311621086
0.0375419727607936 -0.107986796786747 0.495991343523155
0.0402059604465036 -0.107636076154382 0.501972541116567
0.0365194593782125 -0.108121413227381 0.510811901561698
0.0390142014000266 -0.107792974209373 0.524006926439574
0.0456883930795033 -0.106914300205393 0.540731445097378
0.0414445288855277 -0.107473015525951 0.543554226732551
0.0384799888139962 -0.107863304630567 0.554703611118915
0.0371017348378391 -0.108044755208838 0.563237043603497
0.0413485354841758 -0.107485653296992 0.571076555394896
0.0460495398125332 -0.106866754335994 0.590930740651842
0.0378069195504207 -0.107951915880166 0.597471358095817
0.0366669288730522 -0.108101998500067 0.606298130340898
0.0401720068304639 -0.107640546232736 0.616183615791725
0.0427079826750487 -0.107306678678975 0.624042030950643
0.0419747017107915 -0.107403216949353 0.636723417595942
0.0439625141562511 -0.107141516476172 0.644101697050577
0.039702985728217 -0.107702294032268 0.662057016262882
0.0422434746716879 -0.107367832317767 0.672268167772099
0.046174320238431 -0.106850326681274 0.6809039297104
0.0404696894580252 -0.107601355571329 0.691003672944881
0.0439584542959227 -0.107142050966925 0.699675489706632
0.0405786297935175 -0.107587013304074 0.711510384888801
0.0410457820844183 -0.107525511538223 0.725436436129174
0.0376483664509772 -0.107972789791708 0.733199967714443
0.0418059702828846 -0.107425430863258 0.745721060123087
0.0422346268301017 -0.10736899715821 0.747309962420551
0.0399711012357705 -0.107666995956057 0.762613542519846
0.0422293069618619 -0.107369697532151 0.772020163734689
0.0381699220557835 -0.107904125693704 0.788979568162982
0.0442779973754581 -0.107099982322417 0.791948931286455
0.045419405408955 -0.106949713104041 0.807061514612484
0.0396058007405146 -0.108196405085304 0.816693645877742
0.0460268525369616 -0.108962431452292 0.82670863136332
0.0404718745880382 -0.110490617157104 0.831661256753265
0.0454738886709646 -0.113725656498512 0.836726847532654
0.0460084831165606 -0.124895282071395 0.845348651072197
0.047047962478925 -0.228592586782903 0.78300222690883
0.0434352687864369 -0.23838702097389 0.789908101171572
0.0461579251324748 -0.250209913525463 0.791768387756105
0.0389520445981394 -0.257846741641305 0.799765569339339
0.0414263873178592 -0.272171020443866 0.797474767825676
0.0414077003097244 -0.298928807065486 0.79346462924381
0.0451108643926216 -0.315478611871311 0.787742427069637
0.0410993233113138 0.494589171436914 0.483758809015165
0.0404233867635488 0.494678160171638 0.491711538327391
0.0391126652202332 0.494850719936457 0.507046431417592
0.03835878618004 0.494949969994977 0.515536443838703
0.0425312351809212 0.494400656662955 0.523485004297351
0.0446918410042434 0.494116207510012 0.527731821873644
0.0437174072643048 0.494244494145609 0.532589150018536
0.0379794124222391 0.49499991549771 0.548602272912959
0.0450229234536419 0.494072619678642 0.552918612655531
0.0387555775012231 0.494897731426522 0.567964938319531
0.0441644071326052 0.494185645496526 0.569213448388806
0.0407731775401354 0.494632109342266 0.579261598698262
0.0388079282435884 0.494890839320539 0.583197989428127
0.0450078523555543 0.494074603826347 0.600709299394036
0.0414663288007143 0.494540854247606 0.602559158798178
0.0423056350748088 0.49443035748038 0.613899560070552
0.038667075352548 0.494909382955437 0.620207095133973
0.0431891473953918 0.494314040876727 0.630160452435821
0.0402169025026244 0.494705344340301 0.636301699971069
0.0379037756035708 0.495009873273798 0.643799137603055
0.043270576755999 0.494303320498026 0.652103869365761
0.0375875045442162 0.495051511148676 0.657666822222931
0.0444503537867691 0.494147999905329 0.664391081074107
0.0443651634531047 0.494159215425526 0.683612045026865
0.0448539670485778 0.494094863211352 0.687069541708803
0.0385085547583535 0.494930252587582 0.693694605546739
0.0414667263768083 0.49454080190572 0.704529725955616
0.0411779037416088 0.494578826127004 0.716346255255534
0.0395088327300095 0.494798563494332 0.721248188108112
0.0434212312896828 0.494283486452394 0.723426856484022
0.043153655356906 0.494318713492238 0.741948347209236
0.0381619639889301 0.494975882128017 0.746271045629983
0.0449575238343553 0.494081229701862 0.748237114769284
0.0450125427081869 0.494073986329708 0.756464977998141
0.0413978795383241 0.494549865763957 0.776426482909861
0.0376066790499592 0.495048986777106 0.772056161167467
0.0375332318490368 0.495058656284547 0.792120228586087
0.0444374066146034 0.494149704432881 0.793952436279817
0.0399360745479401 0.494742316041927 0.799498436041464
0.0458000624383998 0.493970307390326 0.808738522357845
0.0375879071759756 0.494680271395889 0.816009169743118
0.0400417402989678 0.493031260047841 0.824250243546469
0.0456853475485491 0.48887888776848 0.83529844818546
0.0413864124931173 0.487163997904593 0.837241656707563
0.0377992823948427 0.484390872163566 0.840006606561376
0.042879174089708 0.473944115249228 0.845348651072197
0.0562498892985007 -0.105523852849902 0.364915155486165
0.0550052384785849 -0.105687714238968 0.371205364780714
0.0560307719871976 -0.1055527001912 0.376092605041539
0.0473944121428125 -0.106689698534777 0.394955121315727
0.0542193430404448 -0.105791179336242 0.39746130795752
0.0509880509550476 -0.106216587009719 0.410512366154878
0.0506958781025064 -0.106255052295483 0.418742403988505
0.0487166950253207 -0.106515616690777 0.432967382701137
0.0508030375349463 -0.106240944488563 0.438581706356734
0.0520061665505839 -0.106082549548734 0.455312757985076
0.0567133248391991 -0.105462840403498 0.462627259493932
0.0549195361587588 -0.105698997163423 0.473660075458343
0.0542037883450749 -0.105793227150736 0.483635521522548
0.0541956000219185 -0.105794305163931 0.490228344197699
0.0493522738584937 -0.106431941149977 0.507051084583565
0.0513364150692881 -0.106170724004009 0.510982160612891
0.0520380238924931 -0.106078355450105 0.522739106141593
0.0502095979782298 -0.106319072288372 0.538630542803954
0.0544169479692945 -0.105765164153824 0.549645763671683
0.0501272499802214 -0.10632991360798 0.552170299838293
0.0543402175198865 -0.105775265909129 0.563628592642479
0.0525344066880888 -0.106013005415306 0.57465527414881
0.0566166190278673 -0.105475571965092 0.580229940643819
0.0516575656180102 -0.106128443732168 0.60254901887836
0.055983897036929 -0.105558871395477 0.608597078848026
0.0565513001837293 -0.105484171354062 0.622421588676781
0.0476556570776959 -0.106655304986617 0.627181249533103
0.0478857370981629 -0.106625014377278 0.636342946271627
0.053426479984882 -0.105895561737752 0.651616863872478
0.0496201636215081 -0.106396672793598 0.660462721189953
0.0505043571230758 -0.106280266510765 0.664877144626503
0.0548657670577313 -0.105706075999866 0.681777403808537
0.0483351893091158 -0.10656584287116 0.685979954540839
0.0546846557783438 -0.105729919752138 0.708186929167596
0.0502596796951394 -0.106312478905257 0.705216405966101
0.0552848846867647 -0.105650898117221 0.723663024584808
0.052395187572476 -0.106031333959588 0.727876138107606
0.0506335966477372 -0.106263251804557 0.745233973740484
0.0539299305706922 -0.105829281210718 0.75528661092896
0.0482046909548596 -0.106583023305429 0.761969149926629
0.0535507433106845 -0.105879202160551 0.773474042550494
0.0491457354160932 -0.106459132451766 0.780197205784941
0.0532388531158884 -0.105920263283669 0.799577901657121
0.0561786407516115 -0.10553323289905 0.805014908066273
0.0568491577398139 -0.105989087728142 0.817084044338056
0.0478142563737832 -0.108351504996589 0.824374144296733
0.051391420391516 -0.109261273810244 0.832955519960027
0.0506442832901152 -0.115926626987597 0.839181925544275
0.056237501144404 -0.129575610088775 0.845348651072197
0.0501151202805997 -0.132328691460409 0.845348651072197
0.0554751326611693 -0.241237486275057 0.779803964699847
0.0582616106857617 -0.2708137492173 0.780472733099813
0.051557477154912 -0.26057566371393 0.79029719913162
0.0516301853277465 -0.288205471910315 0.786122531891658
0.0515261117767644 -0.305539571215558 0.783635242041426
0.0499822726756471 0.493419708967157 0.481231684707175
0.0505801195266102 0.493341000936053 0.485928573202868
0.0502704806699255 0.493381765664885 0.503525258585627
0.0505566760801112 0.493344087324337 0.50975503594293
0.0520033488674125 0.493153629238696 0.51825912046838
0.0476066242836179 0.493732469011357 0.531064618245097
0.0510965905870033 0.49327300623102 0.537262010993527
0.0542597308580695 0.492856570914115 0.545659126918076
0.0503601130556489 0.49336996533744 0.54507152745413
0.0478885136579396 0.493695357571184 0.565809169546684
0.0518918024552167 0.493168314602459 0.568486065473866
0.0517407037127847 0.493188207129283 0.574470872406709
0.0535041408088884 0.492956046231242 0.581270973501507
0.0487966330482241 0.493575801385346 0.594400002411021
0.0543052607175077 0.492850576794405 0.602981924290433
0.0461794349831633 0.493920362047292 0.614341511664122
0.0470500011286321 0.493805749839926 0.623380512917456
0.0514138762040754 0.493231234787084 0.625534540003238
0.0531395587976235 0.493004044363601 0.633803387053608
0.0489186744954655 0.493559734324007 0.647559086051397
0.0494863644017279 0.493484996529993 0.649274571006557
0.0510795307184615 0.493275252205323 0.656844176646296
0.0504193461479841 0.493362167152895 0.664147735344662
0.0542065573728504 0.49286357133625 0.677693949780642
0.0478055169346557 0.493706284297096 0.69129123167082
