ply
format ascii 1.0
element vertex 824
property float x
property float y
property float z
end_header
-0.436598326974826 -0.065320569944896 0.469220881004573
-0.432191274562872 -0.0710639524675955 0.469957275990231
-0.432227362758768 -0.0710169214150436 0.47350932592656
-0.43094407956471 -0.0726893286340793 0.477056527077255
-0.435310978793979 -0.0669982747578571 0.491995916954061
-0.434851559858291 -0.0675970011716089 0.50220495305041
-0.431451846889593 -0.0720275933727933 0.509530194764049
-0.432791380677666 -0.0702818789523983 0.518425553598313
-0.431907236949352 -0.0714341174923758 0.525647990691083
-0.433135333941639 -0.0698336303317178 0.531675755496338
-0.437386111986804 -0.0642939085289417 0.556057429293078
-0.436693202419299 -0.0651969258583992 0.55724289872344
-0.432446176952965 -0.0707317572052277 0.559928954241623
-0.432330622326184 -0.0708823509267979 0.565691498133488
-0.433870307843286 -0.0688757936947146 0.57599283907798
-0.435754150088547 -0.0664207226822605 0.584085334814911
-0.436947806638437 -0.0648651191799861 0.597225123845118
-0.43317399598404 -0.0697832449770937 0.609004233569506
-0.437026356802756 -0.0647627506128051 0.613476426295132
-0.436865052523059 -0.0649729664428541 0.626762009768675
-0.437077930703435 -0.0646955381968631 0.639276267603937
-0.434022097844615 -0.0686779771136395 0.639511187297889
-0.432399623684275 -0.0707924266061726 0.645829126763331
-0.437294580042052 -0.064413195281768 0.66398565855717
-0.437123235803412 -0.0646364954410536 0.672890904448724
-0.435377609567639 -0.0669114398430117 0.677535593425818
-0.43608227478424 -0.0659931022533778 0.685099192540128
-0.4329026519483 -0.0701368674092403 0.684440923108569
-0.431831390444315 -0.0715329625821808 0.696590058702843
-0.435145997701728 -0.0672132823033172 0.704600221498696
-0.434688868813634 -0.067809024268939 0.718808029088357
-0.432119978064136 -0.0711568678737418 0.726065471842222
-0.435917526983811 -0.0662078057670164 0.731799954108216
-0.432731175147864 -0.0703603403264213 0.741101475742687
-0.433584532271249 -0.0692482236711325 0.754601593554125
-0.433842349408666 -0.0689122298360965 0.765436004380718
-0.433286836784421 -0.0696361879829457 0.771492008594099
-0.431366625812914 -0.0721386556422216 0.777825873597833
-0.437431351053609 -0.0642349518292374 0.791833976055566
-0.433772146704993 -0.0690037197807652 0.793288849930074
-0.4328497176678 -0.07020585270668 0.803916019497563
-0.435424719770953 -0.0668500446307327 0.811022188061003
-0.431087857993351 -0.0725019529378077 0.822790040693547
-0.43647264981606 -0.0654843556069867 0.830361602475651
-0.435068655470355 -0.0673140766616336 0.832398441568806
-0.431428663082194 -0.0720578070988343 0.842012031365556
-0.430928567768174 -0.0727095440009049 0.850766177383298
-0.433230776729262 -0.0697092468692324 0.861652457852994
-0.436487271893356 -0.0654652997448495 0.869772719369086
-0.43555404504829 -0.0666815046479562 0.874255652082307
-0.435682433865134 -0.066514185084256 0.887761895600345
-0.432845276765043 -0.0702116402038319 0.894345072730799
-0.433316144570124 -0.0681082541922773 0.905515304601173
-0.429802575778691 -0.0642767982489259 0.913321950851117
-0.428165825183347 -0.0656958969058356 0.913650762654823
-0.410337431494904 -0.0720223038718656 0.917760319638811
-0.413223154659153 -0.0701572383929838 0.917610527178144
-0.0205863469801246 -0.0755927571405204 0.614161935744996
-0.019910583689469 -0.0750742257301146 0.62196536117266
-0.0295483391998159 -0.0824695356367466 0.642234481066316
-0.0247066178923383 -0.0787543522092464 0.649782112838185
-0.0308417143101642 -0.0834619772644974 0.667206417319845
-0.0248247006931726 -0.0788449603291427 0.667608918591997
-0.0259879699222334 -0.0797375682028866 0.682770733471089
-0.0254978079052745 -0.0793614536587916 0.690035737382104
-0.0242257010856712 -0.0783853317645182 0.704066737354917
-0.025073639924144 -0.0790359781194335 0.709569537780494
-0.0289221964657332 -0.0819890794185582 0.715552085660266
-0.0304094001410203 -0.0831302509352275 0.738229561597338
-0.0279544117291571 -0.0812464720716293 0.740884235814164
-0.0207820351354045 -0.0757429139432941 0.747334105454255
-0.0191860078906553 -0.0745182391648488 0.757730874745949
-0.0270417207401828 -0.0805461396441039 0.765370952030401
-0.0306214284405377 -0.0832929459716623 0.782177043129673
-0.0255530216965173 -0.0794038206909208 0.789566303964622
-0.0246226757795519 -0.0786899411606774 0.7985085186264
-0.0293627350122878 -0.0823271165345745 0.812402442915011
-0.0314768062091875 -0.0839493004184643 0.828876749277919
-0.0277685525089734 -0.0811038572760172 0.832059478974457
-0.0255470110278278 -0.0793992085426195 0.833541652424458
-0.02596822348107 -0.0797224162256652 0.848720842932114
-0.0290899397617611 -0.0821177933766532 0.862700554292083
-0.0224147998546293 -0.0769957783773752 0.863527557866416
-0.0266303256840431 -0.0802304651148067 0.881008346861928
-0.0282207482103005 -0.0814508392414936 0.895187326848393
-0.020112662632248 -0.0752292863566114 0.898099754594352
-0.0168721552329326 -0.0752672980533546 0.90812396387414
-0.0218890025368379 -0.0825584817605652 0.912069570043613
-0.00647621136744544 -0.0753881781890516 0.91565679961759
-5.29525351225859e-005 -0.0845126340740208 0.917658326400034
-0.443471756551648 -0.0563629421219445 0.434242838125434
-0.441801627821783 -0.058539496258615 0.443355306634374
-0.44155230085098 -0.0588644254931 0.449706941038066
-0.438415614925882 -0.062952234177321 0.457177667844291
-0.438319385563546 -0.0630776427239296 0.462754654632632
-0.442135430570956 -0.0581044760463698 0.473403442339579
-0.441155586687977 -0.0593814334560903 0.482658423708234
-0.441399671983652 -0.0590633353056296 0.494789473824556
-0.438904255292641 -0.0623154256531669 0.498389509227891
-0.440876198655744 -0.0597455390285647 0.504195243637493
-0.43828392339631 -0.0631238579200486 0.51924350679443
-0.440186919798413 -0.0606438247244019 0.530579352852963
-0.444187922023611 -0.0554296171077298 0.53639425021072
-0.440782163858872 -0.0598680875617786 0.548972194307739
-0.441614667990267 -0.0587831470547487 0.54740090702343
-0.440532399479897 -0.0601935868376903 0.560207096209691
-0.442403920109045 -0.0577545736679905 0.57386896219726
-0.438188166456713 -0.0632486507933567 0.579373900985066
-0.437579203962763 -0.06404226616658 0.580768030559257
-0.440818857091232 -0.0598202680103556 0.589648321995807
-0.439652980290905 -0.061339668238149 0.602217441589964
-0.437557920679296 -0.0640700030816125 0.605240194498983
-0.441261791684899 -0.0592430244093792 0.619828789388864
-0.443669238613039 -0.0561055784888582 0.636249131276451
-0.443535304112992 -0.056280125327619 0.635854202630369
-0.441758003621999 -0.0585963484226445 0.646901678176905
-0.438256271346295 -0.0631598947732383 0.651010136540685
-0.438891443918034 -0.0623321217616147 0.661352212937823
-0.44004122002431 -0.0608337043668297 0.669040094185679
-0.439597333590369 -0.0614121884302015 0.680116321835828
-0.443294290578712 -0.0565942202806902 0.688021456286117
-0.444298770155233 -0.0552851570100671 0.698957416420477
-0.44341507244284 -0.056436814290781 0.704524249149215
-0.441992328001659 -0.0582909709455954 0.710107121022498
-0.443099241281866 -0.056848413473295 0.727794124825848
-0.438198802059227 -0.0632347902063043 0.727335835492786
-0.437649392281929 -0.0639507949681663 0.736110885636827
-0.441469571061726 -0.0589722410535456 0.753888952385741
-0.437994630284511 -0.0635008720435321 0.753779614294463
-0.440335001532855 -0.0604508408508215 0.764822634050902
-0.439564857801076 -0.0614545117028114 0.771091561103673
-0.44343966392156 -0.0564047660517564 0.785102438507568
-0.437661859059117 -0.0639345479478179 0.786898321494795
-0.438208208242242 -0.0632225318299381 0.797237757655205
-0.437885529628739 -0.0636430547863289 0.806837599882773
-0.438781876351146 -0.0624749129948238 0.814828401242411
-0.443495428389733 -0.0563320923819314 0.821692325162104
-0.437600711817162 -0.0640142365850123 0.82807810811877
-0.441338586301003 -0.0591429437171755 0.847380760993179
-0.438355994898786 -0.063029932509363 0.848931519831042
-0.441925196997464 -0.058378457773567 0.859645776471278
-0.440010386683559 -0.0608738871588259 0.861544662460406
-0.441489522005088 -0.0589462404779438 0.877151465699734
-0.441604156689973 -0.0587968456479941 0.885531437558329
-0.442525005913387 -0.0575967715754796 0.891327429746731
-0.440949381779857 -0.0596501649243578 0.897716558534225
-0.436244057932701 -0.0635047400958833 0.906656809237978
-0.433169507046489 -0.0629011155171326 0.911375549084699
-0.425143984116162 -0.058749445929789 0.917228275887946
-0.404599682145622 -0.0580116691565742 0.913319161084851
-0.40641824515668 -0.0639059563129127 0.916397836916956
-0.0186884697788299 -0.0741364647440969 0.621505741567153
-0.0163867119927822 -0.0723702638750717 0.620788059598656
-0.0174834422083589 -0.0732118145680158 0.633415519182842
-0.0169197959823644 -0.0727793136071379 0.644078918107242
-0.016587116662937 -0.0725240397869986 0.647936077093623
-0.011554943830136 -0.0668292317933801 0.657021755881544
-0.0132876029624501 -0.0690872771370976 0.671489903022311
-0.0146154139621349 -0.0708177141222239 0.67864830785726
-0.0137189976233946 -0.0696494816049482 0.6933229246789
-0.017754563799472 -0.0734198534819006 0.710439367421674
-0.0141580809841435 -0.0702217061814685 0.708802203930135
-0.0188284402842145 -0.0742438678903989 0.72945171298285
-0.0124191345008096 -0.0679554670023752 0.727227013174366
-0.0105222779487541 -0.0654834354150962 0.736379871743093
-0.0112839309953912 -0.0664760409907761 0.743994885238895
-0.0102776947338223 -0.0651646883636262 0.753602713476597
-0.0188806950751053 -0.0742839644017013 0.774603651483212
-0.012028811960852 -0.0674467887647104 0.782556789276456
-0.0102780477402921 -0.065165148410614 0.789145359445422
-0.0143700367225374 -0.070497932277663 0.802579956371349
-0.0177569048384766 -0.0734216498243083 0.814445542661249
-0.0134301986523896 -0.0692731114582843 0.816576158494548
-0.0136477320834795 -0.0695566065451221 0.833223067165504
-0.0111291122097882 -0.0662742772211852 0.835939504040553
-0.0169784882046417 -0.0728243497332755 0.858397198129956
-0.0130545974967942 -0.0687836185022434 0.864995981855586
-0.0145864233102243 -0.0707799327690789 0.868095638030261
-0.0157306348996999 -0.0718668382153549 0.875468887393694
-0.0177118791080644 -0.0733871003662101 0.893840980149736
-0.0174103836015427 -0.0731557547273017 0.900235631147211
-0.00823794029057456 -0.0649394051233065 0.906882063810461
-0.0115092607791792 -0.0726755663078781 0.910607348083303
-0.00263032500796098 -0.0697527832922565 0.915501831130445
0.0215807354089465 -0.0664394222973967 0.915888834949123
-0.449952495103941 -0.0479170792058463 0.443134284535825
-0.445686309595656 -0.0534768804054913 0.444497245427282
-0.44593888481035 -0.0531477179771503 0.45588718262809
-0.447141719074417 -0.051580153844896 0.463219709538558
-0.449056716537263 -0.0490844805623889 0.472277733401991
-0.446215825813171 -0.0527868014354946 0.479755694651971
-0.44989124628379 -0.0479969002223237 0.493018008176873
-0.444776523190314 -0.0546625371327983 0.494266790366406
-0.446012802666902 -0.0530513863509865 0.507402244671407
-0.445681300653328 -0.0534834081862231 0.519089777548459
-0.449190875384892 -0.0489096413481665 0.524720119225573
-0.444664420454076 -0.0548086322630295 0.534223255568739
-0.44559731204513 -0.0535928642714567 0.545502502282636
-0.446685426397576 -0.0521748060387972 0.549925987549923
-0.447186847164504 -0.0515213417728669 0.558872614991486
-0.449950636763266 -0.0479195010425651 0.573482108552157
-0.448720447992303 -0.0495227142622694 0.578773656047113
-0.4494934234522 -0.0485153530303473 0.580552237506845
-0.448244899855945 -0.0501424606595782 0.593453237714545
-0.444564715276873 -0.054938570579763 0.598335555427259
-0.447648983002832 -0.0509190746226576 0.607110797296148
-0.450028426685742 -0.0478181232418444 0.614404025305806
-0.448731840743303 -0.0495078669400993 0.634388904261389
-0.449871896863347 -0.0480221168779951 0.641869683718874
-0.447846066635162 -0.0506622302324343 0.644824274778771
-0.448378633117966 -0.0499681760793197 0.644934152442397
-0.44491501074861 -0.0544820566330036 0.659247746111373
-0.446306512296207 -0.0526686165098276 0.673079279696957
-0.445825859666615 -0.0532950152122343 0.670123543805208
-0.447080905765711 -0.0516594072918087 0.681177082433766
-0.446805654553734 -0.0520181216551619 0.692694686209247
-0.445013889611754 -0.0543531951897173 0.70008882632266
-0.449457540953364 -0.0485621160132719 0.709216613939174
-0.444303224138815 -0.0552793524656547 0.71966768626095
-0.447556140866385 -0.0510400688505451 0.731757969638806
-0.448091018526691 -0.0503430027122695 0.735941610957209
-0.44540793683433 -0.0538396628511594 0.743626201395104
-0.444367591726577 -0.0551954669920949 0.754157687910799
-0.447550949358237 -0.051046834555687 0.757677853705985
-0.450598748617213 -0.0470748652300641 0.775665965179603
-0.444249928481701 -0.0553488087182662 0.774944533353809
-0.448940636457059 -0.0492357590681926 0.7864345704034
-0.450312683871321 -0.0474476720651852 0.796332779342914
-0.445769726537078 -0.0533681693309057 0.802202748001491
-0.444911793454384 -0.0544862494924721 0.809820833531028
-0.44481090553832 -0.0546177291844984 0.816217926109419
-0.449780949148411 -0.0481406422477012 0.836140287327452
-0.446729282153348 -0.0521176521051297 0.832748828231172
-0.450468211966553 -0.0472449839052885 0.850564610086143
-0.447718140053327 -0.0508289473997435 0.854126523913585
-0.447917741839894 -0.0505688212870233 0.867056340451878
-0.450195879607684 -0.0475998943452119 0.874052288913883
-0.446501989560515 -0.0524138655791678 0.881924200122038
-0.44499206890033 -0.0543816324944981 0.882325092729503
-0.446310060031158 -0.052663993011623 0.898427330303734
-0.444600797293093 -0.054891547580723 0.899243367398231
-0.437832705655409 -0.0520878471615256 0.914115882943342
-0.434940203159441 -0.0537626232130231 0.915080643929727
-0.426744662109972 -0.0525640491427847 0.917608284470777
-0.406372718755392 -0.0544332511514173 0.912735299360746
-0.00509490215196714 -0.0584103415687801 0.587712853227895
-0.00984575164701281 -0.0646017691732734 0.60869396897515
-0.00878288279708796 -0.0632166115200484 0.617278709956854
-0.00907512192720129 -0.0635974649693487 0.629160858453282
-0.00895759207759748 -0.0634442970872792 0.637338622422677
-0.00842853923472445 -0.0627548219988731 0.653870908513589
-0.00440808500388745 -0.0575152640349002 0.65164526175653
-0.00503356435786594 -0.0583304045991926 0.657910279716833
-0.00279255682414176 -0.0554098667205162 0.670223016607433
-0.0075206230231053 -0.0615716025554775 0.684526531822116
-0.00464736320806809 -0.0578270974617561 0.693134372539095
-0.0094813731051949 -0.0641269018122571 0.710240224827037
-0.00357914560608309 -0.0564349691791338 0.717655708462199
-0.00253518015833564 -0.0550744469192598 0.728083837093399
-0.00505528655222907 -0.0583587135140406 0.731645480924399
-0.00989615614723887 -0.0646674575968733 0.746316314785078
-0.00597107375899695 -0.0595521906380241 0.758270297466442
-0.00408277979392322 -0.0570913180313568 0.762523899691117
-0.00325267950787161 -0.0560095102765712 0.776392916136395
-0.00882845994073759 -0.0632760088100737 0.789187809735373
-0.00488549717944863 -0.058137439695394 0.800938644792199
-0.00933437892748596 -0.0639353352702073 0.805200130043473
-0.00500873303146755 -0.0582980437845891 0.819823646610476
-0.0055965932589025 -0.0590641581486661 0.826156217370906
-0.00804550559248649 -0.0622556428376569 0.830809308055619
-0.00344349457592976 -0.056258185314785 0.843287487908253
-0.00491485495039161 -0.0581756994873765 0.855910754619724
-0.00432998831953429 -0.0574134864543153 0.866281859378174
-0.00973904263534497 -0.064462703281756 0.881137622802355
-0.00266560031246839 -0.0552444137732541 0.879800759702413
-0.00386589704440998 -0.0568086709292585 0.893969345982798
-0.00779771390116216 -0.0619786151000006 0.900444890732518
-0.0032695010825114 -0.0612945123671146 0.910104561139115
0.00907489925350408 -0.0630630126278673 0.91741240343647
0.0314792506767366 -0.0610240759468441 0.912735299360747
-0.456587925042593 -0.0392696185500858 0.44977973171785
-0.45402977734896 -0.0426034615319029 0.454720496088848
-0.454968877248554 -0.04137960271512 0.457255319945616
-0.456830039594174 -0.0389540887233308 0.475233018040603
-0.45269658668688 -0.0443409094295605 0.473689318974497
-0.453866677308034 -0.0428160176435489 0.484561408432517
-0.45263056089796 -0.0444269559129432 0.498271575274045
-0.456851437388954 -0.0389262025742516 0.512521271811811
-0.454516764142248 -0.0419688079866527 0.509660824814291
-0.455995442526405 -0.0400417567981464 0.524709931328791
-0.454617853298429 -0.0418370660333978 0.532310577052792
-0.457154866151268 -0.0385307665123539 0.54553521439124
-0.457206412748016 -0.0384635896795884 0.54882803028815
-0.453981441311367 -0.0426664542825166 0.552682797210027
-0.453643646718732 -0.0431066767664472 0.563841140827419
-0.454060907161812 -0.0425628923699426 0.576379922427725
-0.457078610659742 -0.0386301446037286 0.58543879971022
-0.456566228216812 -0.039297894403953 0.597984061987967
-0.451784719647716 -0.0455292776916565 0.59124774163266
-0.453979152867423 -0.0426694366407282 0.604323300295382
-0.452907501414688 -0.0440660400047759 0.620959534889806
-0.452135435665649 -0.0450722156784243 0.621884861379176
-0.455821990458166 -0.0402678039344467 0.628755095427845
-0.453668055806847 -0.0430748662234882 0.639197619815648
-0.453195852432927 -0.0436902536415225 0.646713450001521
-0.45454638953043 -0.0419301994290929 0.655446770872686
-0.454439923909117 -0.0420689481281233 0.665081885766593
-0.453026653108069 -0.0439107584947452 0.675912967112162
-0.455280459852636 -0.0409735403597442 0.681376201704792
-0.456459367122903 -0.0394371584929057 0.697142331311712
-0.454728314718323 -0.0416931099082722 0.701840952395674
-0.451855022067184 -0.0454376577948334 0.703563442710502
-0.451467499767343 -0.0459426866885291 0.715454299594253
-0.455657752608217 -0.0404818428676826 0.729511328628376
-0.454213099583975 -0.0423645513438262 0.73476522281274
-0.454135463601076 -0.0424657285265863 0.740887084279503
-0.453668063718968 -0.0430748559122119 0.748846381929614
-0.452739435471774 -0.0442850678058915 0.762290866949914
-0.454431016312177 -0.0420805567344672 0.770518542735343
-0.454720332232783 -0.0417035128859667 0.779686505596921
-0.452530947397653 -0.0445567747540207 0.782721282376202
-0.451480376784828 -0.045925905032614 0.790530636406956
-0.453047964374372 -0.043882985111771 0.800661530266316
-0.454561591568869 -0.0419103877468817 0.812884506319572
-0.454745949001303 -0.0416701284632611 0.823751873976788
-0.455104308687516 -0.0412031050275836 0.830323960902685
-0.456162012688252 -0.0398246783368689 0.837624434467964
-0.452116885396107 -0.045096390860365 0.839992969837356
-0.451553803379062 -0.0458302136319686 0.856402271256009
-0.45486503181005 -0.0415149367254318 0.861932803849889
-0.452895050766963 -0.0440822660047992 0.867724870640124
-0.453008438180558 -0.043934496650441 0.880239426928229
-0.456814405170422 -0.0389744639010546 0.891615000668291
-0.454007580990595 -0.0426323883893096 0.89262226488162
-0.452825602205543 -0.0441727731321487 0.899491182174157
-0.449279164827912 -0.0455859836774157 0.908005944169819
-0.445564809104157 -0.0467161709888406 0.911399853736962
-0.440395640382022 -0.0439880707674548 0.915956640060324
-0.429064377678012 -0.0397120184356063 0.91744071983199
0.00260493304971612 -0.0483757209672505 0.578768465568582
-0.000241129620229342 -0.0520847820514201 0.587296183515311
0.00153500959178942 -0.0497700723646182 0.591168225372555
-0.000834673809762576 -0.0528583038991221 0.611462120825666
0.00433669255852631 -0.0461188480357104 0.61838077045447
0.00160991833901856 -0.0496724493845814 0.627583412864895
0.000415487140491366 -0.0512290624286159 0.639830692739118
0.00155847540875401 -0.0497394911165559 0.648927644020589
-0.00163208982952636 -0.0538975166887874 0.662805544706803
-0.00121002943719604 -0.0533474768766318 0.676087903389704
-0.00242800527896158 -0.0549347738971283 0.684624416487317
-0.00203732885173098 -0.0544256344645907 0.689796186702369
-0.00224803947763819 -0.0547002378985998 0.695064345292831
0.00501915310504144 -0.0452294481355289 0.705829432368384
0.00031502676811036 -0.0513599849348675 0.713135358579228
4.87063434730015e-005 -0.0517070604695605 0.730015707673116
0.00522122316448148 -0.0449661053069752 0.742288798944383
0.00504662751099542 -0.0451936427925856 0.746728933489211
0.000971087973434539 -0.0505049893259523 0.757238404824116
-0.000100114718119182 -0.0519010078530411 0.7758043601644
0.00367514046077961 -0.04698099951495 0.779635030300084
0.00148097300330479 -0.0498404942177931 0.789683219857487
-0.00225086725970284 -0.0547039231359352 0.805819193617774
-0.000146417238918953 -0.0519613504729739 0.812289926355238
-0.000576801919349387 -0.0525222387085924 0.819996029214821
0.00322170496130733 -0.0475719281628095 0.83150786746057
0.00157431048983707 -0.0497188544371076 0.831836559290737
0.0032684911787157 -0.0475109551771824 0.842138310201565
0.00415478930890224 -0.0463559089660224 0.863100761544389
-0.00159078892215486 -0.0538436922983797 0.868317346621549
-0.00246909549062446 -0.0549883237035416 0.877337539929794
-0.00212557878080185 -0.0545406440113066 0.887916143596886
-0.00126810048036733 -0.0534231565335191 0.898084743172234
0.000310786021723535 -0.0548357257874708 0.908385030330788
0.00264400358733609 -0.0547429432827918 0.911008043109999
0.0241700059459044 -0.0521238409189131 0.91772318564092
0.0280164760760656 -0.0542953574632437 0.916822826267055
-0.461042784995568 -0.0322253903896527 0.447881167270868
-0.457791229945346 -0.0377014410695544 0.46112009863861
-0.460653621362955 -0.0331649145094908 0.470723028500932
-0.457778766524722 -0.0377176837155436 0.476118290426933
-0.460993739652703 -0.0323437963215712 0.483625458368209
-0.460989972189269 -0.0323528917828869 0.494933437078373
-0.461717300322557 -0.0305969663392078 0.507417924758639
-0.461121342355982 -0.0320357361447196 0.512103224355665
-0.461621532697146 -0.0308281698393124 0.519591625302444
-0.461651959222447 -0.0307547137092754 0.527482842235002
-0.460958492166312 -0.0324288912812536 0.535134508330886
-0.461245530982341 -0.0317359182786689 0.54714745107891
-0.462006077747725 -0.0298997959628598 0.553236466675471
-0.457608392621497 -0.0379397193090954 0.565584728994792
-0.461062652595932 -0.0321774257594043 0.572106683994085
-0.46094312330536 -0.0324659949938048 0.576381493507411
-0.459599430041719 -0.0353449488247873 0.584292390904787
-0.461308562805835 -0.0315837459955295 0.602457867487313
-0.461090593277351 -0.0321099709873802 0.60737796602995
-0.458585265345884 -0.0366666339886391 0.610354199213437
-0.461844880332064 -0.0302889609499686 0.627189777283505
-0.460114046032047 -0.0344675645912915 0.631096289654864
-0.460654110564995 -0.0331637334712911 0.63569793239738
-0.461323288911075 -0.0315481940325387 0.648866533668394
-0.46144477516466 -0.0312549002714909 0.649829036272591
-0.461458313383542 -0.0312222161198546 0.657573269713004
-0.460190189815663 -0.0342837372361945 0.665868081558532
-0.461042583064847 -0.0322258778935396 0.676507479345305
-0.459695149608865 -0.035220204656205 0.684744888248529
-0.46049113864781 -0.0335571824840432 0.699997867692111
-0.460812624882662 -0.0327810460557505 0.70305978368068
-0.461442366715563 -0.0312607147819664 0.710739497319996
-0.460835831116819 -0.0327250212505164 0.720746830145529
-0.457911127629939 -0.0375451873648476 0.728783897080005
-0.46173628492892 -0.0305511334450514 0.74146791496574
-0.461377384324398 -0.0314175961520311 0.746919721737193
-0.45909589393599 -0.0360011698539149 0.755572729067932
-0.459259137869843 -0.0357884262173555 0.760361605449479
-0.460995885413852 -0.0323386159959031 0.775098869294333
-0.459450994725816 -0.0355383934946974 0.781380185976432
-0.459927974191159 -0.0349167817531375 0.785010320571426
-0.460652188884896 -0.0331683728174491 0.795603132060589
-0.458183134423689 -0.0371907012096481 0.799682589162083
-0.461184745957934 -0.0318826663089824 0.814750917535
-0.460351864455211 -0.0338934201287065 0.824891628182512
-0.461669768878823 -0.0307117173953091 0.837146862228096
-0.462145722118897 -0.0295626646280669 0.839594549930622
-0.45962188331122 -0.0353156871542697 0.846162251550036
-0.459927974191159 -0.0349167817531375 0.852026265177664
-0.461041791347767 -0.0322277892676528 0.860685809525752
-0.457674073154279 -0.0378541227722732 0.870188421399611
-0.459480553864461 -0.035499871275215 0.878581761158375
-0.45781029608939 -0.0376765935868734 0.883875590522666
-0.459867897373309 -0.0344849243370812 0.901888947830427
-0.460483286491012 -0.0310962762178887 0.905615529556095
-0.450864854920557 -0.032671885479668 0.91523599975937
-0.445683904937363 -0.0374307829309745 0.915873476654569
-0.439761442008281 -0.0380146890155069 0.917417501136054
-0.432914296118505 -0.0303801626846722 0.916647574286546
0.0107614904950132 -0.0377458883495033 0.572138632479011
0.00972989862887727 -0.0390902850438677 0.582219940938545
0.00745343698610695 -0.0420570276170256 0.59207310441569
0.00722898248146606 -0.0423495424225223 0.605969311049644
0.0108648107405479 -0.037611238783994 0.614570524216434
0.010660139110056 -0.0378779720459523 0.619280898283355
0.01085239618684 -0.0376274177453788 0.633990810972301
0.0087741524052524 -0.0403358377724925 0.643649330820988
0.012642852880461 -0.0352940491532775 0.650492217813874
0.00546016605390759 -0.0446547088708145 0.665876985656824
0.00654477529869022 -0.0432412185833957 0.6792433701016
0.00709529800551092 -0.0425237634235415 0.677247265840592
0.0107534721300923 -0.0377563380861164 0.692921253199651
0.00851133861664249 -0.040678343370141 0.703447203353782
0.0121241474868648 -0.0359700391832419 0.712417375574689
0.0104980522984242 -0.0380892076914728 0.721539122363141
0.00852117732465897 -0.0406655213162189 0.732266575319475
0.00887743448674245 -0.0402012379433351 0.743587376747319
0.00699468676311986 -0.042654882547419 0.747394244154614
0.00989689013174822 -0.0388726574802771 0.770726199421717
0.00987048943519822 -0.0389070635378819 0.765439268638892
0.0100145896283367 -0.0387192685099521 0.783561624678291
0.00960789411801977 -0.0392492844180176 0.793424449102456
0.00889699174799612 -0.040175750424246 0.801916725638895
0.00538679338436774 -0.0447503299954321 0.820398995998789
0.0118171537045048 -0.0363701212697172 0.825577366029834
0.00642501281885769 -0.043397296085828 0.831902172715833
0.00586234082079433 -0.0441305845102902 0.846312915862455
0.0101312947798637 -0.0385671753953397 0.846985961390454
0.00529959300825811 -0.0448639717380988 0.870807314562789
0.0123012077041536 -0.0357392898155497 0.872227635191417
0.0078393017538158 -0.0415541588612619 0.887406811794854
0.0121335694987683 -0.0359577601782651 0.88488247102937
0.00889200754449767 -0.0407787384081084 0.902955019113517
0.0116923484388129 -0.0430482841574603 0.911084208117534
0.0197684841738383 -0.0404687250963019 0.91542242821605
-0.462108246297519 -0.0296531392642995 0.451403837312468
-0.464644458462358 -0.0235301814588904 0.471872228576203
-0.46550489453286 -0.0214529050279295 0.475989853923723
-0.464586212813164 -0.0236707988951222 0.484288927112701
-0.463502141458564 -0.0262879786619784 0.487024280850033
-0.463388439239618 -0.0265624801010299 0.492962585626416
-0.464139632313388 -0.0247489395943732 0.50715610303285
-0.464142470907327 -0.0247420866223909 0.513092739093912
-0.462632144159384 -0.0283883379408859 0.515745984907167
-0.463490207752831 -0.0263167891762099 0.526009967971657
-0.464396996934408 -0.0241276064358321 0.543278025791569
-0.464161013497594 -0.024697320849484 0.554773716233983
-0.465337717321364 -0.0218565065192428 0.556971627376221
-0.463990224886639 -0.0251096410303511 0.564753099231604
-0.464872577634581 -0.02297945305947 0.573637270536208
-0.463304611015132 -0.0267648593374927 0.582349517945677
-0.465618092183406 -0.0211796217247502 0.595648340649155
-0.462489565283229 -0.0287325537974086 0.59709823126362
-0.465520149324062 -0.0214160767041169 0.608793028359633
-0.465521064364796 -0.0214138676003678 0.616308309284875
-0.465630283605837 -0.0211501890273747 0.623929547130503
-0.464260733008303 -0.0244565766542965 0.628220445934934
-0.463791136834436 -0.0255902821060863 0.642314607088686
-0.464523045244079 -0.0238232988971113 0.656197284857713
-0.464604353632618 -0.0236270030827639 0.653747930690899
-0.465417814002054 -0.0216631360264184 0.665660309720514
-0.464809157377568 -0.0231325631040816 0.679593813122776
-0.464409134512986 -0.024098303729016 0.687499982507427
-0.462820798420475 -0.0279328862651616 0.697802859931475
-0.4641844441785 -0.0246407541818647 0.701585785589469
-0.464926706383789 -0.0228487746990186 0.714149373532266
-0.463358780982308 -0.0266340814680648 0.716134714907391
-0.463336539380311 -0.0266877774452547 0.725352364862303
-0.463329899105772 -0.0267038084861043 0.733547578472613
-0.463431374181529 -0.0264588259819689 0.736625699319552
-0.463743080693958 -0.0257062998921829 0.74919601821626
-0.463026313368272 -0.0274367292909203 0.755481829899017
-0.464617978372479 -0.023594110051007 0.765361756475617
-0.465181813863832 -0.0222328907608372 0.783626688088909
-0.462710836599238 -0.0281983575853361 0.780108155774605
-0.463162107479477 -0.0271088933059581 0.793175187669154
-0.462111365148703 -0.0296456096914729 0.796494997228452
-0.464128861180247 -0.0247749434100849 0.810335300101598
-0.465398372875007 -0.0217100710590047 0.819657655399488
-0.462744727661063 -0.0281165373242348 0.82554823651853
-0.465051274679204 -0.0225480402307866 0.83690419209704
-0.465346797885612 -0.0218345840978811 0.84331131949315
-0.464760912496201 -0.0232490365509931 0.852228781407427
-0.462768349245014 -0.0280595097758936 0.861002897275608
-0.462942795975379 -0.0276383581135348 0.866909232592476
-0.463196984536676 -0.0270246926414531 0.877484151673872
-0.465259838601476 -0.0220445223810149 0.883728211378861
-0.463077520953595 -0.0273131032439378 0.888671844476829
-0.4649421595013 -0.0220547154355147 0.902404395739889
-0.461295184563699 -0.0252222253860458 0.909180692868195
-0.459304484162626 -0.0228319843361252 0.912696933589931
-0.448837665105493 -0.0285137888171318 0.917068531363293
-0.441215412790928 -0.0217352902119189 0.917341304291329
-0.431127558473933 -0.0282718720930711 0.915544535685835
0.0151299378173791 -0.032052816959075 0.573155078988149
0.0200357261816878 -0.0256594690889193 0.573726971697213
0.0170506683211668 -0.0295496722321492 0.584549936513279
0.0191590869285775 -0.0268019276064007 0.588887581426266
0.0133582206994392 -0.0343617636606718 0.605247711591158
0.016134103188075 -0.0307441631694565 0.611833285253634
0.0136805630859959 -0.033941678883769 0.631827242390796
0.0152306441542122 -0.0319215739057093 0.633930756294414
0.0166086372480344 -0.0301257383422398 0.647410948891507
0.0201912815036068 -0.0254567454465142 0.65365060947517
0.0187077323077316 -0.0273901444004367 0.661572727309495
0.0137673171128324 -0.0338286188347993 0.680434494901211
0.0183260925428264 -0.0278875070253466 0.684131651741561
0.0168743074650519 -0.0297795101746135 0.695869812984344
0.013634298297085 -0.0340019723305469 0.713471846782764
0.0134246173834498 -0.0342752338173969 0.722732413627126
0.0167688877736293 -0.0299168957912733 0.722158558811896
0.0195630748358746 -0.02627544031529 0.734433573762112
0.0159664192949347 -0.0309626930736128 0.741250852794155
0.0167274396342154 -0.0299709120582144 0.758144642444899
0.0131618066636351 -0.0346177354157142 0.764193026954118
0.0138325225586895 -0.0337436414433109 0.774988849086719
0.0199188571697001 -0.0258117757506409 0.779522207284813
0.0143871490647406 -0.0330208381081755 0.802665826906095
0.014301076399513 -0.0331330101894076 0.809933900536288
0.0182221413999413 -0.0280229787922897 0.812555259146285
0.0142515825710915 -0.0331975118024052 0.835570381784876
0.0130523117139795 -0.0347604320123019 0.840695074151479
0.0164737799983182 -0.0303014877317805 0.843972861046927
0.0167949205614863 -0.0298829692016109 0.865550684752267
0.016913041635381 -0.029729030821044 0.865473923099095
0.0158612458480571 -0.0310997577781315 0.878696390673229
0.0170819264507911 -0.0295089358445141 0.887278115179754
0.0159283582386371 -0.0310122952078959 0.896435245343444
0.0181534842225713 -0.034469605716473 0.910960337930628
0.0200414703418763 -0.0326952796211457 0.911497037144682
0.0384784301144996 -0.0254841962966781 0.917470924831375
0.0404751287533738 -0.0340422203010147 0.917472886845984
-0.466581665896626 -0.0188533489979501 0.458388081105185
-0.467896924687258 -0.0156780333875749 0.470980447348821
-0.468569065552513 -0.0140553417948498 0.473540458795541
-0.467916588675985 -0.0156305603192986 0.484755770080835
-0.466963480781942 -0.0179315663235048 0.488570170198307
-0.466392854777059 -0.0193091793635351 0.504760122625935
-0.46662930086215 -0.0187383480181369 0.506269118005236
-0.467301800312502 -0.0171147907244103 0.514539317298029
-0.469066344769439 -0.0128548035650614 0.526745826207223
-0.46673301445308 -0.0184879612603139 0.539446729111508
-0.466328213493661 -0.0194652372266028 0.54447112820558
-0.466793414304795 -0.0183421431191378 0.558021082193091
-0.468586417878219 -0.0140134495747948 0.56322091467715
-0.467454853131861 -0.0167452885321526 0.572516475638744
-0.467409371585335 -0.0168550906986153 0.574260819044941
-0.468519341912066 -0.0141753852819902 0.585985722456374
-0.468429013739318 -0.0143934567817015 0.593723812566159
-0.465892984349006 -0.0205159733303689 0.603239094651891
-0.465739752534624 -0.0208859076548368 0.605116749083818
-0.468910513956074 -0.0132310124281229 0.620282053348328
-0.467141755563121 -0.0175011729289511 0.63279561280141
-0.46855873311555 -0.0140802865042974 0.631549859166134
-0.467244109403251 -0.0172540688999484 0.642539542298563
-0.468476937178028 -0.0142777593660114 0.658118221706803
-0.467316857786393 -0.0170784387667256 0.657267157161257
-0.468311146412549 -0.0146780136805467 0.672502298810999
-0.466506353241337 -0.0190351698317666 0.677021944261124
-0.46846581775227 -0.0143046040344831 0.688387449949516
-0.466785467577586 -0.0183613282157419 0.690493089598477
-0.468685645172288 -0.0137738936956936 0.708179632198714
-0.46888017553281 -0.0133042558610291 0.714698596373217
-0.468215186165825 -0.0149096822096374 0.720801872092441
-0.468689556403767 -0.0137644511476124 0.735352446452149
-0.469139234887414 -0.0126788312536829 0.731629766599904
-0.467652942634017 -0.0162670581694859 0.746476689727717
-0.466100972661244 -0.0200138451261499 0.749545012059613
-0.468358516315142 -0.0145636526192589 0.763131975666365
-0.465711156541835 -0.0209549444884597 0.772530431657314
-0.467015491017147 -0.0178060025082887 0.777846246987464
-0.467596345263132 -0.0164036963098707 0.791950942190386
-0.46606833964985 -0.0200926281848383 0.793219070822735
-0.465994261290801 -0.0202714691639313 0.80259175615136
-0.467290134722793 -0.0171429539492987 0.814393526700607
-0.468452939087425 -0.0143356958818164 0.826444940831935
-0.466039518997367 -0.0201622073949389 0.832399819555388
-0.468950101975331 -0.0131354384951265 0.843035530258914
-0.467218683928592 -0.0173154514257016 0.849237628105895
-0.468238265092402 -0.0148539647520914 0.855991409222994
-0.468517760453466 -0.01417920326079 0.863262116210333
-0.46732234202946 -0.0170651986327342 0.878885253744173
-0.465634427766616 -0.0211401841382165 0.879699538366247
-0.468709559685602 -0.0137161589533136 0.885027624066454
-0.46819349855215 -0.0136356072831491 0.904037036883983
-0.464303830020814 -0.0185971074379928 0.908599188700814
-0.465682708370361 -0.0161313277527983 0.907812979155897
-0.459668379261377 -0.0175999831416086 0.91395732361763
-0.45270604531509 -0.0192367452625947 0.917058833616474
-0.442894638558438 -0.0196562485900267 0.917439406102693
0.021068014105543 -0.0243141652744736 0.559949953243009
0.0271904098303097 -0.0159112870185449 0.562872293283937
0.0242474633917576 -0.0201706262930167 0.566862275743955
0.0244267256201778 -0.0199370072085483 0.579730921235717
0.0232346243800799 -0.0214905837916388 0.587967602555298
0.0272858683917564 -0.0156808296648545 0.601837576167894
0.0244246610683743 -0.0199396977848418 0.61578737164538
0.0236453915280239 -0.0209552616221082 0.615317494074469
0.0236757487869507 -0.0209156992720244 0.629134371831441
0.0239993512118977 -0.020493972381121 0.642636991132614
0.0265651404833606 -0.0171501707011873 0.655164392086297
0.0253296207928403 -0.0187603313105182 0.667922520642672
0.0238106365414914 -0.0207399101278218 0.670865246381542
0.0204496552530595 -0.0251200262205517 0.678269635660864
0.0232551424934086 -0.0214638440657459 0.693097413536974
0.0238233038001482 -0.020723401834936 0.699535316667838
0.0232206811062001 -0.0215087550199395 0.709817594163295
0.0228820345838022 -0.0219500877603529 0.721449490470411
0.0234957574075432 -0.0211502686045614 0.736697601976739
0.0224209070053629 -0.0225510409206921 0.736869005011434
0.0222234219269829 -0.0228084084855934 0.753613522410804
0.0246423872809133 -0.019655951460328 0.766832704790192
0.0215722068539994 -0.0236570884918829 0.776660658289071
0.0242101671595916 -0.0202192316890877 0.782554593945038
0.0215071979643868 -0.0237418097262857 0.796878318860092
0.0208260421498121 -0.0246295092666978 0.801230122162466
0.0211304128562456 -0.0242328456393245 0.814484019387224
0.0274532246500803 -0.0152767959162612 0.819416992484234
0.0224194470410677 -0.0225529435832037 0.833020405113446
0.0238887636655021 -0.0206380928775034 0.842065489731806
0.026503080616698 -0.0172310486940563 0.857878872526219
0.0242445044756686 -0.02017448242754 0.859512502144562
0.0210314421465957 -0.0243618267793079 0.875830992713
0.024459284595284 -0.0198945755260744 0.889394991763354
0.0252875702562833 -0.0188151326367003 0.892421006943282
0.0260365209121198 -0.0184723694046043 0.90312276996635
0.0278862621355567 -0.0202127301635061 0.909730045494141
0.0340597751336415 -0.0200047201820772 0.914748861856702
0.044519831691299 -0.0154761345266371 0.917642117920398
-0.471315087154939 -0.00742585919970534 0.462358400216286
-0.469531736086325 -0.0117312495360235 0.474870531404901
-0.470328900338838 -0.00980672478616927 0.484761115954402
-0.470619592196974 -0.00910493255978485 0.479981471237638
-0.469966793454711 -0.0106809281368567 0.489610091654519
-0.471145611688079 -0.00783500917028729 0.499372571057151
-0.471791743585429 -0.0062751087806236 0.512574567147957
-0.469427892378066 -0.0119819504248699 0.515083417828566
-0.471849741077137 -0.00613509044955885 0.53100487995381
-0.472601176347898 -0.00432096522764182 0.542853360641399
-0.470411947601945 -0.00960623095725808 0.545124576146832
-0.470995955998915 -0.00819630996475304 0.558740396282802
-0.470802082339713 -0.0086643623821852 0.565558837274551
-0.471648507130711 -0.00662091217222928 0.57548511343564
-0.471937745783008 -0.00592262829509035 0.581632066036252
-0.472262237067123 -0.00513923703610901 0.58919483728978
-0.470869655719891 -0.00850122581130481 0.601138597684011
-0.471082016080737 -0.00798854254804051 0.601768107780857
-0.471320260379114 -0.00741336993173883 0.620243903400263
-0.469321218393822 -0.0122394842043846 0.627336551300269
-0.471188007196108 -0.00773265735982004 0.626573315629604
-0.47190817535907 -0.00599401761360721 0.634559082394922
-0.470582219454344 -0.00919515834190374 0.645927332506951
-0.472073964420155 -0.00559376741384257 0.662097596527698
-0.470688302616075 -0.00893905093411475 0.669572256763849
-0.471530001236225 -0.00690701070991882 0.674210623993307
-0.472288092931938 -0.00507681545660501 0.688075335208061
-0.46966675147384 -0.0114052935563576 0.685137378135738
-0.469847977257075 -0.01096777581262 0.694478759266427
-0.471205209083242 -0.00769112833060135 0.71409548832459
-0.470671988481111 -0.00897843674000394 0.713448762514522
-0.470903216825957 -0.00842020213387012 0.725298971229042
-0.472377388656942 -0.00486123650623895 0.72958580074061
-0.471873434862404 -0.00607788859182105 0.737572480372642
-0.470305114917401 -0.00986414787318868 0.746128292127931
-0.471481206659865 -0.00702481123793632 0.757413618771243
-0.472125975908263 -0.00546820057385334 0.763248759417243
-0.469815480866037 -0.011046229040591 0.776926201554792
-0.471589463392527 -0.00676345636572467 0.7853062076577
-0.469549123382398 -0.0116892728900315 0.792344336617702
-0.471296210106712 -0.00747143242555174 0.798850021078752
-0.471855981671145 -0.00612002432286682 0.812323167390024
-0.471347233558091 -0.00734825091723284 0.819779077272389
-0.470143590084683 -0.0102541033149982 0.825707585560793
-0.472637434617396 -0.00423343002167064 0.836253018170903
-0.472588900881302 -0.00435060082558226 0.837293958408333
-0.470725757640629 -0.00884862650585881 0.850008721015018
-0.471287490253407 -0.00749248401366294 0.865398792501076
-0.470043098673362 -0.0104967110431112 0.869337932319631
-0.469960165139333 -0.0106969303057367 0.870763779547156
-0.469541390431968 -0.0117079418838384 0.886263018120608
-0.470716446452903 -0.00887110570154939 0.891394628028489
-0.471088116197234 -0.00785294053373732 0.900582045082328
-0.470927507187509 -0.00714690949862872 0.903716679826578
-0.46394093108394 -0.012158798635748 0.912414358732479
-0.458990841989416 -0.00884308916556463 0.916311927455276
-0.456880405863535 -0.012203022697284 0.916583095921316
0.0295730753545723 -0.0101590235952711 0.534056974228633
0.0317077372878543 -0.00500549380485927 0.546194598196108
0.0311166191857248 -0.00643257914398433 0.559443595941586
0.0288389311787826 -0.0119314044212001 0.562963331556231
0.0286875981649614 -0.0122967546356024 0.579299392880915
0.0307970100856086 -0.00720418376814328 0.590439452110385
0.0281922935112712 -0.0134925258480461 0.597630316722147
0.0287788241221643 -0.0120765156924818 0.613076263629482
0.0304799126449219 -0.00796972471004257 0.614295057892168
0.0301196568992314 -0.00883945901721093 0.62496128311208
0.0274889571482083 -0.0151905300346624 0.637884057876726
0.0295264000620192 -0.0102717077195791 0.650174024891418
0.0291180014668241 -0.0112576691469534 0.656186784486827
0.0312914945445874 -0.00601039268089317 0.667531856288342
0.0287042443986755 -0.0122565670724047 0.67745373054051
0.0306645523951655 -0.00752396492084994 0.685461593984141
0.0275874579488515 -0.0149527280658447 0.692798470822577
0.0317093414682688 -0.00500162097074467 0.705580253029652
0.0300673234360919 -0.0089658031736888 0.714727574070006
0.0284163101210758 -0.0129517019104579 0.725981063291873
0.031686280456324 -0.00505729517854423 0.740516996992457
0.0313403531325397 -0.00589243761522032 0.750394568422291
0.0304699631987762 -0.00799374479786367 0.756542705311707
0.0275700609051799 -0.0149947282446214 0.770411826717117
0.0280577398207353 -0.0138173671926049 0.784820464800798
0.0314114626984267 -0.00572076393684066 0.781852848279569
0.0302302930165759 -0.00857235980222884 0.795628352533233
0.0287047613421537 -0.0122553190604498 0.809887538852612
0.0282216019350186 -0.0134217690539417 0.819706073445703
0.0290501575045649 -0.0114214589607631 0.831160354485098
0.0277357641172443 -0.0145946853027269 0.847726740565825
0.0305767833882076 -0.00773585804780355 0.847620143590986
0.0279394379236225 -0.0141029732370692 0.858324888748218
0.029536465569322 -0.0102474074353369 0.867717412833022
0.0284112965828115 -0.0129638056625314 0.884889129783018
0.0297175013568783 -0.00981034838174307 0.883943457126547
0.0310497927125891 -0.00659391252175415 0.893721429477882
0.0293639157830094 -0.0117549614373688 0.903362259993321
0.0356423440810598 -0.00878834396463942 0.912607704396515
0.0507822985656991 -0.0111278474828937 0.917648538951352
0.0586960887769534 -0.010127443146165 0.915544535685835
-0.474271005245207 -0.000289641656913052 0.466257142051667
-0.476013106449548 0.00391616269763343 0.473281636467421
-0.472790669296964 -0.00386348878003251 0.480969901535529
-0.47435303371711 -9.16074075442116e-005 0.486486340131189
-0.473037689807324 -0.00326712851373747 0.495993752360837
-0.475837968941266 0.0034933433498568 0.504402362401535
-0.474932320496999 0.00130691459296782 0.511513595136651
-0.473158743282437 -0.00297487957234723 0.523437728423463
-0.474051748298954 -0.000818974750202615 0.528017338775534
-0.473322731403621 -0.00257897722611442 0.539930028025019
-0.474453793034805 0.000151647103768336 0.542056424481195
-0.475723909311586 0.00321797904496602 0.560111771662098
-0.474420778763526 7.19436022970923e-005 0.56009765807679
-0.474974190333814 0.00140799732085992 0.581380224734199
-0.474092420028117 -0.000720784510052288 0.587275044931892
-0.475355419675069 0.00232836636689282 0.593540114150395
-0.47559762360934 0.00291309838986678 0.596806631605008
-0.474539434130901 0.00035840299946061 0.610560057164226
-0.473648613497862 -0.00179222825446247 0.616359458871021
-0.474923543960853 0.00128572616037172 0.629024871299259
-0.475945599394122 0.00375318624886786 0.640988312306359
-0.475122796573618 0.00176676452044791 0.650864540269925
-0.474135534619263 -0.000616696679370685 0.646890187309871
-0.474637254810942 0.000594563011896672 0.661082675911617
-0.473809340500781 -0.00140419894417732 0.661542731167609
-0.47456019487653 0.000408523873123336 0.674549272938802
-0.47366179398957 -0.00176040773262344 0.684368129602958
-0.473226007700751 -0.00281248890138731 0.696849251448067
-0.473210762731245 -0.00284929351352637 0.696114004307484
-0.475900897102923 0.00364526537118644 0.719176529104254
-0.472818919074286 -0.00379528778448632 0.722958283711775
-0.472699491643737 -0.00408361110703747 0.7249162867659
-0.473797520815559 -0.00143273418854371 0.739793217817161
-0.473634272197866 -0.00182685121541535 0.743521060313419
-0.474421437759516 7.35345593516315e-005 0.753376626685186
-0.473708579582482 -0.00164745731969232 0.760074890706595
-0.475166476490957 0.00187221716929118 0.766990581541931
-0.475568312983685 0.0028423362798905 0.784121640135889
-0.473435405587443 -0.00230695768340327 0.785477260236779
-0.475037015070065 0.00155966965116895 0.790357147363564
-0.474621802606117 0.000557258089440014 0.802623971927597
-0.47560779551728 0.00293765554797209 0.812486703997952
-0.475860239392539 0.00354710897536225 0.824483192841607
-0.474538149162055 0.000355300810244723 0.829648349722174
-0.476077393103595 0.0040713644097113 0.840330973225794
-0.475627578741353 0.00298541647583835 0.845920756777628
-0.475356419020437 0.00233077900003045 0.85324167730722
-0.473640187671504 -0.00181256999873133 0.860785042465743
-0.473135632143939 -0.00303067479634959 0.868937506311858
-0.473786141142279 -0.00146020715011233 0.883303241082811
-0.473448773811635 -0.00227468393525393 0.885958827019913
-0.474977167729163 0.00141518538909187 0.89612622368846
-0.473046136518798 -0.00184980488428283 0.904239076062658
-0.472096982774636 -2.57038818915812e-006 0.908398977981547
-0.467522616822566 -0.000180242863595716 0.913510875028936
-0.456774163833343 0.00425121647829628 0.917916296573964
0.0351952419128821 0.00341408715972121 0.525416739245417
0.0355814063465856 0.0043463705728738 0.526354955633571
0.0335679404810044 -0.000514566027186584 0.544476248039186
0.0317351063659087 -0.00493941900543136 0.55594487969713
0.0324378199158624 -0.00324291842266852 0.560701575780874
