ply
format ascii 1.0
element vertex 864
property float x
property float y
property float z
end_header
0.200474913400822 0.372055908284544 0.642222414229454
0.195342425439462 0.375994204812774 0.654464095639128
0.200620467251571 0.37194422088666 0.666657941883102
0.19699846215633 0.374723483146836 0.676936139843067
0.202445265263719 0.369655852573345 0.685457122070209
0.20312562916521 0.368769185074157 0.694919325344454
0.20230984543507 0.369832335130027 0.702153912084082
0.201485545302897 0.370906583977111 0.718033302283005
0.197679852471663 0.374200633968534 0.725507898945095
0.202006575568574 0.370227564114863 0.736289728185543
0.194423084961856 0.376699639572382 0.760486461513996
0.203579011327077 0.368178325937219 0.760054868905264
0.198313320153862 0.37371455711997 0.76758116946335
0.194225076483257 0.376851576821859 0.786601761965607
0.201219277395911 0.371253591069469 0.791640357344748
0.203007951341253 0.368922545800159 0.797043147340111
0.19712677217588 0.374896449167465 0.815052060700178
0.19744093255128 0.376472905086755 0.824091285991727
0.199253078293732 0.377493298301101 0.834015600849474
0.214890567681688 0.372253714862114 0.840791341025583
0.226306102252882 0.371482025771022 0.845348651072197
0.226008343312813 0.372013129253562 0.845348651072197
-0.287310765674726 0.329689724009124 0.276164675734913
-0.28896073129859 0.325706354622543 0.29081611563833
-0.288799322914564 0.326096028932339 0.297909229346306
-0.289855165327166 0.323546999860105 0.313373111786493
-0.290726057593584 0.321444479939153 0.315096507653821
-0.28775924707185 0.328606994137716 0.319743768101581
-0.288286304991124 0.327334563760848 0.335444764274252
-0.287690343776852 0.328773341406993 0.345923134959176
-0.289162692409507 0.325218777369494 0.355416614139569
-0.290751728994399 0.321382503695142 0.36388354942208
-0.287826121808529 0.328445544241445 0.367076684018109
-0.287097455508226 0.330204700306082 0.37161026145466
-0.287303058620119 0.329708330484882 0.381520500346317
-0.290875047883272 0.321084785561127 0.403053398141453
-0.288754463803771 0.32620432840601 0.408727327334898
-0.289887187016464 0.323469692663512 0.420179405944694
-0.288012179562682 0.327996361087984 0.419349605097667
-0.289264249072991 0.324973597895163 0.429645878742634
-0.290735320811183 0.321422116553596 0.444214802207328
-0.287441575908216 0.329373920169336 0.445344161893993
-0.288724308436124 0.326277129903562 0.459019932815515
-0.290631011121912 0.321673942420122 0.473556862380257
-0.288778261859227 0.326146874817771 0.479010791327532
-0.287553639869769 0.329103373833502 0.482488881123564
-0.287261948088146 0.329807580088728 0.494538135040969
-0.287009042660584 0.330418147801946 0.4969473176068
-0.287312220757334 0.329686211128958 0.517285364425636
-0.288867432569131 0.325931597680553 0.525322463854852
-0.287339507493069 0.329620335121474 0.527144324533273
-0.287103581693438 0.330189910386655 0.538545796775903
-0.288368307738777 0.327136591615312 0.54921767417567
-0.288124523457156 0.327725138934294 0.551102723474846
-0.287651967531648 0.328865989858635 0.571257499782798
-0.288963870931054 0.325698774879266 0.572244979370844
-0.287428403842564 0.329405720348878 0.587892508523607
-0.28900131618954 0.325608374028382 0.595580440795463
-0.28952770716651 0.324337553792673 0.61072228524008
-0.287595209218921 0.329003016547 0.612306168673889
-0.287743605443267 0.328644756369578 0.623237656108733
-0.287661089673258 0.328843967060644 0.629963464362517
-0.2883294152725 0.327230486334873 0.637537523475196
-0.289383335038367 0.324686098942462 0.645331702655914
-0.288149758713691 0.327664215635718 0.665136502955126
-0.28823826183354 0.327450550203468 0.668707741850614
-0.290989240904144 0.320809099221411 0.677546383454233
-0.289441654670944 0.324545302894544 0.686031942805241
-0.28884818893201 0.325978055930281 0.702034225892344
-0.291109918195203 0.320517758468666 0.703881378215074
-0.29036736041871 0.322310451523519 0.711639079460515
-0.290287202045161 0.322503970956078 0.726895393765347
-0.290208464723525 0.322694059665838 0.732141489249828
-0.291002509775118 0.320777065333148 0.742347430766457
-0.291058948154051 0.320640811033289 0.754392587949401
-0.288844399068262 0.325987205470743 0.752370383822467
-0.290345816028463 0.322362464282647 0.761587060394054
-0.288223220187746 0.327486863948742 0.779224653590753
-0.287849975673116 0.328387955918046 0.785280342421374
-0.287905422054073 0.328254096513154 0.796871961978859
-0.290089829474649 0.32298047049265 0.808784041634465
-0.291078095576967 0.320594585065202 0.812173836396306
-0.286614473442361 0.328483270699097 0.820629089696682
-0.287433556931587 0.321116372499181 0.833558240765762
-0.284529203294505 0.325182738945812 0.834638271460665
-0.274279706102993 0.325660710576285 0.842618217450913
-0.270347305164009 0.325508529823899 0.845348651072197
-0.260058354851929 0.331592317974978 0.845348651072197
0.191524611042116 0.378923716834952 0.502238925307887
0.184476153596182 0.384332188456838 0.508989788195101
0.192940549383195 0.377837229132527 0.52686347095693
0.18243125621149 0.38590129340776 0.54249139463817
0.181071319087302 0.386944809865103 0.547092510335706
0.187523259116529 0.381994062155856 0.554844921584808
0.182702577948376 0.385693100916622 0.571692149611887
0.188295576778889 0.381401441970234 0.58052900864665
0.184521119180886 0.384297685150165 0.592006373855996
0.188750541712422 0.38105233509815 0.596309266816864
0.186301328255152 0.382931682683235 0.61387641116497
0.180480598842107 0.387398085451587 0.62206804561159
0.186074592518233 0.383105663133312 0.628262008100013
0.184675256461096 0.384179411455205 0.636167381216307
0.192658562157942 0.378053605540729 0.645156068742938
0.191613333583446 0.378855637634547 0.651587100433546
0.189524688496944 0.38045831137773 0.674049148608974
0.191196293526962 0.379175643724955 0.676137511788433
0.191495844319342 0.378945790317692 0.689984305782597
0.186023441389525 0.383144912774836 0.709070966297131
0.18903476391899 0.380834243728468 0.706018469026896
0.183355331162329 0.385192225759065 0.731406552708815
0.1915170172026 0.378929543792955 0.731906533551903
0.181332445609523 0.386744440437327 0.752461117673768
0.186228883384717 0.382987271587461 0.760370726655266
0.190353137020777 0.379822620467241 0.759283989138111
0.186825671124457 0.382529340248662 0.787240333494058
0.187463308586495 0.382040063815494 0.787848882797836
0.185317359064931 0.383686708798231 0.798654486558202
0.182803573174101 0.385615604554266 0.812566472772616
0.186056201747523 0.385158835509564 0.823843209691133
0.192142435557251 0.385854809202135 0.835996280141454
0.189774240023248 0.385318658704074 0.83439191672061
0.208738755330021 0.384301926091824 0.843619460280269
-0.284621505566191 0.335874631754448 0.27316112680626
-0.284960125469632 0.335364671472522 0.285023563109403
-0.284974853593612 0.335329114635862 0.28963238389136
-0.284279115623673 0.336320843014942 0.303956079847639
-0.282768006423734 0.338290158865437 0.308685109450293
-0.284391440310304 0.33617445863333 0.321083761401785
-0.283615623449052 0.33718552285159 0.324178962376727
-0.285901668378709 0.333091585811871 0.334065195787912
-0.286105766549926 0.332598849238866 0.351623672387654
-0.285971241566559 0.332923621278187 0.356932199655579
-0.285441289099788 0.334203039710879 0.367680620970668
-0.284920469214404 0.335460410141724 0.3724867877741
-0.285476238449412 0.334118664517022 0.385993760859189
-0.287146027921639 0.330087436126861 0.398579843938593
-0.28216298142811 0.339078642790937 0.399857099742254
-0.285928306862563 0.33302727482287 0.419436388135353
-0.283160196307033 0.33777904705855 0.4165740927138
-0.285532302706394 0.33398331342745 0.434225667900655
-0.284575201671979 0.335934976164247 0.438813529873327
-0.2864407143909 0.331790213618498 0.446653591186519
-0.283034537013403 0.337942809438342 0.449960061024901
-0.283601824584348 0.33720350588219 0.46909596511494
-0.282244217541889 0.33897277382627 0.470969925841126
-0.281816507187129 0.339530176812819 0.480144370422774
-0.284852427982735 0.335573687802051 0.489767034454699
-0.284447476825748 0.336101430424597 0.499866178363522
-0.286144566097438 0.332505178845047 0.515081291101088
-0.28429871004819 0.336295307063745 0.526541850634705
-0.286306888296881 0.332113298389677 0.532948535585388
-0.285654078275887 0.333689321196015 0.542011830457596
-0.285844542513611 0.333229499850154 0.548294095702549
-0.285940476248885 0.332997895325366 0.564757756086119
-0.285190519175989 0.33480845186195 0.562140657890521
-0.286832078164956 0.330845377887349 0.576626699256147
-0.28615198394411 0.332487270579009 0.581006222408851
-0.283773216359218 0.336980143772482 0.5950569462291
-0.281583191511609 0.339834239721038 0.600027975810931
-0.281988187742841 0.339306438356593 0.602141532572035
-0.283510184439613 0.337322933643979 0.614592843743321
-0.287193805801557 0.329972090121181 0.635917686312052
-0.287020535899656 0.330390400668302 0.642936372214942
-0.283717830213052 0.33705232440347 0.648398417773704
-0.283683187555435 0.33709747159386 0.656585634730388
-0.28215624700615 0.339087419260506 0.663696397213194
-0.285722135134103 0.333525017405895 0.675425409234269
-0.286908007414738 0.330662068462746 0.681008542436312
-0.285097399372977 0.335033262953305 0.695550697428064
-0.285319298325972 0.334497551491508 0.695879958630463
-0.286328685278651 0.33206067582067 0.712298479831858
-0.283061030735364 0.337908282147661 0.718880741818358
-0.286914209804209 0.330647094569965 0.735232016253955
-0.282562040015769 0.33855857951425 0.736398402053548
-0.282786819838485 0.338265640745984 0.73877638410645
-0.287198204869516 0.329961469831654 0.75549279144666
-0.286843104982515 0.33081875679485 0.764804203067217
-0.28645330878705 0.331759808056503 0.776713561038308
-0.284938977866988 0.335415726301638 0.785361211376862
-0.284481976183464 0.336056469986274 0.798086483506709
-0.286037199845104 0.332764383907572 0.796130773464125
-0.285588372615552 0.333847948692318 0.807217658786656
-0.280863620288827 0.338935056616083 0.82071235453536
-0.283087698557025 0.334946251342164 0.824873285853591
-0.282050078718679 0.335038102625782 0.829683244937419
-0.280951165700615 0.3319130336456 0.835265661286487
-0.269913927692237 0.339734884574475 0.83895526720185
-0.263893243431141 0.332928952894204 0.845348651072197
-0.248485307340901 0.342519351339103 0.845348651072197
0.176679155910203 0.390315035206499 0.526594421364374
0.17199592955234 0.393908601181702 0.529032581609498
0.179330712638728 0.388280424168544 0.539217575349424
0.179868211982163 0.387867986416306 0.558241658278478
0.169173074160274 0.396074654307197 0.57324744952246
0.169732330238125 0.395645522025469 0.57895106914087
0.174967966431699 0.391628077074901 0.581496286608221
0.173544755865837 0.392720144951663 0.597495336134238
0.174731152649582 0.391809790681045 0.607816425800226
0.176947073328087 0.390109454941207 0.616914402442317
0.177901433046934 0.389377148972696 0.622759211446953
0.169215289738937 0.396042261154375 0.638709452125064
0.173895018512312 0.392451378970142 0.651119538533158
0.180792508880023 0.387158748461673 0.66211232452969
0.177476014387912 0.389703584190953 0.671830313017517
0.174128776204736 0.392272010384098 0.687245881945712
0.176359362249297 0.390560421513096 0.692948326322243
0.175818418580748 0.390975502188951 0.705413068112038
0.171316807922797 0.394429709536171 0.711592662568284
0.180689226472545 0.387237999840314 0.723131453190943
0.180674794039114 0.387249074235988 0.727704308891967
0.172228047605205 0.393730490735342 0.751607126195769
0.180104174184921 0.387686926249987 0.751266270281414
0.174926643712786 0.39165978511234 0.766338470813633
0.177246377725738 0.389879790599269 0.777492196567577
0.171481841793909 0.394303074592935 0.789004681919155
0.177123839959029 0.389973817134711 0.792192866105497
0.172073213466034 0.393925116357678 0.814079243918398
0.181676556605506 0.386888379850188 0.815731242618329
0.181535053256889 0.388688104772877 0.824141960986934
0.180896252900369 0.396240634818242 0.83719364065707
0.187708623375155 0.388639421282029 0.835575255874994
0.19730247650836 0.395965924969764 0.845348651072197
0.208811658393943 0.396671056627623 0.845348651072197
-0.273653823043838 0.350167993898845 0.261786068186417
-0.281363186861948 0.340120955362621 0.27855744113024
-0.280696599806333 0.340989668526705 0.29635106059215
-0.281148341608288 0.340400947148425 0.296452827012239
-0.278000694649927 0.344503040529308 0.303675164633263
-0.274968635831899 0.348454496512909 0.307635877794093
-0.274620750304389 0.348907869759203 0.316015441069592
-0.274475165585871 0.349097599458274 0.329848833720678
-0.278966750991861 0.343244051392905 0.345355040212026
-0.276327683101416 0.346683351628383 0.347168665355953
-0.276671444494188 0.346235353059119 0.352087153847617
-0.280775492412652 0.34088685368042 0.369493003339962
-0.27500843494896 0.348402629293737 0.37146484550953
-0.281847508646995 0.339489774923727 0.388320846506056
-0.278064262111151 0.344420197800953 0.389205258884503
-0.275121633107673 0.348255106581143 0.400851032229627
-0.276932231996221 0.34589548816955 0.409642809511209
-0.276945238341749 0.34587853797005 0.425887539229368
-0.27559935261071 0.347632530403686 0.432542036964129
-0.277461056268016 0.345206310960772 0.442118868383638
-0.276707954936432 0.346187771724413 0.449992085448544
-0.277467703034889 0.345197648725535 0.453738559177321
-0.276931509626355 0.345896429580288 0.464956905463332
-0.273733210267829 0.350064534454261 0.470477873062726
-0.279239362108815 0.342888777668372 0.487375414319189
-0.279232048059526 0.342898309522983 0.49064018896305
-0.274990574990372 0.348425904844927 0.505152356159786
-0.280172576134443 0.341672589471882 0.512638979512907
-0.278229330117987 0.344205076986199 0.52841426197305
-0.27683778360107 0.346018575714534 0.528921511042393
-0.276413267838362 0.346571815427667 0.538005461317484
-0.281364569698077 0.340119153215491 0.553363159697864
-0.274641538139262 0.348880778525351 0.563033853692694
-0.280561093614308 0.341166263634329 0.565150759308606
-0.277577070592605 0.345055118149356 0.584903725030821
-0.280933497794654 0.34068093705755 0.591004727101025
-0.276344066417027 0.346662000475787 0.592483916205279
-0.277418049135581 0.345262358946976 0.610251084285372
-0.275547463655364 0.347700153406862 0.615113844460147
-0.275777547173633 0.347400302727982 0.62201161806391
-0.279065991055611 0.343114719223823 0.629359593126597
-0.276992422042886 0.345817046973544 0.643566420856883
-0.280924492019714 0.340692673611954 0.654972295426533
-0.280842833884634 0.34079909256549 0.660715736269042
-0.278644420885692 0.343664120165694 0.662110436339071
-0.27445563311129 0.349123054674742 0.681762017040657
-0.274523700382575 0.349034347679744 0.687103334213957
-0.274022120912998 0.349688018770994 0.688978091052022
-0.275732611150777 0.347458864493122 0.701835246760644
-0.273537365710259 0.350319764050819 0.709492732915509
-0.28115674079935 0.340390001109521 0.729311946007098
-0.276607205456918 0.346319071002416 0.731865274116779
-0.28124561400268 0.340274179295976 0.740852214740325
-0.280552168334069 0.341177895285997 0.755573467752733
-0.278147630998117 0.344311549352154 0.762983966213297
-0.27636205144873 0.346638561926141 0.761450799413485
-0.273687081823777 0.350124650212959 0.76881144858364
-0.27932839637226 0.342772745957197 0.789301842738881
-0.278213649472685 0.34422551240102 0.792486677931763
-0.280963114738341 0.340642339505072 0.808473775611769
-0.279007358551569 0.341977087290045 0.81833522315356
-0.272905126665229 0.349843637817261 0.818663542988342
-0.270308669917604 0.350103837958094 0.830583743397588
-0.273715436246711 0.340625811888054 0.835897560293597
-0.258880283434322 0.351291440649491 0.840431910388877
-0.256896856177838 0.352237179505771 0.84128936144576
-0.253664270567236 0.349209102271411 0.845077192974538
-0.23831257512077 0.348426781296343 0.844294782411875
0.165181427855469 0.39913755224334 0.543100876563874
0.16603673413612 0.398481252651208 0.546605452070253
0.167192248147141 0.397594595565564 0.564882316759356
0.167628046918809 0.397260195406734 0.566330370482801
0.167471306396292 0.397380466639772 0.580703521849027
0.164725325250998 0.399487532081037 0.601817153000193
0.162629837113132 0.401095456682212 0.60105026664418
0.158568319659012 0.404211968636906 0.614632402055801
0.16416364703868 0.399918522931909 0.623274909228939
0.163267507903196 0.40060615467555 0.634532886231019
0.157729383632381 0.404855706891327 0.645230935690953
0.159774964464906 0.403286077512438 0.669119094897201
0.160173407543874 0.402980341384773 0.668022920660084
0.163763687893193 0.40022542237833 0.683239327344662
0.167296222144857 0.397514813511068 0.681525452957656
0.159294356972905 0.403654860611676 0.709113535463126
0.169140153187657 0.396099915457955 0.709722185361384
0.165405244305428 0.398965811840933 0.719637303398395
0.164071085952598 0.399989547551296 0.730317708798673
0.159557790839289 0.403452720696452 0.751385584672426
0.166985460493746 0.397753269312794 0.749405845481805
0.166412183614014 0.398193160134197 0.762531405248282
0.15731253539257 0.405175565795626 0.773763820553926
0.168819414423203 0.396346026968011 0.780611731128866
0.164485526357435 0.399671536243756 0.795058780888058
0.167284170759207 0.39752406086452 0.797415793204514
0.16567770227147 0.400067941413888 0.820223248149776
0.161695043687212 0.403649369129502 0.822836395517788
0.169044741679336 0.401456146162758 0.834549524413185
0.175729342176499 0.406796003865286 0.841686766751921
0.18612755211635 0.408613665329267 0.845348651072197
0.198940601657665 0.408359905795833 0.845351923404868
-0.272794863265925 0.351287412075672 0.261198311450945
-0.270281810089773 0.354562486738131 0.265836549405386
-0.26734185958928 0.358393904825271 0.273322189024621
-0.267103932961268 0.358703976843771 0.282106311787159
-0.270004564703661 0.354923799959817 0.29394812802032
-0.268057119495068 0.357461759967873 0.301206890335769
-0.272017273204283 0.352300787173672 0.313496759081613
-0.269937454378162 0.355011259838786 0.320796530425805
-0.271673587770187 0.352748686751662 0.335721513115683
-0.269779993093131 0.355216467380679 0.341115335368982
-0.266702280632794 0.3592274203493 0.350033107226521
-0.269251852965159 0.355904752995868 0.359846985219647
-0.268876925556151 0.35639336790826 0.369554293717335
-0.270815270016435 0.353867268226312 0.386371079826252
-0.272423634062405 0.351771207392838 0.388965689620527
-0.269725782495482 0.355287116007012 0.40142211844551
-0.271921650127232 0.352425405593914 0.402691841255798
-0.273215079234011 0.350739775963989 0.419612516860651
-0.271745444088441 0.352655041774515 0.42561928756551
-0.272963109615762 0.351068149163676 0.432927187427227
-0.26902622830609 0.356198792776304 0.438940594500418
-0.27218555735243 0.352081475001961 0.449586612532741
-0.271521004993143 0.352947536498165 0.46076657856805
-0.267616295339119 0.358036253192867 0.466667911532652
-0.271934869075221 0.352408178325493 0.484285230741854
-0.272811983708286 0.351265100280792 0.485279995749822
-0.268018468192561 0.357512131325993 0.489658365222927
-0.266617216857504 0.359338277619568 0.504017729264663
-0.273170117474335 0.350798371270007 0.514342066474144
-0.272156275636093 0.352119635677651 0.530778161916067
-0.269994067667762 0.35493747996334 0.533241656158304
-0.270111484011932 0.354784460004431 0.535077959050817
-0.271888262563554 0.352468917114036 0.553055613091812
-0.266799758824122 0.359100384297062 0.558827833453224
-0.273478224348617 0.350396838573895 0.576141419140928
-0.267095336486592 0.358715179987688 0.580470006081023
-0.267111336390718 0.358694328506666 0.58610887751222
-0.269995577991065 0.35493551167169 0.602838422790042
-0.2664186052979 0.359597113243384 0.598572587940725
-0.273769530771535 0.350017200652277 0.621561835633702
-0.270057375294266 0.354854975858185 0.625584086292504
-0.273765237447017 0.350022795821722 0.640476159037797
-0.270692650304575 0.354027069346019 0.637268617135916
-0.272268166163701 0.351973817103092 0.652372575342183
-0.267118365162275 0.358685168433233 0.654402132353988
-0.269977816101649 0.354958659416647 0.6689984801261
-0.26646322336662 0.359538965844139 0.681962329971269
-0.271434970738441 0.353059658521826 0.696462698993073
-0.266030726651382 0.360102606537107 0.689593513972901
-0.272267794380961 0.351974301619793 0.707452219754929
-0.267810933275685 0.357782596095417 0.7128742763132
-0.269904599408507 0.355054077268865 0.723551346155089
-0.271594869096394 0.352851274924665 0.734420748656533
-0.267247241977715 0.35851721289738 0.745594248908798
-0.266853236470604 0.359030690871287 0.755701480724794
-0.273082735111537 0.350912250182343 0.766231753350498
-0.274078202416756 0.349614931932348 0.772342844905662
-0.269092234152387 0.356112772282654 0.777111798177102
-0.269253426456286 0.355902702382308 0.785165936637849
-0.269414230685455 0.355693138230794 0.801329748866124
-0.272645579789524 0.351481962089863 0.807890149331556
-0.269714454059146 0.355301879512679 0.812922756266905
-0.271729216817858 0.350402901696532 0.822377525686205
-0.268628971251842 0.351958853319747 0.8318583987194
-0.263307375060136 0.355321250955056 0.835305709253703
-0.253861435355389 0.358953031985054 0.839845546063346
-0.246082769608286 0.35994138967218 0.844631557084939
-0.230378975671475 0.360834708448956 0.845348651072197
0.155439470372291 0.406612819135925 0.549663343024979
0.153806677386952 0.407865705259359 0.566314810477115
0.146540841273112 0.413440977399741 0.575298562688674
0.155178843190481 0.406812805406329 0.583917804913314
0.154763069279703 0.407131839948967 0.584767000053849
0.149909089081438 0.410856429954211 0.607960155845996
0.149606876804128 0.411088325590689 0.616123466614918
0.146281736406845 0.413639795556344 0.622650337358032
0.155525541151098 0.406546774704471 0.63894855111258
0.151935444365281 0.409301552857684 0.647186036175021
0.156976945059613 0.405433073315009 0.65365701182582
0.146203396197133 0.4136999081135 0.671312520239193
0.149548796452355 0.411132892212076 0.674100181248722
0.149001429469389 0.411552901670434 0.687184241119098
0.147491583927115 0.412711446902701 0.705299878585649
0.148368268492785 0.412038743175518 0.713188165450435
0.15565973988284 0.406443800395853 0.716625858134366
0.152235932937929 0.409070979866312 0.730281471480129
0.157600028758843 0.40495496437682 0.736177623701839
0.150079726968318 0.410725494898436 0.758081425453014
0.154535263616302 0.407306641382509 0.763598421871358
0.148293913938217 0.412095797431917 0.772648231069705
0.150911824596278 0.410087003931869 0.78573829725084
0.15223697452204 0.409070180630713 0.791346901283182
0.150933210597379 0.410070593876059 0.80502355934367
0.148549615976017 0.412095188125226 0.814674958774614
0.155396914920312 0.408842653649288 0.824629600981176
0.153056772760702 0.412352535503513 0.833155115200542
0.163400900641544 0.405877880014691 0.834611605372168
0.168322703189328 0.412025658222479 0.841377488133359
0.185112478082386 0.412054027406482 0.845348651072197
-0.259428581386231 0.368706689761837 0.247146597964823
-0.259614981724047 0.368463768112088 0.257540563074141
-0.261421228943289 0.366109820906348 0.268889031101874
-0.261930923630383 0.365445573857725 0.276982380111621
-0.259655441480186 0.36841103993131 0.283838938893861
-0.25974852348346 0.368289733102888 0.294713354159418
-0.259447303516942 0.36868229060606 0.306895711296804
-0.260784081169551 0.366940168051333 0.313920358969764
-0.260767132736932 0.366962255678752 0.320523854546328
-0.262405160866785 0.3648275358585 0.330373642740103
-0.261586568897416 0.365894345682985 0.338276132141096
-0.25837562422742 0.370078930247715 0.350982703376825
-0.26531490552411 0.361035482792585 0.364892613236337
-0.259104868239045 0.369128560948771 0.367925470654451
-0.25902940228224 0.369226910098465 0.381038345427391
-0.262900533743347 0.364181953356746 0.385663318938738
-0.2658175303023 0.360380449428629 0.399623144832162
-0.262806949128931 0.364303915200761 0.408942914709605
-0.26086423205174 0.366835713388009 0.416250484444764
-0.259086299170014 0.369152760630683 0.419765649076665
-0.265448143003401 0.360861844328959 0.441022807846531
-0.263256777371505 0.363717687621618 0.446888290989525
-0.262415853135085 0.364813601423159 0.455075888425659
-0.265780587493462 0.360428594234451 0.462719171049171
-0.264573213615528 0.362002074506681 0.474373372593967
-0.262293010887884 0.364973692556567 0.480110480433447
-0.258139648063017 0.370386460372549 0.486897859777968
-0.26617422566605 0.359915594980214 0.500762001436739
-0.26025462686807 0.367630166330782 0.505270074533398
-0.26291495440288 0.364163159987351 0.515367159957666
-0.259156608227139 0.369061132083498 0.523078147107356
-0.264647225944189 0.361905619762065 0.539903919383336
-0.26021042058702 0.367687777077886 0.544398014170388
-0.260382171547147 0.367463946868839 0.557440907579467
-0.265985445266889 0.360161618386297 0.562697975489107
-0.261021261381126 0.366631068781672 0.570041345981206
-0.25884426848802 0.369468181156463 0.577475682804586
-0.264296443665969 0.362362768127385 0.590367329552652
-0.261853548845876 0.365546410640112 0.595286104036123
-0.260175747946286 0.367732963343035 0.60341844120212
-0.26477426025925 0.361740065419458 0.621575104214666
-0.258547929393975 0.369854377782789 0.624831541114085
-0.260936143081157 0.366741997109886 0.629568543858708
-0.261808243666329 0.365605453499619 0.643262334961681
-0.258495167538911 0.369923138371026 0.653649038822502
-0.264828541632076 0.361669324557118 0.668310081599434
-0.263384842446685 0.363550789966269 0.669961609657384
-0.258257441289095 0.370232949251575 0.675574315489425
-0.26435120507421 0.362291401670714 0.692389772680324
-0.265680382080782 0.360559184470751 0.709134247548039
-0.259913768277152 0.368074381895018 0.704516242428499
-0.262122117390287 0.36519640529869 0.716195882949101
-0.264210120075473 0.362475267220795 0.730953450734748
-0.262381603447458 0.364858236485084 0.738754271882292
-0.260726616001799 0.367015058116002 0.738384564487274
-0.263181463358222 0.36381583875466 0.749548159756066
-0.266319685408169 0.359726028153558 0.770762939124456
-0.263532959251333 0.363357760388308 0.774985349964266
-0.265666493193048 0.360577284821647 0.787410524298801
-0.260574408497026 0.367213418798159 0.795244808913432
-0.260253167206916 0.367632068598235 0.797098823176442
-0.263192581434042 0.363801349396154 0.813642995114755
-0.264608770344791 0.360130507729069 0.820667635261661
-0.262264743896555 0.360755783558074 0.829939196099844
-0.25807227960996 0.364052625385557 0.834307146235802
-0.251560360135626 0.369616968457734 0.835835780374654
-0.244389334573688 0.37191076767633 0.839524637026296
-0.233241323554226 0.365422963054854 0.845348651072197
-0.231643907748147 0.366713224066335 0.845348651072197
0.14420979600273 0.415229651345906 0.565714065503655
0.142194308969118 0.416776188940717 0.576707708011329
0.132089348081624 0.421037997931327 0.604418283591185
0.138590217307831 0.418345249730618 0.605107281602961
0.143393415135352 0.415856082417914 0.619695892183807
0.144904488932363 0.41469659471264 0.616601078564539
0.136512180396243 0.41920600080251 0.638386846658625
0.136382217119825 0.419259833354213 0.64456180838825
0.12979011103138 0.421990373100649 0.661487202810715
0.13422100507084 0.420155036696067 0.664090896920646
0.133300503554877 0.420536320908164 0.687059733741839
0.142335252203907 0.416668039392891 0.685411441450324
0.130196686372004 0.421821964080436 0.696968510505101
0.14329220103457 0.415933746729008 0.707872672577086
0.142126458850596 0.416828252167796 0.719070054417583
0.136777160299323 0.419096242532898 0.732527697521785
0.144774186644835 0.414796579174455 0.733139058800958
0.143170985176367 0.416026758928378 0.748988113858079
0.135542031075471 0.419607849808701 0.771721068473358
0.131454235299229 0.421301070259432 0.778364195624511
0.130467793341682 0.421709667896741 0.789316778640338
0.135821934169174 0.419491910151139 0.796124330518
0.142861086906888 0.416264552234078 0.803650863965129
0.136596198898267 0.419717977998122 0.816868916064579
0.144297447771181 0.416450702708082 0.820109432261332
0.139510196794965 0.420619527348835 0.829080954161323
0.154505049906551 0.415916466688605 0.836801741231666
0.164901455412983 0.419862034301189 0.844930152660015
0.170236503382464 0.42467534220098 0.845348651072197
-0.258164129099599 0.370354556064523 0.245705072286228
-0.255189327826155 0.374231392563234 0.256611563956983
-0.257412304102328 0.371334353476903 0.271407469458938
-0.253518569321263 0.376408767438701 0.27103048348083
-0.257753661028294 0.370889488469789 0.289428179681126
-0.255932556264708 0.373262798404296 0.294375062025593
-0.255143780212054 0.374290751369604 0.295527005532471
-0.254990563988194 0.374490426640069 0.304870288007409
-0.255019146189773 0.37445317758976 0.31662403350313
-0.250497548339779 0.380345838633657 0.324664066630719
-0.253998667306855 0.375783091562427 0.340251567490112
-0.253857136811135 0.37596753769548 0.350764732009225
-0.25126035739655 0.379351726516239 0.351858108660346
-0.254555328462942 0.375057636619739 0.364609106383234
-0.254830287780521 0.374699302660571 0.37175401978408
-0.256698124416513 0.372265090564225 0.380553491358691
-0.252694446543464 0.377482785153065 0.388572947308546
-0.257448788433298 0.37128680617107 0.41067967497103
-0.251210615821676 0.3794165509987 0.412118959466963
-0.258248867931753 0.370244122268395 0.421034432733052
-0.256154413666561 0.372973668209048 0.43506867642549
-0.254242248036024 0.375465650975839 0.434292400106906
-0.256297633423676 0.372787020587683 0.447350034602368
-0.254762852706512 0.374787185760038 0.45647972426452
-0.257965199961573 0.370613805564595 0.465743056916111
-0.255437460068593 0.37390802032907 0.481087585205844
-0.252621671765887 0.377577627089706 0.48016648452361
-0.250976397592782 0.379721790137376 0.49243313519675
-0.257956756891732 0.370624808787437 0.503592122336203
-0.250852569597521 0.379883165922669 0.508013913328439
-0.25109616622594 0.379565704615774 0.518075995606907
-0.251442263266689 0.379114662170806 0.53056156142335
-0.257949527802512 0.370634229919931 0.545564509397468
-0.257667531798104 0.371001734267915 0.549190480779721
-0.256805128878437 0.372125639634437 0.560499410883927
-0.252113202219926 0.378240277503319 0.562087655458995
-0.254465537821986 0.375174654061277 0.580627772078786
-0.251461950131308 0.379089005749322 0.586643379111167
-0.253278770361787 0.37672127952707 0.592707051774181
-0.254448638182585 0.375196678100136 0.600855676353932
-0.25503882681646 0.374427529297707 0.609193719342616
-0.25228006444768 0.37802281841434 0.612907560413761
-0.255461731810014 0.373876388779808 0.627782931860044
-0.258182756339851 0.3703302805724 0.641782469748106
-0.254931125254174 0.374567888706374 0.648884316435853
-0.254956358466695 0.374535004143578 0.662395977592741
-0.254845031528405 0.374680088234238 0.665244493316848
-0.253022401944703 0.37705538535301 0.674855221780734
-0.251244454326871 0.379372451800151 0.687804424439201
-0.254117452174772 0.375628288108648 0.691848177582836
-0.258233391038902 0.370264292147851 0.712214006132401
-0.252874225524113 0.377248492623979 0.711797474693637
-0.25573597939555 0.373518982367896 0.726130560380956
-0.258622966640224 0.369756587339568 0.736783667434943
-0.252705273197588 0.377468675582707 0.742872859403221
-0.252711352202706 0.377460753268996 0.751164496105878
-0.250964117418118 0.379737793972582 0.755627076076117
-0.258451128373143 0.369980531329253 0.771687099742757
-0.252555398286416 0.377663996369698 0.777099763918738
-0.253950458482295 0.375845918525788 0.790108910611336
-0.253057605593776 0.377009507064321 0.794225184726526
-0.25546335370629 0.373874275083428 0.803937650874393
-0.255452225997218 0.371893033406329 0.821318357695037
-0.254478219846638 0.373578666845891 0.819729729763561
-0.255031426453421 0.371111701159651 0.826392885918416
-0.245679406818437 0.380505323789495 0.834149168511309
-0.241677021018532 0.373438438998825 0.840574580398957
-0.234110219960766 0.377836377707476 0.843432538998868
-0.228382708081476 0.376672538255296 0.845348651072197
-0.218373500936536 0.382145912677137 0.845348651072197
-0.194512741278516 0.38521912177726 0.836802856837014
0.128045265355648 0.422713111843785 0.599428472910327
0.117706927398743 0.426995391637931 0.614588955228934
0.121996112096403 0.425218753164638 0.626435921716576
0.110369075073933 0.430034829589559 0.647110848821993
0.123859062020188 0.424447094040184 0.648856007949395
0.128091927127804 0.422693783904914 0.65263892867
0.113430735145344 0.428766648464604 0.66763720120919
0.126135159658366 0.423504303529166 0.671665960752309
0.120104332997282 0.426002353724508 0.697153025368258
0.113174397481144 0.428872827001663 0.71488002911591
0.117174502677114 0.427215929178573 0.716852980382198
0.118895066766368 0.426503248197872 0.721898832855289
0.125906879231445 0.42359886037802 0.721504984169858
0.118067865015407 0.426845886381939 0.736478801811268
0.121181522891108 0.425556167061234 0.755615533126476
0.117425375052452 0.427112014438283 0.76322500462405
0.117255304919199 0.427182459794031 0.779268594961085
0.111146017787908 0.429713009380244 0.791399663922774
0.120556757531964 0.425814953346292 0.796623552787847
0.122005970508285 0.425214669676733 0.801127706108954
0.12326791355539 0.425095826630484 0.816041246312239
0.118236562259461 0.429382237637705 0.828796482882149
0.126415176072362 0.426557858970067 0.832058989523485
0.13328236081862 0.428747162518317 0.837460531746602
0.14335874380188 0.424377406472109 0.837304941039362
0.153060010661809 0.428635867049977 0.84471715792953
-0.247144999492129 0.384714965355604 0.234897712495233
-0.243062824257228 0.390034959698109 0.243325867381723
-0.247593198497574 0.384130861039625 0.255461889456702
-0.24392713902859 0.38890856275795 0.261565832166005
-0.243286526726504 0.389743424964184 0.277577734578591
-0.245806694618437 0.386459078223595 0.279754849723849
-0.247457133053507 0.384308184978701 0.296461995997958
-0.25058086219247 0.380237261906921 0.305801661021366
-0.243872546235999 0.388979709470428 0.311893746846226
-0.249688877075969 0.381399719542941 0.323817809664338
-0.245865956864208 0.386381846161256 0.325383388963418
-0.248225241262765 0.383307166871307 0.337755660526174
-0.24248883299139 0.390782999679538 0.345066613854462
-0.248061147963268 0.383521017422724 0.358789299669724
-0.247127829291032 0.38473734199733 0.362596704788327
-0.24591420979513 0.386318961717365 0.373864870119003
-0.246375492203572 0.385717806778637 0.384062870019571
-0.244850222702261 0.387705576693165 0.397126751396096
-0.245054668936206 0.387439137173707 0.402694672114821
-0.248501106949396 0.382947651708995 0.418312956865922
-0.245482541880619 0.386881522296195 0.425502605709067
-0.250382656682495 0.380495568356558 0.4333212009353
-0.247288050260588 0.384528537964543 0.432580577729856
-0.243897941206039 0.38894661410113 0.450514806039116
-0.245630818545738 0.386688284384012 0.449805158437048
-0.243692098884402 0.389214873037492 0.465028920557901
-0.250140786024311 0.380810780335248 0.477269113505038
-0.249519947793481 0.381619872470094 0.493358345288387
-0.247976745201225 0.383631013243757 0.49172890211133
-0.249210798039497 0.382022764273494 0.501742032793413
-0.244617473742729 0.388008901042731 0.506132853781841
-0.246228393750133 0.385909509215465 0.52603507875363
-0.248575156821743 0.382851148036495 0.530124577992796
-0.247009903849217 0.384891025425207 0.538085762996777
-0.244921408389055 0.387612805699954 0.549129664669933
-0.250379583494319 0.380499573413362 0.565765984736697
-0.248731476835748 0.382647427827962 0.571747880697227
-0.246305523761293 0.385808991427913 0.576154880571855
-0.24325573211966 0.389783557277168 0.57831743730789
-0.250479169767442 0.380369790055443 0.605625809745538
-0.246811582366632 0.38514948301329 0.59946288075911
-0.243165038034276 0.389901752110407 0.606223944025603
-0.244729038711471 0.387863506744746 0.618859735210109
-0.248901523983875 0.382425818069943 0.632317004795455
-0.249264238226464 0.381953119665909 0.642566318678581
-0.24474245780803 0.38784601863763 0.652605123346918
-0.243090553877691 0.389998821753143 0.651021562245995
-0.248119638116618 0.383444791570818 0.668601630208334
-0.24731127212536 0.384498274641168 0.676307480691496
-0.245225564483115 0.38721642176087 0.684269390383104
-0.247365835480347 0.38442716629252 0.697976499086397
-0.246523435681086 0.385525003084995 0.708284814183363
-0.243002423588721 0.390113675381846 0.714830390102082
-0.24298585022009 0.390135274216359 0.718592434977179
-0.246970631371743 0.384942206314306 0.733883845394819
-0.244814721652449 0.387751842562043 0.738491379184772
-0.244490013898286 0.388175009946028 0.748664538530955
-0.244360692968032 0.388343544263574 0.758501838116273
-0.247585158993322 0.384141338325551 0.772530853956396
-0.242560557119242 0.390689526976278 0.776689989474096
-0.248746699380752 0.382627589421073 0.785128255934959
-0.247743185081006 0.38393539471851 0.793499751071269
-0.243577840542212 0.389363777408093 0.800828723910787
-0.2462361047589 0.383764738184108 0.821848728287457
-0.24184776210162 0.390105422858132 0.819476245438107
-0.242410203795207 0.385671364095123 0.833600317456136
-0.238577537299831 0.383400936224707 0.837476058891578
-0.230339581393324 0.387303323556173 0.841050803789285
-0.224990305349039 0.391677332874874 0.842409501436618
-0.221456184658901 0.390590919663299 0.845348651072197
-0.198136001804058 0.396930399332819 0.845348651072197
0.108997030999629 0.430603148853309 0.613936998857392
0.100773763879046 0.434009337621672 0.635291583638241
0.098615133190042 0.434903471729212 0.641231641431092
0.0956769037705101 0.436120526204145 0.651653396604786
0.104381043111418 0.432515153640356 0.66140903566082
0.101347680338665 0.433771613640428 0.674637452660664
0.0982858204260905 0.435039877542303 0.690746635543688
0.103404343858361 0.432919715717332 0.690740563348612
0.1009334338541 0.4339432001525 0.707846655927432
0.103408093232476 0.432918162675723 0.721945090196139
0.0930868410607342 0.437193365305931 0.724041689987713
0.0995608703914716 0.434511734553939 0.745297883009795
0.0913188405881156 0.437925695079972 0.751172808380535
0.0913349078610044 0.437919039797631 0.760721621188903
0.0911261695173581 0.438005502050557 0.773712716009073
0.100974069690998 0.433926368237738 0.778692846633578
0.0920639166307731 0.437617074478104 0.797842678935611
0.100042973157823 0.434312041049659 0.792096921911964
0.0960777231669521 0.435954501374077 0.808901051698762
0.111046124570327 0.430505706148946 0.818053540893964
0.104085318504397 0.434478927719496 0.824366193086164
0.10973930647813 0.436744443165416 0.836067568713531
0.109909426892501 0.437169273722636 0.836460787198468
0.126906919456217 0.439308485780775 0.843748678134242
0.13830701849193 0.434852838586157 0.843960196964066
0.146331598603339 0.442428623082109 0.845348651072197
-0.240122967455822 0.393866255674221 0.223428187521766
-0.241926719901036 0.391515559721294 0.248212348069178
-0.234603306156276 0.401059618329279 0.242955874395703
-0.239433367786282 0.394764959460669 0.259348960917469
-0.241118297170762 0.392569116735369 0.267070533580788
-0.240625346916245 0.393211542014604 0.281245900622444
-0.240519277807871 0.393349773967913 0.29121281684904
-0.235634564662858 0.399715656077544 0.293374640522094
-0.239658970370416 0.394470948448847 0.306417170433197
-0.235456545760953 0.399947654827352 0.311175417080376
-0.238113109779377 0.396485553193965 0.317516850648207
-0.238436800642036 0.396063711048792 0.331932611547513
-0.238592218937332 0.395861165982957 0.341279526153693
-0.23471505034688 0.400913990464817 0.34044960005469
-0.238910081982513 0.39544691879739 0.358852845308135
-0.238033163796267 0.396589740827611 0.364192898015968
-0.24200214786173 0.391417260089097 0.376822629244484
-0.23991347783989 0.394139267857052 0.384848045429971
-0.235218876733523 0.400257391134237 0.392963133481328
-0.236057992894142 0.399163833662958 0.406224897622346
-0.240039745021802 0.393974713261826 0.414406918275088
-0.236543619478862 0.398530952776025 0.420590871730562
-0.238307181277477 0.396232634293495 0.437185549895617
-0.236744384266946 0.398269311010221 0.44614381236991
-0.238726898537302 0.395685648111072 0.450285276927156
-0.237958786909011 0.396686670674235 0.463446962569691
-0.238202114241385 0.396369560320779 0.468664639615994
-0.242324230801875 0.39099751342934 0.479411864920189
-0.23875918764431 0.395643568127552 0.483381500464672
-0.235322667159004 0.400122128818292 0.487925962964577
-0.242466940042815 0.390811531125608 0.507898633301212
-0.239007134140728 0.395320437962314 0.510555573205736
-0.239288824372358 0.394953332105173 0.523871969752201
-0.237319722671387 0.397519515403582 0.53395525738871
-0.24197163515611 0.391457025021255 0.550063103569059
-0.237457342473579 0.397340165785561 0.545230814688521
-0.23825283745709 0.396303456539081 0.556819003435949
-0.240235680976072 0.39371936455477 0.575193981655475
-0.238017078677231 0.396610703362864 0.583511360243692
-0.240982729332389 0.392745792182078 0.591302325316294
-0.238160452788595 0.396423854583127 0.594284549739836
-0.239474724995765 0.394711061695921 0.61523102313373
-0.239013413707128 0.395312254272051 0.620495732119303
-0.240603946149655 0.393239432036623 0.618824691261293
-0.241987845599442 0.3914358991602 0.63264090540942
-0.238824713751044 0.395558172842674 0.643197099089695
-0.240852609972595 0.39291536703326 0.652252453803184
-0.238946911370123 0.395398921804989 0.661037618742467
-0.238673459766992 0.395755290872434 0.667889562857047
-0.236179798529011 0.399005093469041 0.671411335729045
-0.240820692913399 0.39295696215463 0.691563689936395
-0.238730357224756 0.395681140661826 0.694591359210605
-0.239402030971699 0.394805798392539 0.705847364782788
-0.237717280566335 0.397001407867714 0.71819565469226
-0.241444516378497 0.392143979586742 0.731302019694986
-0.240582044601761 0.393267974689544 0.739189837832186
-0.241759832362071 0.391733051796486 0.744302355622076
-0.241264961006426 0.392377980703453 0.754187083907756
-0.239460489775021 0.394729613396782 0.761988896997271
-0.240419242371318 0.393480142687012 0.775538908059246
-0.23696410322185 0.397982967693294 0.775349181682389
-0.241640035250282 0.391889174432161 0.79264650059233
-0.241586496645956 0.391958947299747 0.804830712971321
-0.238344740672285 0.396183685937193 0.806529870095462
-0.238542358220181 0.394873678296484 0.817718615301026
-0.237370849971572 0.39506096447605 0.822830253160489
-0.228642153854418 0.401225208064567 0.834678506756742
-0.227658611769061 0.396610570208768 0.838009737653163
-0.223037951415253 0.394110056366223 0.842460863948044
-0.217459107607311 0.397169720269105 0.843293361359446
-0.19764704281367 0.401725645849562 0.845348651072197
-0.191040936068256 0.406718477601666 0.845348651072197
-0.175841617485469 0.403088184661858 0.839217725648209
0.0815175273166344 0.441985531966087 0.660320001137616
0.0835920923327126 0.441126219000403 0.672129692112352
0.088474287758257 0.439103947440986 0.673100413584609
0.0849885498041505 0.440547787376456 0.684504773622052
0.0727546789167283 0.445406463040857 0.706260823099226
0.0853123424951579 0.440413668052443 0.706239650077355
0.0833866442401507 0.441211318386705 0.714258356910669
0.0807143434353848 0.44231822162278 0.730529900827623
0.0789559172358822 0.443046585603046 0.745092797917724
0.0849530777321057 0.440562480389782 0.753638702252544
0.083050085437817 0.441350725607168 0.762246448226692
0.0811617006035559 0.442132920216499 0.774539261073387
0.090456131503081 0.438283040883376 0.774255000115636
0.0801923105293626 0.442534454732459 0.789391315764051
0.0829657749727354 0.441385648145255 0.803811598564546
0.0753339658653548 0.444733699720258 0.81478435759919
0.0821164139446026 0.443671666960041 0.824904357233092
0.0813731458324047 0.44526635370826 0.832357113291335
0.0901588984388543 0.445631911766404 0.83668443122266
0.104520832130621 0.447602662428238 0.84297188643263
0.118389186064688 0.44367790397151 0.844416556544366
0.120791492318046 0.44577692440252 0.845348651072197
0.129243721352094 0.451272327958954 0.845348651072197
-0.231243978643669 0.404700972010079 0.224663145847844
-0.234605569251144 0.401056669006627 0.236571712834499
-0.22633892375774 0.40846475300157 0.236327355885214
-0.231101155855816 0.404810563789696 0.254372375413313
-0.232936592649096 0.403231721661095 0.259018197457868
-0.232733101990773 0.403496915850157 0.269534855528267
-0.233222000984862 0.402859770276304 0.280306993893445
-0.22584989709919 0.408839996354516 0.27616384119509
-0.224844028993499 0.409611826098361 0.290859948463152
-0.228578975866452 0.406745900564077 0.302793404304126
-0.232685067054389 0.403559516198036 0.312361585192994
-0.224083554039118 0.41019535905454 0.313698935527188
-0.232041217685782 0.404089228977195 0.335500277635555
-0.228043595560651 0.407156712321549 0.336046460944251
-0.233970777679046 0.401883945489851 0.348920889167916
-0.229347720293044 0.406156022218694 0.359297231118768
-0.226181557164622 0.408585504635475 0.360339491877085
-0.232745473922195 0.403480792435216 0.381754097711144
-0.222825420717996 0.411160758706312 0.381162948666294
-0.225602842239705 0.409029568215711 0.393308138422701
-0.226708386093561 0.408181254580253 0.406754279605557
-0.223268961179747 0.410820418139749 0.410622062591719
-0.226546600226055 0.408305397242663 0.415990887094134
-0.233234810093728 0.402843077120627 0.440929958079509
-0.232012682281319 0.404111124963152 0.438266850912008
-0.223110801423542 0.410941778389098 0.448980095029536
-0.229486708589203 0.406049372748038 0.464218714421969
-0.234228181852134 0.401548489840407 0.4775114731423
-0.225261435497108 0.409291538823183 0.481761485493948
-0.233204992583434 0.402881936056596 0.496418293600517
-0.227272910766429 0.407748079563381 0.499673045812988
-0.234983536754756 0.40056409216581 0.514653059967341
-0.226007684258846 0.408718922008556 0.51215448346253
-0.230741757986791 0.405086339474021 0.523744505198985
-0.234023323682159 0.401815466205353 0.535886089276648
-0.230864674411265 0.404992022384257 0.545871681288326
-0.22893703248024 0.406471154061092 0.54990753885426
-0.232707341907115 0.403530487044786 0.565955656133769
-0.230622174086968 0.405178099427683 0.572929666027781
-0.226258636345491 0.408526359699783 0.582242317649294
-0.227115725378154 0.407868692153921 0.584333853755034
-0.234161039529493 0.401635991418865 0.609514275643455
-0.230237357244325 0.405473379776472 0.609749244499569
-0.223571870658067 0.41058798752212 0.615792395039913
-0.233971140974323 0.401883472034227 0.631688950449086
-0.230879473044833 0.404980666993335 0.634559717623279
-0.222233584433829 0.411614890659618 0.635034409638937
-0.225869290732315 0.408825115096425 0.646866073128457
-0.223016744807863 0.411013950568706 0.659422468216424
-0.223523581347679 0.410625041213211 0.669630056198305
-0.225764890474424 0.408905224231856 0.680368473435385
-0.232376312050965 0.40383210202727 0.696207594446325
-0.231254378799944 0.404692991689489 0.707648425244821
-0.233378792048109 0.402655436184445 0.713990506646272
