ply
format ascii 1.0
element vertex 850
property float x
property float y
property float z
end_header
0.374420789919946 -0.254099937645307 0.592147057480738
0.374051882832538 -0.25438301000953 0.611080694827253
0.37389061583166 -0.254506754531576 0.609319848126636
0.375962459552585 -0.252916972929634 0.62222517506182
0.373531557073847 -0.254782270006716 0.635768531249455
0.373679729228317 -0.254668573513723 0.641241545993946
0.37863839401844 -0.250863656195922 0.648158439095867
0.375851371871315 -0.253002213505505 0.657281490292685
0.374955299121974 -0.253689794309268 0.667626771592196
0.375978901010202 -0.252904356955484 0.678276176272085
0.375754537451985 -0.253076517168823 0.680531771284778
0.372278937962318 -0.25574343845665 0.690128939947626
0.373648067706183 -0.254692868254138 0.697497291997989
0.368014369146757 -0.254427469349512 0.703082431365766
0.36773470719334 -0.242786053961615 0.703082431365766
0.294312732934331 -0.169141923245121 0.628007419924402
0.289817605240537 -0.16855865805607 0.628007419924402
0.285535339693535 -0.159459221919327 0.628007419924402
0.284886272385673 -0.154852733213798 0.636087697187875
0.27694567910411 -0.152511847225573 0.637332490022837
0.273515006992701 -0.150524575406295 0.639073652079107
0.258509763292927 -0.132356365011041 0.628007419924402
0.247188470968288 -0.123560679229389 0.628007419924402
0.247705608588187 -0.115942393971703 0.628007419924402
0.233480434786347 -0.103653760532641 0.628007419924402
0.224672199718961 -0.101911853265838 0.628007419924402
0.223845649845093 -0.0985153972522848 0.628007419924402
0.214526425225804 -0.0834151790175139 0.628007419924402
0.213474610685453 -0.0780788580955898 0.631293782239973
0.208092549233498 -0.0788640159493217 0.643752670729713
0.204915135972524 -0.0793275504144469 0.651639051075592
0.214732472744303 -0.0759448415237018 0.664374235240669
0.171739502312561 -0.0462724010885156 0.628007419924402
0.164060564518931 -0.0287994654779517 0.628007419924402
0.156818876190589 -0.020457214408584 0.628007419924402
0.14436304472336 -0.0117842851330803 0.628007419924402
0.144629502526687 0.000453952941351625 0.628007419924402
0.137258806641319 0.00428237866092679 0.628007419924402
0.126838277677612 0.00773672344730369 0.628007419924402
0.118306087329301 0.0200116259408215 0.628007419924402
0.114568555340013 0.0259822646223173 0.628007419924402
0.101341758710774 0.0348213350352451 0.628007419924402
0.0918571726662739 0.0415440576535889 0.628007419924402
0.0872824920938141 0.0528752299771832 0.628007419924402
0.0837235211824443 0.0611290805195543 0.628007419924402
0.0688303588874928 0.0773660880374937 0.628007419924402
0.0549910973485878 0.0852416495464458 0.628007419924402
0.0531566600614857 0.0858968075926904 0.628007419924402
0.0476521132168365 0.100245466808311 0.635152735963319
0.0432697830439475 0.0986677308638906 0.636893432280911
0.0373372335292225 0.101090949184974 0.648368095434136
0.0408455818206636 0.10847882372131 0.651176749467277
0.0235404056171132 0.128677178467763 0.645577581839021
0.00409142619241065 0.143108134127751 0.628007419924402
-0.0066926139528582 0.157107331112552 0.628007419924402
-0.0204654698192741 0.172144012456251 0.628007419924402
-0.0370193781215795 0.177358688452633 0.628007419924402
-0.0352148645510999 0.191564833627043 0.630715298566129
-0.0413770697449071 0.192361678274995 0.645084000905034
-0.0436158786382673 0.190342098783599 0.646545830981499
-0.0426027552316262 0.196885354095685 0.655047212802913
-0.045552743150456 0.1945407157242 0.657488542795039
-0.0498713968084478 0.200905954189314 0.67701028182145
-0.0531363132563867 0.197917794505678 0.679072196408884
-0.0529542083086342 0.204870131886166 0.690002253919697
-0.0553149931196403 0.206168476995416 0.697123427971149
-0.0559724403118576 0.205671474406867 0.697709074850257
-0.0623019243473016 0.218312009891292 0.703082431365766
0.368576837570552 -0.25858415999946 0.433086861546788
0.364086590844506 -0.262029647495038 0.442859695574824
0.365499717261711 -0.260945317457691 0.447845086231307
0.367214327485992 -0.259629650758736 0.46158660491922
0.370468798817576 -0.257132407074407 0.470103540228965
0.368003595431295 -0.259024024163558 0.482700499961484
0.366831856405137 -0.259923131141197 0.490185766405843
0.369644187314641 -0.257765153735208 0.490366135302761
0.368439601804503 -0.258689464706465 0.509419180620784
0.369355928601009 -0.257986342425697 0.513300034654185
0.369172683787451 -0.258126951116548 0.521421541351659
0.366241439866259 -0.260376173685627 0.525905629408862
0.368963047839516 -0.258287810437048 0.538651341554321
0.366963467001518 -0.25982214277869 0.541901241382089
0.367827706846522 -0.259158988221532 0.551055381459089
0.365894298590904 -0.260642544554849 0.563743123947931
0.368365395893716 -0.258746404904479 0.573185364912835
0.368019726181361 -0.259011646603696 0.579600585487176
0.36470122732402 -0.261558020336511 0.588686651424846
0.368835536873927 -0.258385653042208 0.599364783196904
0.371653190862654 -0.256223591093872 0.609494541385125
0.366758143598138 -0.259979692967367 0.618500641039061
0.369183782987737 -0.258118434400624 0.625172483223049
0.367410043643734 -0.259479472468916 0.630011742615042
0.36874540691119 -0.258454812195041 0.639490086259662
0.367417475011367 -0.259473770179974 0.646992875419853
0.369152160101593 -0.258142699494598 0.654952590037979
0.369943077329821 -0.257535807360122 0.66273360912784
0.363952638601764 -0.262132432665995 0.673561335291952
0.365846469005262 -0.260679245486736 0.678977777087718
0.36583856918859 -0.260685307229267 0.694454430383298
0.366849001895399 -0.259909974943797 0.69726196153596
0.363949104448551 -0.255033212993866 0.703082431365766
0.299279516200351 -0.1839493028782 0.628007419924402
0.294901226206487 -0.181671613735974 0.628007419924402
0.28300562516526 -0.172841625233428 0.628007419924402
0.278452109357251 -0.161733643947551 0.628007419924402
0.278139812774164 -0.158781098202917 0.628007419924402
0.262884095094222 -0.144622838897033 0.628007419924402
0.262371667723176 -0.150173597805884 0.628007419924402
0.253769609401033 -0.136889639517172 0.628007419924402
0.242380147435637 -0.13134212397489 0.628007419924402
0.237660359704521 -0.123305762872873 0.628007419924402
0.229915420491057 -0.118060093380459 0.628007419924402
0.220704222020143 -0.103353520383261 0.628007419924402
0.210421672429478 -0.0923163049260583 0.628007419924402
0.205018525584135 -0.0895102605579753 0.628007419924402
0.202047532845953 -0.0797458884687996 0.630223632391646
0.200070986377929 -0.0800342354147582 0.631866580638027
0.197189804857449 -0.0804545543425565 0.64636997477576
0.174650627643587 -0.0566235479632287 0.628007419924402
0.173711647684966 -0.0542698958005046 0.628007419924402
0.160958785662273 -0.0426834784981577 0.628007419924402
0.152715700604972 -0.0281245967032799 0.628007419924402
0.146052460914306 -0.0210016409122723 0.628007419924402
0.14160522119958 -0.0175416367509025 0.628007419924402
0.126230987447132 -0.00364401927222899 0.628007419924402
0.127593002085317 0.000811813441780509 0.628007419924402
0.113084819537521 0.0187398550302919 0.628007419924402
0.102974780423234 0.0173706410372211 0.628007419924402
0.101740722186939 0.0208924147956103 0.628007419924402
0.0868958580365939 0.0363992691026484 0.628007419924402
0.076154735475717 0.0535379096603676 0.628007419924402
0.0692735706076748 0.0612015446996498 0.628007419924402
0.0586624786325691 0.0665040596096284 0.628007419924402
0.0518363291332549 0.0711713180401704 0.628007419924402
0.0379718327285603 0.0872490682647737 0.628007419924402
0.0314711471803738 0.0944199605766943 0.629885328410405
0.0338629870418189 0.0952810759134725 0.634457564086328
0.0379857097134779 0.0967653474063396 0.645912523764667
0.00890621255825585 0.118162472299027 0.628007419924402
0.00669082966331918 0.128036438418992 0.628007419924402
-0.015818941134753 0.149476035284446 0.628007419924402
-0.0196265141137797 0.142476090076306 0.628007419924402
-0.0309105233996212 0.16522008308531 0.628007419924402
-0.0350811284114943 0.173997100443496 0.628007419924402
-0.047546550530218 0.177983230750343 0.634767246095761
-0.0433127428132433 0.183261780450145 0.634378133677116
-0.0487278494017877 0.184094394401681 0.647220263195116
-0.0487913775306618 0.190706574831397 0.65811769875319
-0.0489843299998417 0.191974910382923 0.660591477637755
-0.0572058086330452 0.188488720600997 0.672356931968066
-0.0608644878451628 0.192973827962684 0.687418392048248
-0.0599799898002304 0.191747218432561 0.683545578857124
-0.0642963046574159 0.196415203108941 0.70029972911949
-0.074496618482417 0.202414315217877 0.703082431365766
0.36011658711834 -0.265075938496503 0.432234584269227
0.360810992689191 -0.264543102361386 0.44680945606103
0.361386310159721 -0.264101645739592 0.450263336267028
0.361522100350535 -0.263997450261477 0.469019348121063
0.361540928640675 -0.263983002806316 0.464808611820168
0.360598132457393 -0.264706435761912 0.478441336099648
0.363911535186631 -0.262163972425724 0.4831033233315
0.360724662605669 -0.264609345764347 0.496514974708922
0.361672654992604 -0.263881925621453 0.498435764961441
0.361366198364515 -0.26411707806283 0.508951490498692
0.36414120312243 -0.261987742020312 0.521678006791831
0.363578996418111 -0.262419138397359 0.528666253550923
0.358683325869462 -0.266175718533591 0.538205681827048
0.358819174711636 -0.266071478050706 0.544765699010811
0.364584448072387 -0.261647628207926 0.553654133743505
0.362523404029697 -0.263229122925294 0.562580329026987
0.360225689299337 -0.264992221448576 0.569149888652829
0.361419556060124 -0.264076135262973 0.580976117438257
0.362365638630169 -0.263350180574121 0.585434698603263
0.360982107509032 -0.264411801342079 0.595501076006485
0.359511707719206 -0.265540078783931 0.602141193107107
0.361157045905866 -0.264277566388954 0.613868057132697
0.35909821662497 -0.265857361659827 0.614070418417708
0.362496769243336 -0.263249560515689 0.627168816039557
0.358819304590049 -0.266071378391494 0.639497223641836
0.360657458468625 -0.264660913312405 0.645057478695241
0.361241602691945 -0.264212683684979 0.660960263161142
0.36099069081515 -0.264405215139648 0.660807124445801
0.363393745371411 -0.262561286525043 0.674456936619996
0.360145437236604 -0.265053801022152 0.680156368619322
0.358045417950804 -0.266665202495423 0.68587048758524
0.359107740340707 -0.262431516372778 0.703082431365766
0.351066529528766 -0.262697825347254 0.703082431365766
0.354931870262404 -0.257990360014463 0.703082431365766
0.350293968559676 -0.254895327098276 0.703082431365767
0.283789432800625 -0.182452343227017 0.628007419924402
0.270809745705521 -0.165964113201389 0.628007419924402
0.264632699699287 -0.166693522125886 0.628007419924402
0.262658149268906 -0.16169871631058 0.628007419924402
0.253232308485489 -0.152171479215317 0.628007419924402
0.245748343758599 -0.145129166624695 0.628007419924402
0.238178956792271 -0.13194692836093 0.628007419924402
0.226521694361772 -0.12006941953178 0.628007419924402
0.226317194294381 -0.122405368760046 0.628007419924402
0.216108743760396 -0.108434446830131 0.628007419924402
0.20583603062565 -0.108471094952386 0.628007419924402
0.197541161781446 -0.087854077099952 0.628007419924402
0.192730560887904 -0.0884246816420247 0.628007419924402
0.179705486597535 -0.0735619739619882 0.628007419924402
0.193999612623174 -0.0809199530582747 0.640305776501488
0.171456528174788 -0.0619119759617255 0.628007419924402
0.161625668508365 -0.0554452919495373 0.628007419924402
0.149525555409151 -0.0453835387858872 0.628007419924402
0.146254183493397 -0.0360518241792239 0.628007419924402
0.141538557438036 -0.029594111236661 0.628007419924402
0.122779639956609 -0.0160016616283056 0.628007419924402
0.128251535186438 -0.0191127474972765 0.628007419924402
0.113365307508182 -0.00330114306707637 0.628007419924402
0.107200768555747 0.00940360637611486 0.628007419924402
0.0989706160688024 0.0159584441507858 0.628007419924402
0.0933949758703583 0.0273622692170382 0.628007419924402
0.0760655506837554 0.0295710413265342 0.628007419924402
0.0764798384633141 0.0349943212464887 0.628007419924402
0.06613325427171 0.0450271061494474 0.628007419924402
0.0539971524418959 0.059848463023639 0.628007419924402
0.0455911650576159 0.0680859595467619 0.628007419924402
0.03229147148774 0.0797401271791106 0.628007419924402
0.0238522635651992 0.0929311438787838 0.628007419924402
0.0196678973713878 0.0999551812110503 0.628007419924402
0.0078963360276412 0.110492342544277 0.628007419924402
0.00378213927586722 0.113709519429561 0.628007419924402
-0.00552282063893117 0.120609751202965 0.628007419924402
-0.0157177026214425 0.133332660651446 0.628007419924402
-0.0315083292090953 0.144454204113442 0.628007419924402
-0.0395367135972136 0.154250297478379 0.628007419924402
-0.0448087352829725 0.16783581405469 0.628007419924402
-0.0526995800690156 0.170554780763326 0.633606870006035
-0.056154159676717 0.172380259458821 0.643906291170503
-0.0587674455586444 0.173200387160155 0.650784690489643
-0.0588503377388147 0.177088096736353 0.657288569012033
-0.0615214077031454 0.176570489565746 0.66211210672046
-0.0638283457235833 0.180403631733806 0.67324495787432
-0.065990352097405 0.18462304535839 0.684699106260605
-0.0695809963915335 0.181267049938918 0.686853248304266
-0.0695230378211701 0.189080893627727 0.699448930924573
-0.0736658321180327 0.19941717198887 0.703082431365766
0.353809288546953 -0.269915698911569 0.435757908228247
0.354844072213417 -0.269121681477571 0.447097375907325
0.352423723186037 -0.270978880606608 0.449087602531328
0.352191687352667 -0.271156927963732 0.46079504257137
0.351801986235936 -0.271455956147845 0.468721369858224
0.353798855256642 -0.269923704656797 0.479743800054325
0.354232953277986 -0.269590609529592 0.478276916271793
0.352831649259104 -0.270665867921644 0.493143966743102
0.355642018599081 -0.268509395680891 0.502303621878427
0.353297582675994 -0.270308344636263 0.509940591849913
0.356287926146755 -0.268013773387822 0.520314337485361
0.356494255765517 -0.267855451102926 0.529169357803921
0.352140104296167 -0.271196509035106 0.534127566796885
0.355203552134253 -0.268845842832677 0.541426401355355
0.356345437662618 -0.26796964324958 0.55637425714861
0.35119733224104 -0.271919923476518 0.558453695889969
0.351911536987043 -0.271371894899966 0.569089091758745
0.352765542220487 -0.27071659363647 0.572723273472001
0.353314634776169 -0.270295260099597 0.589129699763565
0.354720423913535 -0.269216560155088 0.591258375364568
0.354729046502002 -0.269209943810252 0.602993867576699
0.354491794660913 -0.269391993550868 0.617980816287235
0.354998253798595 -0.269003373786215 0.617782140884358
0.357360836407855 -0.2671905003888 0.625792096718894
0.351391481104413 -0.271770947813966 0.64126132725174
0.354518579797711 -0.269371440592525 0.649826992799153
0.352715893396264 -0.270754690519218 0.652850248713031
0.352857388216924 -0.270646117724666 0.668559474001318
0.355396654083083 -0.268697670495909 0.673932353259283
0.354552318015203 -0.269345552347718 0.682172557133697
0.352207269062852 -0.271144971696987 0.689258972356792
0.355008161623922 -0.268995771244449 0.701616861856327
0.345636388298185 -0.263258818493606 0.703082431365766
0.342435482520619 -0.260700966952299 0.703082431365766
0.277788230677024 -0.194145485975809 0.628007419924402
0.268919318800137 -0.185148356312795 0.628007419924402
0.263347978544661 -0.176112382630419 0.628007419924402
0.264655924553877 -0.171656320200921 0.628007419924402
0.251853819549849 -0.159342206256064 0.628007419924402
0.248551512580396 -0.159302773228736 0.628007419924402
0.237715188308213 -0.155471820626664 0.628007419924402
0.233359372386071 -0.143784882676352 0.628007419924402
0.225561339385418 -0.131536552015102 0.628007419924402
0.217754071064768 -0.132448397185568 0.628007419924402
0.214877741606206 -0.123573670811039 0.628007419924402
0.199625107011804 -0.103131260205506 0.628007419924402
0.196340502252884 -0.106218442552644 0.628007419924402
0.189512363350082 -0.093190575635748 0.628007419924402
0.18390489145826 -0.0877627287105214 0.628007419924402
0.167564623068183 -0.0734185237559088 0.628007419924402
0.159998801347549 -0.0675104716525966 0.628007419924402
0.15659207552154 -0.0637475596491145 0.628007419924402
0.148849064500888 -0.0554860644831052 0.628007419924402
0.133414125281306 -0.0425440931572374 0.628007419924402
0.135497862393178 -0.0427466705310107 0.628007419924402
0.126654785767182 -0.0272727365451748 0.628007419924402
0.113072195321819 -0.0128487074020382 0.628007419924402
0.105847804360218 -0.00799854832287296 0.628007419924402
0.0973145288110568 -0.00120506104697358 0.628007419924402
0.0924026718315987 0.00975262737292434 0.628007419924402
0.0840494745664596 0.013430499972997 0.628007419924402
0.0784484950299811 0.0148734977672855 0.628007419924402
0.0643297101561789 0.0325127509125396 0.628007419924402
0.0535724844455045 0.0466264786419626 0.628007419924402
0.0477333641794882 0.0510567128030444 0.628007419924402
0.044359331068329 0.0607024797837893 0.628007419924402
0.0259687100729878 0.0701654731962676 0.628007419924402
0.0180681159063557 0.0815659507161634 0.628007419924402
0.0157307379163666 0.087374059515256 0.628007419924402
0.00534644191798094 0.104604338103938 0.628007419924402
-0.00875002353605659 0.108165009397215 0.628007419924402
-0.0144164288925898 0.116690118338599 0.628007419924402
-0.0240334721836692 0.122711308778724 0.628007419924402
-0.0329231119288757 0.143844520429745 0.628007419924402
-0.0392154295671166 0.147372002321924 0.628007419924402
-0.0513685232642506 0.161169504680027 0.628007419924402
-0.0557263005666644 0.163703802210219 0.628875980218395
-0.0626399782767078 0.166841038744888 0.648648221750918
-0.0621227948679837 0.16464583680778 0.64397799834145
-0.0674200403842172 0.167696764061911 0.660180871640556
-0.0653449236633209 0.174760535555068 0.667276729933242
-0.0724168261554702 0.170499259145335 0.675342015826495
-0.0676901711998506 0.179785894431592 0.680431422193752
-0.0740312642718736 0.178863013023251 0.692380387504028
-0.0720964174426863 0.182087224498667 0.693524126582408
-0.0845071048049948 0.183513119441908 0.703082431365766
0.350452209372517 -0.272491676362896 0.431962059121691
0.349593878539619 -0.273150296775593 0.442571853965257
0.348114104094421 -0.274285767643514 0.451313438600432
0.343797812700888 -0.277597774517754 0.456621364692265
0.34648902759185 -0.275532732701468 0.465741575036901
0.349289762086761 -0.27338365353736 0.476418613877266
0.346918867708778 -0.275202904779233 0.482412903982778
0.349072367484508 -0.273550466282708 0.488233251761669
0.347538434296951 -0.274727494615278 0.504998295279801
0.350081484522644 -0.272776143545318 0.510466929417833
0.350699431938769 -0.272301975815773 0.516197296516727
0.343970032723385 -0.277465625446622 0.524378207962838
0.348028815615653 -0.274351211795037 0.534751048016177
0.348345545932156 -0.274108176075273 0.541402164682068
0.348785452678339 -0.273770623756733 0.552336579093434
0.348413201062276 -0.274056262468057 0.556239027562629
0.348754099138702 -0.273794682173865 0.562064028171341
0.351233010882991 -0.271892546291654 0.573665412261713
0.345939413643803 -0.275954466316774 0.58688262690987
0.345167508426227 -0.276546770022382 0.591009647132409
0.349509623610382 -0.273214947856666 0.601855416807028
0.345621986402577 -0.276198036805687 0.609349057088948
0.350238210053438 -0.272655883815834 0.620825867154497
0.349812792618457 -0.272982318094852 0.630100953789464
0.348131789079642 -0.274272197477073 0.634271765814869
0.349958604507623 -0.272870432697127 0.641536575629939
0.350152328852989 -0.272721782778699 0.657823206578509
0.345802468774006 -0.276059547811234 0.663920716568045
0.346481192468961 -0.275538744802715 0.666480365441754
0.347727483299871 -0.274582432213287 0.676917548689183
0.348450774919556 -0.274027431033324 0.693520289904286
0.349311286596519 -0.273367137200119 0.697492799884592
0.344563836111694 -0.277009984081219 0.701483810638801
0.342215258231963 -0.26417369617324 0.703082431365767
0.276921062577938 -0.199562854123719 0.628007419924402
0.269312859324215 -0.193012597974601 0.628007419924402
0.259048532769065 -0.187836820717316 0.628007419924402
0.252216828029306 -0.177654071324074 0.628007419924402
0.246526970751288 -0.167680292722046 0.628007419924402
0.236489996248917 -0.163497052177107 0.628007419924402
0.22638388049032 -0.152099507170791 0.628007419924402
0.224996693839885 -0.149496496435784 0.628007419924402
0.218996709802003 -0.139827072660964 0.628007419924402
0.209090623277897 -0.133008801160948 0.628007419924402
0.205764754466513 -0.122994259759122 0.628007419924402
0.195420766665548 -0.112192523557867 0.628007419924402
0.189855697515563 -0.104834889969714 0.628007419924402
0.180754140811319 -0.102740429554295 0.628007419924402
0.172025623330456 -0.0916873704643259 0.628007419924402
0.159602583579766 -0.0796461009866812 0.628007419924402
0.150902704133912 -0.0709143380444571 0.628007419924402
0.147819405298941 -0.069862383326327 0.628007419924402
0.141404035865767 -0.0548565492552163 0.628007419924402
0.130685624617959 -0.0531664247132914 0.628007419924402
0.121725159498274 -0.0406499008574775 0.628007419924402
0.121409726462237 -0.0347263053745393 0.628007419924402
0.112037797255014 -0.0282489026934144 0.628007419924402
0.105417086832373 -0.0245005029932498 0.628007419924402
0.0958195146468589 -0.0135490991697714 0.628007419924402
0.0905373030942631 -0.00313850066747277 0.628007419924402
0.0749255662279278 0.0101355684574554 0.628007419924402
0.0656899344422169 0.0172221029272247 0.628007419924402
0.0534097864925804 0.0270733802602612 0.628007419924402
0.0491287763687882 0.0295345404075947 0.628007419924402
0.0407336929154523 0.0420852925374412 0.628007419924402
0.032970566215238 0.0528059436332481 0.628007419924402
0.0182762652384205 0.0692583223380937 0.628007419924402
0.0142636053376585 0.0721568692731325 0.628007419924402
0.00646798874478582 0.080014815710095 0.628007419924402
-0.00431449574244187 0.0895056599607181 0.628007419924402
-0.0139020451750744 0.0958074359062324 0.628007419924402
-0.0156341467881674 0.1035381211497 0.628007419924402
-0.0355618144038073 0.118534979344046 0.628007419924402
-0.0357914123893452 0.132391471838525 0.628007419924402
-0.0487590215942566 0.137189343015409 0.628007419924402
-0.0595847871100746 0.14946047314836 0.628007419924402
-0.0660537033275069 0.153858817300446 0.634758420119988
-0.0659902131663684 0.155205412391559 0.636815599439551
-0.0705254130894953 0.155817511904499 0.647432280760871
-0.0694480289539588 0.159552813825996 0.651226830268233
-0.0712572176574983 0.168189810974449 0.66912307898165
-0.0762420449035674 0.162729074418209 0.670808757040139
-0.0786327082892191 0.166403446246945 0.68186078075481
-0.0843740489947983 0.165341254239223 0.69231075543517
-0.0813024236471575 0.175629643462109 0.702541478749317
-0.0869998413780809 0.185480564327579 0.703082431365766
0.341698560612413 -0.279208587299812 0.433317503932856
0.342004382594065 -0.278973921839773 0.437182906981722
0.341125928919396 -0.279647983052036 0.447822590100981
0.342459327182824 -0.278624830578784 0.456304068511682
0.338609900561405 -0.281578599513644 0.458040796439993
0.339327720381592 -0.281027796993107 0.473126646893327
0.338235171191449 -0.281866139472399 0.481578037470053
0.341643230338969 -0.279251043711878 0.48872593518419
0.337962453209994 -0.282075403339676 0.504462475122216
0.339803752949613 -0.280662524356508 0.5036067163354
0.338672670726544 -0.281530434271892 0.51593058464378
0.339703961864354 -0.280739096749386 0.523127506976876
0.340400457325056 -0.280204656985385 0.531318232341956
0.343814797009653 -0.277584741999267 0.544441137836457
0.33911223183077 -0.281193147173754 0.551944832232926
0.341741392618921 -0.279175721145269 0.564570883869042
0.341801917466939 -0.279129278795942 0.56415968018264
0.338072027809991 -0.281991323791902 0.574384949212067
0.33773758983586 -0.282247947075258 0.588029212144711
0.337169680135379 -0.282683719515172 0.595361724553725
0.34006029900268 -0.28046566964633 0.601268474797413
0.344026958588351 -0.277421944694119 0.610791444433102
0.344882023072586 -0.276765830638904 0.619514338112238
0.341091246842655 -0.279674595545519 0.628210022025829
0.340793481880541 -0.279903078637023 0.635315169193489
0.339868911917338 -0.280612526122064 0.641054381119257
0.338871660363099 -0.281377744153436 0.653825120663332
0.337381864018132 -0.28252090509552 0.656353672581236
0.341815052421253 -0.27911919999101 0.663316282111519
0.340371783551104 -0.280226659145986 0.683660724141458
0.338992660781834 -0.281284897266583 0.687109338638272
0.338447986866058 -0.281702840261806 0.695950882656155
0.338128119203402 -0.279426879985042 0.703082431365766
0.331553319376474 -0.272084651379976 0.703082431365766
0.263457548110282 -0.201310392463482 0.628007419924402
0.255634426320002 -0.190668373718788 0.628007419924402
0.25701862410592 -0.188402813611172 0.628007419924402
0.25231349526223 -0.187364513164504 0.628007419924402
0.241954468674388 -0.183301065865964 0.628007419924402
0.227812156885403 -0.166428690026971 0.628007419924402
0.225847907838945 -0.160716614695196 0.628007419924402
0.213379158735159 -0.15282171601934 0.628007419924402
0.204104743433589 -0.145462263881648 0.628007419924402
0.204356773577561 -0.136900360471431 0.628007419924402
0.198565928730941 -0.132810684241772 0.628007419924402
0.187489129697777 -0.123234108580722 0.628007419924402
0.185412434433399 -0.112310477615385 0.628007419924402
0.172962476929424 -0.100352328481488 0.628007419924402
0.167486490331701 -0.102012441546248 0.628007419924402
0.161862736384859 -0.0945251589580088 0.628007419924402
0.147518595490879 -0.084121336127723 0.628007419924402
0.143452308391695 -0.0712572765671139 0.628007419924402
0.136994516400433 -0.0738091665138279 0.635484988800367
0.136994516400433 -0.0656366282981201 0.636883177915109
0.116774748142373 -0.0487208710496165 0.628007419924402
0.107638482233772 -0.0409218594759997 0.628007419924402
0.099543586146075 -0.0328658773945175 0.628007419924402
0.0996728958565361 -0.027179883299942 0.628007419924402
0.0891914995285089 -0.0120923852369868 0.628007419924402
0.0742170625028147 -0.00542717184777721 0.628007419924402
0.0737966030033087 0.00314880659670814 0.628007419924402
0.0657623364399676 0.00843566367454792 0.628007419924402
0.0454336952754428 0.0250811074905953 0.628007419924402
0.0355459161166233 0.0290825673895424 0.628007419924402
0.0413529751572906 0.0315587799944257 0.628007419924402
0.017230541556197 0.0524464632486833 0.628007419924402
0.0146314482732198 0.0489902970643287 0.628007419924402
0.00744482250062346 0.0633978099481199 0.628007419924402
-0.00069131764128652 0.0780826414753482 0.628007419924402
-0.00755011748901642 0.0757415925916082 0.628007419924402
-0.0164817402891929 0.0938400946323775 0.628007419924402
-0.0267102023590456 0.0945797177150582 0.628007419924402
-0.0379253955328419 0.111489432300157 0.628007419924402
-0.0543603961578152 0.122985828104214 0.628007419924402
-0.0675213164558922 0.141247476347826 0.628007419924402
-0.0663317405367979 0.14788025487477 0.628007419924402
-0.0746021391306699 0.143446664697588 0.635944016983753
-0.070618024175757 0.152143409327876 0.6416483803687
-0.0778854758969371 0.149128070634468 0.652156496508182
-0.0808439489811252 0.150022016917675 0.65988728444754
-0.0775451603380552 0.158548885921101 0.666768899744418
-0.0789221804746051 0.160963246825467 0.673619791372826
-0.0828937881000209 0.159336038719686 0.679396012684184
-0.0874893056556838 0.160967121414945 0.691799247194036
-0.0890236915196906 0.164116508398514 0.700180358569261
0.332180073616454 -0.284989618497219 0.425724511371646
0.336239769770751 -0.283308037290995 0.437533213879618
0.330321776135416 -0.285759350516789 0.443548395134283
0.331598895930626 -0.285230350176838 0.44966970529965
0.331612538101893 -0.285224699404479 0.45999468089504
0.334377076580859 -0.284079590072789 0.467994779000521
0.331780918678291 -0.285154953886094 0.474900505967312
0.333354025852926 -0.284503351559294 0.488261743659281
0.336728363811909 -0.283022353440405 0.496285544918411
0.332391082128953 -0.284902215909566 0.503745812185682
0.336360998280716 -0.283257822798022 0.509770562104013
0.33713748969297 -0.282708420110386 0.518527295980019
0.332797053180049 -0.284734057194271 0.521526198623269
0.334743071469458 -0.283927990026172 0.537449602926125
0.333091502242849 -0.284612092399031 0.547916422962191
0.331765272809106 -0.285161434617306 0.563524581196438
0.33401167647989 -0.284230943750303 0.565208758367794
0.328915590629724 -0.286341811624459 0.572298718568493
0.334364750141489 -0.284084695851151 0.579896185832407
0.332360942396991 -0.284914700195311 0.593690957273308
0.333802019047714 -0.284317786702162 0.604229588941153
0.335354263668967 -0.283674825927918 0.609109339029041
0.3337331520548 -0.284346312344627 0.620411605998625
0.335046758506123 -0.283802198736868 0.630141742337112
0.334726681214214 -0.283934779092185 0.635764146824638
0.331589778147197 -0.285234126886393 0.646409877348951
0.335856295638429 -0.283466877477423 0.646781250492951
0.333377942273552 -0.284493445053508 0.66231664796495
0.335065672188876 -0.283794364432957 0.670653426248769
0.332324531512809 -0.284929782077357 0.670433083313293
0.33189876620518 -0.285106139842165 0.68640565263581
0.333712977870174 -0.284354668765509 0.692584526900704
0.331435333530276 -0.285298099941357 0.697440776231502
0.329746831539085 -0.274681162344426 0.703082431365767
0.258896859169634 -0.213116814411033 0.628007419924402
0.256288502857779 -0.19813163698752 0.628007419924402
0.244494299688376 -0.189472850850386 0.628007419924402
0.242202957042687 -0.188690198072311 0.628007419924402
0.238342967212151 -0.184847330578392 0.628007419924402
0.225846509556123 -0.171427369173655 0.628007419924402
0.221645893430615 -0.171605471579342 0.628007419924402
0.207474276930448 -0.155446750448914 0.628007419924402
0.202901664252243 -0.158500242400135 0.628007419924402
0.196766645168186 -0.142288597247522 0.628007419924402
0.191711251310958 -0.131792836033477 0.628007419924402
0.183133084621516 -0.127635619590029 0.628007419924402
0.176442292375787 -0.120689414803593 0.628007419924402
0.163021223147789 -0.111150199061281 0.628007419924402
0.160700707495945 -0.099704027858693 0.628007419924402
0.15499635638915 -0.0980946393269225 0.628007419924402
0.144718136652348 -0.087616294347582 0.628007419924402
0.136994516400433 -0.0877189575475118 0.630937069983167
0.136994516400433 -0.0851754651808961 0.640270519902554
0.136994516400433 -0.0772531005828681 0.648101601024386
0.130906033885806 -0.0834321295744075 0.658104447376818
0.104882235174208 -0.0476807953336339 0.628007419924402
0.09399669508903 -0.0405750064229666 0.628007419924402
0.0841410771851454 -0.0349281854995572 0.628007419924402
0.0787499513503878 -0.0236294696197148 0.628007419924402
0.0688054553899323 -0.015169858346947 0.628007419924402
0.0619006545677583 -0.00445399085157924 0.628007419924402
0.0499370522469963 0.00411902816892552 0.628007419924402
0.0402706135211831 0.0164154815520945 0.628007419924402
0.0301807755854799 0.0257675278911434 0.628007419924402
0.0306941825584156 0.024418012844307 0.628007419924402
0.0160254742252903 0.0433544181260026 0.628007419924402
0.00818788051516075 0.0438993778925438 0.628007419924402
-0.00237167697800718 0.0575649762569365 0.628007419924402
-0.0129457681345928 0.0726437981489017 0.628007419924402
-0.0177261335772634 0.0716871016844159 0.628007419924402
-0.0242537014142616 0.0833098311822506 0.628007419924402
-0.0355326556992518 0.0897703034148014 0.628007419924402
-0.0471634429344526 0.104571629562399 0.628007419924402
-0.0526752557575504 0.112728233496679 0.628007419924402
-0.0601056536994954 0.122102482525597 0.628007419924402
-0.0718781028394745 0.136059860245119 0.628007419924402
-0.0795672661394928 0.136927350819103 0.641234944380539
-0.0835481172065745 0.134790161627194 0.648881896504714
-0.0802393692136674 0.144303189333736 0.650442307146824
-0.0849124913813062 0.142918151042892 0.660568967408527
-0.0883876993619121 0.143722739871309 0.669976926084089
-0.0875804959598464 0.148108822401966 0.672470836432334
-0.0900050039242457 0.153030130987656 0.684216637098387
-0.091676453528309 0.155209609369452 0.691309772541604
-0.0948551995664102 0.155089207817836 0.697856759466112
-0.101828532260007 0.168103160856524 0.703082431365766
0.321017543829901 -0.289613289725203 0.425841529973507
0.327639489048867 -0.286870390206216 0.433648202418254
0.326217012260778 -0.287459599384003 0.446390470450073
0.319385258432832 -0.290289404474333 0.452230948068354
0.323468150894313 -0.288598215043076 0.460395479492116
0.32419546320584 -0.288296952419561 0.467106822028518
0.32353519831635 -0.288570443091546 0.469690322186362
0.323736250023275 -0.2884871647478 0.489669625529737
0.322832797355055 -0.288861387095939 0.494751240657851
0.324425987968525 -0.288201465936394 0.501503533440544
0.323177359165673 -0.288718664920905 0.51155090747069
0.323973502228454 -0.288388891666712 0.517100124381378
0.324037289623995 -0.28836247006237 0.529278083224423
0.324276965068738 -0.28826319324259 0.538687142300709
0.322070107395727 -0.289177303620978 0.539820211257512
0.325359354191651 -0.287814852988115 0.556638002721195
0.324804504918826 -0.288044679081992 0.555331089904856
0.326070036296408 -0.287520478821788 0.571219648919526
0.321236975329951 -0.289522398221871 0.579626521181266
0.323452939950984 -0.2886045156221 0.59021748105461
0.324530735232585 -0.288158078198999 0.599711440163813
0.318986998495222 -0.290454369141841 0.600011714699388
0.329518348400718 -0.286092141180888 0.614696412997171
0.325414850963028 -0.287791865472742 0.620012458650524
0.327978311286854 -0.286730045440008 0.636533106049273
0.320667885669184 -0.289758122877566 0.632383191613373
0.326785680915939 -0.287224049114539 0.652651950112879
0.320022023228635 -0.29002564785987 0.651881135977013
0.326956395107869 -0.287153336980952 0.662737401171073
0.324204200325542 -0.288293333386084 0.67332472999257
0.324112462062659 -0.288331332618759 0.681635884664641
0.327444205277507 -0.286951279392825 0.692869629749446
0.325832292957777 -0.287618955337013 0.699794534294972
0.318227383435919 -0.280099702689438 0.703082431365766
0.31379430728756 -0.283171768868795 0.703082431365766
0.246223080119806 -0.210955788316648 0.628007419924402
0.237925158710671 -0.201662485811474 0.628007419924402
0.236807135769987 -0.198545958609189 0.628007419924402
0.232583507911882 -0.19241734267881 0.628007419924402
0.214122871198739 -0.176220340440421 0.628007419924402
0.214492943714602 -0.173740677047209 0.628007419924402
0.206890587342869 -0.164969655349037 0.628007419924402
0.196311995397781 -0.159868173975804 0.628007419924402
0.196480514349181 -0.156046066761939 0.628007419924402
0.185034251373952 -0.143770332059893 0.628007419924402
0.172501925506913 -0.141140511372168 0.628007419924402
0.174613196394215 -0.133040182079015 0.628007419924402
0.154852115747416 -0.113545068085516 0.628007419924402
0.152960808173086 -0.116433812561895 0.628007419924402
0.144383324369922 -0.107235105252103 0.628007419924402
0.136994516400433 -0.100058135254022 0.635026455653924
0.136994516400433 -0.102944021081709 0.641432133614206
0.136994516400433 -0.0979835761865039 0.642966713646183
0.136994516400433 -0.0970119456374046 0.652601288112224
0.125745179049721 -0.0866108304339131 0.658522931284055
0.124602777489858 -0.0857734196147226 0.658412684058201
0.112114859248864 -0.0771845387454792 0.655642754839927
0.0766240895489688 -0.038482365887004 0.628007419924402
0.0726831175150211 -0.0306572925569908 0.628007419924402
0.0647579597309747 -0.016093843371076 0.628007419924402
0.0569220652963232 -0.0125062885001181 0.628007419924402
0.0475858789850202 0.00408539744420819 0.628007419924402
0.0373700365523424 0.00660863932319376 0.628007419924402
0.0290095517440427 0.0149933786708549 0.628007419924402
0.0211246951846644 0.0231741880068627 0.628007419924402
0.00591715223809626 0.0300627761533269 0.628007419924402
0.00194485546594951 0.0444608961288397 0.628007419924402
-0.00541232212529582 0.0505438184530867 0.628007419924402
-0.0172614021068657 0.0640995977349958 0.628007419924402
-0.0233650949185632 0.0708247885175236 0.628007419924402
-0.0335405143084776 0.0812557096957287 0.628007419924402
-0.0443358600050879 0.0877449970445446 0.628007419924402
-0.0500756877607499 0.0986982947448254 0.628007419924402
-0.057201922794066 0.105869675464978 0.628007419924402
-0.0745113536632074 0.116004913900198 0.628007419924402
-0.0827072498207405 0.121989710584141 0.633707080889668
-0.0807072227686463 0.125846849855152 0.632713175049335
-0.0837576340958749 0.134909037862262 0.649521095289139
-0.0879718796250211 0.129614069528368 0.654513498075795
-0.088318500699453 0.135446139210319 0.661337221896792
-0.089685632030687 0.140643460123357 0.670032391552839
-0.0974165100152728 0.134596303013167 0.68294215995265
-0.0965964323964434 0.144064108936727 0.690603977354186
-0.101651154828315 0.139579494351283 0.698501750262168
-0.103417334004059 0.142450369678711 0.703082431365766
0.320730331161972 -0.289732257107545 0.421896255093681
0.315926706036886 -0.291721983782911 0.423791835860962
0.316149486371709 -0.291629705146798 0.437359172773654
0.317815430261936 -0.290939648593313 0.450606373883113
0.315389044237147 -0.291944690592334 0.457689996055761
0.31577313920465 -0.291785593247554 0.467044057623328
0.310840129202246 -0.293828912893872 0.467609164329399
0.31198264095635 -0.293355669030151 0.479030590544207
0.31825836437119 -0.290756179278022 0.486475533699448
0.318999906756854 -0.290449022364806 0.492583508524451
0.311962682835534 -0.293363935954473 0.503710525793764
0.316536779254569 -0.291469283182107 0.517948552327518
0.316161825195321 -0.291624594238714 0.526807205872942
0.312024081667949 -0.293338503725373 0.526775256847009
0.318783709311036 -0.290538574279014 0.536928075304201
0.318125881303599 -0.290811055561404 0.552569444917378
0.316384350239206 -0.291532421347569 0.560876654245249
0.310941648213205 -0.293786862342695 0.56941767763804
0.320201526666244 -0.289951295101519 0.575238485749533
0.315859176660754 -0.291749955366364 0.591890510264768
0.317066702595228 -0.291249781747387 0.587412599341351
0.317656525584474 -0.291005469065842 0.603653164340571
0.317149526527235 -0.291215474951461 0.607381374310772
0.315900737288263 -0.291732740390789 0.622283686004204
0.316906696893734 -0.291316058279003 0.634293648508451
0.318931517316762 -0.290477350198415 0.633413392186612
0.319508980083295 -0.290238157288752 0.641483047283474
0.319229444943712 -0.290353944534726 0.654840942311954
0.317239340461485 -0.291178272801805 0.662143821543074
0.315254431706035 -0.292000448928385 0.665684995157111
0.317596173651542 -0.291030467654978 0.675267501858323
0.315666886222547 -0.291829604673783 0.684968417871025
0.313402353191398 -0.292767604967728 0.697237714176287
0.316455692985345 -0.291502870214541 0.699334642329116
0.308406992674451 -0.283838813967654 0.703082431365766
0.245360661588291 -0.215575924863866 0.628007419924402
0.227741582390667 -0.210567355583238 0.628007419924402
0.22682307992566 -0.204065928155299 0.628007419924402
0.217934270264664 -0.192110831046253 0.628007419924402
0.207328922244177 -0.186603582932456 0.628007419924402
0.209137919635439 -0.186645952426553 0.628007419924402
0.19407496315251 -0.173675962391601 0.628007419924402
0.193475002130676 -0.166837406765701 0.628007419924402
0.185793467047576 -0.166989272072849 0.635420715849928
0.183107706842069 -0.15188994844399 0.628007419924402
0.163287038507205 -0.136164109323305 0.628007419924402
0.159721750155567 -0.133525430351305 0.628007419924402
0.150616196677074 -0.128112831777229 0.628007419924402
0.144610207906923 -0.120009812056383 0.628007419924402
0.137887638732855 -0.104665905632323 0.628007419924402
0.136994516400433 -0.104219520011932 0.629865596403192
0.134751757563423 -0.108453251240167 0.649381842616444
0.13345535255491 -0.104887806533651 0.653070065688781
0.125580614002014 -0.100686485116749 0.655972481658851
0.120051166546333 -0.100797138689106 0.655926647448457
0.115414894125226 -0.0905922174566592 0.658715671452846
0.105004751519412 -0.085575584001173 0.658386638505567
0.0744618295860172 -0.0453534275205972 0.628007419924402
0.0685268712278693 -0.0378363417498632 0.628007419924402
0.0537067720480205 -0.0242540260918413 0.628007419924402
0.0414469763172931 -0.0135995062743527 0.628007419924402
0.0387014239465291 -0.0141524912088379 0.628007419924402
0.0318011713663159 -0.00879421354605249 0.628007419924402
0.0203702907622912 0.00638650548500937 0.628007419924402
0.0171896264714172 0.0190902535679427 0.628007419924402
0.00718842538311164 0.0212108295961682 0.628007419924402
0.00343330681907389 0.0342001870239049 0.628007419924402
-0.0122890982811364 0.0427791595953408 0.628007419924402
-0.0182140873279596 0.0553035497724652 0.628007419924402
-0.0334296824456186 0.0571851665166424 0.628007419924402
-0.0468630443063716 0.0691819111958316 0.628007419924402
-0.0433032815097769 0.0798129707564405 0.628007419924402
-0.0542492432645979 0.089778268977649 0.628007419924402
-0.0691193953306818 0.106451232674411 0.628007419924402
-0.0835503948535901 0.11388197022077 0.628007419924402
-0.0854324438885444 0.115516083435837 0.63381510539973
-0.088553084943257 0.117230966072354 0.643278618178019
-0.0876984794153598 0.122309941050339 0.646364412534522
-0.0932713872854167 0.120890704583002 0.658678790888133
-0.0940811260688819 0.12621315998138 0.666125092363963
-0.0955053706535109 0.128076367598363 0.671549822913932
-0.099639534696346 0.123820797469929 0.677407933844037
-0.100255782594455 0.135931090943414 0.691321698008613
-0.102117568180983 0.138419522651158 0.698467011753637
-0.112036053678257 0.141682155963325 0.703082431365766
-0.115222338492564 0.143768735787718 0.703082431365766
0.302055883101616 -0.297467466763976 0.413667342304404
0.309198931097645 -0.294508719407339 0.427912301672097
0.312171373441947 -0.293277493474957 0.432013296041139
0.305672341293921 -0.295969480732968 0.446019355077417
0.30519875564431 -0.296165646331982 0.45356701815526
0.302182989691747 -0.297414817490477 0.456039947807185
0.304900811504124 -0.296289058835677 0.46885652690772
0.308605232579846 -0.294754637385372 0.478115392727128
0.30800289611934 -0.295004133316426 0.485803464221633
0.307301500286841 -0.295294660982838 0.488013340222972
0.306250552138493 -0.295729977959236 0.507020153963145
0.305930242716379 -0.295862654466031 0.514265674859833
0.301852560991776 -0.297551685539402 0.520407235004144
0.307092338761541 -0.295381298523345 0.528817863847867
0.307260007092682 -0.295311848026605 0.5429525226897
0.309786098021609 -0.294265506904057 0.550721770764715
0.304105224457603 -0.296618601780394 0.555506187276695
0.306033068097251 -0.295820062798717 0.560248819111893
0.309500935793168 -0.294383624966553 0.572388953703451
0.30828182574326 -0.294888596883251 0.584389749115844
0.307924375969335 -0.295036657427477 0.598315702256595
0.305363029975915 -0.296097601675881 0.600499209676069
0.308350091979171 -0.294860320082484 0.610480741085277
0.306800644208263 -0.295502122363383 0.620294420320997
0.305253521189378 -0.296142961700465 0.619382479198703
0.304541863176154 -0.296437740101314 0.628640333370331
0.306939942889236 -0.295444422960503 0.643645600228068
0.305880520592646 -0.295883250044031 0.649086131331518
0.30637544656762 -0.295678244992826 0.661088861156065
0.305459963462232 -0.296057450511201 0.669660972840968
0.305165454329205 -0.296179440188344 0.67707130386649
0.308121305049833 -0.29495508673151 0.680807277006764
0.306973799209616 -0.29543039921343 0.689315775353185
0.304762429555553 -0.296346378515562 0.701393888054288
0.297971982122851 -0.28857872451274 0.703082431365766
0.229055210621042 -0.218464779348212 0.628007419924402
0.229353230208352 -0.209963764721298 0.628007419924402
0.226060465699176 -0.21084038449969 0.628007419924402
0.208393914244521 -0.196965603180188 0.628007419924402
0.206769522590724 -0.196637631150781 0.628007419924402
0.195819029682727 -0.190892801955879 0.628007419924402
0.194113956001904 -0.180540286700165 0.628007419924402
0.186349783222324 -0.171318230419959 0.628007419924402
0.183858532179819 -0.168280395978427 0.629565718427339
0.184402950546252 -0.172772395250128 0.650249299419614
0.182010767706283 -0.171053788861955 0.65429235033812
0.154284486933056 -0.141441744873999 0.628007419924402
0.146954713157451 -0.134642074329743 0.628007419924402
0.136176712753342 -0.127258083082194 0.628007419924402
0.131485052413614 -0.113093488518606 0.628007419924402
0.127565456517465 -0.113702701507603 0.628007419924402
0.124380899723948 -0.111083180820875 0.645388513579727
0.120292148755079 -0.109753128473925 0.647687809623832
0.120396064874936 -0.105083068766349 0.652920235707898
0.113864736710161 -0.0968091715890029 0.657578517507616
0.106976768082849 -0.0912502137273437 0.658629044600407
0.102582227129185 -0.087863666152033 0.658687870235413
0.0598384997588726 -0.0443652106124027 0.628007419924402
0.0601434334294894 -0.0415781501115626 0.628007419924402
0.0489592095388849 -0.0283012531181781 0.628007419924402
0.0468507580832776 -0.024644788044561 0.628007419924402
0.0239929434795147 -0.0130613210399822 0.628007419924402
0.0238751067132878 -0.0159778485651467 0.635768249603172
0.00905354985929492 0.00552621086626612 0.628007419924402
0.0102423029441308 0.00941708853900437 0.628007419924402
-0.000472547303260745 0.0101024179634196 0.628007419924402
-0.0104196477859059 0.0284007049350578 0.628007419924402
-0.0296518473389486 0.040075725779266 0.628007419924402
-0.0269154552396409 0.048092155748504 0.628007419924402
-0.0498438857134868 0.0547130328071439 0.628007419924402
-0.0422629801035794 0.0551278109172887 0.628007419924402
-0.0621310622538826 0.073950086378952 0.628007419924402
-0.0697446691578056 0.0833514391432282 0.628007419924402
-0.084424196237576 0.0973828786938874 0.628007419924402
-0.0851621806355575 0.103013372036031 0.628007419924402
-0.0916976772594326 0.0999966338426594 0.63341212312761
-0.092758457619587 0.108127576146495 0.644352257917933
-0.0945427242475781 0.111037683483727 0.651737545201218
-0.0981769714567122 0.110511082164694 0.660176275673999
-0.0984578161217445 0.111320728200938 0.661698481008932
-0.101786865470206 0.11753922285589 0.676284993718357
-0.10648892860555 0.115638481459963 0.685955469283287
-0.106537351609189 0.117695201684731 0.6881795597261
-0.108354201580301 0.122239091439022 0.697317051782676
-0.12220129896092 0.132900866379908 0.703082431365766
0.297648217689263 -0.299293181556176 0.408358181985401
0.294233515228757 -0.300707597626786 0.420861528782125
0.302698804707792 -0.297201159915155 0.435712669735912
0.29547000387897 -0.300195427258148 0.441886892841976
0.296047577723312 -0.299956188338549 0.449264839044337
0.29791479006124 -0.299182763664349 0.454610867435148
0.298852110149978 -0.298794512971309 0.461820352648444
0.296331397271941 -0.29983862643224 0.475797380098008
0.303547254725741 -0.296849720410725 0.484577175571707
0.295016469719735 -0.300383287257902 0.489909012310009
0.297777148532338 -0.299239776652366 0.502362123016211
