ply
format ascii 1.0
element vertex 858
property float x
property float y
property float z
end_header
0.425807273705264 -0.0464848162777552 0.634320879098272
0.420550219555748 -0.0464848162777552 0.644556847308534
0.427151773009839 -0.0464848162777555 0.650503181439139
0.42154008684912 -0.0464848162777552 0.664887374398386
0.420833885513093 -0.0464848162777552 0.667089320499669
0.42539580822581 -0.0450666121112827 0.677771000932126
0.421170473475908 -0.0404345969502159 0.681353861780176
0.414272983294865 -0.0358394261386139 0.68622160906012
0.410541272192942 -0.0284874993497217 0.688747860837997
0.407754875075403 -0.0221958144914532 0.69063416459512
0.398799270045316 -0.021588480320976 0.695578869104896
0.396267684435377 -0.0134226333533249 0.696919125292636
0.388363959236701 -0.00642017537316854 0.70064840245977
0.384562383938051 -0.00225603501501969 0.702161075144967
0.382689664686755 0.000492756815355386 0.702906242880954
0.370769986921518 0.0160716668626971 0.706954930848905
0.371518544839727 0.0226280725450075 0.70674735800776
0.365856593564858 0.0202358174864805 0.708317399929645
0.361936324924133 0.0355307688529736 0.70940447853774
0.352463582466705 0.0415548631569656 0.711100509731993
0.412670596312695 -0.0464848162777552 0.645211915556805
0.406953913220667 -0.0464848162777552 0.655188456122659
0.413832988610828 -0.0464848162777552 0.664770533787339
0.412038330092146 -0.0464848162777548 0.675216671965687
0.409827781824276 -0.0464848162777552 0.678461897757547
0.408894077790992 -0.0464848162777548 0.686206151749926
0.407397221382561 -0.0369967471114035 0.690876284966374
0.399942089309769 -0.0301148218298466 0.69497384489215
0.400989271519814 -0.0293664329345944 0.694419452249375
0.393658792660164 -0.0219485411296852 0.698300308425906
0.386933233831914 -0.0162112879598443 0.701217697835981
0.380119418726826 -0.0171323069864752 0.703928961241735
0.377754333454926 -0.00572246398380578 0.704870044768407
0.366809266002812 0.00672231257479721 0.708053226751035
0.362165407019412 0.0136999220894904 0.70934095476728
0.35454247528127 0.0199778826329506 0.710760110774677
0.346867955321082 0.0300793617138754 0.712016740541276
0.345063000979845 0.0377151026188739 0.712312284674892
0.344910396498192 0.0401929872924624 0.712337272209637
0.218101556845939 0.17932472524775 0.774458985677324
0.194607093573472 0.210240818011368 0.775645644410667
0.19015717996616 0.220808352610671 0.775645644410666
0.186276726621066 0.225864006323623 0.775645644410666
0.174749298038066 0.234833230606665 0.775645644410666
0.139129798412157 0.275655720411171 0.775645644410666
0.403354808068563 -0.0464848162777552 0.658224018064473
0.401312425974784 -0.0464848162777552 0.673912737086746
0.402829736358059 -0.0464848162777552 0.674812773803612
0.401644675341284 -0.0464848162777552 0.676404911272953
0.393816923681938 -0.0464848162777552 0.68784688707339
0.394325199029618 -0.0380916659601969 0.69794750374227
0.394595135238331 -0.034452302736719 0.697804595806389
0.389495393825295 -0.0230571201245986 0.700198196936323
0.379004813014669 -0.0243819773661711 0.70437247044071
0.374526376485502 -0.0162842133358245 0.70591329541192
0.367586770880228 -0.0108623142740563 0.707837627005868
0.364501491086557 -0.00672225225521819 0.708693165738303
0.359374749153657 0.00954579241773812 0.70996887181512
0.354128800047554 0.00714114829075838 0.710827846165957
0.345794982132925 0.0218602930367147 0.712192429711933
0.344991351894702 0.0268026233378341 0.712324016532207
0.33505863695295 0.0283635764357977 0.712925476694508
0.328441330212932 0.0445165943638916 0.713283823228023
0.21224520921319 0.173060042133407 0.625308360267064
0.210205547246548 0.178447072211285 0.628691877870214
0.20732843338861 0.186345699951428 0.635655991366563
0.214467249988754 0.174633708205682 0.676027421623766
0.212333913356166 0.18125940501034 0.686812607815613
0.211063269677256 0.185523787495922 0.695561257854413
0.216997163121735 0.174263293685975 0.717968345979479
0.217328636556933 0.174120378890881 0.722773563541966
0.218798064848681 0.172836157941149 0.739318627175433
0.2270671088101 0.157627882309383 0.774078229478535
0.226029639938798 0.155135426094558 0.775645644410666
0.217199200841389 0.181146974924338 0.771854879308317
0.216704974149272 0.182370633563901 0.772077765461508
0.201436018047305 0.198025436133963 0.775645644410666
0.196476461995738 0.199299143732369 0.775645644410666
0.19165083074316 0.211476613046901 0.775645644410666
0.179403058459813 0.22770131532493 0.775645644410666
0.16626554118505 0.238041257971176 0.775645644410666
0.156218720837413 0.25063932187896 0.775645644410666
0.152448989764752 0.255743604445684 0.775645644410666
0.135309736309292 0.2685584417711 0.775645644410666
0.137234410057334 0.277820074007068 0.775645644410666
0.122301931083257 0.290395687854705 0.775645644410666
0.111739629802509 0.300206832294544 0.775645644410666
0.103287529743526 0.308061658459982 0.775645644410666
0.199887812662435 0.173351119180102 0.409348883866319
0.390245198761421 -0.0464848162777555 0.669378251067573
0.385891494878302 -0.0464848162777552 0.678380749819163
0.389982634309208 -0.0464848162777552 0.681201493800219
0.390427917145699 -0.0464848162777555 0.698698507313309
0.388301473966484 -0.0448517861851711 0.70067326577407
0.378671454560594 -0.0394955282562645 0.704505116038454
0.373194001629858 -0.0336033150677556 0.706282758919724
0.37072516616783 -0.0256180245226038 0.706967359508009
0.363626954288972 -0.0124471689901115 0.708935672140739
0.362751129260534 -0.013320753990954 0.709178535765685
0.35410252798001 0.00370125797090147 0.710832147967539
0.342336701913602 0.00989177591048101 0.71253134816884
0.334889706800678 0.0103366600556318 0.712934624756833
0.332013836461076 0.0192816626178575 0.71309036155543
0.332456978384407 0.0249013367797179 0.713066364122892
0.324638338926111 0.0365947814195519 0.713309326592204
0.214506789513256 0.163243844236259 0.593463341714545
0.218724617973241 0.155604730005326 0.612057678672318
0.216552894927845 0.16071129252003 0.611060273319342
0.225848636494873 0.14139182890048 0.633885865408586
0.225132206764685 0.145323492003206 0.649983224536913
0.219750977099677 0.15663378181132 0.637693741565371
0.225304336592571 0.146681638230955 0.662949312065815
0.224217638149529 0.150788606347127 0.673793560249161
0.228049185431972 0.143047010771493 0.68482152656565
0.219219146630642 0.163352627360174 0.677423756025084
0.220357467658005 0.162101029650809 0.688363813953118
0.2319395897876 0.139661873343308 0.728734687973458
0.23544555694429 0.132195840026213 0.736031119766886
0.233024275941703 0.138306695566723 0.737970992142722
0.222125167755932 0.163425804102691 0.72924508419467
0.237950396986318 0.130839717206351 0.770323847094027
0.234901437894083 0.135508155723066 0.775645644410667
0.228044221228239 0.144773911859323 0.775645644410666
0.222604051154982 0.153391962526447 0.775645644410666
0.208086245643726 0.17164786623994 0.775645644410666
0.207138720637778 0.171648714350949 0.775645644410666
0.198557952588017 0.191004823320238 0.775645644410666
0.182622875560239 0.195470670733733 0.775645644410666
0.179525719917527 0.213588222299253 0.775645644410666
0.173201385314994 0.214251351786143 0.775645644410666
0.167016925268164 0.226934469406898 0.775645644410667
0.144705247930039 0.245254269025849 0.775645644410666
0.145972809795829 0.246545522993066 0.775645644410666
0.136684764139873 0.261960672317385 0.775645644410666
0.118741181712767 0.274267382485599 0.775645644410666
0.118675549626851 0.278142885741556 0.775645644410667
0.106694738294209 0.288720567382709 0.775645644410667
0.0995440864853445 0.301497795472508 0.775645644410666
0.0879540483614756 0.311082988600516 0.775645644410666
0.0683263466226592 0.331010190842549 0.775645644410666
0.191015488195542 0.172539221428224 0.24683214050986
0.203059146770641 0.150755180000846 0.30013736153021
0.197789343204808 0.164585605092673 0.308236989251403
0.198294073924391 0.16388228553626 0.312003250722294
0.194518779955001 0.173359687100921 0.314657104536118
0.198909630718206 0.165886492393877 0.337517895200012
0.196641788173318 0.17196619664766 0.341937977398131
0.204965521636664 0.155004399315711 0.364844209045901
0.205568272633275 0.155933302581242 0.382272196468928
0.197042221600926 0.17469114906678 0.368924831049236
0.207756770577615 0.154037790147508 0.407038985062977
0.202847316425975 0.165234748239356 0.402247073207326
0.203521979902854 0.16564708398457 0.417167996765083
0.383608237974576 -0.0464848162777552 0.665643003284878
0.211649984647642 0.150124538547621 0.447141126786671
0.379218908194455 -0.0464848162777555 0.682650724306417
0.375877669035857 -0.0464848162777552 0.681920411231134
0.380778163442196 -0.0464848162777552 0.69384842684192
0.374388064528938 -0.0464848162777552 0.69908814662809
0.367466622813832 -0.036676895170981 0.707870943700399
0.371377908918639 -0.0397286969371905 0.70678635592228
0.356075466787576 -0.0259512324404514 0.710509097972735
0.354282660134628 -0.0203995953826177 0.710802653037747
0.350564599883841 -0.00823114326119846 0.711411450097288
0.340812499976689 -0.00179492984244478 0.712613888166141
0.329335496611556 0.0118074562977326 0.71323540149968
0.331114181246221 0.0149048598771642 0.713139080519242
0.315199465578015 0.0264880649058609 0.713309326592204
0.310626773297121 0.0352551253479798 0.713309326592204
0.30978497278058 0.0349449746260107 0.713309326592204
0.226592315391778 0.137427393211143 0.618029835012909
0.23304225497179 0.125465902567677 0.644419862209258
0.234009666848839 0.124675400225854 0.655714347915812
0.233298538048705 0.126841579819367 0.658999268117982
0.242987548991997 0.10684443253653 0.683811418955991
0.243639463655226 0.107625227711066 0.701024366647004
0.242801973303474 0.110343671735002 0.706116366648734
0.239659006348065 0.118244807868791 0.708406956153558
0.23371711753586 0.132557661123169 0.708172041506969
0.238847536846174 0.122231137361379 0.723226643704939
0.240421218836877 0.120301440844811 0.73689307144483
0.238630004381959 0.125343133874641 0.742136796600247
0.2492895719783 0.103480952647029 0.770443920299898
0.243618721282643 0.105630074141492 0.775645644410666
0.239480248517446 0.126928693797605 0.768732896714576
0.230938250894825 0.119491038841003 0.775645644410666
0.222526856892358 0.142352331938432 0.775645644410666
0.218725896737536 0.151987631157453 0.775645644410666
0.203902883067397 0.164428114673234 0.775645644410666
0.195612957329644 0.169409418951178 0.775645644410666
0.179842568546577 0.184127685742127 0.775645644410667
0.18187980312519 0.18282752519897 0.775645644410666
0.174901620675151 0.202240130626598 0.775645644410666
0.159529832993698 0.212623807276993 0.775645644410666
0.145717534331264 0.223051775159287 0.775645644410666
0.148664757939721 0.230372149180753 0.775645644410666
0.136874588029417 0.240138625282654 0.775645644410666
0.128827848865428 0.250047564833949 0.775645644410666
0.109943937840733 0.269187756802279 0.775645644410666
0.116244525494553 0.274113393478709 0.775645644410666
0.102743976190253 0.283279304531075 0.775645644410666
0.0877698512145161 0.289816729218727 0.775645644410666
0.0776201670710683 0.310318847834338 0.775645644410666
0.0686014497270957 0.324151628536262 0.775645644410666
0.0630032728477528 0.331926783897508 0.775645644410666
0.0483577660161401 0.336249537411493 0.775645644410666
0.183325805549571 0.158383159165439 0.00763887665169097
0.186751775154985 0.160084956873049 0.0805419249125178
0.183478725300262 0.167833757484393 0.0794231705046203
0.182840559160411 0.172978553372322 0.105769962196338
0.193393731342044 0.150152153915108 0.12515078255127
0.191755073894489 0.156317164857865 0.141298532003293
0.189439328074148 0.16205914908291 0.142404409688414
0.189559778903541 0.1630849115194 0.152028666356234
0.196856443112912 0.148403826598754 0.173481254494432
0.195598173905805 0.153389062977655 0.187717860487821
0.194973107081146 0.154911920892551 0.187818836719525
0.199573284951836 0.146189209756794 0.205239716992011
0.20076878595694 0.14530889042775 0.219903015037526
0.203237195533372 0.142025147893537 0.239461570522695
0.20192076265912 0.145383764262039 0.240780810333062
0.199944461848381 0.150720224408878 0.244912870961114
0.201362748959878 0.149125407147566 0.258284865587347
0.201595466722605 0.150030101143918 0.269005413775587
0.203134778492282 0.147327891687193 0.276418060904377
0.208428251491641 0.137084243617216 0.29495612265382
0.210320106100704 0.134152071024039 0.306909488440491
0.208461677890229 0.139645274686364 0.314267624900548
0.216694790427629 0.122762307144666 0.33615080883791
0.210602200047145 0.137827005410318 0.338752382315137
0.210838587957723 0.137750227379403 0.342362971269314
0.220111029276469 0.120454847834648 0.379573759640854
0.207817577062857 0.147134479023392 0.357647712739379
0.216944240025418 0.128522241741153 0.382659298854885
0.218121521667868 0.128210717291433 0.401159045213073
0.21677615555339 0.131775815279033 0.403477078453678
0.223595395537399 0.118237391125895 0.424856979541911
0.214637128827456 0.138519893359277 0.415027231761106
0.222364075642838 0.122876381797044 0.437038079321933
0.221045830077305 0.126606182987912 0.441038753769292
0.218263047605244 0.135206051095382 0.454793846857023
0.229066078945779 0.111874497014281 0.474891493697605
0.228146006861052 0.116094748836468 0.489504540917566
0.369780089874418 -0.0464848162777552 0.675936327796596
0.363081557909455 -0.0464848162777552 0.695215087133766
0.364829398322483 -0.0464848162777552 0.698791894479963
0.364000206529473 -0.0464848162777552 0.705627420799987
0.364200828367716 -0.0396018567636078 0.708776538598649
0.359585736292319 -0.0304884779914665 0.709934324674688
0.344332618754558 -0.0269619157197729 0.71242326342844
0.342442433571297 -0.0193842693234795 0.712525622490024
0.332781187534034 -0.0120513128203053 0.71304880724825
0.329183698487033 -0.0038653492141601 0.713243621812542
0.320316476251672 0.00299301829324185 0.713309326592204
0.312441231203377 0.0229831539661607 0.713309326592204
0.304503247400413 0.0242672092100538 0.713309326592204
0.299340673553043 0.0314265028988207 0.713309326592204
0.245954283203768 0.0953045914335565 0.662170151617868
0.246904635363109 0.0904643700607524 0.668100418719832
0.247318431332988 0.0920414226287904 0.679869459194489
0.242127829488873 0.107798461942293 0.675612934098591
0.24880909985765 0.0908272695121937 0.705073876477865
0.247764909044362 0.096135262456202 0.698532725751369
0.247516558523493 0.0995650536411349 0.710527307186972
0.24961993983837 0.0919039691619867 0.723114963968679
0.251525040521618 0.0864023696301356 0.745478138810096
0.252283176663203 0.0829678912022504 0.751273059465962
0.252329135682952 0.0874543844637954 0.763329938057032
0.252052054006366 0.0837362372631081 0.775645644410666
0.246069170317617 0.0996381066015326 0.775645644410666
0.245662006568864 0.100880355975454 0.775645644410666
0.227694507454368 0.115856074958822 0.775645644410666
0.229852748229155 0.118563321431216 0.775645644410666
0.210443296583602 0.13022943939053 0.775645644410666
0.209039560828324 0.139826289894626 0.775645644410666
0.193593716118242 0.153347595501431 0.775645644410666
0.197032108200857 0.158811734456852 0.775645644410666
0.107419578227209 0.255942554493513 0.691888892152171
0.112511803024238 0.252700577964104 0.702995145868488
0.104300835442714 0.259888113808432 0.717800237972281
0.0981057484281137 0.264518598670153 0.715744429809615
0.113466878902118 0.254168376111192 0.739725082699668
0.109140486158775 0.257410622917949 0.7384313861527
0.095032182029029 0.268072047238847 0.735689840225833
0.0850717310945268 0.27631519597547 0.74570789112048
0.108990941079511 0.265830980623353 0.775645644410666
0.102169502404504 0.269187194271445 0.775645644410666
0.081835491925727 0.286299874920166 0.775645644410666
0.0894169263133891 0.281100928594062 0.775645644410666
0.0738782068993379 0.300748165344132 0.775645644410666
0.0584772017660349 0.311492066803329 0.775645644410666
0.0425458897671596 0.334274403811352 0.775645644410666
0.0458623976136447 0.329160121050523 0.775645644410666
0.0358697642755652 0.3423704727866 0.775645644410666
0.182706490254261 0.159613385415793 0.00570216936754243
0.199795304976124 0.125336628395339 0.0567220019598046
0.195273024096365 0.135723840546871 0.0528436646377501
0.19617470432567 0.13507620349972 0.0640224672754451
0.198699875170681 0.130474297910202 0.0749467627038019
0.194881333292312 0.140277951909148 0.079222325564856
0.200255439641088 0.130404161491371 0.101887154292487
0.204602158617431 0.121983177675204 0.117040589825817
0.204287285455596 0.123968307144557 0.125995248814994
0.197785310026575 0.137662248977431 0.111351395694716
0.201505969041832 0.13229737760269 0.137796637466129
0.196555297960357 0.143512428713191 0.132409579117287
0.200175916063492 0.137174441352734 0.149975619700613
0.206528960970966 0.12527248637755 0.175090834706734
0.204361451998509 0.130511103655692 0.175133143948307
0.210359229696382 0.119746867835619 0.202295414076955
0.213797219063202 0.113936708970125 0.22049688218908
0.218427462461406 0.104735050604807 0.234947181010993
0.21052131456956 0.123090292065079 0.229596952421231
0.223077521529068 0.0974661222338245 0.263875785455669
0.218404005107013 0.108268939410037 0.260366539744009
0.216079779733648 0.114820738417108 0.267242654426115
0.226981355120047 0.0926058057664411 0.297242135032812
0.221238421852877 0.10583530232724 0.29259892588838
0.216457393448344 0.11728544101737 0.291924307031124
0.22551797914344 0.0993389658295961 0.320636576999683
0.224735611433233 0.102662372254986 0.331123779417752
0.219208326491618 0.114670106498531 0.321355106147835
0.220563615179246 0.113772674980836 0.338713295421137
0.228055479622826 0.0989469217722245 0.362553289598424
0.224209433692336 0.107984871412245 0.360746020113492
0.226569676016363 0.10343704820988 0.369154955726639
0.233144438887627 0.0874042682800368 0.399866368148054
0.228874100121055 0.102133556942793 0.400295424074094
0.23369527082235 0.0901239804302811 0.417079796654256
0.228598329733652 0.104855576545644 0.415326976384781
0.224460734299665 0.114818659125636 0.415137230350906
0.235001644085293 0.094152265716203 0.451865157554329
0.229305579364275 0.106580233050628 0.440416283786791
0.22960733382235 0.10806582752654 0.456601697245366
0.237156971880872 0.0898831471604585 0.482040402887917
0.237190204813181 0.0914542495481715 0.486587131180614
0.23726858124521 0.0941849693345289 0.494880179847123
0.237938367500654 0.0943033372256493 0.50786038340915
0.352645750764361 -0.0464848162777552 0.679842013127065
0.35300078214568 -0.0464848162777552 0.678903673570028
0.354981577290729 -0.0464848162777555 0.685648703759842
0.354953839931754 -0.0464848162777552 0.696340767257889
0.353310736156424 -0.0464848162777552 0.706486979713048
0.353259774579938 -0.0436502432493268 0.710970140834054
0.346507096355509 -0.0330481885409378 0.712075827770189
0.336394400670949 -0.0270774969657251 0.712853141178452
0.328190019902028 -0.0207056542250089 0.713297432417121
0.315888784199152 -0.0106208815536486 0.713309326592204
0.316635656021599 0.00502649362400296 0.713309326592204
0.300979898701912 0.0150139116165967 0.713309326592204
0.299015398144581 0.021031564175577 0.713309326592204
0.288239978486783 0.0333840221335536 0.713309326592204
0.28884717136726 0.0344881416867232 0.713309326592204
0.280550199178793 0.0360209992312917 0.713309326592204
0.249039311089536 0.0810751584362135 0.685118278261894
0.250572935250637 0.0754748637983825 0.700199983390887
0.252830720238784 0.0649989359670437 0.716839827665827
0.252513961404643 0.0692380030112482 0.721410275972872
0.252167678650593 0.0746654446337884 0.728384621918516
0.254464828114753 0.062941094685304 0.742657218279752
0.254281896895465 0.0688477351374498 0.753920093067421
0.255317437578331 0.0640956286446647 0.761683446500557
0.253652439686361 0.0780268124438972 0.764885597351765
0.25402558923865 0.0669130479157275 0.775645644410666
0.244172024722034 0.0803310687526967 0.775645644410666
0.231387497177046 0.0961221158782803 0.775645644410666
0.224413750654105 0.100463138788116 0.775645644410666
0.216139299120356 0.112858260069423 0.775645644410666
0.207902723348625 0.130313811794156 0.775645644410666
0.198952069595609 0.138974963013263 0.775645644410666
0.0814709092286942 0.273037577647333 0.644887020643821
0.0870654884509177 0.269811223199991 0.662687690287807
0.0716083654106091 0.28188427216418 0.666232433329496
0.0607272856843673 0.28974596036607 0.658093194776488
0.0853646947065372 0.272521306463544 0.686138102113722
0.0714425822706754 0.283667149821717 0.693866301634769
0.0863103437761959 0.273479117877743 0.714235392689074
0.0889591478114064 0.271972462867831 0.72301197143829
0.0761870281663804 0.281814389910727 0.723705209073151
0.0620888066416553 0.29256035671225 0.722503845005345
0.0854925275506761 0.276226830708832 0.749622193007858
0.066663358052549 0.290382702926575 0.744744275545525
0.0604811597280732 0.295749652461182 0.75514547268282
0.0727173680835737 0.287159870878078 0.768487687037678
0.0505817199604411 0.302181660060564 0.76486897970761
0.0542620559215491 0.304388155092001 0.775645644410666
0.0393099109801038 0.319983735850685 0.775645644410666
0.0333047980183395 0.32261365031583 0.775645644410666
0.0281011725975473 0.342938143542581 0.775645644410666
0.0189515636291166 0.350293383397339 0.775645644410666
0.00695170519125133 0.355576415526607 0.775645644410666
0.210244575284268 0.101581381938286 0.0674790956257561
0.20767727902644 0.107815343582362 0.0677419709391671
0.206455071739254 0.111598582558031 0.0738281992435089
0.214807244563614 0.0959993331429611 0.10719680005871
0.210804005461435 0.104616327090417 0.0995380757213651
0.209118336173466 0.110269038319047 0.11111114513533
0.211381176248477 0.106406500265179 0.122810648193597
0.215773955142912 0.0984641798721432 0.142276076798385
0.211828864431118 0.107245978710134 0.136848326322991
0.210282977937491 0.112128015347116 0.145254562079775
0.218959473259885 0.0949478752092354 0.172790324351387
0.219923236223057 0.0944257419770961 0.185982237711553
0.221167766530794 0.0923994820894823 0.193133795881661
0.217995445010802 0.100909926811039 0.19936047833523
0.223023836236834 0.0910250651864733 0.217220430070882
0.223674103077684 0.0910611387712082 0.229625766131269
0.224105724401177 0.092192299197492 0.243469276300018
0.225218714962699 0.0892460669184947 0.254353506452363
0.220935321335522 0.101299981167122 0.254095724384612
0.226704364520325 0.0869954678325005 0.276878632361605
0.221830633092709 0.101026677048178 0.267898572978061
0.228063446229794 0.0829629305444417 0.292563671294423
0.22956218461105 0.0804220201682938 0.314612834417253
0.229510910961766 0.0812057660455789 0.315595927631714
0.230473065116586 0.0799645263612761 0.330723284520983
0.230495668204101 0.080774343197613 0.333170532260452
0.228607265995474 0.0939807432212564 0.335987763844802
0.231666126366614 0.081118606738231 0.356196191780116
0.230682464313775 0.0913747036627372 0.363138819320461
0.231071806405316 0.0907901011926097 0.36905493501713
0.233939293511291 0.0766446918675529 0.38809256253605
0.23383761525912 0.081857018963653 0.399163109690953
0.235732106832414 0.0717079036499959 0.409737409434719
0.235871093921171 0.0736382082335766 0.417182635596209
0.235614212671715 0.0817307841708712 0.432495305384988
0.235705121561907 0.0838843522596471 0.439586656673489
0.237194460302591 0.0773222467621034 0.451431496314678
0.238400733541838 0.0715522985821205 0.459890500423028
0.237189536739406 0.0808682805763315 0.460179802727861
0.240989152200733 0.0663253897744355 0.495879925573048
0.241788301380962 0.063650263392514 0.504344932586273
0.240826151765794 0.0711836065458713 0.504906167062821
0.242925426289423 0.0639550085025142 0.526640760394719
0.241662617993631 0.0712350635899422 0.520876286379989
0.240947788297549 0.0783042980091242 0.524964316063313
0.244679692907714 0.0619641971275301 0.554900965139309
0.336583597615916 -0.0464848162777552 0.678964517583334
0.340329822536008 -0.0464848162777552 0.694264522430489
0.339070399675965 -0.0464848162777552 0.699177898349356
0.342205963815631 -0.0464848162777552 0.710926631690722
0.338471509564753 -0.0352457688306425 0.712740659650684
0.33369658118713 -0.0301040924226057 0.712999236001929
0.321040277403183 -0.0226337456424779 0.713309326592204
0.315237269291243 -0.0112902477372955 0.713309326592204
0.313901287124241 -0.0144917482654167 0.713309326592204
0.306439144153113 -0.00712936869836677 0.713309326592204
0.295102048366752 0.00777477435075001 0.713309326592204
0.282505262140434 0.0196388199681135 0.713309326592204
0.280277419556827 0.0264553866861765 0.713309326592204
0.26744282632517 0.0367149189744541 0.713309326592204
0.25347212605199 0.0555257512484316 0.70536730088423
0.252963655860003 0.0610126495727738 0.709418229201615
0.255892162322407 0.0472105529164003 0.730467504674731
0.253228921547604 0.0652411408913196 0.724985259850732
0.255869260085768 0.0518953409637763 0.741714642340934
0.254886494411847 0.059715721455666 0.74260111828568
0.256559710300559 0.0549966532850033 0.762523767025466
0.255044457967049 0.054667835674581 0.775645644410666
0.250961106485825 0.0624853088458755 0.775645644410666
0.242590270599347 0.0762533097741529 0.775645644410666
0.235374936411 0.0748984169085404 0.775645644410667
0.221099543622645 0.0937257371971418 0.775645644410666
0.221877083280062 0.0969813888178635 0.775645644410666
0.0443430833105751 0.295532052347288 0.585397843034134
0.0458505520446795 0.295442827158008 0.595800019045962
0.050009165865182 0.294131041929989 0.603783914774524
0.0442042327310612 0.297166188569211 0.616041802413375
0.0442204385361831 0.297735705892969 0.62724167374865
0.0479612361518849 0.296743087353827 0.638065266471275
0.048249276984718 0.297208218186054 0.649424735707699
0.0585291736704026 0.291993698967862 0.667457680513513
0.0489887549293322 0.297559863071633 0.662212890275962
0.0304134341271511 0.305622740321006 0.669379646705831
0.0420097735060966 0.301664834042844 0.685812294782221
0.0448181133774469 0.30126795334145 0.70070784915691
0.0408672446283001 0.303321399881591 0.708811747612962
0.0366789740930327 0.305347809796037 0.714478864664148
0.0434683158784704 0.303579245307662 0.734764172782132
0.0372361874057771 0.306280628665088 0.73709559994867
0.0330451050452077 0.308187566295355 0.740417961110179
0.039498449211213 0.306625152809942 0.762005050109536
0.0334530018685411 0.308977473616128 0.759054877761678
0.0404079325535479 0.313296630652229 0.775645644410666
0.022940667907815 0.328442074145071 0.775645644410666
0.0198032676771778 0.330805114200576 0.775645644410666
0.00237344758333503 0.346867298979634 0.775645644410666
-0.00600960799944175 0.355506884503884 0.775645644410666
0.256817643214984 0.0415440028080548 0.139213297999329
0.252040115537262 0.0430023761884294 0.146303758599248
0.248725033576419 0.0463737321879214 0.151848515625723
0.219203661402909 0.0786403839811923 0.113990690230888
0.246876872464278 0.0456362517088864 0.16604327102621
0.249624504656302 0.0399739590698702 0.18491500624435
0.220305715668942 0.0820753077825048 0.143426991218961
0.221231582928612 0.0802787936331777 0.156482609823387
0.221351189660512 0.080677922833775 0.159743013921587
0.246305970589472 0.0435972947115614 0.21655135174525
0.224302016620994 0.0734739411667127 0.197666520440132
0.222238412129422 0.0865911913675326 0.191290035516715
0.225547210784155 0.0704816036199969 0.213788242046325
0.225474339847086 0.0745897626874267 0.222651277392122
0.227607538864738 0.0660119491150087 0.241664280411103
0.228959507645313 0.0608056000758697 0.25428786754629
0.227456773253652 0.0694167222659806 0.24729827274291
0.227573551710736 0.0763768723162156 0.266864126550341
0.227366298869765 0.0768158367531472 0.264033467092858
0.22990515461175 0.06779987390573 0.289636729482709
0.22965869179921 0.0739129194283071 0.30021102362853
0.230819559752935 0.067446407214756 0.306073310079336
0.232687796987317 0.0605403763022542 0.324236569861615
0.231478354881805 0.0686592935399528 0.321574385956658
0.233589221145796 0.0619661770708636 0.344863665616272
0.2323813844768 0.0679402310856895 0.336883961918271
0.235213036693422 0.0571661691441748 0.363648909936553
0.235076780973718 0.0625720678807567 0.374547239677893
0.234522871160376 0.0663792830685698 0.373549526098742
0.234983275739909 0.0679665013239533 0.386226632916249
0.236460691201761 0.0637324218077039 0.403650274389265
0.236654648910859 0.0648412826150881 0.410088429610973
0.238211097125996 0.0575008241341128 0.421263536881285
0.239080072531343 0.056980939711961 0.436424784555399
0.238547184288408 0.0634080772312605 0.442357618591625
0.240608817184923 0.0540228441156876 0.45800204122263
0.239048944307425 0.064073909137433 0.453520603583655
0.24010704194402 0.0625068579208108 0.469652665467694
0.241607100301849 0.0573488684281498 0.485201496283817
0.242344161646486 0.0548872948271601 0.493023087799692
0.242820158591265 0.0572320400953687 0.507884288846613
0.242531870254436 0.059405030201232 0.507842457141603
0.245145018839234 0.0483655709151328 0.529807436752014
0.244536385131047 0.0540771253403324 0.532521519592849
0.244963982658306 0.0543425330206899 0.54128153912709
0.256408531752817 0.0330216293523084 0.573132795621402
0.259613103263358 0.0348624179925921 0.580254384770664
0.326626091172234 -0.0464848162777552 0.688197757430785
0.330010928201841 -0.0464848162777552 0.697961174940025
0.333532898760389 -0.0464848162777552 0.702997557423755
0.328531061427437 -0.0464848162777552 0.704420660021651
0.323853495907566 -0.0379706649926019 0.713309326592204
0.313147223788481 -0.032886553796045 0.713309326592204
0.313515618859888 -0.02499099138133 0.713309326592204
0.294430848468412 -0.00488312372222259 0.713309326592204
0.297004097069231 -0.00161590494911968 0.713309326592204
0.287064282532136 0.0096668802274659 0.713309326592204
0.279160556876479 0.0182573569232056 0.713309326592204
0.271197070118906 0.0159340460487878 0.713309326592204
0.269210962041753 0.032687497226946 0.713309326592204
0.25437504134437 0.0499827058905838 0.708646765907186
0.255452367190366 0.0439517412517283 0.714012828670216
0.257333833731255 0.0374101879323125 0.733335413413773
0.256956540397646 0.0407620117589363 0.73454717951799
0.257332406131885 0.04250808788756 0.746019297263863
0.258544862102358 0.0393719090585235 0.761162342153528
0.258176533386464 0.0353842484156809 0.775645644410666
0.256523063410965 0.0404679588989483 0.775645644410666
0.245980884916041 0.0608528023212829 0.775645644410666
0.231901803006439 0.069927045383414 0.775645644410666
0.227080315284091 0.0724074877011396 0.775645644410666
0.0262994525316453 0.301493133644245 0.555993679925456
0.0355656239835896 0.298359626608749 0.569689909263302
0.020241999883189 0.304432476569225 0.564356486872974
0.0292426181765518 0.302045700718175 0.590428599845164
0.0251555519593328 0.303815628286163 0.591925388257979
0.0225855072031106 0.305341309844299 0.600888204172925
0.0244069554596122 0.305010177992036 0.609116371536464
0.0253061581000583 0.305248498952227 0.620987828966288
0.0232206348293434 0.30710232993476 0.64022951578847
0.0212127385518475 0.307537530501899 0.632523011668895
0.028767687306011 0.305286711119196 0.649598775053587
0.0168080636646363 0.310775783745063 0.660001835569959
0.0159435609106782 0.311650738598717 0.670047882818966
0.0191372157809325 0.310569735610699 0.67474863299437
0.0186729247591494 0.311724765687203 0.693460394038773
0.0199338967204423 0.311524502140546 0.699719869982932
0.0241504330136875 0.31085963004798 0.720743792120411
0.0308548819304706 0.308605377154103 0.730905577415884
0.0330146547637065 0.308340469403137 0.743144705795711
0.0180293933743324 0.314486495435802 0.741957673141828
0.0259462401734615 0.311726273758448 0.752046044251642
0.021740298731858 0.314115955909882 0.764631622009521
0.0142826217152477 0.317550429713615 0.771345030619499
0.0108837103871623 0.326690623472536 0.775645644410666
0.00225275490932656 0.336755883571785 0.775645644410666
-0.0186706859850419 0.353986860378602 0.775645644410666
-0.0267514579995556 0.363662177641549 0.775645644410666
-0.0246500520102352 0.363196579080246 0.775645644410666
0.251816091485489 0.0350540774740592 0.146678457912823
0.247622546397836 0.0338432833803772 0.15393941533365
0.245285028719841 0.0308869657554619 0.158467079843893
0.24879475122686 0.032854060591698 0.176258822773003
0.249130621237253 0.0392869673199969 0.178837507210791
0.249384600714292 0.0351811443353467 0.180787466732907
0.249714902208005 0.0341679552698842 0.19398793952231
0.248877648026608 0.0318737077570793 0.203896335026654
0.247307992086585 0.0351259990664768 0.212420771341377
0.246649075850758 0.0429294290405216 0.215136987010742
0.239951337510939 0.0391314580732682 0.233642943461147
0.237870612402165 0.0459545551661649 0.237858571070175
0.227567825569898 0.0589408192716815 0.223281249222388
0.229691643251293 0.050742674082118 0.243063230835393
0.229210536200853 0.0558237840824932 0.246620611105692
0.230312041260318 0.0531058860949299 0.260705285243383
0.232195589933393 0.0455368670612859 0.277505457244058
0.231592669948032 0.0494456708332016 0.275832838274655
0.233000199197905 0.0469080592685663 0.29616281851103
0.232794453828567 0.048630519866774 0.296560932380646
0.232232698452852 0.0538874432131711 0.299029282233289
0.233199758271245 0.0558474738889012 0.322231480230235
0.235491100537605 0.0436477118358576 0.335208718670522
0.235587359152243 0.0467668238791619 0.344808840997566
0.235702239397273 0.049832661688572 0.3546288059662
0.235720048567921 0.0505807998592861 0.356831474428871
0.238103588707218 0.0405212173118769 0.37689109356406
0.235461060040467 0.0580144727997619 0.370461349390692
0.237019738817042 0.0526660610897199 0.386645599280249
0.238821590690291 0.0457079684610953 0.403421779137804
0.240475302356256 0.0396490445786699 0.419634289535152
0.242104146745608 0.0322188858958288 0.431956851318149
0.242341786378421 0.0336126040564172 0.439932550792152
0.241297158673541 0.0415075553595262 0.439833355084691
0.241260281040046 0.0448951116090625 0.44758134167817
0.242056878957912 0.0442417129785663 0.461038933933044
0.244563782494538 0.0361926352513636 0.488447850828448
0.245887873632963 0.0300574474079054 0.498227530421798
0.244041506383521 0.0429556928584507 0.49541923894492
0.24560758030754 0.0350478253101921 0.505361889892606
0.247428945819029 0.0303396580555589 0.52811752150706
0.248539983459497 0.024855276856313 0.535484882880157
0.247481377070096 0.0344628850301631 0.539391222418768
0.247924369397329 0.0337239448906528 0.545938598904755
0.259546763438548 0.0143806535904297 0.580096216796178
0.265632244408017 0.0158886348804659 0.598592487427594
0.265872936682221 0.0131956425893673 0.599685514859921
0.316833056277532 -0.0464848162777552 0.681171853556647
0.316615491079942 -0.0464848162777552 0.681106358826839
0.3208651929589 -0.0464848162777552 0.704010933577306
0.320951245732086 -0.0464848162777552 0.705689772105337
0.317898776627006 -0.0464848162777552 0.712678368468941
0.31358476842814 -0.0395085928221043 0.713309326592204
0.305542380874472 -0.0253020384925489 0.713309326592204
0.290905735070926 -0.0163051715421476 0.713309326592204
0.290357364598458 -0.0110840189906263 0.713309326592204
0.282034657721615 -0.0016609139385049 0.713309326592204
0.275084422538192 -0.00203073665687109 0.713309326592204
0.259184332410044 0.0163049832928885 0.713309326592204
0.260659034418686 0.02480692997395 0.713309326592204
0.260525143891717 0.013053562386055 0.733045638942752
0.260257811242148 0.018551822804285 0.741691796481473
0.260888120499601 0.0149148116303025 0.744560818287557
0.261054054383185 0.0202454509862069 0.760994662201832
0.263320120987757 0.00847942353775073 0.774574663684137
0.25907289708338 0.0189834493561402 0.775645644410666
0.249101610230111 0.0294847185668281 0.775645644410666
0.248319841294777 0.039410806777388 0.775645644410666
0.245561991771709 0.0443540068775986 0.775645644410666
0.228205474718555 0.0502625406649973 0.775645644410666
0.00672496453868778 0.308127883494512 0.527358554059298
0.020283272987416 0.303446593297871 0.545526689109846
0.0202064403349402 0.303969354156189 0.555068742009494
0.0114494635874994 0.307674585895662 0.556584265125373
0.00913429052148188 0.309269962147045 0.568953631783889
0.0111190079583192 0.309156831993364 0.582733435471083
0.00338649145015329 0.312353946071603 0.58262072089663
0.0117566593128595 0.309883880930241 0.601998325866875
0.0131819121652023 0.309922222525368 0.614218041268938
0.000617362596303355 0.315070361215986 0.613124387679619
0.00236365278270635 0.315271158385533 0.631086286393339
0.00419926499313593 0.314884638168476 0.638351931803438
-0.00249624621513349 0.318253124299678 0.649918852795805
-0.00159181629626812 0.318242352753948 0.656990917612856
-0.0104177055095452 0.322141998302105 0.66173035340443
-0.00400919905736376 0.3204907277233 0.681229393521679
-0.00456647590779537 0.320972547124228 0.686107707399364
0.000586264220336954 0.319585984428981 0.700641751154877
-0.0112569726823668 0.324497512733108 0.700756405991721
0.00119570184082107 0.320671482992367 0.726646489102773
-0.00991940969780487 0.324924501066587 0.719824060750614
-0.00199864234813094 0.322775190535676 0.741817945904052
-0.0110775590772063 0.32671410985562 0.745283639369155
0.0044461980770599 0.321630953564589 0.771464443854834
-0.00349958384822037 0.324806382944068 0.769213288569084
-0.00912190194797683 0.33777474424097 0.775645644410666
-0.0159859167392999 0.336054085642329 0.775645644410666
-0.0296022827700064 0.36019302459982 0.775645644410666
-0.0346516712542464 0.357134860171399 0.775645644410666
0.246132370761434 0.0147064850675685 0.156825817180567
0.246746163310467 0.017136900518486 0.165582692327752
0.245497725590098 0.029786052242659 0.161183583286105
0.24979190872184 0.0135066471218028 0.187900288171214
0.249748052254189 0.0241934072767512 0.192092095158766
0.249749050878342 0.0236379567615821 0.192034984047616
0.248623352841209 0.0241977395715202 0.205428355064496
0.247709113992776 0.0256753738149099 0.210767247649472
0.245983644603599 0.0236238736867865 0.217811727183264
0.241901368098688 0.0284935930081476 0.229292338152124
0.238290148048886 0.0221690978719249 0.237008576014207
0.237825275700063 0.0270749602295548 0.237950424939904
0.234836588004557 0.0324894725678304 0.243063617513972
0.232122761689013 0.0374416368003533 0.255941807353248
0.233002762528805 0.0343371118608094 0.264867415445901
0.233064146657142 0.0372128678214014 0.273200275193403
0.234834643417066 0.0293383079393051 0.287097534529603
0.23375659520601 0.035577733917621 0.282237560944461
0.23499318258458 0.0329914481743359 0.299208713839842
0.235348608175792 0.0356214262040736 0.312497605437588
0.235978486207347 0.032928316217124 0.317711949671133
0.235774488577205 0.0408356663294547 0.333564345895441
0.238255592556941 0.0296561610692883 0.352679349597595
0.236460200653245 0.0403050419831512 0.345227994278272
0.23989241906972 0.0265208246227137 0.375861640577794
0.239962244157455 0.0277702746781101 0.380299390611389
0.240026870663349 0.028515422482349 0.38338127563367
0.240652545311352 0.0298614943613221 0.398587163435106
0.240497734516408 0.0328482153725997 0.40310218787648
0.242279519362914 0.0232075187722011 0.412809610046718
0.24391236915554 0.0182526051751333 0.43137971751386
0.242277472529161 0.0308715780739748 0.431880136016272
0.245299227184437 0.0160838611059981 0.452237926884155
0.244361803975494 0.0272197038446779 0.462249797718112
0.246316412661849 0.0199182903988785 0.481063012161022
0.24466372220268 0.0287431540606482 0.471766337542293
0.246373737194798 0.0236459345291915 0.491443054753204
0.247799596780211 0.0164152870541142 0.500418745248097
0.249828570709584 0.00800981923819562 0.517887552014552
0.247497746229982 0.0236869311369926 0.512832860217
0.247623208563515 0.0267475958503163 0.522840340748447
0.250077071057453 0.0176284722718758 0.546576700339817
0.251390471784845 0.00970231023817515 0.551688363551177
0.25146716983635 0.0137328440755529 0.563190535192421
0.252370804423561 0.018071363114618 0.565518613674912
0.264855767059985 -0.000855938083961072 0.595650518363685
0.268484026850075 -0.00194248151008426 0.615011824922123
0.268990674235287 0.00191416808438179 0.62032676890386
0.269164770664552 0.0019199262092465 0.625113429192602
0.306468502637089 -0.0464848162777552 0.689330616004293
0.308320507176421 -0.0464848162777552 0.697519007157679
0.307065135231648 -0.0464848162777552 0.70327843082093
0.300048009424256 -0.0395532586973664 0.713309326592204
0.298140819848262 -0.0349586389340713 0.713309326592204
0.288910951235146 -0.025962029996497 0.713309326592204
0.278443603426432 -0.0152377279851653 0.713309326592204
0.278356395887282 -0.0105884737760061 0.713309326592204
0.261227975846828 0.000299939268392827 0.714557133118184
0.263737526622109 0.00122245292816656 0.713309326592204
0.260636371948617 0.00964418506587787 0.726651365744817
0.262398160953308 -0.00153649642286011 0.739802434167136
0.26304332235464 -0.000954936096982454 0.750571092137055
0.263500260880941 -0.0030209386602371 0.764376339079446
0.264182675416763 -0.00116799511793152 0.772680512095831
0.263943608221346 0.00315683260564711 0.773111719121649
0.256189973455144 0.0104674359295697 0.775645644410666
0.2489929857068 0.012230172753121 0.775645644410666
0.23597090984825 0.0324169760184763 0.775645644410666
0.226720728898164 0.0465077057478827 0.775645644410666
0.222981631629607 0.0536598506325888 0.775645644410666
0.00428449556717416 0.30921307561648 0.528803009120649
-0.0116069757641951 0.315397697446246 0.521070385918008
-0.0049073271046546 0.313592647457154 0.539924439547996
-0.00637265514998329 0.314296507911232 0.541807865686414
-0.00930002450788448 0.316612871055575 0.563261967769124
-0.0252476665470457 0.322487765690331 0.54905712252053
-0.0192243179795978 0.320753705383937 0.563846176755539
-0.0101219500386224 0.318563452920778 0.594557179463515
-0.00687876936615334 0.317638491524418 0.602689550435379
-0.0195700294024022 0.323003484259104 0.604790645487634
-0.022669914485972 0.324838870770894 0.615507366852342
-0.0240891092503702 0.325719551570747 0.62119896655378
-0.0162484044332466 0.323091221524177 0.633237836787596
-0.0101576422924037 0.321285814970001 0.647182908767702
-0.0209122650456876 0.326202569615735 0.656163409508108
-0.0255558339985388 0.328051021841514 0.654706121778585
-0.0299856858242205 0.330318221001059 0.667037646822539
-0.0238074342648287 0.329023810950741 0.687689794885266
-0.0170965979500869 0.326376637994348 0.690266028905075
-0.0218698235625189 0.329138404254407 0.705516487488515
-0.0258903933814371 0.331256655956978 0.714318816373269
-0.0110256163063568 0.326311141536513 0.737869544820976
-0.0241581757478832 0.331579624391218 0.734541996084719
-0.0241568946295982 0.332088692730142 0.744446796773121
-0.0300492288490218 0.334355810031624 0.751078750807668
-0.0314389589998992 0.335234912360616 0.765598781619983
-0.0386200146492811 0.336363250057351 0.769414394608381
-0.0423283849399452 0.346289146837407 0.775645644410666
-0.0460196326258515 0.357984030561457 0.775645644410666
-0.0531837316362173 0.372756593959369 0.775645644410666
0.246505751572909 0.000768206713158437 0.164735555597457
0.248990666686428 0.000647072788805181 0.177762988465316
0.248773666061317 0.00375563484558661 0.176096938750693
0.24962491593435 0.00166017959352233 0.196366367824883
0.249540091868737 0.00262989710349598 0.197296074854999
0.24732099261687 0.00561734476386268 0.212367179940606
0.24724746545676 0.00748174394576684 0.212670277077322
0.243864951761192 0.00315050863423039 0.224392096904984
0.241814159749804 0.0181778369459065 0.229507554295072
0.24019158935908 0.0124753600529596 0.233156184148315
0.237303156277072 0.012377829668331 0.238873054041579
0.234405478794409 0.0201325902040847 0.243796048287851
0.234756976179446 0.0176170800488905 0.25640130644056
0.233460608064212 0.0293231503785752 0.261036911489285
0.233966230528245 0.0289738052424008 0.269741841183923
0.23550855246261 0.0211369781965512 0.279411783489822
0.235490997744999 0.0237315517498657 0.285548531776072
0.238383346263851 0.0119179020242037 0.310870934981328
0.239737674421659 0.00809255243457693 0.326982540873837
0.23752384600021 0.0219409906332568 0.319584085726795
0.240541710125367 0.00781303935661356 0.34151323005805
0.237955337070903 0.0253861720900554 0.336346179032944
0.240246489817692 0.0173914350873839 0.359804486990777
0.242066203461745 0.00770201903974475 0.370108766620346
0.241235409845478 0.0182360318256598 0.380639512060763
0.242051810582502 0.0162826443422439 0.391230803898746
0.243482906715253 0.00828537927166463 0.398394212414945
0.245919166822806 0.000340466862942436 0.424724936808555
0.244133310012878 0.0088483970536404 0.412115996612455
0.243994682609702 0.0169840183988335 0.429775601651282
0.245568695238997 0.0100029721265626 0.442179506557257
0.246549853973503 0.00906634880572283 0.458426310352459
0.245726504000693 0.0130367547866358 0.452732568735107
0.247582594788715 0.00707166377011195 0.473011893027674
0.249195511294492 -0.00076126164274948 0.487824757805694
0.249634834623958 0.00246531984408498 0.500393931760169
0.248513978877933 0.0100906349564115 0.498178753395243
0.250017803147964 0.00362894146447675 0.510548297902232
0.25113801754764 -0.000349977015416702 0.523588364866327
0.249811243971693 0.0115319452233705 0.526341344010591
0.252163113371001 0.00246546300706151 0.548277312386396
0.251956569503534 0.00491784798508856 0.550480270815722
0.251944729040727 0.00913549124984242 0.560772145142019
0.26050709883819 -0.00293584022756622 0.582385856623005
0.266490350581115 -0.018065518460345 0.602489303767661
0.267877762644792 -0.0104562478843711 0.610246344036899
0.268749895379692 -0.0114957083848528 0.617758782694789
0.269163143439962 -0.0168536264715538 0.63199695692822
0.268590892379271 -0.0187462487515004 0.641256295193418
0.289537757596607 -0.0464848162777552 0.683439189971294
0.294829545029666 -0.0464848162777552 0.695689576601058
0.290802351162395 -0.0464848162777552 0.69320305348847
0.295514150227492 -0.0464848162777552 0.711073145410846
0.295111905428259 -0.0454451572256187 0.713309326592204
0.279651753788861 -0.0292863289026833 0.713309326592204
0.276645993828273 -0.0192380726831247 0.713309326592204
0.266291802710695 -0.0185744010058178 0.713309326592204
0.265304209317778 -0.00784662938998055 0.713309326592204
0.26088712181517 -0.00909519801132416 0.730031488098741
0.260833765602074 -0.0139190392966556 0.741048568839475
0.261285926162154 -0.0127726836290824 0.746753747032107
0.262337352054513 -0.0107237952321382 0.761558057312764
0.26317313539661 -0.00466851148333274 0.762288914736898
0.262260491196424 -0.0155447900550862 0.772122886756445
0.251621372375107 -0.00313743953929951 0.775645644410666
0.246118606409716 0.00307702436166158 0.775645644410667
0.238924197664285 0.0200274534380207 0.775645644410667
0.227181004036165 0.0213238924997219 0.775645644410666
0.22660975667522 0.0340292281200651 0.775645644410666
-0.0354845843011996 0.322428372577581 0.487372107492319
-0.0284658565477354 0.321071545759251 0.495621669459864
-0.039028835847718 0.323869038036349 0.507688859282533
