ply
format ascii 1.0
element vertex 849
property float x
property float y
property float z
end_header
-0.464118114828771 0.147494081612726 0.472240540102026
-0.465025410442082 0.145654268110628 0.481777461744145
-0.462026803534591 0.151734841404438 0.493762794939856
-0.463863024801455 0.14801135301757 0.495020445261689
-0.465465547301293 0.144761758850726 0.51315962237412
-0.464284238294969 0.147157216547314 0.517721583040085
-0.464362733262475 0.146998044499146 0.523598792467567
-0.46219889382069 0.151385876825199 0.534967204464076
-0.463635946744749 0.148471821765166 0.547679585739605
-0.463203057075512 0.149349635177571 0.552095744251251
-0.462851681220917 0.150062154925392 0.556338839230505
-0.463092876869961 0.149573058532497 0.57229478845467
-0.463378330845008 0.148994215132603 0.577834353198092
-0.463313608977021 0.149125458097803 0.590595881118039
-0.46129572100803 0.153217330114602 0.595714240686164
-0.462197845325407 0.151388002963307 0.608066091536707
-0.463410490922292 0.148929000947117 0.605412001215849
-0.461845044129701 0.152103413016979 0.622342198786268
-0.465115433067235 0.145471720285175 0.630904884715692
-0.462567999713621 0.150637404116242 0.637040664690161
-0.462872241307852 0.1500204631934 0.643830936417943
-0.463059989999601 0.149639746508546 0.661169887015476
-0.463586860854425 0.148571358104209 0.6666665857519
-0.464501136263445 0.146717390976545 0.670456788385959
-0.464250539462926 0.147225551018777 0.679416600338648
-0.464969802366704 0.145767030132623 0.686756946494594
-0.461332731593721 0.153142280071072 0.698262801664044
-0.466162410081704 0.14334866092134 0.707742537723251
-0.463864035985495 0.148009302539178 0.716374989418722
-0.464577724063802 0.146562086280781 0.728283240747378
-0.463198435859831 0.149359006075964 0.729013925973795
-0.461045360585597 0.153725010829496 0.739956243943735
-0.46240508003729 0.150967772538478 0.747789828994494
-0.462063633539765 0.15166015754197 0.765313548724708
-0.465023801574266 0.145657530571822 0.766744312299403
-0.46577452933253 0.144135205272558 0.774240463368501
-0.46477475397989 0.146162549134764 0.781690069894405
-0.462659368957829 0.150452125617475 0.793893372581586
-0.463924559574373 0.147886572841847 0.801923420702933
-0.466285151377848 0.143099766194418 0.80569247696363
-0.462567078193532 0.150639272774127 0.822127649345558
-0.462312340511796 0.151155829692815 0.833581683065717
-0.462351855036242 0.151075702163773 0.840150550435565
-0.463512657321278 0.14872182798435 0.846129631902376
-0.461611738873138 0.152576509276718 0.853911241101874
-0.465198014474608 0.145304261756688 0.855902481930603
-0.462085044220589 0.151616740976199 0.871792485835287
-0.462310886857701 0.151158777411721 0.878318378667374
-0.461876111611381 0.152040414396207 0.891078669598562
-0.463194859298184 0.149366258625534 0.893707614898482
-0.462992078852223 0.148710256862485 0.901859467817064
-0.460323147334495 0.147536439712362 0.90872761879102
-0.455557090458885 0.142285377720298 0.913257234951388
-0.455937827621666 0.131911031297541 0.914397652420433
-0.231053178386168 -0.128502946153145 0.651340836812857
-0.220118638026058 -0.134706069700864 0.651340836812857
-0.215401684889276 -0.139714878221599 0.651340836812857
-0.209379410759188 -0.160268405243902 0.651340836812857
-0.203358377240698 -0.162924763884599 0.651340836812857
-0.191338557957141 -0.167207537041861 0.651340836812857
-0.185554501174266 -0.179163581250125 0.651340836812857
-0.177221048050843 -0.193324247736326 0.651340836812857
-0.16833558121016 -0.208291224849316 0.651340836812857
-0.16449420305118 -0.205621083965898 0.651340836812857
-0.155566635842935 -0.225381223463598 0.651340836812857
-0.1412275000312 -0.229043139020852 0.651340836812857
-0.133992589462124 -0.240410499291551 0.651340836812857
-0.120459195722488 -0.254943840499709 0.651340836812856
-0.111795035142281 -0.2642414847809 0.651340836812857
-0.108139305726779 -0.282081679190949 0.651340836812857
-0.0967577925439375 -0.277571509295131 0.651340836812857
-0.0928558774803904 -0.287629782824706 0.663108814332588
-0.096797408842019 -0.288770259635707 0.670484835011055
-0.0912191716057105 -0.287074196045039 0.673207355814812
-0.0966297570314989 -0.288736911617181 0.683268863339348
-0.0936998124965494 -0.287916260160145 0.696482151419284
-0.0930924507794188 -0.287710088638594 0.711962798256747
-0.10185300384101 -0.28977588000547 0.719663256039901
-0.0949862751092086 -0.288352955372881 0.724580600153328
-0.0988661266266303 -0.289181753187685 0.740067149231723
-0.0971763403089228 -0.288845633790864 0.753716003781062
-0.101755580139095 -0.289756501226282 0.767704166196441
-0.0958470473146011 -0.288581220974423 0.771363838746281
-0.0941876323145277 -0.288081852674916 0.786055624888343
-0.100433976605029 -0.289493617938584 0.796067512045627
-0.0939319247446989 -0.287995051651314 0.801580016389589
-0.0952807686650523 -0.28845292246462 0.818722130015407
-0.0942469452921889 -0.288101986717788 0.824567473845991
-0.0915534695355526 -0.287187674901053 0.832362331302216
-0.095102905421621 -0.288392546029142 0.842847606185512
-0.0970729030839078 -0.288825058847561 0.852841856535608
-0.10078797191152 -0.28956403198304 0.869355336521905
-0.0985783672004802 -0.289124514278993 0.885328697755763
-0.094113155838415 -0.288056571317914 0.886038986007542
-0.102078133011498 -0.289820660981737 0.8995991476879
-0.0966470949218948 -0.290526513809555 0.906646079356261
-0.086081728844925 -0.296388540574143 0.913388680223364
-0.458142385876163 0.159611661209275 0.429131245642399
-0.458104423886331 0.159688640509554 0.440880016120868
-0.461555373164063 0.152690807627873 0.438724587037021
-0.458407006690869 0.159075063279461 0.450360713123943
-0.458930097347809 0.158014340358132 0.462552269741262
-0.459248292623051 0.15736910416928 0.470137296610654
-0.457632101309247 0.160646415948911 0.482092120843657
-0.45659871480499 0.162741916484268 0.487148864787214
-0.460613647714459 0.154600437931418 0.491267211162236
-0.458898614918167 0.158078180410134 0.505610052246339
-0.459624940865659 0.15660533708816 0.511031718018709
-0.459862940683214 0.156122721200447 0.52107717062613
-0.45923226223027 0.157401610590175 0.524709064717936
-0.460126403916471 0.155588470613602 0.536240061281769
-0.459281888570958 0.157300978326204 0.542145492283278
-0.458525799797322 0.158834174689235 0.555075575860483
-0.459819840954292 0.15621011880498 0.566073173387831
-0.460263166543093 0.155311143441124 0.571969934031194
-0.458895139999276 0.158085226848581 0.582154970147645
-0.460405153318411 0.155023222743044 0.58633934864575
-0.457718281967556 0.160471658861529 0.594002880675911
-0.459707875642349 0.156437161997583 0.610431484442534
-0.459785675005096 0.156279400496329 0.615070904269321
-0.459493121836768 0.156872639636114 0.629562236649168
-0.458356651941574 0.159177172609968 0.640904129167618
-0.460619058214761 0.154589466522143 0.643351869753295
-0.461687711359007 0.152422452315307 0.648989996673191
-0.4585815332284 0.158721158471023 0.658775230887743
-0.459157463332379 0.157553287750586 0.669573380650204
-0.460002176533597 0.155840378826305 0.676233550658578
-0.460505990723614 0.154818744713074 0.684804769433911
-0.460533532421319 0.154762895674938 0.691955297245991
-0.46040189636733 0.155029827186498 0.700236108938073
-0.45913094362322 0.157607064400961 0.711638402487866
-0.46155129207737 0.152699083253031 0.717914871290089
-0.4597768334848 0.156297329325898 0.727899532491504
-0.46018468215766 0.15547029403097 0.733071300096091
-0.459504285975034 0.156850001003214 0.750201362669768
-0.457854215567168 0.160196012789526 0.756763974860447
-0.460828800686923 0.154164150862521 0.758483395606456
-0.46035012700262 0.1551348050733 0.765680650412228
-0.460373620494861 0.15508716498378 0.77728771916043
-0.460381290900158 0.155071610940507 0.785640668644995
-0.457604769652695 0.160701839065724 0.795522625752392
-0.460349561558791 0.155135951679958 0.802058974430232
-0.462055446010389 0.151676760209142 0.813589542068917
-0.459580394982204 0.15669566720399 0.820445571843999
-0.461709291551382 0.152378692014112 0.826568845909514
-0.460051354949968 0.155740654862997 0.837442521334341
-0.459214941233331 0.157436734097409 0.848547818164791
-0.458351267013994 0.159188092162893 0.85668826938134
-0.458525056096832 0.158835682764643 0.861813068496644
-0.457692111544545 0.160524727229662 0.872417082681993
-0.462249677074693 0.151282898573099 0.87739443677132
-0.459039085070942 0.157793335118337 0.887743675084689
-0.459106418119276 0.15765679720319 0.898979714243699
-0.458158562573616 0.156941065193563 0.904457520289926
-0.454994574286366 0.151950575377226 0.911560413658753
-0.452593253224004 0.1429854192945 0.913887881135666
-0.230554193237436 -0.112728640793322 0.651340836812857
-0.226973410878887 -0.115023746981407 0.651340836812857
-0.216338351777675 -0.123162481756959 0.651340836812857
-0.20530754046659 -0.1381226097084 0.651340836812857
-0.20415220352737 -0.148723877852049 0.651340836812857
-0.193956544010857 -0.156307928419435 0.651340836812857
-0.187801553139102 -0.16589159310911 0.651340836812857
-0.175145502847793 -0.181382833934004 0.651340836812857
-0.17156866728332 -0.18624784448368 0.651340836812857
-0.162698432701433 -0.201567567248504 0.651340836812857
-0.152349821213213 -0.207871656966201 0.651340836812857
-0.14132070160942 -0.219995167871628 0.651340836812857
-0.137400093875252 -0.223677299883735 0.651340836812857
-0.124651891210947 -0.235955010678262 0.651340836812857
-0.118656616146002 -0.247545174975458 0.651340836812856
-0.113321114518769 -0.257208013373966 0.651340836812857
-0.0991538495006896 -0.263661416206163 0.651340836812857
-0.0945827939057105 -0.274542992349072 0.651340836812857
-0.0831468218721675 -0.284334002548954 0.656720445687718
-0.086649719623428 -0.285523076108982 0.662160185847561
-0.0817923056866153 -0.283874206261068 0.678027091115852
-0.0861551515147493 -0.285355192858193 0.693558577869533
-0.0869152973903879 -0.285613227613035 0.696845541523052
-0.0811467951572381 -0.28365508496273 0.708576982851196
-0.0859432279703431 -0.28528325450849 0.71026035177667
-0.0892753507899173 -0.286414357790651 0.732201669489861
-0.0833411622257246 -0.284399972209638 0.741925282356667
-0.0871027179940617 -0.285676848335151 0.745591933347666
-0.0802889533021245 -0.28336388689158 0.76325860324597
-0.0859558678347873 -0.285287545164307 0.774576619290982
-0.0919480210026741 -0.287321607076908 0.784327705604551
-0.0850626351550162 -0.284984333527003 0.792009501768349
-0.0817976205808992 -0.283876010424568 0.801442941648719
-0.0824164580171243 -0.284086077427839 0.816746642076979
-0.087412887522272 -0.285782136702473 0.81810988647301
-0.0820436744192308 -0.2839595344479 0.834168131036899
-0.0781645856505492 -0.282642761244862 0.838893998651792
-0.0837778982216112 -0.28454822410344 0.847818987037079
-0.0816061940853931 -0.283811029885409 0.858315578418476
-0.0858897303276033 -0.285265094505823 0.880408186336517
-0.0786107408810477 -0.282794210537969 0.882461866785211
-0.084498325725999 -0.284792776288006 0.88671242085444
-0.0810617540351879 -0.286864246286048 0.908408253733963
-0.0786481434112007 -0.285672295585113 0.908054632280123
-0.457150245459698 0.161623522952473 0.427123322760276
-0.457730731503047 0.160446413700906 0.436245351489624
-0.455555010391403 0.16454271890111 0.450689101765604
-0.454731643636896 0.165774974330692 0.459413482537226
-0.453209657490063 0.16805278756874 0.46576477192954
-0.453918661282038 0.166991688407919 0.477536901705177
-0.454476972605449 0.16615611646394 0.483216827808988
-0.454839122684254 0.165614120569049 0.487277563428126
-0.454819224489764 0.165643900321591 0.492683880758177
-0.455146540654189 0.1651540370637 0.503748724837111
-0.455868880243342 0.164072979471971 0.520634940430708
-0.455741521201395 0.164263585748077 0.528799415510685
-0.45740012098856 0.161116825504473 0.530043491993575
-0.454055741651981 0.166786533136313 0.541790829419466
-0.453498429901601 0.167620609113533 0.551387689339072
-0.454312855675711 0.166401734806737 0.558733828034878
-0.452887253165811 0.168535299738323 0.570830720921446
-0.455927196279611 0.163985703356035 0.578938239643509
-0.452702896575254 0.168811208874136 0.58416627065966
-0.455577757239573 0.164508675837057 0.591481907320672
-0.453639233366809 0.167409881836101 0.604915082052448
-0.455449928526262 0.164699985026032 0.611287210805975
-0.453539292122135 0.167559454478807 0.622117157048361
-0.456166150997897 0.163628082347632 0.629550799410936
-0.456580046713226 0.162779771629582 0.635669674835156
-0.456629345887418 0.162679802793638 0.641629596417893
-0.455575471909108 0.1645120960758 0.648737892749732
-0.456559999831675 0.162820422684003 0.653891258080138
-0.457750768027178 0.160405783649256 0.669353653130381
-0.455615262767866 0.164452544847283 0.681777395133581
-0.455580634592886 0.164504369573508 0.678432539571903
-0.457255868394955 0.161409340827521 0.694754739705364
-0.456219309669476 0.163511273991174 0.700521341134419
-0.45487692704349 0.165557542347164 0.713979771340298
-0.455353259094196 0.164844661055135 0.721820198214185
-0.456034527840747 0.163825070323123 0.730074231930499
-0.453556535293859 0.167533648248639 0.737458766540895
-0.45619164250188 0.16356737745708 0.750123639590964
-0.455034991811134 0.165320981705033 0.753087054876397
-0.456783973950756 0.162366248099271 0.758834240456214
-0.453773060907304 0.167209594767793 0.77607363794376
-0.455322476378203 0.164890730645281 0.783776308605207
-0.454640840714398 0.165910870507769 0.788902283909269
-0.453891833667871 0.167031838769879 0.795020119930494
-0.452538694428515 0.169056954753188 0.808806729160189
-0.453947646543262 0.166948308898938 0.814936945782845
-0.454552164271074 0.166043584183862 0.823645814372944
-0.453740552667579 0.167258246786699 0.833497493383275
-0.456276296610387 0.163395715906475 0.838192174348967
-0.453668356654001 0.16736629575666 0.849698566286913
-0.454319847285118 0.166391271123809 0.854188113572794
-0.45489748756925 0.165526771345829 0.868517454538063
-0.454652304942741 0.165893713077568 0.879266155918709
-0.455019581153555 0.165344045383972 0.87937516736146
-0.456518588899294 0.162904395747923 0.893726378242474
-0.454994731013266 0.165381236247131 0.898816286927903
-0.452691542482988 0.1654751732957 0.907061261809352
-0.452058312509403 0.155556630737879 0.912523689735627
-0.441496034472763 0.148874829115617 0.912966611533208
-0.227509945099369 -0.0955234298798333 0.651340836812857
-0.213306870970856 -0.11423243120823 0.651340836812857
-0.212485561480197 -0.12515301714251 0.651340836812857
-0.198112674734982 -0.135280175393584 0.651340836812857
-0.189227155603008 -0.147850504519592 0.651340836812857
-0.183773587018025 -0.149237104509488 0.651340836812857
-0.178426735732925 -0.156402857021676 0.651340836812857
-0.178717582954073 -0.165258615997985 0.651340836812857
-0.163085836672321 -0.17333071084545 0.651340836812857
-0.161093186741046 -0.18311044423217 0.651340836812857
-0.14552676987444 -0.192047970178413 0.651340836812857
-0.141340873617391 -0.203586375215062 0.651340836812857
-0.123423259119884 -0.225331211779922 0.651340836812857
-0.122634277993602 -0.224260295819147 0.651340836812857
-0.10634258249443 -0.244887717485397 0.651340836812857
-0.103545554954988 -0.251193595100302 0.651340836812857
-0.0921595541542589 -0.258861393157029 0.651340836812857
-0.089706420209241 -0.26719687482263 0.651340836812857
-0.0775283775495418 -0.282426797695451 0.654780121110219
-0.0780929791672732 -0.282618454119152 0.658981669189786
-0.0742966520256034 -0.281329774702874 0.669914715439061
-0.076842132552936 -0.28219384890873 0.683905978130247
-0.0800310850274785 -0.283276352407526 0.698671042095693
-0.0746418928282096 -0.281446968163651 0.696709831394752
-0.0790913931328785 -0.282957369991885 0.714003476172862
-0.0739289152578472 -0.281204944890918 0.724817414709412
-0.0705665925110419 -0.280063590114841 0.733160102105776
-0.0794125449556454 -0.283066386345865 0.752028763637604
-0.0728717393592351 -0.280846082029766 0.751533724905668
-0.0714042525301013 -0.280347937375791 0.759635097898311
-0.0729059932848353 -0.280857709670694 0.778581733880414
-0.0721913687252344 -0.280615127320449 0.78956293761732
-0.0768689533864432 -0.28220295335489 0.795955640659247
-0.071803008854221 -0.280483296908261 0.812465658708965
-0.0802815236674624 -0.283361364870452 0.81850991981394
-0.0727948232461904 -0.280819972527618 0.82405413623424
-0.07183084306391 -0.280492745349283 0.841337670023529
-0.0717855881677802 -0.280477383382057 0.852547556405381
-0.0778636901165443 -0.282540620974371 0.859385483922052
-0.073583154423937 -0.281087574903299 0.878500172731715
-0.0713532248196535 -0.280330615802159 0.881531357364522
-0.0758202747805227 -0.281846974935932 0.897026175929504
-0.0739668072290528 -0.281949788928855 0.902686487784713
-0.0767475174289917 -0.283930016908713 0.906356635440612
-0.0712998492734864 -0.288755313362781 0.912723639049783
-0.44951511104793 0.173582067064472 0.431618671513504
-0.451443744793596 0.170695662686636 0.437619896678299
-0.451226148625657 0.171021318365508 0.453537554385022
-0.45244242415173 0.169201033404198 0.461400956501295
-0.448894468544604 0.174510924211505 0.468186155285888
-0.45013253591308 0.172658025453275 0.471456412161335
-0.451686567605801 0.170332252666584 0.475280942003216
-0.449389713134209 0.173769738304772 0.499611315232847
-0.448353263973501 0.175320894091399 0.499555132484417
-0.451586959628321 0.170481326539689 0.51052358788851
-0.448914329149672 0.17448120071551 0.518501323480265
-0.451878464258888 0.170045059029739 0.526545491369347
-0.45028050646734 0.172436571869065 0.532932073506802
-0.449939770112801 0.172946519860817 0.543233894002924
-0.45279870174184 0.168667826309732 0.552490532204751
-0.448860234258269 0.174562159441715 0.559077757807735
-0.449256638020712 0.1739688992865 0.566299439466387
-0.450601341458394 0.171956408372589 0.571792302657649
-0.449022502807856 0.174319307395303 0.589487745653639
-0.45017341392382 0.172596847186835 0.600068895892959
-0.4506547882609 0.171876419579962 0.598699674824751
-0.452428121626189 0.169222438646343 0.610002467414653
-0.450331119307438 0.172360824400908 0.626530163794651
-0.451956070581913 0.169928912959479 0.62546532573701
-0.450102868666937 0.172702425624814 0.63830230606802
-0.449092158579556 0.174215060165974 0.647243727557899
-0.450068075284189 0.172754497601938 0.658461812191986
-0.451646913279269 0.170391599560187 0.658613299986379
-0.45116528957426 0.171112400372539 0.667990176584605
-0.450849890404578 0.171584428587425 0.682487566874615
-0.448156558624951 0.175615284449585 0.689138258727411
-0.45200970958823 0.169848636513522 0.698278443380943
-0.45158294059457 0.170487341448761 0.710385175711903
-0.448768744566495 0.174699083441647 0.719297746398729
-0.452551232306223 0.169038190493159 0.719381504927626
-0.451917090375104 0.16998725096162 0.728337571189726
-0.450766384892972 0.171709403417309 0.740771078242113
-0.450659654427349 0.171869136847213 0.750167029991279
-0.450105869467483 0.172697934609425 0.758188320772697
-0.451352649592611 0.170831996289383 0.761528104853621
-0.447654420107287 0.176366787848777 0.774747595862711
-0.451376729799015 0.170795957713712 0.784176148167606
-0.450025864012785 0.17281767123397 0.788390165267339
-0.449221859714805 0.174020948699536 0.796498029266151
-0.450491487302733 0.172120816735003 0.809755430704137
-0.45049154280743 0.172120733666354 0.81262949578734
-0.447657089922341 0.176362792188183 0.824355241048474
-0.449937023693771 0.172950630167365 0.83352891127077
-0.451070713899589 0.17125394287226 0.839236518082612
-0.451160106003254 0.171120158134779 0.848995692232396
-0.448114624064215 0.175678043954837 0.856781399143412
-0.449581172776457 0.173483198700866 0.861673401399805
-0.448291381200583 0.175413508205956 0.88083773273361
-0.450319596766328 0.172378069102336 0.884045856951211
-0.452351488745237 0.169337127857587 0.893788204265856
-0.451530098435597 0.170116066502623 0.901029906157941
-0.450177628233422 0.166381311435248 0.908792552001276
-0.44460549467503 0.165234010615691 0.912918418803753
-0.445452872207171 0.161178242301857 0.91333428089936
-0.224262031753785 -0.0972574735430829 0.651340836812857
-0.205946975237744 -0.106822209906577 0.651340836812856
-0.199880526658384 -0.11880819298393 0.651340836812856
-0.20163718810606 -0.123575295766983 0.651340836812857
-0.186306644969667 -0.137132899637444 0.651340836812857
-0.177550542265889 -0.141989675856654 0.651340836812857
-0.170220728060073 -0.148736194812517 0.651340836812857
-0.164969729961686 -0.15853047657533 0.651340836812856
-0.148686451863093 -0.177766269148939 0.651340836812857
-0.146390711518342 -0.17989790692411 0.651340836812857
-0.141486715880465 -0.186435626755861 0.651340836812857
-0.131538525095396 -0.205941986540853 0.651340836812857
-0.120386852612494 -0.217305622631902 0.651340836812857
-0.117039747848047 -0.223978144416935 0.651340836812857
-0.106578838267682 -0.22932202356599 0.651340836812857
-0.0952711809378231 -0.249977421607283 0.651340836812857
-0.0789408321576381 -0.253930468864616 0.651340836812857
-0.0805203042509733 -0.261691979892406 0.651340836812857
-0.0667936683222834 -0.270077423072642 0.651340836812857
-0.0618633555940915 -0.277109239277486 0.662287634986787
-0.0669823000575996 -0.278846886776508 0.672572546656644
-0.065844489076834 -0.278460651993306 0.681096495864324
-0.0601456879045558 -0.276526169664961 0.690088631699078
-0.0606393027633511 -0.276693729331017 0.69913167827623
-0.0697866414198569 -0.279798832395233 0.71551795160689
-0.0636653056753151 -0.277720918906816 0.728888819815316
-0.0670291254598216 -0.278862781858716 0.726875361518208
-0.0681753354436959 -0.279251867719293 0.748230056620353
-0.0606289987445514 -0.276690231587952 0.750411976859882
-0.0639866495871977 -0.277830000466265 0.760692133101342
-0.0592946000946083 -0.276237264283207 0.764687355698229
-0.0661312757045776 -0.278558002935479 0.782759346660019
-0.0648520303578944 -0.278123757654416 0.798851244238998
-0.0654426691658094 -0.278324252513213 0.799324431336698
-0.0634794315064566 -0.277657823128584 0.809006032723204
-0.0643327653601942 -0.277947490939468 0.824438688487545
-0.0623925344573504 -0.27728887129632 0.840444798503861
-0.063307197400186 -0.277599357527689 0.844535018676674
-0.0655071141204387 -0.278346128627524 0.853611679698375
-0.06550246229953 -0.278344549547105 0.865613342039907
-0.0632960939566422 -0.277595588416491 0.882161650429019
-0.0640855756902754 -0.277863581353267 0.890378650064447
-0.0653394620549319 -0.27828921841988 0.897869603160811
-0.0620451176513257 -0.284504205578152 0.912294478216842
-0.0590834512024692 -0.284199854089804 0.912619755343671
-0.445702910081554 0.179287428999189 0.437087703492688
-0.444186260430219 0.181557255607321 0.441913451086514
-0.443920365682507 0.18195519521901 0.450075247435572
-0.443407772308234 0.18272234541685 0.460278606494278
-0.44476440291103 0.180692004238898 0.462638510486922
-0.444903540051146 0.180483770793199 0.47756213858047
-0.444124257176083 0.181650050034765 0.482962385549167
-0.44531560441053 0.179867072898357 0.489947136377331
-0.447930685988252 0.175953326739297 0.501416216510797
-0.444410968465956 0.18122095626612 0.509671479374505
-0.445666267977947 0.179342267782604 0.517460618822091
-0.445861880354928 0.179049513171965 0.521283878261927
-0.444360487220644 0.181296506788761 0.539204649944704
-0.444793737342912 0.180648102159099 0.53869004753499
-0.446114134134802 0.178671988711351 0.550620403695103
-0.445606803664746 0.179431262416412 0.563546206016036
-0.445750991359691 0.179215470281254 0.566912119984343
-0.444222777740927 0.18150260358968 0.573810354999328
-0.445258330881918 0.179952788791326 0.58943482798629
-0.446588685524742 0.177961772366487 0.60026538372094
-0.446163996420698 0.178597364526941 0.60542843207542
-0.448140554253139 0.175639236684667 0.614674514566416
-0.444916346404737 0.180464604730616 0.618483339372231
-0.447461023603535 0.176656226170772 0.625124876467649
-0.443469704957064 0.182629656657716 0.643061781905117
-0.444485239847145 0.181109801289032 0.64398743512838
-0.443462939340091 0.182639782119065 0.651565693612474
-0.447499580462456 0.176598521753522 0.661774933006994
-0.443282450699993 0.182909902457932 0.669977459536235
-0.444466920073636 0.181137218767636 0.678114401115022
-0.446084301757175 0.178716636019623 0.688828880689988
-0.4452690177695 0.179936794733786 0.697652792410327
-0.446939840654411 0.177436231575833 0.702657463479049
-0.446255397303159 0.178460573439536 0.714639247774232
-0.44527906770963 0.179921753935474 0.732599024959528
-0.44810422698581 0.175693604282294 0.728789436407744
-0.444630645715662 0.180892186028284 0.745777932346343
-0.447932828688039 0.17595011996245 0.747895555040146
-0.444057036278358 0.181750653217671 0.753456145412642
-0.446905393938734 0.177487784729022 0.766541318634088
-0.444246253184889 0.181467470104964 0.776766400063483
-0.446983188823185 0.177371356456646 0.78299613696867
-0.445132995681637 0.180140366174332 0.791402299195925
-0.445593482258655 0.179451199309535 0.80111259412014
-0.443785042495265 0.182157720680859 0.810060133183059
-0.446974293967486 0.177384668548942 0.816160328462457
-0.446716049287505 0.177771159025181 0.819163540517989
-0.445884378209546 0.179015842753096 0.837390225866478
-0.442506691592653 0.184070908008417 0.848551546976853
-0.444154969519305 0.181604085764915 0.852313248342705
-0.445696193976263 0.179297480361071 0.856563487706599
-0.446799900084826 0.177645667438706 0.873232943579669
-0.444199370990355 0.18153763426747 0.875132290647775
-0.445631351746533 0.179394523615749 0.885246339150946
-0.443736421002141 0.182230487887657 0.897720174918681
-0.445957069574547 0.17890705243734 0.899540844442646
-0.442265503158956 0.173582916636007 0.911375776972888
-0.437959782093318 0.175463057372596 0.912876194506064
-0.434755202229204 0.168285371683518 0.914165124992512
-0.206331067089782 -0.0897789220416192 0.651340836812857
-0.211775710705726 -0.0948040679502563 0.651340836812857
-0.197038237115408 -0.103157267251959 0.651340836812857
-0.189634048983301 -0.119871768267778 0.651340836812857
-0.185126778151024 -0.12279748385176 0.651340836812857
-0.180831214014397 -0.128112600424782 0.651340836812857
-0.160264833028207 -0.146677051970196 0.651340836812857
-0.156072122501828 -0.155109549720849 0.651340836812857
-0.146105610387032 -0.163609516767843 0.651340836812857
-0.142996753184047 -0.175511046174934 0.651340836812857
-0.125504164672886 -0.189769624298523 0.651340836812857
-0.123698464317315 -0.190958595057923 0.651340836812857
-0.112616357946087 -0.206639476300213 0.651340836812857
-0.106725164210493 -0.217619877913066 0.651340836812857
-0.0982702722623884 -0.224802950185321 0.651340836812857
-0.0792803630196096 -0.242156107547123 0.651340836812857
-0.0758713347792268 -0.252904168034517 0.651340836812857
-0.0688626248384361 -0.255240787533794 0.651340836812857
-0.059887194814027 -0.263929038717755 0.651340836812857
-0.0547714104081894 -0.270364519377684 0.653638043523384
-0.0555216926808849 -0.274514486130593 0.669402621754461
-0.0534753963126713 -0.273505364436304 0.672403932640872
-0.0567923856562552 -0.275141122559287 0.678751673778463
-0.0578678057869499 -0.275671461077802 0.692580013822718
-0.0541372294725977 -0.273831744431918 0.707016476289156
-0.0560742978595626 -0.27478700084686 0.721922056395913
-0.0574143072745189 -0.275447820360684 0.731003109444921
-0.0550212074149323 -0.274267674110893 0.742286636412671
-0.055120981301037 -0.274316877146463 0.745162092335389
-0.0505713265520366 -0.272073235716972 0.756594214522945
-0.0493964818320617 -0.271493866417019 0.763973906971087
-0.0531365758690805 -0.273338276684301 0.775768105665258
-0.053229081685791 -0.273383895504694 0.793902500442428
-0.0541884707811636 -0.273857013848861 0.807166633258498
-0.0538212189445633 -0.27367590528544 0.803744847575876
-0.0479550706371569 -0.270783041079222 0.824823392648504
-0.0520983461373587 -0.272826278440934 0.836086935955321
-0.054085301401116 -0.273806136340984 0.852671183068367
-0.0531582709137593 -0.273348975496353 0.861590363337578
-0.0587700222734823 -0.276059194107721 0.868418097914322
-0.0551185483253935 -0.274315677335653 0.873507770982296
-0.0507094967996607 -0.272141373742601 0.888093529622469
-0.0536177587968595 -0.27357556984422 0.89560682232225
-0.0512643371679145 -0.274276686515344 0.906338912712594
-0.047343874228308 -0.283839823420912 0.913793933368369
-0.438911786333863 0.189451063934958 0.435020146503939
-0.442015540620651 0.184805967383454 0.443679943557948
-0.44171133459543 0.185261243873836 0.45399514997736
-0.44049051429436 0.187088330571597 0.460994535380677
-0.441536040225708 0.185523590437727 0.467105216774149
-0.441357448149929 0.185790872367502 0.480646284918502
-0.439018050058062 0.18929202903296 0.485535204598422
-0.438862512929798 0.189524806795428 0.500011501660107
-0.442150397439239 0.18460413989162 0.502146102863765
-0.440728573072092 0.18673205043299 0.508917939491799
-0.44018287430458 0.187548746353128 0.523491939387241
-0.442140730490448 0.184618607502888 0.531285838409176
-0.439974090626426 0.187861213209005 0.542452918579087
-0.442177637095173 0.184563372865576 0.543033598192311
-0.442428958763987 0.184187243407747 0.549776182008534
-0.441047773025281 0.186254333943604 0.56814138150707
-0.442462395117177 0.184137202368879 0.572076245972158
-0.439335907782004 0.188816321331602 0.582620891948329
-0.437682277707055 0.191291153631085 0.590378687484811
-0.439799922912364 0.188121873613539 0.59322817783618
-0.441622760715194 0.185393804053419 0.610731421600721
-0.440414871219334 0.187201538433587 0.614483275296764
-0.440038136464938 0.187765361838012 0.622221111977918
-0.441081625395408 0.186203670291393 0.632528783457551
-0.4410052944343 0.186317907647657 0.639873701146234
-0.439211878112654 0.189001944849491 0.653457020795014
-0.441289346810289 0.185892793224853 0.652694582053427
-0.439381916787349 0.188747463989066 0.666457080050006
-0.441044855718787 0.186258700001315 0.680621836585996
-0.441879430085339 0.185009671194961 0.686213416708681
-0.437894525930801 0.190973501716313 0.690902616448931
-0.43968896504165 0.188287933802264 0.704401625753975
-0.43996468903245 0.187875283688726 0.704381932616693
-0.440537958729324 0.187017324956824 0.719976364350038
-0.439309721307787 0.188855512159816 0.72553458550552
-0.440963256549141 0.186380821788836 0.730023654309353
-0.440903064643335 0.186470905341932 0.740582804995096
-0.443334980767053 0.182831285656856 0.751642316736156
-0.438628876733376 0.18987446807336 0.759577029093327
-0.438232031189374 0.190468389401402 0.771372214652051
-0.438824098772771 0.189582297644202 0.772151446864386
-0.440735447417316 0.186721762248315 0.782108063988264
-0.44175667449025 0.185193387925971 0.788730130973531
-0.439948699560865 0.187899213624043 0.805194606805294
-0.440142591757811 0.187609033444757 0.810239511628677
-0.440707990027194 0.186762855136598 0.81805848162211
-0.441636058613059 0.185373902342844 0.823896319004901
-0.440054532416758 0.187740823562034 0.839061238941595
-0.440539692025166 0.187014730896279 0.846961631507841
-0.439697649514094 0.188274936570757 0.857854572050986
-0.441024633558359 0.186288964603144 0.861828079871294
-0.438470110689178 0.190112078250023 0.870748181130547
-0.441227848436678 0.185984832045194 0.874587367424949
-0.439603527408157 0.188415800256897 0.893664736514346
-0.441192237722688 0.186038127244964 0.895035237671655
-0.442480769373827 0.184109703350493 0.899598048705586
-0.437941508120307 0.181881373304325 0.910358493865129
-0.431623803088311 0.181327318840709 0.913415972272372
-0.431138468164482 0.170817241336011 0.913735332515566
-0.204425213262587 -0.090120513498041 0.651340836812856
-0.202134536155813 -0.0940463707904322 0.651340836812857
-0.191277826185051 -0.106136995193373 0.651340836812857
-0.184414481981259 -0.113311658657374 0.651340836812857
-0.181843595741979 -0.112330074291148 0.651340836812857
-0.164821825185563 -0.119848350217344 0.651340836812857
-0.152627592309846 -0.135677391674529 0.651340836812856
-0.150720169624275 -0.147740014106524 0.651340836812857
-0.134363489202253 -0.159300576035146 0.651340836812857
-0.132257993983454 -0.163873539681975 0.651340836812857
-0.125197824343788 -0.175887940603641 0.651340836812857
-0.115570704093968 -0.18791482166669 0.651340836812857
-0.106425566888265 -0.202541996331842 0.651340836812856
-0.0933171062252426 -0.207770358382837 0.651340836812857
-0.0966183679879897 -0.211082820736929 0.651340836812857
-0.0759662547722967 -0.226064602243194 0.651340836812857
-0.0655416409314893 -0.234944864306114 0.651340836812857
-0.0624153158475602 -0.250629087749896 0.651340836812857
-0.0586916962035656 -0.254129403617366 0.651340836812857
-0.0406683322787074 -0.267189619387065 0.657190400431249
-0.0385558562503917 -0.266147861496101 0.666214372867521
-0.0486724802585046 -0.27113682835258 0.67803139111469
-0.0483732620485417 -0.270989270260951 0.681101680963961
-0.0453294471086225 -0.269488226845644 0.689949990598959
-0.0474859261434394 -0.270551684617997 0.707343966393826
-0.0468806235191364 -0.270253182397457 0.718572160517614
-0.0490788629401429 -0.271337234113248 0.7255644556877
-0.0409245943197129 -0.267315993840452 0.740300524617501
-0.0489835755472849 -0.271290243571302 0.749450139449325
-0.0401646685652742 -0.266941239930528 0.755467969065425
-0.043412557446444 -0.268542921476535 0.772797018950938
-0.0435885707963941 -0.268629721654983 0.775412750293111
-0.0443253609956763 -0.268993066371703 0.788668731895981
-0.0421722205546998 -0.267931255011633 0.803268810463742
-0.0445652533279071 -0.269111368178083 0.812245754440087
-0.0441575352614275 -0.268910303878488 0.817646816078602
-0.0403648775344291 -0.267039972067916 0.829628627898841
-0.0441085596003808 -0.268886151755257 0.837854767930579
-0.046944169015471 -0.270284519568319 0.852410799323725
-0.0442979481825285 -0.268979547868285 0.869287097501595
-0.0405158659215692 -0.267114431300419 0.872710328719243
-0.0485364226409561 -0.271069732160809 0.885781477834567
-0.0408307697239441 -0.267269724670199 0.895689448011965
-0.048166501582466 -0.271244905140709 0.901293631949332
-0.0404250989476396 -0.269040771857291 0.906705899756352
-0.029216295609408 -0.27608097580262 0.914078280025696
-0.434855871190366 0.195521169911598 0.436658743663203
-0.433441071627381 0.197638567090577 0.453313650193422
-0.434464590517121 0.196106762821996 0.454028794998814
-0.436687345618338 0.192780174728522 0.465355633881965
-0.437150550390746 0.19208693979684 0.467766139430174
-0.435504605618543 0.19455027022795 0.477643230463624
-0.433356102958231 0.197765731690474 0.492793492231594
-0.435545756764828 0.194488683185278 0.499727671008518
-0.4362512154826 0.193432889602939 0.505729957801408
-0.438257697926244 0.190429976415093 0.512282444149125
-0.433386078054671 0.197720870788406 0.525129854620859
-0.435008494556604 0.195292752902168 0.53260242399333
-0.437810216707542 0.191099679385688 0.536288027000698
-0.435412053342559 0.194688784497535 0.553860177299498
-0.433920205844504 0.196921492060141 0.554848702108573
-0.436885912723007 0.192482998055397 0.566804548561561
-0.436309473188331 0.193345700784821 0.571794395951352
-0.435567146974899 0.194456670473623 0.585826247351069
-0.434280366036894 0.196382474240728 0.594763763471266
-0.434974795364647 0.195343187307049 0.597223720522778
-0.433089203126656 0.198165175516464 0.609235111471991
-0.435526210946901 0.194517935569024 0.610674382415738
-0.437822147961108 0.191081823002844 0.627216725634093
-0.43362775290834 0.197359178809713 0.635301556656663
-0.434250683092299 0.196426897906661 0.649072914721744
-0.433603684476133 0.197395199764053 0.650581647974996
-0.433742764081874 0.197187052424632 0.66128015077795
-0.433265002530607 0.197902073115438 0.669441956102434
-0.436037272172489 0.193753078393735 0.67772638174495
-0.435137521204244 0.195099650877773 0.685712952017876
-0.436900368038022 0.192461364147645 0.693746195263154
-0.436590955913522 0.19292443211621 0.699746640951624
-0.438119596370417 0.190636659999378 0.708394826157052
-0.435301514445353 0.194854217648092 0.712672031102087
-0.437108628851442 0.192149679814144 0.726618259766635
-0.43453533633293 0.196000884226372 0.736793301395206
-0.435721222176028 0.194226080639728 0.745916924945873
-0.434969433621726 0.195351211722402 0.755482732664891
-0.433710252461734 0.197235709502686 0.765097577972062
-0.432432431563713 0.199148103622321 0.773207112959
-0.436297360279769 0.193363829033578 0.77446275823592
-0.437396064367878 0.191719502163849 0.788492236086957
-0.433984923769371 0.196824634840838 0.793252441751317
-0.435973094185787 0.19384912753847 0.80520555214232
-0.438397771686947 0.190220341217626 0.808809284006576
-0.438004271352041 0.190809256086458 0.815350476543013
-0.435511042196583 0.194540637208162 0.8266197358087
-0.43587586930437 0.193994634856271 0.834974709169778
-0.437523516715016 0.191528756246657 0.847569531075637
-0.435852858887432 0.194029072378863 0.85396859044747
-0.436691080689779 0.192774584799078 0.861819781504015
-0.437551832853975 0.191486378149916 0.870315411004085
-0.435325927291398 0.194817681242019 0.875317988009676
-0.43694106791916 0.192400452470993 0.884100070386489
-0.433407198517423 0.197689261782142 0.89329610792343
-0.43518609393784 0.1929484037723 0.904413073915717
-0.434190130142598 0.192042906436549 0.907826784744183
-0.42929742428471 0.186899558120862 0.91310409305159
-0.205357817927336 -0.0609617137411471 0.651340836812856
-0.193520169277037 -0.0729742085019982 0.651340836812857
-0.194546208111587 -0.0823919275044941 0.651340836812857
-0.175924900346459 -0.0935846666392549 0.651340836812857
-0.176093342337798 -0.10464514209386 0.651340836812857
-0.166705154039661 -0.109237013307005 0.651340836812857
-0.152255258203729 -0.123254862677724 0.651340836812857
-0.158190112451525 -0.123306745227233 0.651340836812857
-0.145549144812892 -0.1437615938978 0.651340836812857
-0.140509524352572 -0.144558266842431 0.651340836812857
-0.127910980783281 -0.163613087323472 0.651340836812857
-0.115288868894355 -0.164705155083894 0.651340836812857
-0.111734862387429 -0.178781456389325 0.651340836812857
-0.0924366992970229 -0.188375924058157 0.651340836812857
-0.0946024585528194 -0.197711910854043 0.651340836812857
-0.0837637945998999 -0.20856263550607 0.651340836812857
-0.0695260936402178 -0.219961272875427 0.651340836812857
-0.07170359088779 -0.225439481686723 0.651340836812857
-0.061002737191818 -0.241048206439837 0.651340836812857
-0.0514394532223333 -0.250118132978859 0.651340836812857
-0.0432809265483708 -0.260589602197112 0.651340836812857
-0.0311456117473445 -0.262493533313649 0.659943039067848
-0.0295946767839509 -0.26172869683038 0.665488349835641
-0.0321102993885937 -0.26296926461148 0.672407226586002
-0.0307246903676537 -0.262285957860536 0.684291426145042
-0.0323065909732887 -0.263066064908641 0.703546373704744
-0.0323726436984506 -0.263098638507931 0.712731538546268
-0.0387054992024313 -0.266221657233437 0.718605454836596
-0.0312049838756875 -0.262522812407175 0.73636674257446
-0.0301132240210573 -0.261984416028539 0.743477073938981
-0.0350039649785717 -0.264396262561642 0.753768449846355
-0.0360641279010013 -0.264919077057686 0.764701444189987
-0.0347296349192961 -0.264260977947687 0.774187945176802
-0.0291830933809284 -0.261525726357749 0.783776522251159
-0.0368811658606033 -0.265321995590358 0.795526930362278
-0.0328063743993119 -0.26331253081919 0.805904508348058
-0.0400262716340887 -0.266872990116936 0.821986579517392
-0.0356681182002844 -0.264723786685113 0.828866575516821
-0.0353200576709991 -0.264552142227114 0.841402283006421
-0.0377675627315069 -0.265759118152892 0.852502841479921
-0.0339248519396978 -0.263864102902351 0.8505559343737
-0.030775232694983 -0.262310882578079 0.865252448655071
-0.0356153508976554 -0.264697764731178 0.886781476265804
-0.0362392111620643 -0.265005418567053 0.887637531178663
-0.0335064861019597 -0.264318844095693 0.902311540080356
-0.0318675091886349 -0.265860339092907 0.90804159081592
-0.432802241017936 0.19859464466204 0.435106684053671
-0.431936517204403 0.199738286020404 0.442643962382417
-0.433312808460976 0.197830526484559 0.456979916002946
-0.431329550392584 0.200430399021645 0.465674611900421
-0.428253697597429 0.203937736932013 0.471799959685972
-0.432089764620551 0.199563540833259 0.483548164424094
-0.433000446437854 0.1982980092884 0.492363944958324
-0.430179632113862 0.201741629513281 0.499033836752501
-0.431729907014074 0.199973879789505 0.509452534953986
-0.427267828979041 0.20506190463775 0.513826840087634
-0.427370417557282 0.204944924784162 0.52427112168439
-0.430365439905231 0.201529756333999 0.526913612201271
-0.429407018911711 0.202622626022028 0.540010381966988
-0.429677406565399 0.20231430799401 0.545139745766884
-0.4308611096313 0.200964553335987 0.558081437979308
-0.42894462337133 0.203149887083064 0.57066636204309
-0.428458794671039 0.20370386854185 0.571613260930408
-0.432282069111378 0.199344259588047 0.585517893766012
-0.42945356154805 0.202569554316795 0.591585508907089
-0.429563959835453 0.202443669196658 0.600718060674311
-0.43366572040723 0.19730235643208 0.607536360024881
-0.433789333714688 0.197117356043796 0.61285840201564
-0.428906038536608 0.203193884654664 0.62282719458455
-0.428760338018116 0.203360024254346 0.639574563515619
-0.432334915435335 0.199283999904707 0.641512458147542
-0.43173026136182 0.199973475733341 0.645318526745843
-0.431580824716482 0.200143875569191 0.655189754677545
-0.429497145368102 0.202519856494915 0.666573130195817
-0.428117125254454 0.204093467842406 0.677789033093812
-0.431056204702005 0.200742090044283 0.690714914562748
-0.431355325302833 0.200401008369402 0.697040994767019
-0.429489954055485 0.202528056615352 0.702285236533512
-0.431040746903256 0.20075971628558 0.715108289819117
-0.42677279781671 0.205626379493371 0.721656493224571
-0.430350046580294 0.201547309057004 0.722006269242751
-0.428294435096494 0.203891284717177 0.740982331552286
-0.432526711157481 0.199007004238984 0.743230486077456
-0.428597760755529 0.203545408092393 0.760047751352126
-0.43062479684878 0.201234016420222 0.76274171000801
-0.428492063542266 0.203665932664857 0.77430824671079
-0.431359197512789 0.200396592960187 0.779748674845577
-0.431978078921073 0.199690893965517 0.786414327563391
-0.429119160319466 0.202950865837339 0.79437308062278
-0.433365332512457 0.197751918686432 0.800762168125001
-0.431504310394583 0.200231123431736 0.813922503333048
-0.430010341244418 0.201934668752744 0.824315926988608
-0.428704250032765 0.203423980344067 0.828344491510052
-0.430870897988461 0.200953391853811 0.838563474188229
-0.42829861000279 0.203886524148937 0.841543685012364
-0.429654601475038 0.2023403122157 0.85862215442056
-0.42932800852703 0.202712720098683 0.867347330111801
-0.429646996059347 0.202348984530195 0.872014390794727
-0.432363111427495 0.199251848537651 0.881322427596714
-0.430406471329198 0.201482968962046 0.885516548627165
-0.430916624517635 0.200901250740447 0.8957550039083
-0.431975567907797 0.199379782142883 0.900868381257779
-0.42624233773443 0.197735289533836 0.910949285304888
-0.419137660504231 0.196505161493599 0.913733203858774
-0.200822724957089 -0.0562748075994826 0.651340836812857
-0.195798025713953 -0.0656906122453872 0.651340836812857
-0.181542510804467 -0.0778356729211367 0.651340836812857
-0.178204901179213 -0.0910158816618374 0.651340836812857
-0.172517686503597 -0.0892945833169956 0.651340836812857
-0.158905346136208 -0.111690964471232 0.651340836812857
-0.151684227456644 -0.113714517988558 0.651340836812857
-0.14507409385723 -0.118192871642078 0.651340836812857
-0.137315960406169 -0.13387158858005 0.651340836812857
-0.129729667591426 -0.139812890625877 0.651340836812857
-0.111012445486085 -0.158295848203784 0.651340836812857
-0.10872082789748 -0.154114200920712 0.651340836812857
-0.0946814181075547 -0.177061395949888 0.651340836812857
-0.0982147492228703 -0.181180251427929 0.651340836812857
-0.0919129870944995 -0.191620286823851 0.651340836812856
-0.0690874944910375 -0.207924312383422 0.651340836812857
-0.0646488702621842 -0.211955033148822 0.651340836812857
-0.0512109358683708 -0.230158535840504 0.651340836812857
-0.0448604843216931 -0.230293103648274 0.651340836812857
-0.0441689433622168 -0.241090050522151 0.651340836812857
-0.0281783352861556 -0.255506537186253 0.651340836812857
-0.0279298309182932 -0.260907685706684 0.65883696660966
-0.0232018089505815 -0.258548525984086 0.673380006124359
-0.0238056163539986 -0.258873848158329 0.685619540059531
-0.0219612418783576 -0.25771960556752 0.690645124476555
-0.0264276747073457 -0.26016690424207 0.702809249033538
-0.0248561908946171 -0.25939193418774 0.711451407488503
-0.0253942326491009 -0.259657267017978 0.717673040193656
-0.0264676515476921 -0.260186618638034 0.733380286122979
-0.0255116572563024 -0.259715174425923 0.743644201562131
-0.0234093196686988 -0.258678416260622 0.752436734215059
-0.0255272552575451 -0.259722866508891 0.765878154343567
-0.0253910165896623 -0.259655681032977 0.77618310066397
-0.0260595231877587 -0.259985352004099 0.784920550399223
-0.0234507937476446 -0.258698869012954 0.79706231388316
-0.0298305615276924 -0.261845022312826 0.810817886702832
-0.0258817539000469 -0.259897685892975 0.820627341559116
-0.0262922940395444 -0.260100141884971 0.819921982096516
-0.0214154177093383 -0.257354897517721 0.83917208967137
-0.0206424788161268 -0.256838436260861 0.846189467999709
-0.0272260770131882 -0.260560632687329 0.85938924210094
-0.027814156422717 -0.260850641358281 0.868859717086229
-0.0257545371490728 -0.259834949534117 0.882385137136129
-0.0195348245674517 -0.256098325353696 0.885047038875314
-0.0259754807951869 -0.25994390688261 0.897189274411128
-0.0233660377249248 -0.259437695846672 0.902712612063153
-0.0160318065918749 -0.265195846073551 0.913130648469134
-0.423650484011754 0.209186696031743 0.437348136531621
-0.424828535136493 0.20784338617743 0.449021371035155
-0.427214749253493 0.205122430464597 0.452976660513583
-0.426360496538343 0.206096518996272 0.467929251768104
-0.425540493073373 0.20703155374301 0.470234278955291
-0.42759893875874 0.204684346295341 0.480256700049885
-0.423973590609917 0.208818263568847 0.489269634422454
-0.423491814274895 0.209367624190655 0.49608577830892
-0.42474994695225 0.207932998826753 0.504092210008567
-0.422201195615349 0.2108392927177 0.518392627992778
-0.425860167686718 0.206667034708766 0.523343809103337
-0.42482497623042 0.207847444332036 0.541116829726208
-0.423123306145475 0.209787827177817 0.542566361852253
-0.426521447330677 0.205912989792096 0.549042817366443
-0.422369343083126 0.210647557277958 0.554370142392736
-0.42293783003422 0.209999322148414 0.565158309983349
-0.426241308588656 0.206232426805338 0.579402305767166
-0.425240913329698 0.207373158969964 0.586367159947435
-0.42598654593829 0.206522927931783 0.596149589964283
-0.423808153253508 0.209006908718848 0.60137344756426
-0.422465975669813 0.210537368931103 0.611636806472148
-0.425480888822425 0.207099519365194 0.617231768021709
-0.425877626471582 0.206647126780104 0.631242910742751
