ply
format ascii 1.0
element vertex 836
property float x
property float y
property float z
end_header
0.00572511011049563 -0.198511084728424 0.610496738597298
0.0202648350515453 -0.197317924517643 0.613350987482781
0.0370762662544244 -0.202544624005442 0.612662879441073
0.0497825820557822 -0.207404420244818 0.612023075128393
0.051837874000208 -0.204585319036274 0.61239421684345
0.0727000707231963 -0.20408456861992 0.612460141886431
0.086559825753161 -0.20692156563859 0.612086644143274
0.0946502054385202 -0.206089084139529 0.612196242411821
0.00453067545468612 -0.188644457553883 0.157892976728767
0.0104914115975174 -0.19397663754396 0.162187491793133
0.0146024566789325 -0.191659550038214 0.162186925764019
0.0292538349711829 -0.188930507218612 0.161827640460795
0.0356654742117854 -0.191630455358941 0.162183095376825
0.0509383848288634 -0.197586095413479 0.162967170264737
0.0529642595226433 -0.193405925314204 0.162416840430827
0.0807481669579498 -0.197827795311546 0.162998990659984
0.0858525100243994 -0.191404413053735 0.162153336342785
0.094131365950859 -0.201427314620129 0.163472876367073
0.114214843990674 -0.196586261062869 0.162462329569431
0.109595465762905 -0.193666349366298 0.162451125907718
0.00505935080946309 -0.189175740727484 0.595725207120046
0.00203749071789512 -0.192136379644819 0.60449431633789
0.0122363496928694 -0.195087145841705 0.613569916197277
0.0279328000217887 -0.189728125070585 0.614350203536173
0.0246001691983517 -0.187628928152815 0.614626568053325
0.0471875482630936 -0.190746706848893 0.614216104701062
0.0603330471331852 -0.195359867184838 0.613608770621063
0.0778289109232331 -0.192725069899794 0.613955648264276
0.0931050095649197 -0.19999780975169 0.61299817389847
0.0924358455269283 -0.194953167272599 0.613662313680278
0.10621862657541 -0.195756225590734 0.613556589046987
0.00197722670313965 -0.182415186910842 0.149060726738944
0.00491095588533267 -0.17634699717097 0.156769576461388
0.00562298139441057 -0.183347941885572 0.158317149307944
0.0261819349283504 -0.177749804014659 0.160355672959211
0.0326442516621067 -0.184126870116462 0.161195229638794
0.0407529471153087 -0.185706944790234 0.16140325041597
0.0622217809604223 -0.179733632751227 0.160616848967166
0.0687470980238819 -0.18254281146237 0.160986684360657
0.0717717311350377 -0.187479190668589 0.161636571012195
0.0920577590304413 -0.184704064127103 0.161271218671887
0.101394529790471 -0.187238510173861 0.161604884823943
0.104932642081343 -0.184157416883456 0.161199251196961
0.00219875115008845 -0.18249967397454 0.601710046416942
0.00289377691983736 -0.183961865985166 0.608606969428184
0.0108406296256662 -0.179883154291393 0.615387809625393
0.0226449438886718 -0.182835069014177 0.615257691582009
0.0248307462618754 -0.186314101663798 0.614799668244498
0.0464647437842106 -0.1842137678105 0.615076182442053
0.0570343998413911 -0.188573850651305 0.614502166646372
0.0710241484858766 -0.180904710943217 0.615511828043289
0.0859420553362995 -0.189597484416103 0.614367402704622
0.0904689087964496 -0.182671498301243 0.615279226074899
0.109760202293959 -0.181127884991804 0.615482446622395
0.00207213513778781 -0.174971568663142 0.150714227362443
0.00492546781396395 -0.173414966295136 0.156402479587181
0.00688185353197948 -0.166869449693296 0.157113681219928
0.0170951928998791 -0.17422009127645 0.15989097746146
0.028830403296518 -0.173489917411991 0.159794848248531
0.0447816331694992 -0.167865067213048 0.159054322671286
0.0487160728504385 -0.170276339718835 0.159371772719036
0.0740950680282769 -0.170360155063482 0.159382807218494
0.0808922361560218 -0.172113306611327 0.159613613998417
0.0771494379916238 -0.176493785475462 0.16019031498151
0.0954663346480479 -0.177555595099277 0.160330104870447
0.104772798215326 -0.17610031000453 0.160138512953022
0.113839877978813 -0.173288374155676 0.159444469781563
0.0036385842144203 -0.165295245465183 0.612507252641039
0.00727534800564245 -0.167041579061316 0.615847825967981
0.0134915268680691 -0.170041893761308 0.616941945056123
0.0265610108742517 -0.166374307242808 0.617424791981401
0.0438406830721695 -0.174867951994776 0.616306582436184
0.054079485055525 -0.17430568528712 0.616380606252558
0.0684088844578119 -0.177930331706425 0.615903412498585
0.0722251721317545 -0.169345460850107 0.617033632188284
0.0966400472883878 -0.177215788823502 0.615997483853755
0.105463037865138 -0.176811645285225 0.616050690359953
0.116576331853436 -0.177627882745528 0.614591860353671
0.0102945494773346 -0.160584464111168 0.0287273020759121
0.0359253608613114 -0.16395882444506 0.0168402017455002
-0.0188421465714232 -0.153998679864113 0.080293923222971
-0.0111915951090481 -0.157167642039463 0.0843759428967061
0.0540202835612481 -0.166341066212157 0.0282743150239009
-0.0152946678153663 -0.155468093677103 0.107325335738054
0.0173435778769123 -0.161512486305537 0.0780888418952979
0.029970526742276 -0.16317485566057 0.0820011495515196
0.0232924659888766 -0.162295672283345 0.095853732028306
-0.0152705713317148 -0.155478074767437 0.161342561323576
-0.0138043793160536 -0.156085391385367 0.160516148417286
-0.0120546052257436 -0.156810171544662 0.164613480232161
-0.0136305232439585 -0.156157404928329 0.18509666282471
-0.0126664348520969 -0.156556743415565 0.192098150918483
-0.0135730820154323 -0.156181197864224 0.201660006465279
0.0385526987434649 -0.165499840464345 0.158742934662458
-0.0129121281370158 -0.156454973924768 0.217463627080161
0.0258713742401454 -0.162635191995673 0.19449552220106
0.000276911619836509 -0.159265617067302 0.228167744084886
-0.0129001915386421 -0.156459918225703 0.243966030566136
0.0642082640141259 -0.16768233928415 0.19136042904212
-0.00509439721602994 -0.158558470843747 0.272169231143694
-0.00961631020959635 -0.157820146409417 0.277359119821328
0.025788640542892 -0.162624299897795 0.256094031903689
0.0301819772035804 -0.163202693641917 0.266796432401496
-0.00660362928129951 -0.158359776672915 0.302685300750837
0.0565831204101839 -0.166678470084229 0.252991268487194
-0.0139600407572849 -0.15602091430527 0.324959983776338
0.0278289360025814 -0.162892909890879 0.30478434740695
-0.0174324014064873 -0.15458261543092 0.352393079580023
0.0526552627567184 -0.166161357813982 0.303546674119894
-0.00911021325330747 -0.158029778632588 0.370085771234844
0.0182195855859786 -0.161627814908341 0.356607762445934
0.00457845471658742 -0.159831925959469 0.372935156763809
0.0544304014215605 -0.166395059252773 0.339535809961795
0.000971529641072669 -0.159357065264667 0.397603905370884
-0.0105032734860551 -0.157452754190981 0.413955890837421
0.0434800665479512 -0.164953420317244 0.385525893545881
0.0242894923727212 -0.162426933296938 0.404453205075794
0.0210585746575015 -0.16200157491023 0.430861996526009
0.0432825381758534 -0.164927415213712 0.421652802067554
0.0136225276115264 -0.16102260074445 0.457810914688972
0.00898643997448848 -0.160412248228 0.475492669113231
0.0175846284478047 -0.161544221215239 0.475732360039835
0.0422548262797789 -0.164792114375794 0.461658238666848
-0.0141034040729598 -0.155961531275571 0.522948053009968
-0.0146603484577654 -0.155730837357897 0.532965339566512
0.0275385891794198 -0.162854685006443 0.509064640566235
0.0266688613701368 -0.16274018316813 0.519151548704016
0.0411209824310386 -0.164642841001233 0.516650035212965
0.0144033164533789 -0.161125393545569 0.55264083154597
0.0121919189211002 -0.160834257537285 0.552905891898306
0.0338118706157564 -0.163680578175606 0.551072426506409
0.0261114260293578 -0.162666795413273 0.57319562931926
-0.0172995014258409 -0.154637664405343 0.613052552074438
-0.0186690034322703 -0.154070398100583 0.627899099446354
0.00448479689927009 -0.162523086084297 0.613975020188959
0.0177665949451672 -0.161568177559094 0.618228815145338
-0.0116569317793928 -0.156974893279536 0.651744840050407
0.00787562201736412 -0.16026600626958 0.647289757074882
0.0611857970116001 -0.167284423954392 0.618702100142928
0.0297168150939683 -0.163141453888403 0.649604054529896
-0.0115204848406378 -0.157031411452113 0.684961099720125
0.044137479739376 -0.165039970405842 0.656557045707466
0.0060913948408535 -0.158076237203487 0.696142541634274
0.0168465135789459 -0.157606010780033 0.69826140793082
0.035603607853781 -0.161951409767357 0.696155813666632
0.035285251418759 -0.157854720759997 0.699741376226859
0.0627318906721247 -0.16723741853626 0.69193396533726
0.0743064575654241 -0.162814992195312 0.698106912718824
0.075465497430683 -0.161473648820009 0.699019074887403
-0.0236061164646311 -0.151624875254554 0.00811805888168868
-0.0409873558938743 -0.144825833821163 0.0436031724926243
-0.0390592586012666 -0.145624477869336 0.043136793605972
-0.0272425326750395 -0.150519126010825 0.0451665002141659
-0.0329804785554865 -0.148142391006981 0.0633077217466922
-0.0242656850332912 -0.151752176677156 0.0629230444237002
-0.0446613789396086 -0.143304003647149 0.092618071911858
-0.0264430366226764 -0.150850288118778 0.0823602129888308
-0.0312995121447424 -0.148838670092205 0.0998338269791938
-0.0390793552367583 -0.145616153570357 0.116204537340374
-0.0218218609917943 -0.152764441739197 0.1097419538524
-0.0338696665829158 -0.14777407726652 0.133818011228426
-0.0312249458387555 -0.148869556467441 0.142376457325562
-0.0283238895777707 -0.150071213315948 0.147747548111103
-0.0226155960216589 -0.152435665924897 0.143180920589462
-0.0379189242770781 -0.146096819812055 0.181669385598765
-0.0196203601153103 -0.153676333259813 0.166138992711116
-0.0305987321132925 -0.149128942685472 0.182467025423968
-0.0338869429764889 -0.147766921149993 0.206387362247361
-0.0269805068653986 -0.15062766065487 0.211838177059415
-0.0333136375200276 -0.148004392045442 0.216493814482082
-0.0223470541176663 -0.152546899623596 0.218874066780361
-0.0361537524332475 -0.146827977929689 0.244297976279604
-0.0453380212894584 -0.143023729208965 0.263443958603035
-0.028792718081833 -0.149877018191139 0.262365268444363
-0.0211334435481961 -0.15304959358091 0.267151116091096
-0.0220040770454489 -0.152688965378491 0.271611510594914
-0.034122062728396 -0.147669531359972 0.292170587407651
-0.0343192565301373 -0.147587851012875 0.308881591296042
-0.0324301418972567 -0.148370347914691 0.308852566410495
-0.0218899533296048 -0.152736236969382 0.312561543949663
-0.0373753034028978 -0.146321994950929 0.334776337797599
-0.0361768648294881 -0.146818404461706 0.343632110611624
-0.0374560690041034 -0.146288540743537 0.348880379031502
-0.0216745336444848 -0.152825466724561 0.342188963426543
-0.0266954062856545 -0.150745753181641 0.35658663678562
-0.0376625220331883 -0.146203025098897 0.384609777518647
-0.045249932831455 -0.143060216642958 0.40684499703666
-0.0293753608935402 -0.14963567963651 0.395730096482917
-0.027177154727095 -0.150546206443544 0.402858113556557
-0.0254371635463434 -0.151266934389021 0.406152998623589
-0.036762227642627 -0.146575939245596 0.432257481417128
-0.0420437513620081 -0.144388260491033 0.440938487146707
-0.031292147534475 -0.14884172061366 0.449835422002615
-0.0434753548529959 -0.143795270909125 0.468520683696965
-0.031116976018751 -0.148914279031214 0.468787124542211
-0.0458201887705715 -0.142824008898953 0.495218499703453
-0.0388059420298799 -0.145729405028778 0.491101450712841
-0.019120577238294 -0.153883350105715 0.483379908449939
-0.0273461037271993 -0.150476225476352 0.502363137986137
-0.0194248509340724 -0.153757315814251 0.513178817021445
-0.0396588041024368 -0.145376137991492 0.532538752911656
-0.0347951675076359 -0.147390722231512 0.531717912548081
-0.0309320737002068 -0.148990868079269 0.550934521340753
-0.0315085184979123 -0.1487520968261 0.561874859516095
-0.0341907604284385 -0.14764107584091 0.565102044164235
-0.0232410503190378 -0.152176594272278 0.572228581918284
-0.0434744308689876 -0.143795653635832 0.601405782492109
-0.046147397105804 -0.142688474768778 0.604110068790148
-0.0270162807833484 -0.150612842612876 0.600631244315779
-0.0320983034859197 -0.148507799885183 0.613647259447782
-0.0353449742767208 -0.147162984811073 0.631328208365263
-0.040617286742486 -0.144979121482684 0.6384883314817
-0.020730182804913 -0.15321662964995 0.642211394953428
-0.0414236668014511 -0.144645107925834 0.660558894940688
-0.0257397807777104 -0.151141586227581 0.663581010208471
-0.0434887241980864 -0.143490282479228 0.692150376634478
-0.0280474975889338 -0.150185698626256 0.677745386110143
-0.0259796670229901 -0.150023577521883 0.694256266236596
-0.0170533780257956 -0.148248434199576 0.699753381434103
-0.0128805399717172 -0.153883682483578 0.696733402715007
-0.000322943787676607 -0.15292925576073 0.699839775626756
0.00639590627965287 -0.154367857597682 0.699610281246761
0.0357708949460758 -0.147210767618005 0.699287311732682
0.0315985602922586 -0.156804809553863 0.699975220125467
0.042466411690472 -0.153632703465813 0.700952841533889
0.0698538397823733 -0.148832561320874 0.698151206004025
0.0810800087088419 -0.150519548581631 0.700090362163835
0.0938443637301968 -0.153854086889265 0.700861989576514
0.101735373987408 -0.153200530798987 0.700811261878796
0.128043378954205 -0.153120622031528 0.699840635159361
0.136672593020294 -0.153058608283856 0.699292990312279
-0.0719963909500023 -0.131981470944812 0.0632697880987616
-0.0542182455660064 -0.139345419876704 0.0513702514994558
-0.0668567076212955 -0.134110397485866 0.0794781385811914
-0.0523971606710501 -0.140099737938428 0.0734713674497428
-0.0484791818170685 -0.141722617916838 0.0801942369572929
-0.0687838743733889 -0.133312138880194 0.112418340724555
-0.0710920830315773 -0.132356047549185 0.115712424171322
-0.0692997175474558 -0.133098469641438 0.124027404424846
-0.0715280603997461 -0.132175459810402 0.144788878117162
-0.0670513697012359 -0.134029765812274 0.148914564416258
-0.0627018874415968 -0.135831380353518 0.149914033942352
-0.0638198630385644 -0.135368299698852 0.161067866323905
-0.0472588129857697 -0.142228111237859 0.151379563319151
-0.0700595708298446 -0.132783728106459 0.195311042232923
-0.0681594720041267 -0.13357077480992 0.202845488463125
-0.0539414653530735 -0.139460065994697 0.191808093114433
-0.0600440957468787 -0.136932273719433 0.204399488706304
-0.0517099377909947 -0.14038439497572 0.212698220170331
-0.0464768472829288 -0.142552012037286 0.212157169470043
-0.0623244795596295 -0.135987707816776 0.236076818478198
-0.0719351767032212 -0.13200682671604 0.253661053905425
-0.0624781967982482 -0.135924036051769 0.261977924645486
-0.0591239923797041 -0.137313393012902 0.25810634750469
-0.0617846918141553 -0.136211295221754 0.280144792013134
-0.0666099851606157 -0.134212593275221 0.295797941094469
-0.0612657692596868 -0.136426239981636 0.294687137980597
-0.052327044567861 -0.14012878097931 0.299309910717658
-0.0590623779360331 -0.137338914551108 0.312430562902266
-0.0504691625883169 -0.140898340892525 0.310196471657433
-0.0514127325215041 -0.140507501429152 0.326512219861356
-0.0667463319931664 -0.134156116567992 0.348050716552966
-0.0536851002841697 -0.139566255883156 0.345987114811722
-0.0619657808267887 -0.136136285696724 0.36127743524198
-0.0666537102591466 -0.134194481746393 0.382304660390759
-0.0605879475837964 -0.13670700291266 0.37956117341784
-0.0536765872354132 -0.139569782103408 0.382514310722511
-0.0630416552574853 -0.135690643916119 0.408539080280403
-0.0706142135905513 -0.132553987552702 0.424068334662226
-0.047632198422622 -0.142073449925922 0.405772073093126
-0.0556920122572938 -0.138734965725399 0.424284007274268
-0.0661509343906234 -0.13440273832997 0.44718112612756
-0.0504758345277406 -0.140895577284729 0.44933340457621
-0.06885665792263 -0.133281990946981 0.466690615226391
-0.0595257919621424 -0.1371469621765 0.465486114122083
-0.047613317803528 -0.142081270534417 0.468937787760574
-0.0546370305349834 -0.139171953462836 0.483561803825494
-0.046853807035299 -0.142395870195386 0.490398504461124
-0.0502606860290848 -0.140984694710796 0.505088805969329
-0.0463026518266365 -0.142624166157787 0.506389951910484
-0.0634862120333722 -0.135506502470302 0.535619975722581
-0.0544439283094824 -0.139251939023563 0.527135487687664
-0.0603980894381315 -0.136785644731521 0.550104047914555
-0.0518809432246194 -0.140313562205873 0.552699943516816
-0.0603597892451298 -0.136801509190904 0.56874312967625
-0.0550715650663 -0.138991963366645 0.571572663894811
-0.0513097687364074 -0.140550150425372 0.583890241819802
-0.0480168748272207 -0.141914111742013 0.59125760488467
-0.067822152090719 -0.133710497292912 0.620525085400985
-0.0567041696983808 -0.138315716386044 0.61138627596947
-0.0700104407980929 -0.13280407843193 0.634646922501005
-0.0518121821426241 -0.140342043978599 0.630848236752684
-0.066015421977845 -0.134458869409212 0.655012805724327
-0.0514480548368773 -0.14049287044707 0.65252749128636
-0.056349435374805 -0.138462652153908 0.667143658721725
-0.048018832457901 -0.141913300864835 0.667013955454818
-0.0607577503618112 -0.135743371627872 0.693974272461499
-0.0470234330536657 -0.142325608798047 0.689387229799318
-0.0547657676317087 -0.134176323547252 0.698847998381443
-0.0422198873287875 -0.137618609279365 0.699832707436603
-0.0236923385210529 -0.139426789486834 0.700884452108716
-0.0194159679587749 -0.143740159485965 0.700771089784155
-0.000608434557633329 -0.143827336150959 0.699975069752213
0.0157842460229539 -0.141054307836989 0.695748942810353
0.0925127799655338 -0.142152037430998 0.644460957335304
0.0858870798985558 -0.143024327393081 0.663773370485536
0.0893134420005134 -0.142573238264719 0.6734995026006
0.0954048584274646 -0.141771288078266 0.680884265819585
0.0797802552428004 -0.148149809306754 0.698630083553788
0.0990005070533892 -0.147786439859941 0.699935516560096
0.109453239154291 -0.149663536074831 0.700824253699308
0.12614699880002 -0.141294441998475 0.6980537674924
0.136051487302491 -0.148323887870918 0.700846711547676
0.146620151987246 -0.141911871801609 0.70087111620386
-0.0794369046115165 -0.128318823223803 0.0680513899427063
-0.0777924300340016 -0.129580672948175 0.0742905208333512
-0.0864378008482205 -0.12294684660134 0.0949239508261725
-0.0847853070668534 -0.12421484967725 0.109130990506378
-0.0870820554167776 -0.122452492683757 0.120011726557537
-0.0785191839673866 -0.129023015041469 0.117462057873644
-0.0799554967555092 -0.127920893475963 0.127245943610787
-0.0838648677410489 -0.124921127612737 0.151382399210663
-0.0833652861571782 -0.125304470044738 0.147625198146914
-0.0812507965485943 -0.126926974987205 0.157989106937084
-0.0866472603708515 -0.122786122656735 0.174856227334223
-0.0849343905287961 -0.12410045391344 0.173788108377599
-0.0810071238675525 -0.127113951611602 0.183098690026103
-0.0830366325201527 -0.125556654850125 0.20594331993169
-0.0777924300340016 -0.129580672948175 0.204205751938489
-0.0748502633161827 -0.130799358305458 0.209747900482604
-0.0779277757278292 -0.129524610926183 0.221485382213695
-0.0885013535722053 -0.121363426905108 0.248515233003546
-0.0733116104553951 -0.131436689188181 0.236498735668813
-0.0787696551595508 -0.12883082173601 0.259517547659065
-0.0761082125878557 -0.130278298656354 0.260284579975461
-0.0821688799553797 -0.126222504811963 0.280761619329338
-0.0801368276944041 -0.127781753352793 0.280688866401491
-0.0743624474484755 -0.131001418253804 0.283384515503569
-0.0810705429367151 -0.127065288448281 0.304514731703186
-0.0840535953374454 -0.124776311834645 0.320312091134796
-0.0787082885766734 -0.128877909971212 0.324129844516355
-0.0752247308614356 -0.130644248769546 0.324702537238385
-0.0742056015373382 -0.1310663859574 0.343558370397056
-0.0783559162026651 -0.129148294803607 0.35141840075065
-0.0873422810843048 -0.122252814506098 0.369732440250262
-0.087660749329099 -0.122008445227053 0.379465686495095
-0.0820340829540281 -0.126325938188999 0.385354620601495
-0.0793236101338087 -0.128405757134137 0.393567512212968
-0.0813368173812542 -0.126860968880777 0.405388395071133
-0.0848419996000169 -0.124171347966537 0.41310104237615
-0.0846639748024713 -0.124307951198223 0.422298548724101
-0.0733512313883175 -0.131420277660411 0.421191412805307
-0.0730766847327577 -0.131533998608648 0.440842615739306
-0.0834819346158552 -0.125214962534289 0.452690668917179
-0.0726932150753593 -0.131692836941501 0.450669798447814
-0.0819233841280405 -0.126410880385717 0.473563901602109
-0.0757789194677981 -0.130414696332678 0.482176390601133
-0.0781827164736531 -0.129281195629988 0.490952696851665
-0.0784505347297413 -0.129075691454218 0.497427569485088
-0.0854609979843506 -0.123696373800722 0.515472855893585
-0.079386791979032 -0.128357275999147 0.516694152676641
-0.0781730172485157 -0.129288638107199 0.523203527644205
-0.0728919825171486 -0.131610504771353 0.535613628118067
-0.0860402759697465 -0.123251878168985 0.549842790010606
-0.0754279892594049 -0.130560056384441 0.554130703058463
-0.0755220281706241 -0.130521104192023 0.568062883490377
-0.0812134941126433 -0.126955598153028 0.569359186947854
-0.0764954285440241 -0.130117908555742 0.578336011788697
-0.0859105125855592 -0.123351449115724 0.603251968632597
-0.0746715453188049 -0.130873385723812 0.602270151095894
-0.0809723117481073 -0.127140663890361 0.612479856130199
-0.0740427499280397 -0.131133841302625 0.615802954289882
-0.0780099560067855 -0.129413759398671 0.629090046714795
-0.0837997627264521 -0.12497108444749 0.652739731009154
-0.0846089551584915 -0.124350169255917 0.661655439214481
-0.0804238835094079 -0.127561487678885 0.669186829620541
-0.0795033058617021 -0.1282678717525 0.669425720703721
-0.0792077078188824 -0.128494692108349 0.682263270763658
-0.0835331418170401 -0.122420152595002 0.696468467210155
-0.0649339584982716 -0.131969373962113 0.697162183428109
-0.0575908726487163 -0.131637310204856 0.69968388238803
-0.0426460999032638 -0.13193742817017 0.700928806506549
-0.0468248606333131 -0.125332041613894 0.699730515216752
0.0998764319622702 -0.137698031271946 0.607884302688326
0.104671254595229 -0.133816657498751 0.607884302688326
0.11537718665835 -0.136730871230807 0.607884302688326
0.137864922276861 -0.134702230737897 0.608240048932177
0.128798538755474 -0.137374926659449 0.624246928460981
0.125328019016104 -0.137831829251063 0.639789602019316
0.108267069155851 -0.140077945911379 0.652019920471495
0.135771888548901 -0.135569193694522 0.656164630502295
0.13801292677822 -0.134640925266142 0.65747588542834
0.142813868061817 -0.132652310274319 0.664021488958003
0.118711182826017 -0.139264137803642 0.693319454604438
0.124684067565306 -0.139384013446236 0.695507265237995
0.141165020799867 -0.141333646646541 0.700335132596065
0.147203538015557 -0.131746007068407 0.694016253798177
0.162299609238274 -0.132874690759711 0.700449105371791
-0.0898826779582908 -0.120303499424512 0.0848368185773463
-0.0965860290943634 -0.115159837187904 0.0927668651532877
-0.0991455050643807 -0.113195882201026 0.109900241842222
-0.0931179959639711 -0.117820952604059 0.115855573834238
-0.091426574651093 -0.119118825825473 0.116574406588985
-0.0944605303503655 -0.116790789737089 0.129962017409406
-0.0906442342261568 -0.119719136747313 0.142795134072375
-0.0987242255988855 -0.113519141304381 0.155188876936959
-0.0934792801185243 -0.117543729521941 0.160641578134255
-0.0922781198650835 -0.118465412201294 0.168339027743285
-0.100796229386234 -0.111929236879154 0.191978174234792
-0.0956672034069032 -0.11586487693514 0.192779371012395
-0.0952388663556477 -0.11619355151452 0.200924013397899
-0.0930011763815897 -0.117910591422345 0.210477154260688
-0.0952461128170943 -0.116187991109085 0.221210718146069
-0.09387643228722 -0.117238983944566 0.226218476192452
-0.09536077390014 -0.116100008565592 0.235561918982899
-0.0932329909452189 -0.117732713851465 0.250734628883553
-0.0964368821899899 -0.115274281632803 0.263137973731134
-0.0996474319646865 -0.112810740144429 0.272873924274421
-0.0975646907345241 -0.114408883699309 0.276459024119465
-0.0966703660018624 -0.115095123202697 0.290719456065848
-0.0950237838706559 -0.116358590109896 0.30154322670503
-0.101448494900791 -0.111428735946507 0.318499192863054
-0.0939546349009156 -0.117178976968548 0.315735252392343
-0.0896767094121494 -0.120461544648641 0.325894217134421
-0.0903497547086782 -0.119945098828482 0.336830203013184
-0.0958718342189539 -0.115707858190481 0.347285467672303
-0.0897560836108352 -0.12040063868384 0.353294439697812
-0.0934761133925461 -0.117546159436247 0.367772467159448
-0.0945378682205607 -0.116731446302095 0.369815016492712
-0.0927892475320048 -0.118073210148162 0.380249098085077
-0.0963640333712146 -0.115330180497492 0.399679455520001
-0.0995371719221198 -0.112895345650786 0.409996654156744
-0.0959123013430307 -0.115676806674052 0.41757406229012
-0.0922231257443102 -0.118507610674344 0.419143203202456
-0.0946388050524444 -0.11665399474691 0.439993234875461
-0.0921329706608829 -0.118576789102961 0.442806227359264
-0.0947794952185816 -0.116546039385489 0.45462039027898
-0.0990618427200822 -0.113260078575684 0.472326152152729
-0.100776946206379 -0.111944033383472 0.475090215501838
-0.0917082655003207 -0.118902676834593 0.479222351617392
-0.097070858922631 -0.114787814176096 0.491390896489055
-0.089600403217547 -0.120520096451109 0.49297712637972
-0.099219151335181 -0.113139371429876 0.522020156585715
-0.0930734934045068 -0.11785510061897 0.518355079812334
-0.0898734742732362 -0.120310561660443 0.530913282753675
-0.0890496334070746 -0.120942716990849 0.536650535869223
-0.101925789268819 -0.111062495096709 0.556587530777969
-0.098715646984736 -0.113525723906538 0.5628402318949
-0.0931120839740341 -0.11782548903349 0.571872170034258
-0.0883255841040908 -0.121498299561655 0.566059887741178
-0.0957141432078721 -0.115828858759046 0.591893705040946
-0.0944950309661644 -0.116764316483485 0.595635932031739
-0.0893729942268342 -0.120694593506992 0.603745630707956
-0.0968780777980153 -0.114935740335787 0.621821463681094
-0.0917755319945132 -0.118851061438213 0.622173571987492
-0.101318921755865 -0.111528160917526 0.64712555261697
-0.0984046783174366 -0.113764338557373 0.655710974168355
-0.0949487147495794 -0.116416192672461 0.662533318129277
-0.0973641127145077 -0.114562792627263 0.674294803157516
-0.0893723552703643 -0.120695083795536 0.675620580809207
-0.10124152905451 -0.111491925649793 0.690612024250275
-0.0896047965178118 -0.120275713413553 0.691495728610931
-0.0900220574100305 -0.114870278865382 0.698584484620694
-0.0695601800185388 -0.118294380862197 0.700649013049365
-0.0542677707137199 -0.120717024119069 0.698817658219655
0.0690472529890884 -0.118400164869947 0.607884302688326
0.079322905500001 -0.123747048993251 0.607884302688326
0.0926531166367006 -0.125168969798932 0.607884302688326
0.0998079750181981 -0.128873282578273 0.607884302688326
0.129021046144195 -0.124302648063657 0.607884302688326
0.132648438594757 -0.123197026610497 0.607884302688326
0.150432354612494 -0.126905965823615 0.607884302688326
0.147134139389498 -0.130862795297262 0.610956070645494
0.158128011178131 -0.126308984499419 0.61602238910601
0.157571177793637 -0.126539632439259 0.627673380748972
0.150180328580604 -0.129601022420751 0.650758875452045
0.161218934978721 -0.125028681940953 0.651757914466787
0.149077674226787 -0.130057756808712 0.674534384603843
0.158300542678644 -0.12623751961197 0.673433408797805
0.15539738298451 -0.127440047731016 0.68274695202184
0.1679183611562 -0.123434111774874 0.694620217413327
0.172431965047191 -0.12638828541723 0.69960728491386
0.175846836711366 -0.124024288464653 0.698928351536429
0.197552462987779 -0.131094822066703 0.696499506133438
-0.11179674187758 -0.103488246762945 0.104628307001142
-0.10375035842423 -0.109662453942328 0.108975148377167
-0.102616841418003 -0.110532232132539 0.113942499913702
-0.111933551636871 -0.103383268942422 0.132531968762062
-0.103392311527645 -0.10993719298904 0.134978233626626
-0.110563680023389 -0.104434408401513 0.144338220638996
-0.11071438844702 -0.104318765760745 0.158680890628663
-0.11280748903874 -0.102712673188163 0.177932234903847
-0.111888792127737 -0.10341761412175 0.182041914942348
-0.113420096501054 -0.102242602949292 0.191919982635999
-0.10492951250065 -0.108757657196505 0.18763309910087
-0.106569301363282 -0.107499402947621 0.203020158441249
-0.105077047851907 -0.108644449339805 0.21451466036917
-0.108175687857684 -0.106266779237341 0.219486892399536
-0.103763683274947 -0.109652229424762 0.234635854634786
-0.112628531706081 -0.102849991979209 0.24766039947058
-0.113351047414393 -0.102295586176983 0.254142228417403
-0.109981044722784 -0.104881480191817 0.262690266479131
-0.111171281800902 -0.103968179159683 0.272021363130664
-0.102607984726692 -0.110539028110806 0.272584366207982
-0.106256547116547 -0.107739387721745 0.292922852226282
-0.114536303793402 -0.101386106969695 0.31084413532961
-0.105495258506466 -0.108323545017902 0.304875081810636
-0.1102530460598 -0.104672766225158 0.32336671023122
-0.102882889743671 -0.110328086072147 0.328532191970331
-0.112116023331715 -0.103243253486426 0.34637747171723
-0.114884732935705 -0.101118747885408 0.351947817077036
-0.107340249677764 -0.106907833499581 0.349516847222374
-0.102279124453444 -0.110791371473744 0.361855884681026
-0.113183226248697 -0.102424359886576 0.38692381121546
-0.109827590186949 -0.104999229998591 0.386301472762125
-0.112521255506764 -0.102932307902113 0.402268804286772
-0.114707169940474 -0.101254996763715 0.416350031569835
-0.105658140670665 -0.108198561137451 0.412760787566155
-0.107101517509769 -0.107091019134983 0.423870817841495
-0.112018886507193 -0.103317789193408 0.439932903693514
-0.112495370352828 -0.102952170279316 0.450508905445378
-0.112167577987112 -0.103203694207984 0.456203060864388
-0.110224506621204 -0.104694665306615 0.468099738111894
-0.107099485077106 -0.107092578675416 0.467104925867433
-0.112755318254251 -0.102752705239086 0.492515018090512
-0.101813650252182 -0.111148542390579 0.48878943258553
-0.110266486054275 -0.104662453354679 0.497649905497004
-0.111539080549652 -0.103685957253623 0.513086334293218
-0.105487678081626 -0.108329361682461 0.521800401737187
-0.105406951728673 -0.108391305191723 0.527208182018889
-0.112483202746547 -0.102961506811995 0.542018833043289
-0.115201905209832 -0.100875373039631 0.557842727168349
-0.103175315325811 -0.110103700030996 0.555082416967562
-0.114958690035752 -0.101061998606589 0.580117505337002
-0.111034810724203 -0.104072897099913 0.585291604768922
-0.107334699650813 -0.106912092185045 0.585245151775644
-0.108705674261181 -0.105860106366675 0.603491142242874
-0.101634303953315 -0.111286159645894 0.605211208820544
-0.111593853152955 -0.103643928756907 0.618569085993153
-0.11503125515959 -0.101006317428682 0.630664761031313
-0.11268213676516 -0.102808859370687 0.642490788109855
-0.108410801437676 -0.106086370242173 0.644044648672657
-0.107742800259321 -0.106598945574326 0.65859434924234
-0.113579247280045 -0.102120482261415 0.674766088260571
-0.104445884317909 -0.10912875815327 0.673892674360612
-0.105774491953425 -0.108109281658103 0.684732232173682
-0.105792335433086 -0.108015128066 0.690519886286693
-0.0944948177973627 -0.107784806888448 0.700224222988572
-0.085492051475364 -0.104918239178195 0.700105357610497
-0.0742993093364516 -0.109768082160077 0.698311944106481
0.0525226892601353 -0.112594209439259 0.607884302688326
0.0674762107703991 -0.111854613825153 0.607884302688326
0.0771436307829937 -0.11127917292457 0.607884302688326
0.0877511130789331 -0.116442362818233 0.607884302688326
0.109612646993161 -0.114313334191751 0.607884302688326
0.119552356782763 -0.116770080842888 0.607884302688326
0.133163197373746 -0.114991401721701 0.607884302688326
0.147956491400668 -0.12043525269001 0.607884302688326
0.155402471029108 -0.117794923511291 0.607884302688326
0.177483899285811 -0.113663801206717 0.607884302688326
0.183132228931144 -0.114226827455037 0.607884302688326
0.184575850282168 -0.115353930847066 0.61676437973648
0.1779092074189 -0.118115344736529 0.632537879600269
0.188580808722522 -0.113695022744331 0.639457276082448
0.177672812225909 -0.118213262831546 0.660630242523194
0.180900401871932 -0.116876351426388 0.666619873784812
0.185113935632876 -0.115131048597088 0.677667750360552
0.187506607092121 -0.114139971628366 0.684604070195223
0.181400168187852 -0.117647222986988 0.694164562116751
0.194100484915429 -0.118116849745579 0.69983713022737
0.210873859919155 -0.11873744612577 0.699852125720846
-0.116033106761604 -0.100237569656507 0.101760434901137
-0.116761598356448 -0.0996785783952676 0.1205721191941
-0.12760076211945 -0.0913613955127918 0.136539907386422
-0.125010744972538 -0.0933487855689464 0.146426759752587
-0.114908639987209 -0.101100403359586 0.13772598819939
-0.123818690528171 -0.0942634811152496 0.165746009915483
-0.116307015619321 -0.100027391997734 0.166057903007685
-0.12328096794574 -0.0946760901647939 0.181957361235358
-0.124580868583401 -0.0936786413238257 0.192813751708112
-0.119835244244177 -0.0973200869541219 0.194041293514359
-0.120488890190415 -0.0968185267789905 0.203085310764493
-0.126488083094518 -0.0922151841575811 0.21987016342007
-0.115183103332893 -0.100889800227231 0.219410477938403
-0.116544999201415 -0.0998447807724976 0.227533764108625
-0.115818736220537 -0.100402061958095 0.232407684869906
-0.116181834841902 -0.100123446586624 0.247512644475405
-0.116802510145997 -0.0996471856750197 0.255049187969384
-0.123037003502735 -0.0948632906660194 0.278059351312329
-0.118339993973726 -0.0984674328404225 0.279286861558371
-0.126464595688591 -0.0922332066780261 0.296468855779744
-0.117275249288484 -0.0992844401727157 0.303521597368716
-0.120598795247186 -0.0967341936628149 0.308470096993302
-0.121576826537163 -0.0959837238589282 0.326987985621594
-0.12025578213706 -0.0969973968794453 0.33191262884502
-0.120991661429235 -0.0964327368386644 0.341850073084561
-0.125971252670124 -0.0926117620904269 0.356165049321953
-0.118440669612518 -0.0983901817057453 0.355340982322476
-0.117266315270112 -0.0992912954861235 0.363532485509684
-0.120240212298826 -0.0970093440365211 0.379551123620529
-0.127713260865895 -0.0912750721885313 0.39719577188521
-0.123575005068816 -0.0944504675447899 0.404688744787334
-0.120557155137226 -0.0967661452429693 0.408738415079893
-0.121638552486573 -0.0959363598720872 0.425090423138624
-0.12142541093123 -0.0960999091397617 0.425572481213449
-0.118589054826152 -0.0982763217267066 0.438373539864163
-0.124529345377612 -0.0937181764701346 0.447472501149769
-0.123033515107855 -0.0948659674055552 0.463720630604993
-0.123114863521507 -0.094803546572331 0.473839304656919
-0.116982298089366 -0.0995092295339593 0.476501971878078
-0.120096705651745 -0.097119460559781 0.491588599123424
-0.12477052250996 -0.0935331147476011 0.496523601475366
-0.128005950364986 -0.0910504836367802 0.506796182336153
-0.125232753812273 -0.0931784321946484 0.517408026423574
-0.126193850705615 -0.0924409566103232 0.526527183796361
-0.122869038886562 -0.0949921744490344 0.530252775941465
-0.122344124361104 -0.0953949555308002 0.544676833371478
-0.127524650592907 -0.091419797941205 0.557365137347134
-0.127405035750544 -0.0915115816379127 0.567241814877975
-0.118779388928284 -0.0981302732334081 0.571258820013998
-0.123810892603631 -0.0942694646731985 0.581406876882595
-0.126290414683826 -0.0923668604637759 0.592313796029448
-0.127145310765895 -0.0917108756280864 0.604029770329553
-0.118320324988384 -0.0984825253837007 0.609337308438326
-0.123756708100349 -0.0943110419048973 0.62596551354802
-0.121337795304517 -0.0961671389747067 0.625685872792066
-0.120342034584858 -0.096931213048471 0.637467084565968
-0.126441614959298 -0.0922508404118157 0.656823867683491
-0.122445425113624 -0.095317224729489 0.655832583468776
-0.120204966122349 -0.0970363893789543 0.66443446256338
-0.116215481995801 -0.100097628217369 0.67649991304259
-0.116949271294984 -0.0995345718846155 0.679845609459986
-0.117976034534975 -0.0931881348994658 0.698727121946084
-0.108626043652482 -0.100224778536495 0.698811767948779
-0.111456762418684 -0.0932103585453612 0.700651967625521
-0.0938654306536416 -0.0970746414330798 0.699635198362168
0.042104397747218 -0.101491058198741 0.607884302688326
0.0550668487318433 -0.103200290991208 0.607884302688326
0.0611229576049432 -0.0983758244007344 0.607884302688326
0.0772527137705036 -0.0978634163610387 0.607884302688326
0.097306502535619 -0.101202510205507 0.607884302688326
0.102507009729295 -0.107240601856324 0.607884302688326
0.11186650814946 -0.107258957606155 0.607884302688326
0.128626514869474 -0.10815619892044 0.607884302688326
0.150827043455051 -0.103103338100536 0.607884302688326
0.150938820227007 -0.109839909116699 0.607884302688326
0.174108424132551 -0.101592323194336 0.607884302688326
0.189153186458767 -0.110104960838761 0.607884302688326
0.19769015770442 -0.109335345561957 0.615480887568241
0.199865361599722 -0.107666252908734 0.61823681086515
0.200797534287408 -0.106950971648015 0.627507862483747
0.204879399768648 -0.10381884610296 0.640572488492456
0.204917664885881 -0.10378948424581 0.654358217925669
0.19326518400461 -0.111754690971244 0.669224949733869
0.201272096718813 -0.106586827086917 0.676946035741874
0.200027450799961 -0.108023132433249 0.692955953454453
0.200941756837036 -0.107069753273751 0.691425438485221
0.211316843128516 -0.111047152853632 0.700823597479707
0.220373503140966 -0.103889525688614 0.700801663189009
-0.136916524276695 -0.0841352736029699 0.123125210889853
-0.139279950878704 -0.0810551960883836 0.142866074802165
-0.129198445718246 -0.0901354497691844 0.134612373617882
-0.135319246024873 -0.0854387945058799 0.155544412098172
-0.131815081791726 -0.0881276342922846 0.157288149820643
-0.134245660019355 -0.0862625860218302 0.179449890700835
-0.134946770952103 -0.0857246046815657 0.187443234075246
-0.130213086283949 -0.0893568886800228 0.192899783278626
-0.134365590671051 -0.0861705599960983 0.207454318626677
-0.130692907778344 -0.0889887086979614 0.213255729286162
-0.136771186661998 -0.0843246812700703 0.217649495964287
-0.135983654329136 -0.0849289760829817 0.235786188371213
-0.130219445873018 -0.0893520087956978 0.235180210739934
-0.138349091944065 -0.0822683150705401 0.254345197967854
-0.130371531150258 -0.0892353096579967 0.256102146397402
-0.131752591083827 -0.088175585098953 0.263835867759475
-0.136771186661998 -0.0843246812700703 0.281181522075429
-0.131335820107647 -0.0884953847167829 0.290695953552137
-0.139230229638368 -0.0811199940703579 0.299601618379987
-0.13611311051518 -0.0848296408576693 0.307694510844831
-0.134128136779806 -0.0863527647752504 0.322381096066858
-0.132449754614732 -0.0876406327066549 0.329373661764205
-0.135670680881631 -0.0851691290557728 0.33448208345356
-0.136850146683203 -0.0842640931148285 0.342505791006667
-0.128192458181482 -0.0909073711557145 0.347857196978081
-0.138064276559771 -0.082639493705928 0.370079842165823
-0.137535733489465 -0.0833283044457899 0.37579902066167
-0.138591645210657 -0.0819522134992528 0.382981956807309
-0.135909800358137 -0.0849856462280984 0.396270296702143
-0.135314513362939 -0.0854424260051066 0.404349289040603
-0.128493416541874 -0.0906764376835277 0.406563928573902
-0.138104241641481 -0.0825874101974163 0.424104174828812
-0.132754029658223 -0.0874071542540159 0.427145570716639
-0.128313210479194 -0.0908147146588192 0.432579953355521
-0.129212209250323 -0.0901248886395725 0.444489194953351
-0.128167127134175 -0.0909268083519472 0.452004885627939
-0.133787479162072 -0.0866141605589987 0.474241940153131
-0.137958634902453 -0.0827771685941737 0.479737030812069
-0.137741913958431 -0.0830596048272482 0.488556392191828
-0.137927613224056 -0.0828175968325677 0.496578424287452
-0.136369398490512 -0.0846329841775029 0.503234612745054
-0.138931750750784 -0.0815089793299148 0.516672333086417
-0.12863309315855 -0.0905692600459624 0.520134103416909
-0.138602317955788 -0.0819383045070003 0.541564428973613
-0.137154119041608 -0.0838256340768794 0.548008692531281
-0.130134187604389 -0.0894174297661648 0.55439333329493
-0.128140658124887 -0.090947118737118 0.554703081018405
-0.13849500052491 -0.0820781633058677 0.580061456116647
-0.129326306303092 -0.0900373388917334 0.582861635220315
-0.131742368765205 -0.0881834289599122 0.584980187985322
-0.13142694815533 -0.0884254597064331 0.600589968007462
-0.130395057081678 -0.0892172575759006 0.614723574856049
-0.128836255915523 -0.0904133677795846 0.617167039309133
-0.136370237550028 -0.0846323403444914 0.635401221791313
-0.129417563466334 -0.0899673148075318 0.636577772433988
-0.136771186661998 -0.0843246812700703 0.652752365427288
-0.129456850414068 -0.0899371688722603 0.655794380984231
-0.130324027523365 -0.0892717604729387 0.665482119864222
-0.13435052128197 -0.0861821231450327 0.680367846124819
-0.13293301051116 -0.0872698174152257 0.682103684953835
-0.132834397027432 -0.0862897130790202 0.694004229911537
-0.125690089620581 -0.0843797853028509 0.700047905593556
-0.115463096457283 -0.0891646079271667 0.700754322098028
0.0177340307810007 -0.0922342261001767 0.607884302688326
0.0289279365424799 -0.0880674170545576 0.607884302688326
0.0455941387984639 -0.0896814870919373 0.607884302688326
0.0567127704218722 -0.0892891409806805 0.607884302688326
0.072038799919192 -0.0944205958663458 0.607884302688326
0.0838387337221135 -0.0936673748436062 0.607884302688326
0.0868570736546745 -0.0877468014484438 0.607884302688326
0.0967654969609715 -0.089892843736359 0.607884302688326
0.12067088721297 -0.0980484146595772 0.607884302688326
0.138265514884721 -0.0953940206094527 0.607884302688326
0.143987545187941 -0.0897358311437678 0.607884302688326
0.165197296933276 -0.0985263273155726 0.607884302688326
0.170517790369759 -0.0937337478314775 0.607884302688326
0.196197095170565 -0.0932385474665264 0.607884302688326
0.209648921848929 -0.0926406046667348 0.607884302688326
0.209792599490289 -0.100048815359215 0.620297158522296
0.210484933908633 -0.0995175684753129 0.623670889055056
0.209289335926765 -0.100434983073573 0.637132500927494
0.214253059758575 -0.0966261838165504 0.634821938362027
0.211648720312034 -0.0986245637597396 0.658691102675073
0.212311654555246 -0.0981158764236679 0.666223762121396
0.220841749765363 -0.0915705041589155 0.6676879252957
0.209379700275485 -0.100365644070049 0.685083873797092
0.214739325237507 -0.100717377000345 0.698055232977232
0.227097807966798 -0.0916643177955763 0.698319221179581
0.243907758372803 -0.0944028539035431 0.699516294018998
-0.140348205172722 -0.0796630199877716 0.12640267684434
-0.139264516225058 -0.081075310920636 0.134055070021136
-0.143382953084189 -0.0757080595093716 0.149093497585897
-0.142552231424096 -0.0767906770545731 0.161546402503106
-0.140097811931267 -0.0799893388132236 0.163691073008014
-0.143996009638547 -0.0749091086527461 0.180157195575646
-0.145476762979118 -0.0729793533283937 0.192245593841322
-0.143676303330422 -0.0753257580253507 0.204423123437559
-0.141472854053061 -0.078197349031376 0.214015002253542
-0.143422056313464 -0.0756570991888197 0.217318027272611
-0.146356892468685 -0.0718323462462046 0.228875338286918
-0.143016638776719 -0.0761854496093013 0.241095853318636
-0.140503969631869 -0.0794600237924248 0.241862062954071
-0.143732963905584 -0.0752519165261607 0.25288379686588
-0.141829807172785 -0.0777321586688381 0.268655679437999
-0.140256044824432 -0.0797831256920338 0.275944246165703
-0.140779359258967 -0.079101129042974 0.280732478694656
-0.146274527780303 -0.0719396859979297 0.296467302200385
-0.142720542339086 -0.0765713299996325 0.302317391314112
-0.14002203460978 -0.0800880937412721 0.307424750444679
-0.141609718070116 -0.0780189843717227 0.324620450068713
-0.14196322510197 -0.077558285038331 0.332819119819102
-0.145211116386585 -0.0733255507079909 0.347133959447185
-0.146658215589136 -0.0714396543102089 0.355480232482233
-0.145571501186167 -0.0728558880931896 0.359692241161273
-0.14532819125021 -0.073172975775194 0.375697228365767
-0.140034272671627 -0.080072144788559 0.37809945011007
-0.141602203370427 -0.0780287777190254 0.38678446829854
-0.143278345540508 -0.0758443867144881 0.399319444725674
-0.141187291582549 -0.0785695012884795 0.407493612411404
-0.140560637676098 -0.0793861725593563 0.423831142909613
-0.143434873253784 -0.0756403958269926 0.427814859947925
-0.139544475141426 -0.0807104613574709 0.43325213449523
-0.139489349377746 -0.0807823026513964 0.448878109873971
-0.143940487846927 -0.0749814660603301 0.454901942990143
-0.139451758865785 -0.0808312915603618 0.463549786605773
-0.141540790938249 -0.0781088119588476 0.477860685967173
-0.142131667341057 -0.0773387668384949 0.485045803169915
-0.141655596860681 -0.0779591939677821 0.502154759639006
-0.14618429729671 -0.072057276653552 0.506480321570649
-0.146218956190552 -0.0720121083037035 0.522041605141235
-0.146084121769947 -0.0721878279417677 0.527022289264877
-0.141252390840505 -0.0784846622837585 0.528748783372971
-0.140427411244219 -0.079559796625714 0.535674914682348
-0.144309088367064 -0.0745010965100451 0.553255927252617
-0.145440065260171 -0.0730271787268509 0.561758039652292
-0.140971442687119 -0.078850801045703 0.568408863557522
-0.146535526545248 -0.0715995457851729 0.591624561448711
-0.141399397722397 -0.0782930791852942 0.591234831926858
-0.144613787809473 -0.0741040044656073 0.602820269944992
-0.145168580322288 -0.0733809847862447 0.616975492608833
-0.139715532508606 -0.0804875350563516 0.615425587295737
-0.14498144872569 -0.0736248594309912 0.629879893436272
-0.139375386495609 -0.0809308219709596 0.642584603504237
-0.140358638648194 -0.0796494228178096 0.639617692284185
-0.146410940539472 -0.0717619094290022 0.665784776255968
-0.13917133897516 -0.0811967418768743 0.655755489790877
-0.140455354482295 -0.0795233802888539 0.670468476084956
-0.142669712056918 -0.0766375733130614 0.683933119817382
-0.141138331702491 -0.0743483345975707 0.69702373534619
-0.136749993108496 -0.0766401440326537 0.698947659051207
-0.131110411233293 -0.0717988559032885 0.700816776268859
-0.11501682802621 -0.0812715911359054 0.699776724875926
0.0108906802849064 -0.0803628511575242 0.607884302688326
0.0242081824617071 -0.0792873432199104 0.607884302688326
0.0317914429962625 -0.0828693467176747 0.607884302688326
0.0546611672799652 -0.0781325615705347 0.607884302688326
0.0704612348608536 -0.0795048268518834 0.607884302688326
0.0830878312651483 -0.0828535175419318 0.607884302688326
0.0921974714583418 -0.0820329019797226 0.607884302688326
0.110888279787383 -0.0853282420957662 0.607884302688326
0.111701072898468 -0.0872723870029065 0.607884302688326
0.132124720915975 -0.0828933441061224 0.607884302688326
0.151016987293105 -0.0840920123615767 0.607884302688326
0.168137280511197 -0.0866344456115156 0.607884302688326
0.17894716660044 -0.0816802166868414 0.607884302688326
0.192169467362113 -0.0853117637929171 0.607884302688326
0.214355916284195 -0.0852172265299655 0.607884302688326
0.223831703359934 -0.0892762320729961 0.611221323773771
0.227501154453875 -0.086460563217546 0.60864092689086
0.232393052721517 -0.0827068776543366 0.623433864453497
0.223261831869562 -0.0897135098472383 0.638518417883331
0.222501780597557 -0.0902967177004956 0.647213912252328
0.222529151949685 -0.0902757149233099 0.660873605366897
0.222928102340787 -0.0899695895213523 0.670672577065143
0.22375889316043 -0.0893321013040751 0.676127855318261
0.229273008588013 -0.0851009717216607 0.689058238156518
0.231588470093675 -0.0833242556187395 0.687258463433342
