ply
format ascii 1.0
element vertex 867
property float x
property float y
property float z
end_header
-0.326448113960522 0.260504302595983 0.556986246264434
-0.338259433042742 0.251759328854944 0.562296654699258
-0.329906381282167 0.259333282791711 0.581731566614929
-0.331592561559568 0.258841788801741 0.595123290316929
-0.336077169812591 0.255817555224494 0.602082002721711
-0.334810058881127 0.257262949358657 0.609978358083183
-0.342196184294471 0.251760149550812 0.612728505708214
-0.331581842547972 0.260977865063313 0.630638121615961
-0.336741514929592 0.257471510285136 0.638195583216899
-0.341154450119324 0.254557065090116 0.646068794785426
-0.33426654567683 0.260782707562129 0.661763967476096
-0.340704971886718 0.256658091026908 0.675379410401229
-0.342645541676598 0.255914320340576 0.687818496362623
-0.343909879117159 0.255379375618115 0.695082446559656
-0.337196920885862 0.261144536434401 0.705332509533521
-0.339465943066672 0.260051900915598 0.716155383333625
-0.348773977600222 0.253396345003752 0.72427947128855
-0.346096397027799 0.256029479776932 0.73393582333059
-0.350753677425492 0.252822152362713 0.740050034155986
-0.350757707708773 0.253774926302528 0.756003892097598
-0.351116493215737 0.254320073096026 0.769697629004109
-0.348209456476514 0.260112901129254 0.775645644410666
-0.368836076791377 0.258010139858286 0.775645644410666
-0.387146278409636 0.25745235649711 0.775645644410666
0.139599159260018 0.231904086491553 0.133222602060246
0.144759062006135 0.225780821846321 0.140214440310711
0.142627713690312 0.229927123618425 0.156130493152885
0.142590012194978 0.230990180733676 0.167921214985318
0.142112923970396 0.231565048519054 0.167375990283926
0.148991590907655 0.224176675379499 0.18570392260474
0.150849439765568 0.223224240050264 0.202783854776494
0.148623444033522 0.227112110741097 0.214260284869026
0.149976587967223 0.225078715468661 0.211121160839304
0.144663954233369 0.232651746072889 0.218673740071271
0.151508231253466 0.224914355348122 0.232421836434796
0.150308576305511 0.227025048089046 0.238785956773413
0.147033926683743 0.232543941321313 0.253336929384927
0.147860901337595 0.232207428819666 0.261956455459698
0.151305871608474 0.228665999734581 0.27298223447066
0.153276070046128 0.227496027538041 0.28923512534995
0.15382654102995 0.227036649674425 0.292235472641871
0.154858214334842 0.226920185125787 0.306516093167913
0.152497755202111 0.229919135352848 0.305617651441439
0.158827240636202 0.223980441621885 0.332480804349523
0.15438863223569 0.229950549217142 0.334639116891018
0.153212962584937 0.232276223917933 0.343866717160143
0.155465117842192 0.230401109454885 0.356192687896812
0.159480370672757 0.226734279951888 0.374402817140652
0.161624528395193 0.224489220774698 0.380790074107427
0.161776075329922 0.225018049939758 0.389236413815622
0.158674525822235 0.229885511332073 0.398835335821298
0.165510235148284 0.222102069534349 0.411918070097701
0.158022953807106 0.232053660687573 0.414173781205709
0.163726658403842 0.22577155779389 0.427559813599694
0.163666160124976 0.22614401442573 0.430974191206556
0.160616377683018 0.231743813890925 0.449873859197655
0.166229110797901 0.225454190276097 0.461793765701064
0.163288948060018 0.229499977103424 0.464283402027753
0.16572037656014 0.227318046854391 0.475758349349453
0.163129046990807 0.231258760800943 0.482312664975394
0.170422210149307 0.223019848511816 0.497031513715735
0.16818180433609 0.22705468207435 0.509998562569548
0.166513266869947 0.229711501996117 0.515607596379909
0.170429598844875 0.225949171170877 0.531208017859105
0.167416070218473 0.230400097834469 0.53729709041169
0.169311950242193 0.228771532457604 0.547090797209181
0.176074070612361 0.22172947526618 0.567679712778505
0.171708088602156 0.227298727764316 0.566277208436595
0.175763461679013 0.222772333200928 0.57509964181139
0.173670132631671 0.226673771103268 0.588744400262044
0.179207287864434 0.220832486091795 0.604732570462938
0.17912351315953 0.221708380170762 0.613648571910274
0.177271564248218 0.225122133606788 0.625280247192259
0.178360128749917 0.224083993777254 0.629705067092175
0.179472590227655 0.223113770750266 0.63528183604116
0.173898022235165 0.231125634613566 0.643967920326163
0.180584602463825 0.224057793779507 0.663112195305383
0.183119103555651 0.221854026492316 0.675895264587866
0.183281269852117 0.221859059860957 0.678411419872184
0.18216002835879 0.224366428532613 0.690576760691871
0.185320442856188 0.220968176670484 0.698955089599559
0.1813417135898 0.226766592237572 0.706086277017593
0.183746239863434 0.224769518635672 0.719303184591631
0.185486633307975 0.223539534007439 0.731375517733024
0.18293190167781 0.227295476435549 0.736335801158137
0.184105692755594 0.226207600488839 0.741473854409561
0.184880744869725 0.227030718455415 0.76279161591802
0.189929927293035 0.22080218941132 0.766881393052281
0.182777228090438 0.223801085132561 0.775645644410666
0.169222827639464 0.228089206455905 0.775645644410666
0.16357753949006 0.229385268411968 0.775645644410666
0.144736806747089 0.230483846464461 0.775645644410666
-0.305808971876623 0.268910374808643 0.432961080421182
-0.317790787854469 0.260217355080197 0.441322187119168
-0.318321079586165 0.260200709776852 0.44783583967946
-0.313374657317052 0.264746983950595 0.460366222281424
-0.320386221676355 0.260007731618952 0.47106331325703
-0.317382799154326 0.26310284795511 0.484257280549699
-0.316645919057866 0.263817202248204 0.486742930169004
-0.310890020149201 0.269478785130311 0.50752133154709
-0.316684612679775 0.265772231874362 0.519868838445406
-0.319618499857404 0.263770583876486 0.524034825940925
-0.324338345376374 0.260925866716867 0.53700244559135
-0.31841024602346 0.266314762990521 0.551024201193044
-0.321109642687428 0.264606408262002 0.557082259571082
-0.32340437321024 0.263368766837134 0.565814165004645
-0.314736245056027 0.270706075137735 0.577264152985428
-0.317430314620233 0.269433483612508 0.590527078280376
-0.321753667671995 0.266486984436917 0.596718011411339
-0.320789814031817 0.267678419196008 0.604259496215544
-0.320073972316947 0.269524655449432 0.625906223759362
-0.320085254915705 0.269407984380801 0.624103425906481
-0.32719176852715 0.264836435165955 0.638815579616299
-0.321192647367624 0.270678573160668 0.659492571644242
-0.324646379883197 0.268226286313553 0.662794869338995
-0.329119015760446 0.265262175495886 0.670603727909598
-0.321935420044716 0.271272191990288 0.678913070704055
-0.324765559910599 0.270338039244438 0.699567355821472
-0.330068514569025 0.266413471623788 0.70197967247975
-0.332525263080269 0.264999070869925 0.709836353963862
-0.329404967933725 0.268598214477676 0.729945978713152
-0.338104430229031 0.261853524221145 0.728788360366924
-0.330006310515972 0.269062051759215 0.745389061449818
-0.334952543276459 0.265816119202373 0.754559560536524
-0.332816505253439 0.268226792553922 0.76743848776274
-0.340079969478478 0.270329111871526 0.775645644410667
-0.352929725064074 0.264245823003555 0.775645644410666
-0.36986007157341 0.273741729632836 0.775645644410666
0.131255494100323 0.241840033747549 0.122317933565604
0.134737787369307 0.238543351014957 0.136755449174379
0.133023018030329 0.241010383349915 0.139456837672383
0.131434568705889 0.243807994710921 0.147916840326177
0.139944209219683 0.234193439840747 0.165074268263707
0.134302456671623 0.242390131321864 0.174891498269483
0.13554722414903 0.241864224114773 0.187640221981002
0.142079050097032 0.233950771430972 0.194605745260539
0.137562046533634 0.24071728254678 0.204837205588416
0.141858106074466 0.235890317673463 0.21381195769607
0.14239031647682 0.236348336392571 0.22720379476241
0.143668340672693 0.235787085282174 0.24004551516261
0.145852331817205 0.233670531722784 0.248530812987355
0.146001023845544 0.234700503686421 0.262761579757357
0.145060189573215 0.236314830872682 0.267275976846936
0.145701921714309 0.235947923691954 0.27273470678488
0.147579743608473 0.235151460511537 0.291931099523235
0.140948844545498 0.243196325888959 0.284992300364186
0.144077804287286 0.241404438124715 0.311574032391586
0.150266103646001 0.234760797330705 0.328099822865569
0.149108108561917 0.236906669778544 0.335504394672885
0.151199670023455 0.234167833523048 0.33535251907737
0.14848490010799 0.239323618095499 0.354165923785035
0.15045454761721 0.23687180388504 0.355504171572618
0.149891716568289 0.238278332369488 0.363330740101694
0.148275655217558 0.241448614537523 0.375706000700014
0.155981096382661 0.232513560172431 0.388577602732792
0.152302770672764 0.238089393960509 0.397673032437604
0.152481889218282 0.238721160920781 0.407734262501525
0.155319529562572 0.236439608848924 0.424206849772759
0.155886254382957 0.235983832204785 0.42749540114232
0.154179365712079 0.239774071972973 0.445703545110561
0.158839668885926 0.234206231824627 0.451582897903349
0.15632959501622 0.237979988364925 0.457427124635272
0.160825339792766 0.233243633931181 0.470481789197954
0.161963455418025 0.233052810647511 0.48551083508387
0.159569665145987 0.2362156508302 0.486013106098315
0.165026783543263 0.231181200519685 0.510170846795384
0.157527189226042 0.241326084276563 0.514487717728264
0.159181591159864 0.239642305003767 0.519979762758662
0.165887424640315 0.232328080401996 0.536550670574597
0.167411536647839 0.231314323107426 0.547859733891475
0.159746187538674 0.241097544425955 0.545458895309747
0.163921321383553 0.236414598599634 0.554275793472536
0.169007091160766 0.231548090076953 0.574758724582979
0.168413398453763 0.233491528498078 0.588361208220461
0.170924363449912 0.230908168826814 0.596373382296073
0.168413208564038 0.235275486971218 0.609103639801657
0.166607444586097 0.237076817417226 0.602684689481708
0.16741016529773 0.237463466614432 0.619346156168439
0.170422234739333 0.234979943557284 0.636113527194165
0.172169622495699 0.232974512089559 0.639274336945123
0.169601079766232 0.237419086743393 0.652033285225149
0.175394980504207 0.230667563881671 0.661327441878479
0.173257181282055 0.234195243188878 0.66995189006581
0.172167851994622 0.236098545093921 0.675576282948208
0.174853027115591 0.233828895304857 0.689876675706536
0.174234803609213 0.235837271300639 0.703862542683835
0.172055022070065 0.23923719923143 0.710365154531312
0.175046495131358 0.236368681137981 0.722343355207644
0.17947717393049 0.231432816082749 0.732091877120695
0.17855898244956 0.23330584795746 0.7399578517096
0.179855722108196 0.232916113099921 0.755077733595463
0.179467486853227 0.234372637030314 0.766131681239433
0.175735153119414 0.239359039997152 0.767554244228429
0.163865174549587 0.232806618915417 0.775645644410666
0.163570992261975 0.236158694749236 0.775645644410666
0.148361001340412 0.23704775854368 0.775645644410666
0.139753684201571 0.240624422218354 0.775645644410666
-0.294245204024512 0.278974209514194 0.45283347719772
-0.293282739463666 0.280163990312769 0.460365146631152
-0.297347219401818 0.27792271647106 0.475011220066573
-0.300048333313425 0.275931038958885 0.476362481766877
-0.299391156508477 0.277847837954932 0.499938258614495
-0.304482504349028 0.273953247104001 0.500140843367886
-0.304820898010436 0.274237441661205 0.509218006310227
-0.301526704944693 0.277793853207815 0.526387294407595
-0.302236627088345 0.277365884611353 0.528336304048972
-0.305662178734185 0.275845413474377 0.546830127337446
-0.301677130470848 0.279474646356043 0.556367023426816
-0.305556874329637 0.276523623843194 0.556801136737173
-0.311692099049787 0.272960277297086 0.575901322508644
-0.306610653408101 0.277662220139932 0.589300637378069
-0.314764357339485 0.271502783552492 0.590921623721495
-0.310001526791995 0.276233812439521 0.608886916322824
-0.315762285096238 0.271963567794442 0.611392834257891
-0.314845539465719 0.273776282968182 0.629907093700177
-0.307848793437805 0.280002110145536 0.644211410050106
-0.312017264170771 0.27671267731215 0.64269503537601
-0.308221956464756 0.280844380898172 0.663048418121707
-0.317415608855685 0.274386991435978 0.673015099319668
-0.31509066509682 0.276742114690799 0.682547545101357
-0.312128336260391 0.279366320845099 0.68840809029373
-0.311835074440728 0.280155803233884 0.697829102455216
-0.312611916733868 0.280713128924927 0.717080183216271
-0.322578618280641 0.273256900084332 0.720276244687616
-0.315329814381297 0.280079865440279 0.741318959370878
-0.323224452013013 0.27392902022762 0.739765465830255
-0.317647482858727 0.279100870903304 0.754661569562522
-0.317252727212628 0.28023924170396 0.76860585614515
-0.321423240268796 0.277336792283342 0.773574571444889
-0.336460255493339 0.277986027601503 0.775645644410666
-0.366101575051319 0.27885472786633 0.775645644410666
0.115090806405379 0.25484031207905 0.106081738245307
0.129265176440528 0.244712548148205 0.125558671991347
0.117426899315349 0.254319342398597 0.125352439599563
0.129851962687396 0.246332525323772 0.153289794625706
0.129374666350174 0.247128162705521 0.155308703084666
0.126740868105271 0.249761494922836 0.164588806651045
0.129458122448768 0.24853500434366 0.177599822163275
0.123407610196032 0.253432630555719 0.181462894436444
0.131548100447753 0.24848746227564 0.204054035636812
0.133724994401024 0.246417245291279 0.21297061493811
0.128752231977865 0.25159149990429 0.215712215933619
0.134690561879976 0.246300187854798 0.226242509952236
0.135431862259431 0.246093631939015 0.235074886200433
0.137653151629281 0.244686836639587 0.252379079066427
0.136496640029277 0.246858142063519 0.260101888189411
0.139720293410669 0.243868582372471 0.274191202160191
0.138071981293259 0.246631808439551 0.281344126817496
0.138502331458646 0.246902660470235 0.291015751041004
0.141299105637544 0.244224455155598 0.30225640920963
0.13951603937329 0.24797748811827 0.318877414272153
0.136567158800993 0.25152060972503 0.315389535198635
0.143663101250194 0.243528573339175 0.329990384929401
0.139276472692081 0.249935736428025 0.338018883857961
0.140074503999865 0.249939538286222 0.350157224893674
0.141203277742678 0.249416214068636 0.361178105660733
0.148269689724437 0.242024836033095 0.382316362655627
0.144767834111612 0.245903914839882 0.374354952302879
0.147303776902676 0.244739899941977 0.399250950670932
0.147244172686009 0.245693996941088 0.409442661512524
0.14710206323193 0.246572784070724 0.417508245087569
0.14849471437294 0.245315018978642 0.42398750499541
0.146086360575674 0.24959964585208 0.437314107696145
0.150527631518596 0.24426886961226 0.442630807016003
0.152088299693543 0.243668501112791 0.45930109611598
0.147343094801257 0.250513413691145 0.466985890674518
0.15430609988165 0.242410117319032 0.478278259387106
0.148181306826654 0.250584195637138 0.480512067283373
0.152454586306907 0.246069779432484 0.492776156804182
0.149407349010632 0.250312485667419 0.495933020677509
0.15379388052536 0.246566601498936 0.518850550851481
0.156096803696499 0.243892577946157 0.522655547256619
0.153191560675729 0.248432418455471 0.531419645459867
0.153052529963039 0.249452547438725 0.541175524409543
0.15700506150885 0.245819670366303 0.558829941568485
0.160674141765594 0.241730594271531 0.566883616168559
0.156602644533544 0.247653415494316 0.574055598478324
0.154759156012666 0.250607075903471 0.580465157452523
0.158362853809044 0.247310594444152 0.596744893992036
0.156237651424179 0.250316498056302 0.599492617681422
0.163607121292147 0.241822713160201 0.612404026866194
0.163020050295054 0.243722057469692 0.625594100302834
0.161707913785652 0.2463025697598 0.635717008454715
0.161098816308869 0.247608763737916 0.641675640628566
0.160683661479298 0.249153183634287 0.653343748536166
0.166424233921817 0.242629895159325 0.664483810885517
0.16104095932949 0.24987001993253 0.66709453319732
0.168051399463615 0.242544072694995 0.68814542140462
0.168932306201756 0.242316884118757 0.698853592748614
0.166238560948608 0.245836580782524 0.698959874255147
0.163928673065222 0.249944344849806 0.711722020127724
0.168355446729141 0.245871859040011 0.731451430775112
0.167237273737399 0.247961961602652 0.738810967420572
0.165208128906321 0.250442958142121 0.736910395974339
0.167429481559659 0.249009347810333 0.75390372105425
0.171836804589541 0.244372067759721 0.766770474781779
0.168367177578816 0.249554702324421 0.774456286240361
0.159404640785192 0.242990051662309 0.775645644410666
0.151110220500553 0.249647481137059 0.775645644410666
0.133053659201576 0.251610365252246 0.775645644410666
0.13231913044126 0.245723850949902 0.775645644410666
-0.288569963474699 0.283970907752438 0.463547638713856
-0.293369534747338 0.28140507778218 0.482191067142275
-0.292518696936385 0.282462566669627 0.488944331697818
-0.286140218521541 0.288096951000511 0.501295372365731
-0.297009690939509 0.28035217640435 0.511237298259398
-0.288940859236936 0.287371515312168 0.525055445657382
-0.298478010138525 0.280444900959687 0.531589745474335
-0.290533054225583 0.287091619488696 0.540775167667762
-0.291081569087682 0.286985745525475 0.546032936696535
-0.291316224306989 0.287779268583214 0.562282447156225
-0.290348658131993 0.289581068827284 0.5799636702901
-0.299254636639394 0.28265095156195 0.578356051155625
-0.301149293368064 0.281854463890499 0.589327255347645
-0.29745882482285 0.285861606742809 0.608944341212604
-0.301028453050782 0.283743883213732 0.619314938583099
-0.293622764335043 0.290311235086006 0.634082113860163
-0.29657596042761 0.28849645684456 0.641614334998834
-0.305031880899274 0.282176436727772 0.64442560830297
-0.295186156588229 0.29088590943806 0.663696133161724
-0.304968313323787 0.283429194856592 0.66452061355918
-0.30389600964808 0.285155445791672 0.679599505492274
-0.307434369604837 0.282304490110936 0.67733166171684
-0.301289184185157 0.288142895815692 0.696075708427008
-0.303469601543806 0.287463862476002 0.712667029706201
-0.30652549387998 0.285313279960427 0.715909756203459
-0.307659677045007 0.285417444933852 0.732173853878841
-0.310731620018576 0.283256912864143 0.735456078918706
-0.30825505359683 0.285995339494073 0.749444198627383
-0.3017218156669 0.292043553592341 0.766720239152938
-0.309593092475888 0.286311139261367 0.771851369274684
-0.322525603240847 0.282526546692267 0.775645644410666
-0.332427350139324 0.28572985277547 0.775645644410666
-0.343317930077488 0.284632821564821 0.775645644410666
-0.361291694895165 0.290165151580771 0.775645644410666
0.114932463949764 0.255190223024417 0.109543289583759
0.115393932102884 0.255350017928205 0.117331298677609
0.107480347496644 0.261527621156214 0.118927057853086
0.104617402163068 0.264337927769977 0.128224493402296
0.113446056118283 0.258311347034221 0.139558638710129
0.108517886316923 0.262684812304223 0.148529578687909
0.119327050570552 0.255704202923721 0.168436433797104
0.122082015873106 0.254352096565924 0.179982281093225
0.120220107359007 0.255984853672509 0.183074869077622
0.118097517134731 0.258702487524932 0.199577299851024
0.117122211505883 0.259964340786165 0.207358990220851
0.11114597653989 0.264620308303954 0.208423491688504
0.112731868263965 0.264135596596473 0.219519736012893
0.126379235884596 0.255001812266267 0.239800237962584
0.12949801722305 0.253731223553706 0.256812228228654
0.118975616864553 0.261912232481455 0.25843209843066
0.116944581588606 0.263715129056851 0.262136400181098
0.12036263466399 0.262047615557553 0.276613185834035
0.123696917830763 0.260188925200104 0.287218550342509
0.126020618169776 0.258985410105518 0.296001194641807
0.135919001617206 0.252822540793776 0.320706646650264
0.134408266328216 0.254615966055731 0.327320803326157
0.137112719210722 0.253010535152152 0.340983535329573
0.133444885156843 0.256590460812611 0.3460412119633
0.137789870512002 0.253507183603242 0.357021163161354
0.130301108397271 0.259911590206464 0.359814410112252
0.135296602896593 0.256784100013157 0.370509074481174
0.131803417221821 0.259669668233631 0.373618152932142
0.130900859978382 0.261161714600878 0.385734386825888
0.131828446427384 0.261372853349311 0.399720909516361
0.141337679273383 0.254198156971552 0.418823247681734
0.134187770686469 0.26103858613487 0.422091231551888
0.141153046678169 0.255697457501927 0.433460225668687
0.139673728595611 0.257951409923727 0.439100357067661
0.135759470977041 0.261359230214273 0.445227578553775
0.145633597985082 0.252760793284326 0.467212884616076
0.144622072674592 0.2555811254524 0.48468036164026
0.143185747718697 0.257408777168104 0.484166328697067
0.148047817686573 0.252173586345337 0.496971763440591
0.148904556234395 0.252178532391712 0.510013115704186
0.148974969475239 0.252545130314255 0.515343321929533
0.150763316115926 0.251922989825226 0.535210886060459
0.144304307324552 0.259706192106997 0.52783424681208
0.150802484627014 0.252797078712418 0.545969094402269
0.147545996211813 0.257828928735339 0.555131567675759
0.153682882037576 0.251623008743226 0.575968359146577
0.149376220942049 0.257173161950756 0.575242758730937
0.154006526628821 0.252365553483457 0.589508088642116
0.152500222197381 0.255014854014867 0.597488315536135
0.152373919239587 0.256232301209119 0.609731658517383
0.152547056467445 0.256150683893 0.611406433675243
0.151519786549 0.258480636448337 0.622932771816336
0.15362873607435 0.256881342149769 0.636295925426605
0.15229888523405 0.25940903306151 0.645536124028326
0.158846996570219 0.251908795243753 0.657553647720446
0.15410208128917 0.259101715757684 0.66928974855358
0.155905939030506 0.257218064136766 0.67472251285878
0.15789757799241 0.255813063237661 0.688567230458984
0.156197939528089 0.258934846897618 0.699111903709303
0.156107574904846 0.25975617436138 0.70729349057486
0.161653386826186 0.253519813591532 0.718818592645659
0.158373777139987 0.258339322275498 0.725161387540168
0.159643424988841 0.257634638402811 0.736208212807425
0.159603757089537 0.257915684380987 0.738875277037275
0.16334304562366 0.254661244425132 0.757698777887056
0.162312118004388 0.257128343473707 0.770764533874841
0.152096714571038 0.253935622178846 0.775645644410666
0.140261809403087 0.254965818797274 0.775645644410666
0.140461149566335 0.253878537429111 0.775645644410666
0.133272640319052 0.255078939939999 0.775645644410666
0.118953932379982 0.259843634287166 0.775645644410666
-0.268696604446273 0.295201363792378 0.489175551639986
-0.264898551429942 0.297799466056384 0.509095925350976
-0.263681646225016 0.298822082249078 0.519174848681477
-0.269819784174597 0.296882681443567 0.530896962020023
-0.286156775063413 0.289919416069525 0.531925205691279
-0.282696674026917 0.291758680335206 0.534974368134735
-0.277086160763597 0.29532338849858 0.559090301700683
-0.276257940394847 0.295568044326921 0.557177670790705
-0.273277783142825 0.298095784017737 0.582315197565713
-0.288611612096048 0.290756129342552 0.577329550967877
-0.274008123113447 0.29845757288811 0.595226946875828
-0.273983258391597 0.299179850700348 0.609065288926829
-0.289715126152113 0.291546336451318 0.604651231524873
-0.275269976844795 0.299360653258999 0.62293862215946
-0.290786634285677 0.2925168146535 0.634571819489833
-0.288708088508824 0.294554956234697 0.641969323352766
-0.292324982363594 0.292259217226568 0.649974092303104
-0.291806875515186 0.293203085410262 0.659092274906784
-0.282242118599378 0.299154887987383 0.675070909652836
-0.29405568387811 0.292971839345628 0.684033261602602
-0.289278524724819 0.29776052592518 0.704618465232272
-0.28627463312193 0.299072285480058 0.705930560673758
-0.291120889279071 0.297071965480358 0.714880232633376
-0.288991379013646 0.299371779666561 0.73362376899209
-0.286937358294059 0.30088075451328 0.746416295363696
-0.299437007744367 0.292557769575424 0.746041104513495
-0.296872890620243 0.29523704547307 0.757920705035092
-0.291686940133013 0.299809546002808 0.767821168926951
-0.294143361884776 0.302100755921658 0.775645644410667
-0.307128928467145 0.301695745533411 0.775645644410666
-0.339186812511677 0.303300468025964 0.775645644410666
-0.345316666069975 0.301672532695389 0.775645644410666
0.0951624080883539 0.268994257023527 0.0888406575703045
0.0873595743864658 0.274867667413189 0.0871142883624705
0.0877854727379082 0.274874159640989 0.0921653676610444
0.089235342631172 0.274793799562176 0.107807771770176
0.0996904288763134 0.267787687564524 0.123210630882222
0.102869736972192 0.266863290835472 0.146172999687391
0.0897394213220249 0.276339742289416 0.137098300918778
0.104791693181954 0.266914295510671 0.169296031775997
0.094701109074741 0.274166863870876 0.161866933310499
0.102130339983311 0.269650661073637 0.179817169992347
0.0977129294500243 0.27374202981747 0.1904524704306
0.0967822006505833 0.274166699237018 0.186065051243125
0.110909689904749 0.265393658380085 0.21739584689696
0.100339468950417 0.273711773374082 0.220537457109004
0.113119493489024 0.26478737884826 0.233905086907715
0.105329718658503 0.270967812393414 0.236983499443345
0.106044435238499 0.271649357715339 0.255623590721756
0.106400053099283 0.271949819521717 0.264312487986955
0.112032786198172 0.268158808376065 0.272361845907975
0.109332749988869 0.271234778168966 0.287579834265562
0.109241071641171 0.271212313912381 0.286173279587619
0.111388256608996 0.270748668549008 0.304115954427789
0.118335955487045 0.26618837690025 0.315798383269929
0.108263616070582 0.274236245581427 0.320634190770015
0.116864957474696 0.268657578627728 0.336113076216995
0.110013069621175 0.274100859421884 0.338926477632663
0.115288775807142 0.271661719059522 0.363311581635376
0.121722738209882 0.267084162959725 0.368758225983762
0.117452984959401 0.271243357313551 0.382138498699591
0.127212827274177 0.265081903491014 0.402257258222074
0.123488608135657 0.26760289948173 0.39715461666218
0.118454066374992 0.272053444627972 0.406056719812073
0.130946506097671 0.263942780215489 0.428412125876656
0.120096932473701 0.272272621717681 0.428482912443628
0.125222740195259 0.26906679864084 0.439505832702691
0.12891580058933 0.267528852340847 0.459144210778798
0.130975185314654 0.266218484941187 0.463233837672094
0.123431653657418 0.272716352808925 0.473986468055411
0.135171963902013 0.264531212883179 0.486466832156482
0.132617419587122 0.26715395734819 0.496508107476024
0.13026111632776 0.269388796571133 0.502976002664415
0.129448715368223 0.270630025216848 0.512339514888973
0.129993148881806 0.271122989732041 0.526141483227122
0.129166664117786 0.27235973698284 0.535273302256852
0.131415015228484 0.271523858531125 0.548751242322925
0.133945214127376 0.26970202289296 0.550564597487822
0.143225785266114 0.264134936151456 0.574117612260068
0.139699347128669 0.267422973300308 0.582939403434822
0.137429236110613 0.269308721027453 0.585119145067224
0.143383028137637 0.265617769213793 0.598418430251373
0.148301136030832 0.262069928480215 0.615893447856722
0.137002362881393 0.271335211675242 0.610866496667764
0.140949962496087 0.269228315169712 0.624842446534834
0.149344530072538 0.263231099661209 0.64520907536791
0.148868949794542 0.264746341902197 0.655622136885155
0.149168897969228 0.264615889472619 0.658650832333466
0.150697186684438 0.263384036257429 0.667486998036446
0.152571381920133 0.26193180944092 0.679002679950707
0.149617761895517 0.267020179659902 0.693412373055915
0.151441769855858 0.265469709803135 0.703025019596769
0.151353249601212 0.266256964524274 0.710838332429791
0.155466880907885 0.262263386628324 0.726739689120866
0.152090403627975 0.267214339903421 0.733143003645221
0.151997003456721 0.267908100779801 0.739795139646723
0.155539564744695 0.264350286672565 0.752109368036014
0.155095282151467 0.265834850295517 0.762639988874491
0.154664157276497 0.266944122014485 0.769005817123801
0.14270470938308 0.262781884623252 0.775645644410666
0.14260734580013 0.267707946969533 0.775645644410666
0.126428124200998 0.26439302534729 0.775645644410666
0.117173778125459 0.267178467683573 0.775645644410666
0.0935301297168843 0.27242719377756 0.775645644410667
-0.24535760475458 0.307022773022993 0.531043223297967
-0.245000778174436 0.307584194780733 0.539082519386162
-0.261059919220902 0.300652926894372 0.533652869058412
-0.264740724357458 0.299651799033677 0.543828080509239
-0.263439873150292 0.300691903733454 0.553571082220815
-0.257513281513933 0.303793036024791 0.566132043568186
-0.255727842408066 0.305398033246999 0.582953214112295
-0.25922954186057 0.304083934808571 0.585603433137379
-0.258482961345445 0.305366506554001 0.604521483681255
-0.264721052847936 0.302894645302841 0.606699161272381
-0.259165668267846 0.30577320097655 0.617922551665608
-0.270005546396018 0.301255490846146 0.617384441690396
-0.269288737349897 0.302488327144213 0.635575496679026
-0.256866917419823 0.308935766878759 0.660884750628786
-0.26325694894654 0.306670092433257 0.668293215559818
-0.258235859998529 0.308878095366807 0.670784965765706
-0.271876584067101 0.303278637735339 0.671770691263779
-0.274234931372264 0.303219831037658 0.689614386994186
-0.278222842726286 0.301849277698608 0.695081739477299
-0.276951912635644 0.303035176118827 0.707899345346906
-0.278040690294401 0.302929037446284 0.714601965953037
-0.266226735430297 0.308762417240911 0.732869895934901
-0.270833180258847 0.307523245602196 0.745870561069642
-0.269921421688657 0.308013106490536 0.748051295441838
-0.277185532338242 0.30561668769779 0.759955629016689
-0.276170060612243 0.306784358761597 0.774475615419909
-0.285218333989698 0.306339110026583 0.775645644410666
-0.314245332100044 0.314031247287739 0.775645644410666
-0.318293542506497 0.308383248661705 0.775645644410666
0.0707925411506109 0.285898972151499 0.0616383972614452
0.0768761203330998 0.282193933252152 0.0762334630947781
0.0743772108306741 0.284743235996926 0.0858086988345267
0.0732588389779747 0.286188763811875 0.0947102795718313
0.0834993662315452 0.279548124902143 0.1131568023549
0.0809933702045808 0.281981300586472 0.120889729686978
0.0781087053134714 0.284167430253417 0.120475218049529
0.0889139754450237 0.277723876251355 0.148475840199188
0.0922579678756285 0.276032252634541 0.161726001095636
0.0910271307299301 0.277275785051067 0.166258513082452
0.0841223852725709 0.282858651883359 0.170572663979347
0.0890403376259097 0.280624679436139 0.193906828475934
0.0900302762353157 0.280471699691727 0.203100232412681
0.0922682093500435 0.279180656572708 0.209559022761162
0.0838073324430172 0.286209646620374 0.217693155657256
0.0888643937930103 0.282592936445007 0.22168966139773
0.0967046795140571 0.277790285497257 0.240078865958206
0.0952908239813941 0.279849713862274 0.254847960203574
0.102062766026905 0.275412783173171 0.266356076713791
0.0940825355706113 0.28190950751104 0.272013090760112
0.098302131600228 0.279029464653166 0.27743503499246
0.094623890643168 0.283106760645178 0.296452724064478
0.0948957746901976 0.283029293564192 0.298440400998543
0.106757854787846 0.275730944796782 0.32577608491425
0.095193804646751 0.283890179824185 0.314952827980911
0.104552390212696 0.278014648472617 0.334738592768276
0.104482968725361 0.278910721595965 0.347511253102587
0.103717114621041 0.280230142304906 0.35860104707467
0.11282372166468 0.274337086456801 0.375191019190074
0.110998966571195 0.276214741278075 0.382427071419799
0.108800710717393 0.278322690361033 0.388809854850711
0.108844325776501 0.278586880134221 0.393320830557352
0.104589387823912 0.282782698938841 0.407428429485773
0.113299829143343 0.276921408421596 0.419892868942915
0.105276954508532 0.283044412312219 0.41939026483712
0.11036700015179 0.280396266427837 0.438448888513706
0.117930943119698 0.275556890181351 0.453067986129371
0.10993967039432 0.282197653304207 0.460779493313755
0.117486441955043 0.277242008018772 0.473436855686515
0.110803497928295 0.28296728477414 0.482488508909201
0.121610925155949 0.275685960890355 0.497817849184939
0.124262033976551 0.274547692216531 0.511396670316829
0.119340568378327 0.278292267655828 0.510914773992574
0.119318930880694 0.279096295219577 0.522848158660852
0.115438799908992 0.282209118532867 0.524901565914443
0.11920610111734 0.280262365915539 0.539207834054375
0.122185994322741 0.279243886529914 0.55842542692953
0.118141100059475 0.282522222581176 0.561071171998561
0.127896362497666 0.276378845700926 0.581410628297322
0.127937739597914 0.276413724769283 0.582420385396222
0.126711823892128 0.27795531223119 0.591527139183118
0.135064020574734 0.273124374450285 0.615440571947565
0.130501288656514 0.276487870125767 0.613355073126278
0.128173865235029 0.27934012828827 0.629515763714066
0.138586693639121 0.272661776871522 0.649394411964639
0.130437837273538 0.278507295084024 0.643221507133504
0.128343778889949 0.281131152232905 0.658634547297861
0.133592131575188 0.277505959638854 0.664726992429652
0.137937241757913 0.275203128578943 0.680356136401561
0.128743527700677 0.282328155500314 0.681423681948582
0.134126304219171 0.279616039206147 0.702916947776096
0.137576796978525 0.277501545984313 0.71099700989768
0.144938615329345 0.273289933865455 0.732779377493582
0.143955964982619 0.27433058079825 0.73712328521277
0.1372938157505 0.279235175776607 0.73397936025456
0.147935015905865 0.272501708359027 0.75567841898895
0.144477903454419 0.275432980611908 0.759899628638101
0.141310573984584 0.278376084196875 0.767669972071273
0.132881347259156 0.274731984988046 0.775645644410666
0.129943840335344 0.275838214966916 0.775645644410666
0.105102877136213 0.279663595176046 0.775645644410666
0.0978127828906468 0.28322203603686 0.775645644410666
-0.239270840076579 0.309603717164393 0.532204039865141
-0.232269347092013 0.313443551893049 0.550468897194084
-0.223054052072617 0.317367440506138 0.552544486376433
-0.240020471059914 0.31062664345856 0.55812126948506
-0.236250508616333 0.313012382421323 0.574140205165192
-0.231800737471482 0.315895802836013 0.594359271849449
-0.245183983984131 0.309843832260085 0.5844768354071
-0.229744485269245 0.317389204091385 0.606831137407708
-0.230572514550415 0.317511071262468 0.615866139659803
-0.245884905961531 0.311441457052875 0.621172020948049
-0.242705047813161 0.312972094573383 0.625321649827613
-0.245468953066425 0.312979210782121 0.647711737897038
-0.24069053653618 0.3152732942009 0.653830306185676
-0.254128614710333 0.309633087580466 0.652392544787547
-0.254029786546707 0.310681975725833 0.671983567397802
-0.241095102563705 0.316967552050474 0.690017780342395
-0.243221333440864 0.316605048238581 0.700089945644234
-0.25341208000482 0.312570008084273 0.703707173608476
-0.250487397868116 0.31437718449292 0.715286122276679
-0.26047898229003 0.310390982325007 0.718249164194515
-0.247439437084909 0.317065291689635 0.74299474997355
-0.263112092118318 0.310732362747424 0.746083151653334
-0.250220044614449 0.316952396575676 0.763186710169313
-0.261063758120133 0.312133877680439 0.756832820584588
-0.254865873057976 0.315430979874729 0.771018601732215
-0.27332272891903 0.318092715008548 0.775645644410666
-0.288816123336668 0.314891602478462 0.775645644410666
-0.306006414455203 0.316517130772145 0.775645644410666
0.0590964554818033 0.293982928390362 0.0481388778319334
0.0580032856901501 0.295821066412521 0.0632835191934003
0.0522719214212421 0.298923191400172 0.0546940813421463
0.0615547328207307 0.294206990916192 0.0801213692360404
0.0578222078746542 0.297360965349137 0.0845149019597947
0.0608962783564853 0.29616587459464 0.102151126578688
0.0657523547004437 0.293591433773032 0.119605963393859
0.0680091825486385 0.291773907500892 0.118305647538952
0.0634467894867976 0.295934420305584 0.12830284934006
0.0714413028963291 0.291051806540612 0.147273704936336
0.065199068332837 0.296592534838634 0.15865345970108
0.0673075064607277 0.295379553908631 0.164789406897481
0.0659077685033288 0.296864570370906 0.171017484159307
0.0692780442559121 0.295432903926327 0.188512928446383
0.0741429266709243 0.292973652140212 0.207815854216734
0.0787450937254695 0.290142383018737 0.218425807050277
0.0782373794101196 0.290804664315667 0.222558539518448
0.0764050920461121 0.292502985158051 0.226989201730647
0.0777596797417737 0.292558651118211 0.243585056261121
0.0874680065202326 0.28634056732159 0.26224652672942
0.0759703155073471 0.295581257385849 0.268584351628938
0.0804722287445377 0.2926952761445 0.277199312326625
0.0778546905635212 0.294838159058437 0.279235763059309
0.0851345685380136 0.290541360009835 0.298774257570703
0.0881864079434537 0.288671520484425 0.305926172841455
0.0838893142690079 0.292751073315847 0.317781545206953
0.082830282011089 0.294027456513809 0.324809795302512
0.0857134772895719 0.292575816490377 0.336338375882949
0.0829464261093154 0.295499101588403 0.348463130107629
0.0981031317042419 0.285559171633167 0.374078330455544
0.0841699107175511 0.295923346370369 0.369120208200893
0.0843407960183419 0.296028763558786 0.372704993369464
0.0891416289852327 0.293232516688382 0.386155954519286
0.0903998529674953 0.29353035919854 0.405301389136463
0.0990325672476074 0.288152549207447 0.424189082295897
0.0983980452783943 0.289363814406928 0.43516702029336
0.0897896015552647 0.29572332476213 0.431439191329886
0.101144826367197 0.287726301610248 0.442292372705573
0.101668904743404 0.288544451760175 0.460785809305217
0.106285966957311 0.286146106573912 0.478129918593698
0.104871018681935 0.287472233093468 0.481773147787657
0.103786610131483 0.289230331743033 0.495806678704523
0.108335663564184 0.286212948187739 0.502978427267389
0.0985546280580771 0.293734968478211 0.503232542191433
0.099482913791238 0.294201681226135 0.521100409632851
0.112015567679126 0.285232856209785 0.530918071635024
0.108010978596075 0.288805516349485 0.538492986711272
0.105264071581791 0.291718847907212 0.550701148087866
0.114360667036348 0.285679654103036 0.564959982958232
0.106310927626981 0.292145452612193 0.569340011185429
0.118694771292049 0.283600525576246 0.583851343341027
0.103720100535825 0.29486031682444 0.580355431876464
0.114834859028767 0.288406002712578 0.611791965549928
0.117250459715927 0.286907079840774 0.617166409201437
0.11097019328832 0.292140749375355 0.623450436464883
0.114330778375862 0.290168739915682 0.632644314848319
0.118362071364135 0.288294755827806 0.651123296448197
0.120321667223522 0.286717821739475 0.650012691207411
0.118894026378305 0.288912155324035 0.666665961477528
0.12090953647374 0.287904369172972 0.674830984491204
0.12793755649946 0.283450841857286 0.689065461334118
0.129366975371804 0.283104864967893 0.700444633183503
0.130906480681939 0.28274757429247 0.712932519068523
0.120522533129655 0.290897253611327 0.715687631409023
0.122220303414487 0.290543747904311 0.730073311222885
0.131777517048328 0.284536644660823 0.750174917207897
0.133592276478729 0.283693894757935 0.758506566622695
0.122186107718716 0.292554552668943 0.760149315318034
0.122450451188376 0.292400856485359 0.760894055577364
0.12089728164781 0.288420155320379 0.775645644410666
0.113811762230023 0.289078778086253 0.775645644410666
0.101079061433605 0.289384514634494 0.775645644410666
0.0887132352934095 0.294859252284464 0.775645644410666
0.0742061430352669 0.296571122851611 0.775645644410666
-0.219101170424618 0.319571582962717 0.563561174504929
-0.213068774424205 0.322786868107304 0.577489048674576
-0.217946240023438 0.321594926047698 0.593589636003719
-0.22012213566542 0.320649467810826 0.592731074066069
-0.226913000203852 0.318099476919919 0.597840478316111
-0.21922440472506 0.322426273090414 0.62003838639756
-0.221307689156548 0.32207300406286 0.629944288020642
-0.217842761378201 0.324134861136594 0.642123893155886
-0.21556455211778 0.325685594873932 0.653923157246464
-0.230903428194101 0.319357589379023 0.654420050501286
-0.226618836903273 0.321645226185319 0.664389030166461
-0.222102380531248 0.324085765249926 0.675463178573478
-0.227686388458347 0.322162723208813 0.683042033192366
-0.224701613157397 0.324435613258935 0.703189005823373
-0.235616956829605 0.319728399985116 0.699575186943561
-0.228949901914446 0.323500318972373 0.719212511880102
-0.223270221368408 0.326524772687504 0.732270956158101
-0.235888396808807 0.321107927497596 0.728573640124671
-0.228025522323986 0.325596201110905 0.752507004775767
-0.233914948258663 0.323821436391869 0.765426718882051
-0.235536108540596 0.323524696223457 0.772710851308363
-0.235306119334058 0.323736681974555 0.774979496394244
-0.251572032038637 0.320653647392014 0.775645644410666
-0.26247246837925 0.323251112767228 0.775645644410666
-0.292246428538299 0.333347465568051 0.775645644410666
-0.306668253533762 0.329919294662151 0.775645644410666
0.0172429075597447 0.310529258738383 0.00345350019931295
0.0444991940484499 0.301304037910756 0.0398920360084187
0.0129466743236554 0.313265179507182 0.0203316959743012
0.0509839802954292 0.300423750447132 0.0717613554004427
0.0167524833425903 0.313054182520494 0.0444290791335514
0.0479281919061138 0.302570561499632 0.0873106213603219
0.034644504362761 0.307623072006357 0.0793728825435087
0.030115076534373 0.31017430365683 0.0912869324670011
0.0595766971717909 0.299062041280445 0.130697252119326
0.0512169697531973 0.303797191941246 0.133000126987019
0.0460739154166858 0.30606239113493 0.135380467841848
0.0396119497843088 0.308864143454234 0.137588599545442
0.0409686348931227 0.309352412311047 0.156123329082866
0.0468169006641603 0.307507045432599 0.166307541876515
0.0644559234037497 0.299233497235559 0.190035241428808
0.0647290335077653 0.30008091197855 0.206053719989956
0.0489839672864434 0.308325364303015 0.19659112975351
0.0609537712563293 0.303628814142826 0.215920226557556
0.0611494244859241 0.304614959079543 0.233140424137074
0.0716006412383511 0.297661688501275 0.249299095089601
0.0627693604516276 0.304806538056096 0.254881718458653
0.0658500640664881 0.302629020597895 0.257706444293042
0.0662619352880865 0.303661703826603 0.2781462850434
0.0686310904741081 0.302464636531241 0.287555231118754
0.0757682245250677 0.297833985988125 0.300374279084987
0.0685266502656207 0.303690842486102 0.304923814277442
0.071570554892483 0.302037216369378 0.31526016239565
0.0695281830965742 0.303959848966219 0.320647228166879
0.0695000452897662 0.305238548268045 0.339698651656007
0.0717200759611752 0.303984056935738 0.34650319868754
0.0801936002335558 0.298367701206369 0.359924551571877
0.0825862129887735 0.297713187208615 0.377828652962632
0.0788821845534744 0.300645923349861 0.379200709376081
0.0754749026745122 0.303354825710034 0.38063138304353
0.0863428865814671 0.296760283215227 0.407073067525488
0.0791176467334031 0.302358753956575 0.407896727472574
0.0732286656763753 0.307189091915296 0.412618464327357
0.0824826525786599 0.301451996335792 0.433285859548137
0.0814670328681629 0.302836331538862 0.442454953762075
0.0855150471581675 0.300466836913542 0.45361894339091
0.0942474220255132 0.29516084012122 0.474753896238595
0.0880906931073117 0.2998596933553 0.474369399489367
0.0807240741347565 0.30561186220015 0.475878276950635
0.0963840525814251 0.29553651414297 0.505293684842148
0.0957497727876937 0.296321097451958 0.509808093452689
0.0892789302382727 0.301402629510399 0.51157031084384
0.0968874554739242 0.296964956438374 0.532795641298635
0.0954500474771163 0.298310994887682 0.536479455153912
0.0916061238283329 0.302108827968845 0.549335203798767
0.0892705140784387 0.30433556244968 0.555920912805366
0.100017000140121 0.297119831144227 0.571535632692257
0.0903810322392313 0.30478398619231 0.575630756950914
0.0943808672633162 0.302126924119656 0.581876406950774
0.0906971553479824 0.305865919530156 0.595703544619874
0.106274365089765 0.295331488342568 0.617199066201426
0.105876943276307 0.296229060703106 0.626180194816999
0.107162463559058 0.295536903171586 0.63063964503318
0.0951540734376889 0.305197885801889 0.637408164064636
0.104239014105035 0.299506083097509 0.656796164754914
0.110766602656609 0.295074911341339 0.665550017945636
0.112949662568635 0.294326143909946 0.679588862988569
0.113300044372656 0.295193892261366 0.696814074216844
0.107574710225191 0.299403905827008 0.694037840099807
0.109156779950582 0.29913652494485 0.708383278397408
0.107547611415024 0.300722581505645 0.713707186142506
0.106890418658645 0.301951207321855 0.724684589319974
0.109662002852248 0.300508231541616 0.735046572330443
0.110024178032612 0.301438978499513 0.753363667616698
0.122316669028375 0.292908614970959 0.767033386507487
0.107749908498699 0.303547600499448 0.758872700635582
0.10712714090402 0.29725173766754 0.775645644410666
0.0977861383634017 0.298621230392513 0.775645644410667
0.083877285972774 0.300671147073632 0.775645644410666
0.0692424340479854 0.302585111330255 0.775645644410666
0.0635565588971908 0.307004251473781 0.775645644410667
0.0460682811340857 0.310070920476379 0.775645644410666
0.0361443981011387 0.309890920851555 0.775645644410666
-0.203866182236066 0.327806461305395 0.610102674881868
-0.183376379410002 0.331828513654518 0.637729340402608
-0.194116272332619 0.330105051435902 0.631273228802429
-0.202055647310453 0.329676734991923 0.644140922867795
-0.210107916887435 0.327720798471146 0.649549784171508
-0.206669884691673 0.329548788020264 0.65740036460901
-0.196586148670291 0.332115182916072 0.679982596814444
-0.187360429551382 0.334245366578199 0.69907997141185
-0.20196535653456 0.332224510254542 0.697034204220585
-0.211952703071289 0.32950316033073 0.699044678387743
-0.199517896532075 0.333560442770525 0.71817823010407
-0.2069364374496 0.332964440855081 0.726118151920398
-0.217279857200487 0.328334337149902 0.719214987764573
-0.208796021288046 0.33327716396885 0.746983993277294
-0.209822092021373 0.333637450908931 0.762247433057805
-0.219896508692255 0.328920717767345 0.751678408284006
-0.2076203010543 0.33504255965814 0.7718314947083
-0.219011035294013 0.333201580305495 0.775645644410666
-0.237019942083343 0.335328069426897 0.775645644410666
-0.257192186985972 0.333700374466172 0.775645644410666
-0.271160151496107 0.337378596611936 0.775645644410666
-0.289209594447641 0.336475160676638 0.775645644410666
0.00380100372419255 0.316741419990658 0.0148250613030897
-0.0152351455403577 0.324783166246866 0.0175908188971215
0.0153623230342119 0.314187251935728 0.0542635382327647
0.0037758670994956 0.318958414770241 0.0537675435828442
0.0172107020232171 0.314471788240348 0.0727970980662648
0.000149033975652749 0.321364117271281 0.0697113726086843
0.0113185255005179 0.317968080571571 0.0914279522698247
0.0171418059430519 0.316126977209476 0.101504761872497
0.0173086558499947 0.317203593971821 0.121724941848565
0.0263543842133519 0.31444426277651 0.139153226593001
0.0182772827120149 0.317510417740855 0.134220696984078
0.00153739738903266 0.324243367297768 0.130674479088279
0.00522199726902148 0.323350441942958 0.141850911671526
0.031480830546273 0.314957336230652 0.185683325672623
0.0291232751958963 0.315686928233789 0.181325259942735
0.00959596513032083 0.323503378099788 0.176524443676978
0.0161817318925864 0.321690320719989 0.192670125357199
0.0437439940856282 0.312278133697979 0.228045757367041
0.026314819412588 0.319134960848953 0.221646946002597
0.0477762544151423 0.311974440238159 0.25216260187558
0.0455912009322105 0.313796489170152 0.268345585278029
0.0449356432092332 0.314084583342225 0.268637722740022
0.0430485039580587 0.315282077887947 0.275976174729909
0.0297322402646443 0.32102723488647 0.280024346172123
0.0530558224410724 0.312805026225508 0.30541561024278
0.0524797545783281 0.313744097482791 0.317777484924971
0.0621524789832382 0.310588567518944 0.335334529193741
0.0467477466073787 0.31690307604525 0.331626177446206
0.064039011247913 0.310490910502614 0.355792661544008
