ply
format ascii 1.0
element vertex 843
property float x
property float y
property float z
end_header
-0.323230507397791 -0.174413383493482 0.717399323923565
-0.333872680979309 -0.170415352122395 0.717399323923565
-0.33711266800429 -0.162106394505557 0.717399323923565
-0.35511404287283 -0.156272961444272 0.717399323923565
-0.360574714937183 -0.14880122559012 0.717399323923565
-0.369665013198218 -0.134769699922255 0.717399323923565
-0.384972235724335 -0.128123172798932 0.717399323923565
-0.398443785697307 -0.117049053179488 0.717399323923565
-0.410806009728419 -0.100098087422185 0.717399323923565
-0.421497574370432 -0.0984338047759942 0.717399323923565
-0.439359147626767 -0.0831177009278402 0.717399323923565
-0.443961531782386 -0.0814295402276478 0.717777610343052
-0.445355442220417 -0.0739447452934757 0.733628797607582
-0.443391199375419 -0.0828064444596097 0.741506570777035
-0.445440146313553 -0.0733013538296752 0.755496275824232
-0.445525385797846 -0.0726538956662876 0.757870001864907
-0.44509499949849 -0.0759230041696883 0.769572012609097
-0.445852031031116 -0.0701727787922898 0.775634858833986
-0.442986989771949 -0.0837822927663512 0.794753925634436
-0.448765004833294 -0.0687049623379114 0.797726118667205
-0.462871078561132 -0.0619638305417853 0.804851642777067
-0.487152194579558 -0.0502799173143271 0.800594026929051
-0.48312155607179 -0.0443493547025445 0.803224624433948
-0.118676274712404 -0.350338374897224 0.155804574060973
-0.115187332768048 -0.349879046976312 0.160290034962405
-0.118995583935178 -0.350380412753905 0.175254281079312
-0.125497827877457 -0.351236449408829 0.176822304416541
-0.111138159797266 -0.349345963241546 0.193318647600111
-0.115969386493843 -0.349982006302561 0.202453989181947
-0.11717794029116 -0.350141115428446 0.210361951349134
-0.118827976699983 -0.350358346842778 0.21201557725387
-0.11430828265515 -0.349763317833445 0.229971640321648
-0.123420008361839 -0.350962899280062 0.234544112525121
-0.114242950414585 -0.349754716680801 0.252157798176085
-0.11023016676191 -0.349226423690649 0.259892446582333
-0.118128855858665 -0.350266305837903 0.271553806516617
-0.112671755707162 -0.349547864973373 0.276803520735581
-0.113930799557341 -0.349713621240821 0.289504986438376
-0.117974813314533 -0.350246025752233 0.295180596137729
-0.118887609247532 -0.3503661976166 0.304761978752104
-0.122770873185345 -0.350877439012805 0.312694417276035
-0.119632146688226 -0.350464217830215 0.322563623391291
-0.108919632280662 -0.349053888553018 0.339236069710496
-0.1162237159679 -0.35001548941303 0.343377939474982
-0.119136160117291 -0.350398919959382 0.343758816155987
-0.123670475889573 -0.350995873955653 0.359269293872052
-0.115054444488101 -0.349861551902357 0.373119563920637
-0.119736602746798 -0.350477969731214 0.383297628572084
-0.121227781795576 -0.350674287177336 0.382021084698818
-0.119165530793281 -0.350402786682232 0.408160496609699
-0.123960309404541 -0.351034031261783 0.404429803151743
-0.11674782454991 -0.350084489616859 0.421085457510033
-0.117438459076022 -0.350175413377142 0.424485982187175
-0.122265486115236 -0.350810903542776 0.433934193706738
-0.124061542240204 -0.351047358817435 0.446594209951649
-0.120342025908676 -0.350557675202573 0.452947721664766
-0.123209866861723 -0.350935233626725 0.458042915579643
-0.111444877672935 -0.349386343415932 0.477070756097203
-0.12149700328485 -0.350709730858803 0.490070553450952
-0.120800494363713 -0.350618033719743 0.495110098211968
-0.116392774832327 -0.350037746434771 0.50576787678912
-0.111057597574428 -0.349335357023697 0.518542652516439
-0.114645920044711 -0.349807768639059 0.52182007832627
-0.118430047671661 -0.350305958492337 0.536862664772994
-0.116791032281261 -0.350090178022607 0.545393765295333
-0.111947000723897 -0.349452449169687 0.552469299041265
-0.117657148387099 -0.350204204371141 0.558069282282797
-0.119525728806667 -0.35045020765032 0.574506147007634
-0.112014901274713 -0.349461388446789 0.583239365600336
-0.114946851046806 -0.349847386957087 0.59485429611257
-0.116525514893178 -0.350055221995312 0.594911138965194
-0.117375124294793 -0.350167075195009 0.610482380312455
-0.116915011726911 -0.350106500226276 0.618891339346489
-0.126475504418473 -0.351365162967286 0.619393459647308
-0.118838792459309 -0.350359770764507 0.641608726501261
-0.117810481480112 -0.350224391055799 0.639307437760094
-0.118907953128581 -0.350368875939351 0.659886114308239
-0.115162876501458 -0.349875827247734 0.670219439916413
-0.122139076178723 -0.350794261358914 0.666817808186162
-0.117213928495529 -0.350145853365435 0.687782935974572
-0.11532994615645 -0.349897822385085 0.69748428391192
-0.116805365039001 -0.35009206496596 0.69579568180848
-0.116506890884963 -0.350052770098116 0.707099861636106
-0.114767855752946 -0.349823821779593 0.722964020206498
-0.122730789781003 -0.350872161932511 0.726187488848304
-0.117737319551811 -0.35021475910521 0.742795740427492
-0.109693966969396 -0.349155831648758 0.750915361827971
-0.116894481293179 -0.350103797343399 0.756491750601607
-0.120081651638062 -0.350523396279539 0.766886753232077
-0.110342005726687 -0.349241147569689 0.780738639750013
-0.115088510859269 -0.349866036825205 0.787726287414971
-0.121819231148899 -0.347479201448042 0.798178317279968
-0.119593137943521 -0.343033458517136 0.801300340916013
-0.128467258923921 -0.335328355635099 0.804935498897677
-0.140227967441454 -0.328350804494186 0.805513814596776
-0.15207686125021 -0.329367103397686 0.805593263855051
-0.16396624975036 -0.31116047761316 0.7991688215419
-0.261631859914296 -0.231514872299305 0.717399323923565
-0.263499930206279 -0.231528022992024 0.717399323923565
-0.288411158209643 -0.218939232205507 0.717399323923565
-0.285391676263055 -0.211284660047842 0.717399323923565
-0.307968543608322 -0.199198886068008 0.717399323923565
-0.310310569610825 -0.192951689118857 0.717399323923565
-0.327224000992619 -0.186637848679629 0.717399323923565
-0.33627958607848 -0.182788714278118 0.717399323923565
-0.344891786135952 -0.165265007509363 0.717399323923565
-0.352998441585431 -0.158950292276377 0.717399323923565
-0.359453270272809 -0.159967149065903 0.717399323923565
-0.378573378645821 -0.143420413581727 0.717399323923564
-0.391664831586071 -0.140821340242625 0.717399323923565
-0.397637244972506 -0.126904133251155 0.717399323923565
-0.424257761887284 -0.116376709322552 0.717399323923565
-0.431485124865708 -0.0987195598992083 0.717399323923565
-0.43127928901654 -0.0943488707058642 0.717399323923565
-0.436455587697164 -0.0995504922366051 0.730012015572407
-0.435083331152573 -0.102863412597613 0.743307630231492
-0.434154512984939 -0.105105778014895 0.764230125526026
-0.4392966516954 -0.0926915570004965 0.762320295761857
-0.433379524530557 -0.106976765652145 0.779161032194663
-0.439557262471509 -0.0920623869303142 0.785217896939704
-0.44037003243082 -0.094131629159795 0.796385146346696
-0.450058770509513 -0.087588620392357 0.801674007814756
-0.453443779741079 -0.0770109516036259 0.801929429346802
-0.464058264542239 -0.0807671553345316 0.805476919560348
-0.126305355949706 -0.351342762496412 0.147645504725893
-0.134405579957652 -0.352409177218076 0.154842423371435
-0.137439009539773 -0.352808535798818 0.163196697069776
-0.126602358286796 -0.351381863595879 0.174313192602737
-0.132019321411901 -0.352095020320638 0.191681444755034
-0.133531241848552 -0.352294068422277 0.191828745183809
-0.131275458247003 -0.351997088877116 0.207181065577902
-0.131375713617554 -0.352010287747046 0.218712592439478
-0.131674370988535 -0.352049606735859 0.230252562561003
-0.128742058485429 -0.351663560471118 0.239226979467449
-0.13666612465379 -0.352706783573231 0.241730854272689
-0.129463073090051 -0.351758483844613 0.254682317751059
-0.12949974405791 -0.351763311669121 0.255657009851476
-0.134202325681554 -0.352382418284982 0.270961946722422
-0.130367008590668 -0.351877489210927 0.273802197263503
-0.13386453250471 -0.352337946969583 0.294462153178525
-0.127619079480525 -0.351515717480384 0.303200395721008
-0.128639696576762 -0.351650084270184 0.310746935178047
-0.132784671261026 -0.352195780539804 0.319428236677356
-0.131663858531277 -0.352048222744605 0.321790604446513
-0.13018313744999 -0.351853282116023 0.33317874568039
-0.13060295668611 -0.351908552366993 0.350310844251777
-0.128566966327671 -0.351640509151241 0.350331249919385
-0.129043789639288 -0.351703284131123 0.357946677864828
-0.126004410259384 -0.351303142244643 0.374644080015391
-0.125889821801053 -0.351288056387909 0.388374202955752
-0.129425629884922 -0.35175355435314 0.39187306035835
-0.132450301053717 -0.352151759866893 0.401926493935925
-0.133592226185866 -0.352302097162598 0.406905923792975
-0.126864079768116 -0.351416319882567 0.423993855159834
-0.134458462576386 -0.352416139346912 0.430369315726866
-0.128442126983238 -0.351624073739749 0.442831758804007
-0.132614068272798 -0.352173320230308 0.445913406390186
-0.129347931674501 -0.35174332518968 0.459173717818879
-0.124042537902758 -0.351044856848946 0.471376577883492
-0.135606617481272 -0.352567296807757 0.480078519767738
-0.134136657269215 -0.352373772874485 0.485184484929962
-0.137206544557028 -0.352777931203237 0.493337681501414
-0.132420811077497 -0.35214787743787 0.506182893805891
-0.139363354181833 -0.353061880577164 0.511359441397628
-0.131835510732626 -0.352070821185629 0.525437412653843
-0.126239933700563 -0.351334149493915 0.541143289892944
-0.130479370520387 -0.351892281939609 0.544971128276616
-0.135317485199023 -0.352529231820665 0.545633980200478
-0.128871070985473 -0.351680545288968 0.571166691911932
-0.128500859075923 -0.35163180596644 0.575229096506334
-0.128761378170721 -0.351666103955939 0.59045328608501
-0.131082651423232 -0.351971705377215 0.588443489003412
-0.133133968047304 -0.352241766334117 0.604002837258621
-0.129268597976753 -0.351732880710229 0.614753554298428
-0.131677060518578 -0.352049960819206 0.618796963473203
-0.128762517432024 -0.351666253942535 0.629319257325801
-0.135609979996938 -0.352567739491342 0.640752325531737
-0.129379821764575 -0.351747523599687 0.654421026898022
-0.129354308757107 -0.351744164748533 0.653153472556083
-0.131183446222458 -0.351984975264277 0.663055953752248
-0.130984945340209 -0.351958842127355 0.679733129174309
-0.122251644381965 -0.35080908124402 0.690645704337524
-0.132727413671004 -0.352188242435072 0.697210521801829
-0.130040151383373 -0.351834457643233 0.69878260364191
-0.12933235304305 -0.351741274223941 0.716797119654668
-0.127154913788902 -0.351454608907787 0.73049804340253
-0.129410242556223 -0.351751528572886 0.741181535166584
-0.128575177573005 -0.351641590182198 0.74905904133703
-0.12910238701217 -0.351710998621615 0.753336353719074
-0.122428730761482 -0.350832395108172 0.767281796112844
-0.128595359028645 -0.351644247121237 0.772928764244376
-0.12827594266505 -0.3516021951592 0.784516514008167
-0.133228497856427 -0.352254211419584 0.782887791935863
-0.128702512686018 -0.346337631410024 0.799852154626456
-0.138446694157448 -0.340229379463391 0.803893829647736
-0.151568188467932 -0.341653850858683 0.803434315640865
-0.152231785536657 -0.336779313616906 0.804947546413468
-0.168761837340127 -0.322977652601888 0.805082943204034
-0.179354970602225 -0.312846469760906 0.801755211616677
-0.277846423047336 -0.237977712524502 0.717399323923565
-0.286806822957401 -0.231478166250468 0.717399323923565
-0.290750309370648 -0.227208808283166 0.717399323923565
-0.3152830456086 -0.206750926677109 0.717399323923565
-0.316350185463138 -0.207335332635403 0.717399323923565
-0.326786930147621 -0.200274178774356 0.717399323923565
-0.340356972432261 -0.182794633502702 0.717399323923565
-0.351436324397652 -0.174401295040175 0.717399323923565
-0.366693137388099 -0.166628441892562 0.717399323923565
-0.383900820518981 -0.158297788670311 0.717399323923565
-0.392488717592177 -0.143456325965777 0.717399323923565
-0.397168104675039 -0.138180642056562 0.717399323923565
-0.411246899248681 -0.127058608157114 0.717399323923565
-0.422409015349496 -0.121398363088915 0.717399323923565
-0.430265758235518 -0.114494062471687 0.720552685382685
-0.428063339394455 -0.11981117190781 0.740265716323163
-0.429046452729664 -0.117437726360599 0.744781286415898
-0.4308965993207 -0.11297107736814 0.749986355726205
-0.429916581696749 -0.115337049207248 0.763697415896715
-0.428926392047475 -0.117727578487848 0.775454258444113
-0.432567146605073 -0.108938019457622 0.78042667264199
-0.427446401386004 -0.121547863874623 0.794763666228212
-0.440271991263629 -0.101441125996394 0.799006442606385
-0.448117144384024 -0.10042300076896 0.803290211406058
-0.46301481082617 -0.095162064707075 0.805648806264411
-0.470971549445461 -0.0826096492286479 0.805366430794278
-0.148198343627538 -0.353661175594457 0.140976463905518
-0.14781257385277 -0.353711963148799 0.147844129143107
-0.144513075396972 -0.353739854237016 0.164332180262741
-0.148409141760358 -0.353633423493784 0.166626496770852
-0.144788221696421 -0.35377607793454 0.180194827700636
-0.141665067945791 -0.35336490694292 0.182421573675663
-0.142268216541899 -0.353444312962014 0.195709915899917
-0.146434492099197 -0.353893391053537 0.195117833231448
-0.138800562205561 -0.352987787607865 0.221490052670217
-0.142308941841819 -0.353449674549464 0.231213477022194
-0.137196819374472 -0.352776650858665 0.239648590121514
-0.14369920709119 -0.353632706441853 0.248688568104794
-0.146056897700846 -0.353943102299154 0.251032255644242
-0.138491988225865 -0.352947163072748 0.26002169688337
-0.146408733854936 -0.353896782190727 0.270643177907573
-0.144889887545064 -0.353789462497433 0.278216170140003
-0.141183452599143 -0.353301501079658 0.290966511085196
-0.140242632466346 -0.353177639759394 0.305795666031258
-0.146939115981374 -0.353826956059105 0.30639465797281
-0.148829341440668 -0.353578103156386 0.313536772718686
-0.136919222432522 -0.352740104527935 0.331111961425792
-0.137185003141702 -0.352775095222108 0.339207579040356
-0.145320194078779 -0.353846113427325 0.347405928496179
-0.137694695601284 -0.352842197507414 0.356159006554762
-0.144636678641616 -0.353756126912883 0.362497407512389
-0.145657931837547 -0.353890577446797 0.372700408638552
-0.140215076597638 -0.353174011960456 0.392017886096772
-0.143916342574478 -0.353661292870542 0.39194717347599
-0.142851663321487 -0.353521125187756 0.41062898052687
-0.145880644342165 -0.353919898104273 0.41513472779429
-0.14109984325876 -0.353290493701174 0.426573788333858
-0.14259571723466 -0.353487429246178 0.438281798642049
-0.143856967770472 -0.353653476029301 0.442928832411451
-0.144541320993113 -0.353743572840294 0.454600134968876
-0.14438758694654 -0.353723333369098 0.460224687137208
-0.140260216322259 -0.353179954717942 0.472407608171807
-0.146048474638996 -0.353944211216284 0.482518037745369
-0.141312096925637 -0.353318437426541 0.496569210496099
-0.141849969417168 -0.353389249683435 0.503360119625037
-0.145215236240646 -0.353832295465794 0.516768381925884
-0.138778850675437 -0.352984929230698 0.519050719041942
-0.149203394093445 -0.353528858190419 0.52510475017012
-0.154701151215663 -0.35280506473415 0.531535925314649
-0.139649479331979 -0.353099549667803 0.545692193811546
-0.144496603942401 -0.353737685728883 0.561580789761137
-0.142918542666742 -0.353529930020596 0.570445143646031
-0.139495413416971 -0.353079266505299 0.579202967426294
-0.138665738573714 -0.352970037739999 0.591477276936827
-0.152351933827933 -0.35311434507062 0.585939882536402
-0.137248043923261 -0.35278339469845 0.604741794701529
-0.143703511149411 -0.353633273081867 0.618442713191116
-0.142855597015076 -0.353521643068342 0.619814073658316
-0.146056120208889 -0.353943204657912 0.631604286827647
-0.146786297785205 -0.353847074956308 0.632402720024617
-0.143887101551318 -0.353657443216811 0.649398214464757
-0.143126942165632 -0.353557366335121 0.65472148950811
-0.138995029284202 -0.353013389684467 0.674054171382235
-0.142277710554096 -0.353445562872432 0.680529065245158
-0.139046725046568 -0.353020195560697 0.699850514765043
-0.144088542067992 -0.353683963363946 0.697903438449265
-0.145576648160559 -0.353879876247708 0.707759385820139
-0.146751416325671 -0.353851667187575 0.718681621272597
-0.141296413798928 -0.35331637270374 0.730499203224781
-0.143567757989644 -0.353615400839328 0.730363160587116
-0.143463599001202 -0.353601688048354 0.741358598719156
-0.141690876222398 -0.353368304666994 0.760691094145348
-0.140883025338472 -0.353261949080447 0.774654575727072
-0.144378624358879 -0.353722153422047 0.768667820087529
-0.138924395903876 -0.353004090623534 0.789378483259264
-0.144536954892687 -0.353300054469453 0.795149433044047
-0.154086437871827 -0.348917582924715 0.798746781646827
-0.156124610071778 -0.347801077557518 0.799440075313846
-0.159759576500058 -0.337407490509669 0.804571113481343
-0.171776097272894 -0.331480418687399 0.805436920416588
-0.182053378894488 -0.321733111597042 0.805200419122869
-0.190908987090857 -0.319111351975133 0.804861957218248
-0.299232305824462 -0.232755741287738 0.717399323923565
-0.299759446907735 -0.226713639276147 0.717399323923565
-0.316757904240391 -0.220175058000919 0.717399323923565
-0.331597231218884 -0.20721895189938 0.717399323923565
-0.334596546508988 -0.205608445383978 0.717399323923564
-0.35187594099472 -0.18533935308366 0.717399323923565
-0.35733198716165 -0.187528014061471 0.717399323923565
-0.375298054353413 -0.175241815967717 0.717399323923565
-0.383151252791447 -0.166932509490893 0.717399323923565
-0.39463573360683 -0.154088118388066 0.717399323923565
-0.40561133551915 -0.145890553114165 0.717399323923565
-0.414256272284144 -0.135613473477851 0.717399323923565
-0.420348082064035 -0.138437450792105 0.725435953130732
-0.42064501769826 -0.137720584756809 0.741628871037602
-0.421563369455543 -0.135503487489348 0.747905186533723
-0.419832426152656 -0.139682354286877 0.766658687848367
-0.421781459684455 -0.13497697110089 0.769087443422564
-0.421653016862685 -0.135287059503195 0.778386602135734
-0.426243546169898 -0.12420454139125 0.78552125204408
-0.423346504526801 -0.132670225408173 0.795288281776763
-0.437384082729228 -0.132366729270838 0.804222010208195
-0.442120993368614 -0.12153500189229 0.804315345183932
-0.451840119641663 -0.112359182919743 0.80545243608285
-0.460797443343249 -0.10878493832915 0.805405299286461
-0.168748426186161 -0.350955705899987 0.121362738793087
-0.154002269670577 -0.352897074235078 0.142973783915117
-0.162152145289529 -0.351824122754816 0.147992155815778
-0.165691246998215 -0.351358191175652 0.148813342449585
-0.159820830180167 -0.352131046211627 0.164798042845383
-0.162723935557345 -0.351748845137962 0.177920002404378
-0.15991274559498 -0.3521189453177 0.189978769651088
-0.166107463617372 -0.351303395218203 0.185270612263903
-0.160162589114264 -0.35208605279438 0.197521616099829
-0.165257285819378 -0.351415323248702 0.200864440738397
-0.169448309580049 -0.350863564503161 0.218357097933856
-0.15419794415309 -0.352871313200741 0.235934275152932
-0.163400986591288 -0.351659709678349 0.238530085232693
-0.164563215095123 -0.351506699393052 0.239398751514461
-0.17076913018223 -0.350689675172019 0.249752912656004
-0.171124531928189 -0.350642885644517 0.255400096130214
-0.170070048955574 -0.350781710961525 0.268919972432951
-0.169826805665343 -0.350813734548205 0.284646395273957
-0.156722889042829 -0.352538897899736 0.302280447683541
-0.163650237921641 -0.351626895118181 0.301312303324306
-0.162077211339362 -0.35183398799651 0.31675527667118
-0.158891023829571 -0.352253457539956 0.325100579489507
-0.171014007809659 -0.350657436420765 0.326052529704676
-0.158081284773149 -0.352360061709128 0.347086418816966
-0.168448268860246 -0.350995222361612 0.34629084175747
-0.16253403379874 -0.351773846178779 0.360462632217811
-0.164207798345931 -0.351553490895768 0.373153040022256
-0.167025193029299 -0.351182573849013 0.379217199085683
-0.156939342739362 -0.352510401229976 0.395711660268535
-0.158444330778728 -0.352312265795754 0.411312970328558
-0.159398913915473 -0.352186592541647 0.406024858894121
-0.164291100261287 -0.351542523990557 0.418982334392202
-0.165789788377182 -0.351345217956995 0.43112038211058
-0.159327393939056 -0.35219600832517 0.440397834802078
-0.170159669339348 -0.350769912214166 0.441739373900397
-0.158054109386426 -0.352363639416663 0.461675686107559
-0.169745275287724 -0.350824468226048 0.464526099788207
-0.169717962507005 -0.350828064021846 0.472156406895088
-0.151273663727261 -0.353256302022447 0.497591592258896
-0.170004342822223 -0.350790361338087 0.486257158850259
-0.16225049697301 -0.351811174510044 0.508465043949504
-0.169082997872839 -0.350911658701814 0.513817287307261
-0.165128741834022 -0.351432246385424 0.52314590941967
-0.166046177962384 -0.351311463627748 0.533420324539824
-0.157937148719404 -0.352379037580596 0.549769534568558
-0.157790087422837 -0.352398398567587 0.562639388153767
-0.173528899999487 -0.350326344582811 0.555776896478333
-0.158550202352032 -0.352298327538705 0.579152613785107
-0.170305904866161 -0.350750659941826 0.575282005154152
-0.163690829724629 -0.351621551105937 0.595756258816905
-0.164824573797722 -0.351472290867089 0.601863562936684
-0.164379361469472 -0.35153090418206 0.608533076115951
-0.158370543404146 -0.352321980087908 0.617152203903296
-0.161280426019591 -0.351938886773899 0.640265915784229
-0.164667898174774 -0.351492917604161 0.630266841701165
-0.160966151672632 -0.351980261776604 0.649842881659631
-0.152516932598277 -0.353092622570406 0.664530087833732
-0.154836927113016 -0.352787189498151 0.677464008699595
-0.151740478853225 -0.353194844645203 0.686161463158473
-0.157572400876744 -0.352427057545072 0.692237589023875
-0.164237124124547 -0.351549630083769 0.691561032563689
-0.163124291458639 -0.351696137283633 0.701273125410012
-0.164370548827699 -0.351532064388359 0.713840862446372
-0.16433950162444 -0.351536151830212 0.726534604276957
-0.161660134155224 -0.351888897249488 0.728015986832812
-0.16236954420348 -0.351795501644822 0.748077090501087
-0.160860010271481 -0.351994235557162 0.752005841774212
-0.151448180503053 -0.353233326453044 0.768976342168656
-0.171236391246469 -0.350628159085887 0.772329942921776
-0.159315337447711 -0.352197595592367 0.787288446556216
-0.167245720868993 -0.35115354080813 0.794029659358134
-0.162723895271428 -0.343156512532303 0.801988614535903
-0.172011742554518 -0.345800414373423 0.799365759842705
-0.183413186056368 -0.339080578733253 0.802786273660458
-0.192397016741584 -0.33159148478012 0.804924293135546
-0.194642540485711 -0.324842964222979 0.805675634143549
-0.20067320211505 -0.318306824046864 0.804973768084422
-0.229373844238695 -0.298286161187121 0.795861124971094
-0.322902912095447 -0.221128025111843 0.717399323923565
-0.331134991431476 -0.215823914380291 0.717399323923565
-0.34776249964057 -0.206890180240972 0.717399323923565
-0.354217996399223 -0.203215962516956 0.717399323923565
-0.366214977123402 -0.191440129281729 0.717399323923564
-0.380748202333816 -0.181566848781462 0.717399323923565
-0.383846565276022 -0.181597676837781 0.717399323923565
-0.403112427443715 -0.168298880274692 0.723415541504142
-0.411720817591699 -0.157080207814524 0.728807420952692
-0.409990226955821 -0.1593355574412 0.731335226925047
-0.401769502853468 -0.170049013674515 0.751920545055814
-0.407357816091537 -0.162766182071279 0.753622325021886
-0.406334692429097 -0.164099542787726 0.769374245553335
-0.414442984100511 -0.152693618382788 0.769163119197037
-0.406858209771178 -0.163417281704404 0.790506570495088
-0.409753330681275 -0.163817090562858 0.797502018925081
-0.418325139901989 -0.153008046901349 0.798559228653339
-0.425722248180859 -0.150334496474496 0.802583067521504
-0.438018540890652 -0.135896606079916 0.804746376867208
-0.458197747792382 -0.120527560169815 0.804994363547333
-0.470384839403068 -0.108224503044467 0.802786273660458
-0.18645626633496 -0.348624424517519 0.106003634002192
-0.189882691174643 -0.348173327129579 0.107856457131002
-0.180364000099744 -0.349426486583352 0.129778348402824
-0.188823880727897 -0.348312722169365 0.130427421496704
-0.172580216666745 -0.350451241112986 0.148713798450775
-0.174040803783408 -0.350258951171134 0.161407322635086
-0.171884427630489 -0.350542843477403 0.178392488492174
-0.182085195708666 -0.349199886882601 0.173556874992014
-0.177956011701865 -0.349743504270094 0.192772933679196
-0.183435609177042 -0.349022101576714 0.192429929323687
-0.177976490671652 -0.349740808162574 0.211225356111048
-0.176484001992669 -0.349937298024783 0.225775089286417
-0.179951021539447 -0.349480856242266 0.223967423685114
-0.186034176480063 -0.348679993701122 0.224743102123217
-0.17479763267243 -0.350159312757648 0.242712334081526
-0.189736024584448 -0.34819263615249 0.24510381980164
-0.177847937756596 -0.349757732474914 0.272500122908164
-0.178356926193533 -0.349690722875947 0.268086200529071
-0.181620588226494 -0.349261053618027 0.28851745995453
-0.179654881261938 -0.349519843849436 0.28754652087252
-0.178814182788892 -0.34963052390313 0.305539861514125
-0.18323193084791 -0.349048916337449 0.304433793895505
-0.17460543062565 -0.350184616637148 0.325037090257129
-0.172642669466971 -0.350443019045855 0.333564691892601
-0.183103877445176 -0.349065774887743 0.334974969997124
-0.177089512734529 -0.349857581023301 0.346730637514277
-0.181223747344262 -0.349313298711317 0.353113541727047
-0.170862965589668 -0.350677321506268 0.377669078077114
-0.189171000975946 -0.348267022921746 0.374761987121184
-0.18042452843713 -0.34941851787656 0.396817821611528
-0.178022902840769 -0.349734697884591 0.391643449515377
-0.176814760698434 -0.349893752815071 0.411644794149926
-0.172577614882988 -0.350451583644316 0.426938437833467
-0.180702866793145 -0.349381873936817 0.422980866434905
-0.174405933430237 -0.350210880941185 0.442282567987436
-0.180537236168602 -0.349403679622215 0.453469438469352
-0.179634471342922 -0.34952253086625 0.456493797976393
-0.184019186855454 -0.348945272117815 0.457909084054536
-0.181158610492257 -0.349321874140569 0.479832189096273
-0.177004523641288 -0.349868770049694 0.490362729562993
-0.170623728805328 -0.350708817626441 0.499505556703524
-0.177742316160087 -0.349771637821893 0.505091252051584
-0.171046553151451 -0.350653151745233 0.518851149536662
-0.179306627032288 -0.349565692388565 0.530902932037044
-0.175421579629882 -0.350077168582337 0.53615668979632
-0.177854115172156 -0.349756919202726 0.550149291326032
-0.171042728836371 -0.350653655225865 0.558474446076662
-0.175025716240384 -0.350129284986267 0.571872449740708
-0.182397067159087 -0.349158828227227 0.568599105252379
-0.191543184320406 -0.347954719059712 0.572788448113549
-0.186263459851897 -0.348649807972565 0.58628387927547
-0.191799322965571 -0.347920997767348 0.588200844317081
-0.176975912918447 -0.349872536722814 0.609496573123874
-0.18812067364623 -0.348405301137987 0.608826102415758
-0.186170620425115 -0.348662030514976 0.622154477034295
-0.176123022732875 -0.349984821845912 0.643128210926594
-0.185347083330727 -0.348770451230308 0.646870005985854
-0.182593084696553 -0.349133022028848 0.656057735723788
-0.17548196012832 -0.350069219338912 0.674192417285442
-0.179764061316126 -0.349505470022615 0.671621773197815
-0.182439321149772 -0.34915326538382 0.682092936674584
-0.171022621567787 -0.350656302397994 0.700740414274431
-0.184933450304968 -0.348824907051233 0.704279597205086
-0.177889107096321 -0.349752312428515 0.720186836774466
-0.189288488174872 -0.348251555438573 0.714752400626616
-0.183205832131527 -0.349052352298644 0.733217468369047
-0.188391270295257 -0.348369676413304 0.736124372083483
-0.188534433162017 -0.348350828664333 0.745876639034707
-0.176744107982688 -0.34990305442156 0.759806923824114
-0.178870410056741 -0.349623121442885 0.772353831909991
-0.183600225136959 -0.349000429474448 0.778532618155532
-0.186890437154264 -0.348567264844778 0.791021499323349
-0.186709932276155 -0.347202121355611 0.796199566175604
-0.197514625322648 -0.341453163299173 0.800174762231316
-0.20149857093134 -0.336983779830956 0.802618624595848
-0.205254414951876 -0.32466080124664 0.805620933871676
-0.211269606326189 -0.319302522968689 0.805419961555204
-0.234835724244689 -0.308753554070429 0.803987674838499
-0.239417691461106 -0.302843747350187 0.802351698444019
-0.26472249355399 -0.282683086602306 0.794866811281231
-0.343908905725639 -0.217660001336423 0.717399323923565
-0.367865087173796 -0.201453563815479 0.717399323923565
-0.369826425096548 -0.202734593102411 0.717399323923565
-0.386439476457342 -0.183713953527243 0.717399323923565
-0.381729473725505 -0.196165688106553 0.739054907827083
-0.384719591329772 -0.192268890976893 0.744763997001544
-0.39120155261582 -0.18382143456314 0.747087544294804
-0.392624627663473 -0.181966847053582 0.759067024378726
-0.378190174037616 -0.2007781932619 0.779751984111506
-0.377785316444216 -0.201305813950007 0.790761347932876
-0.386734775710008 -0.189642651561618 0.791059120955766
-0.397844359893243 -0.179059856597579 0.797312998385313
-0.407130616509527 -0.181524608908532 0.803343250120692
-0.410341316067794 -0.173793394373056 0.802322466821081
-0.41898267333935 -0.163421448258771 0.802644732371644
-0.429050550612067 -0.163386461687251 0.805270344624432
-0.451968188758529 -0.142308413465264 0.804389443013177
-0.449997365677681 -0.141344938234589 0.804902844861772
-0.46978508431124 -0.122023826677194 0.799734690765893
-0.202700535165056 -0.346485825954555 0.0909998785127625
-0.2010606174408 -0.346701725218792 0.103123150805383
-0.205327025340462 -0.346140041963074 0.103302891563269
-0.207784147917366 -0.345816555638946 0.114995653974904
-0.207086937923959 -0.345908345075921 0.123405766553017
-0.192579073344572 -0.347818341682458 0.14519256124968
-0.188207425732382 -0.348393880009174 0.158156199659923
-0.195048727610826 -0.347493205530128 0.167645865002127
-0.207745321444603 -0.345821667241058 0.162646069152379
-0.190481151447474 -0.348094538339954 0.190610717503847
-0.192329198223784 -0.347851238366194 0.198989425521908
-0.198327295686884 -0.347061573854404 0.201426218171451
-0.193837137275408 -0.347652714423838 0.209522208063716
-0.194912289663845 -0.347511167926613 0.217042672362757
-0.192148586418214 -0.347875016361491 0.236471190660939
-0.209228640241006 -0.345626384616793 0.226455126600435
-0.196424134487209 -0.347312129779653 0.252430560668873
-0.203142799662187 -0.346427600728914 0.254502242922354
-0.194049272940213 -0.347624786233739 0.278251453927364
-0.194179579628169 -0.347607631032817 0.281876750706023
-0.20405311261504 -0.346307755755084 0.28496334540344
-0.189859107863837 -0.348176431931348 0.302579518234519
-0.200940750636485 -0.346717505982957 0.302067277616651
-0.194287307966932 -0.347593448327959 0.320662807874602
-0.195442093216081 -0.347441417965731 0.327813852668176
-0.192815351763476 -0.347787235038483 0.33976405126793
-0.196332161959431 -0.347324238192644 0.355828742157211
-0.190061666409396 -0.348149764592917 0.359809234532983
-0.192342155002573 -0.347849532573906 0.365396452425701
-0.19704853480611 -0.347229925918175 0.380204084804521
-0.200270649287551 -0.346805726499181 0.382508476910996
-0.187525935564112 -0.348483599891908 0.404819995709376
-0.202262252759899 -0.346543526927843 0.398038230477685
-0.19027442502641 -0.348121754389604 0.42425986263938
-0.20617626265113 -0.34602823775008 0.417746972725545
-0.199669535918755 -0.346884864575516 0.436916652006292
-0.197137223378673 -0.34721824984609 0.44761294940451
-0.197798948445944 -0.347131132088268 0.448730996376099
-0.207321673142207 -0.345877441598167 0.457631604431767
-0.190138705021578 -0.348139622267213 0.47231847633028
-0.200610271659793 -0.346761014365639 0.483489384283031
-0.199976505268637 -0.346844451293922 0.488955578850808
-0.20209835878772 -0.34656510397862 0.492013035292537
-0.189123880404369 -0.348273226462682 0.51433788678554
-0.203136326568478 -0.346428452927868 0.515373254078537
-0.20598771511684 -0.346053060503884 0.526420574159115
-0.196752711442531 -0.347268871802835 0.542318195002354
-0.200717510104353 -0.346746896156575 0.547759457755692
-0.205818160381225 -0.346075382808305 0.550796385571763
-0.209750671008502 -0.345557657962435 0.562012811886022
-0.187703915786987 -0.348460168351046 0.58739066457251
-0.196725533394166 -0.347272449860782 0.588005061480282
-0.199285486238646 -0.3469354256751 0.596306610423746
-0.208081818525591 -0.345777366559915 0.596716784430903
-0.197329474657592 -0.347192939485056 0.61265745258333
-0.207527986501223 -0.345850279929167 0.622309553134071
-0.205203071887728 -0.346156360744711 0.63313337481823
-0.200558895398799 -0.346767778178716 0.635828334764738
-0.193325564107389 -0.347720064309107 0.654070492014625
-0.193626101062714 -0.347680497868321 0.674522462148787
-0.207494827089204 -0.345854645448578 0.674312400850494
-0.200180260461327 -0.346817626413907 0.681978009903874
-0.200031549924135 -0.346837204527546 0.684635466926084
-0.204242553653912 -0.346282815369171 0.696652364563544
-0.206038814240767 -0.346046333176594 0.708847821745911
-0.201645162060273 -0.346624768459686 0.720491370719839
-0.201163132189658 -0.346688228896064 0.737804852716625
-0.192713549181918 -0.347800637602606 0.745302335359555
-0.206159155759028 -0.346030489915152 0.747711141936176
-0.203736968996175 -0.346349376852104 0.757566423837245
-0.199346117448604 -0.346927443424877 0.774896660730663
-0.197597621091291 -0.34715763733734 0.784871416101211
-0.204685605867631 -0.346224486438674 0.786148795912657
-0.192045168584016 -0.344178309823063 0.798535821393449
-0.210999700530182 -0.343536711935464 0.796718659011133
-0.219773744667745 -0.33649152003737 0.801489678178085
-0.221163715436432 -0.326540853948387 0.805218009436658
-0.232072361348348 -0.326200627006786 0.804963232863732
-0.234639451846667 -0.313976965010328 0.805270023806591
-0.248197378818963 -0.310204382723367 0.805465831687356
-0.272763074031841 -0.289067774433604 0.802371563644616
-0.278011363577004 -0.286101239423942 0.801935841422857
-0.373518306387866 -0.206866689721608 0.72210789289697
-0.307127577055498 -0.263590086674393 0.79553551477881
-0.319598073917695 -0.255443467396379 0.796798994088923
-0.369103933713313 -0.212619612196264 0.759965058284456
-0.337134410901058 -0.244353334174164 0.798627206840652
-0.368489503141743 -0.213420353706984 0.781641604039751
-0.366931534173255 -0.217441058219476 0.796014373380779
-0.376620399082827 -0.202823963812631 0.794657712653795
-0.386486182177519 -0.197686321883455 0.799377479120556
-0.390239928660195 -0.195218267145718 0.800594026929051
-0.406147643595835 -0.186709778488295 0.804302663122883
-0.420415940674584 -0.180819050126374 0.805624368420815
-0.429307142836129 -0.173653073211309 0.805557783801623
-0.442370476036327 -0.163509168411172 0.80456623181606
-0.214343880865236 -0.344409179428616 0.0856102861704685
-0.21096719496935 -0.345397499544614 0.105528217641122
-0.208436238086648 -0.345730706339508 0.111056581637315
-0.214282938395195 -0.344960973641243 0.129720675931929
-0.218297919773961 -0.344432391314962 0.12421507090639
-0.226805625716065 -0.343312330578944 0.135500144187895
-0.209518242786471 -0.345588257718375 0.152547165428631
-0.22133582991786 -0.344032442857071 0.156815738627335
-0.212878109857579 -0.345145922826902 0.172287359144979
-0.217242168839703 -0.344571383562287 0.168415794132286
-0.224687500777673 -0.343591187017285 0.183578611510554
-0.216412342670934 -0.344680632249968 0.195352952123377
-0.209944206380146 -0.345532178547387 0.207013583904472
-0.21699930420718 -0.344603357297734 0.219707420470952
-0.210266425473379 -0.345489757598992 0.23401987004633
-0.223236391808342 -0.34378222913737 0.231859891142609
-0.219489707424797 -0.344275489494135 0.245015316392744
-0.215192663317185 -0.344841206083145 0.252360770875672
-0.208503189085135 -0.345721892073341 0.270819852021961
-0.225378666784798 -0.3435001932862 0.267560275827948
-0.212541187456564 -0.345190279502489 0.290053326175833
-0.215031106755933 -0.344862475407936 0.294208609454835
-0.213606856173392 -0.345049981554317 0.306737479337608
-0.223926451318015 -0.343691381079437 0.302608404602359
-0.219316989157906 -0.34429822828535 0.322439849986288
-0.214781035831561 -0.344895397869703 0.340056194566921
-0.222437578378348 -0.343887394920535 0.338188989639676
-0.218784472987432 -0.344368335369199 0.349359504295986
-0.212830526171719 -0.34515218733799 0.364232459649731
-0.206616017396889 -0.345970342939475 0.376617449692089
-0.215920906935223 -0.344745330991979 0.386675519117501
-0.223978928429326 -0.343684472336667 0.383148988980036
-0.209361205898543 -0.345608932016884 0.406054633841942
-0.221230505074911 -0.344046309135703 0.406707118962731
-0.213100011801262 -0.345116708881797 0.428468322183508
-0.227886047193763 -0.343170090392958 0.418989962970179
-0.216506723151429 -0.344668206823987 0.438850650812788
-0.216581055905512 -0.34465842073126 0.446568660475268
-0.211621347303865 -0.345311378755973 0.45953958802531
-0.208741727209386 -0.345690487933514 0.475898936333986
-0.211903645728998 -0.345274213463239 0.48071302428166
-0.217931252844695 -0.344480663931982 0.486069468947798
-0.219462705279647 -0.344279044393984 0.495271984055916
-0.222251269317679 -0.343911922973695 0.5005683353539
-0.215491965621879 -0.344801802187199 0.513515778756069
-0.211456197155233 -0.345333121185517 0.529823012044699
-0.224498612924339 -0.343616054574941 0.528690635678677
-0.221544523019447 -0.344004967889018 0.548891815249516
-0.216028095764203 -0.34473121931493 0.55976302549712
-0.223021991034305 -0.343810455534756 0.561324310293622
-0.207033737579739 -0.34591534903411 0.58682115679332
-0.210971350056164 -0.345396952517058 0.592204308689964
-0.210658020277462 -0.345438203164992 0.599567695995561
-0.219107784121549 -0.344325770650894 0.603555881434153
-0.216761356346945 -0.344634683727829 0.608049897022772
-0.225336499711165 -0.343505744686759 0.613235836938503
-0.220893997388873 -0.344090611213027 0.624601272455089
-0.215114173833513 -0.344851539419705 0.640351254590322
-0.221427456203192 -0.344020380027762 0.654369146203107
-0.215643432475058 -0.344781861197676 0.66765103406195
-0.206344220394246 -0.34600612569371 0.680734357960218
-0.220715997567273 -0.344114045334111 0.674245950341443
-0.226441111650126 -0.343360319766131 0.684796121264363
-0.221941703163877 -0.343952678131011 0.697668232401241
-0.222595206192629 -0.343866642825095 0.70974005401659
-0.220783867969473 -0.344105110026149 0.717686804038375
-0.213427029136793 -0.34507365623282 0.737224878416481
-0.2121362918013 -0.345243585026767 0.736210362336394
-0.220350060834597 -0.344162221818927 0.746192418410665
-0.215891942500768 -0.344749144232116 0.759837443879519
-0.222078973446639 -0.343934606155441 0.772855783837121
-0.213840469474518 -0.345019225779755 0.777677280522472
-0.220360468772472 -0.344160851587911 0.791489756401831
-0.21076933512001 -0.34309652890786 0.797240982789676
-0.223932543921241 -0.336174005512818 0.801353994425175
-0.242646360646717 -0.331850052351206 0.801300528392542
-0.233546651710083 -0.326930445959616 0.804755007467109
-0.249931684828989 -0.319104404284966 0.804980119936078
-0.262392622941899 -0.3093671635504 0.805564945585365
-0.272721231006334 -0.301219392814703 0.80554922705635
-0.291089676066481 -0.291039539580044 0.805366430794278
-0.289894985713265 -0.292880026255251 0.805462089440157
-0.309450705910002 -0.271937403571937 0.802168152265902
-0.318757416844706 -0.268024306283717 0.803400776596564
-0.323804605723019 -0.263290648497511 0.803125093926463
-0.335953141438421 -0.255709884925274 0.803682707074648
-0.36056192066323 -0.232220888736626 0.801933303579072
-0.374244095441032 -0.224559144842616 0.803386497725481
-0.376831307172986 -0.224770523986267 0.804267018625673
-0.389753398103267 -0.214210741317248 0.805214850533082
-0.401568194136707 -0.210463564996325 0.805526850167699
-0.409931846271767 -0.19359403466237 0.805582766022105
-0.423759811108191 -0.18496761701006 0.805366430794278
-0.438159993038625 -0.182341446303444 0.801782046023316
-0.228515843453779 -0.343087176142356 0.0955630625930726
-0.228569919353112 -0.343080056915149 0.0965626618053892
-0.237380464228247 -0.341920126677232 0.103835837982426
-0.248012120119257 -0.337596498845228 0.107212802737905
-0.235432339069064 -0.342176602220051 0.12165143128243
-0.243689408135813 -0.339387024775003 0.126486681386459
-0.257976143205428 -0.333469265347137 0.121374605784498
-0.237304118297595 -0.341930177809683 0.144697368134696
-0.237664113458536 -0.341882783547625 0.161652492468151
-0.231762944158433 -0.34265968722467 0.179961879819222
-0.251278829834421 -0.336243383376871 0.163052365267545
-0.234831150691254 -0.34225575017151 0.192788871136209
-0.24473391488482 -0.338954375913574 0.188146424710105
-0.231266817238872 -0.342725003572751 0.220068625734597
-0.239626349386327 -0.341069998813758 0.224272147158903
-0.232951960886527 -0.342503150202743 0.229305693172784
-0.234352913062269 -0.342318711349806 0.243093167891113
-0.241256144885984 -0.340394915413906 0.253176739816398
-0.249729371473377 -0.336885190044348 0.247224475236434
-0.243512981543827 -0.339460103062167 0.259965661227606
-0.249760722767258 -0.336872203913224 0.271402731154199
-0.249018868868255 -0.337179489859491 0.279412180833799
-0.237664113458536 -0.341882783547625 0.294174207967494
-0.237664113458536 -0.341882783547625 0.306909235640407
-0.257077873548899 -0.33384134082154 0.305685273406038
-0.231817712664065 -0.342652476814114 0.33735805899523
-0.234875022959745 -0.342249974277789 0.338323899509003
-0.230862771736084 -0.342778197172332 0.350604414764422
-0.244968981894193 -0.338857007970226 0.349740730201354
-0.235838254156595 -0.342123162484969 0.363992600037412
-0.236527281087567 -0.342032450368602 0.377441364754468
-0.229067720604902 -0.343014520137049 0.388212489452691
-0.235382733642866 -0.342183132898304 0.393841553088815
-0.230688938480418 -0.342801082754604 0.413462725624742
-0.247190204730992 -0.33793694734617 0.401347027331165
-0.239878820496907 -0.340965421855649 0.416224012512336
-0.233715068551278 -0.342402685172751 0.434278028351861
-0.237568790355848 -0.341922267669567 0.440480455087059
-0.231117323899176 -0.342744684744295 0.461002929663066
-0.236512330980728 -0.342034418587506 0.464515274391277
-0.236762936610148 -0.342001425730484 0.467408200528904
-0.227212239751093 -0.343258798825679 0.494525939714876
-0.237664113458536 -0.341882783547625 0.490035287809146
-0.255026522960231 -0.334691038056548 0.490363153868001
-0.233551459524146 -0.3424242247098 0.521714725399584
-0.243776229182121 -0.339351062320123 0.51122414404065
-0.257534466529077 -0.333652213816666 0.515361609286182
-0.237651252289587 -0.341888110818232 0.549265599167871
-0.226835608038025 -0.343308383331374 0.556753315600127
-0.231807962867233 -0.342653760399219 0.563328926969882
-0.232501128800627 -0.342562503372845 0.573986959519696
-0.234401802172003 -0.342312274976405 0.578379213659355
-0.231205002698444 -0.342733141611385 0.598210192556847
-0.227729307561805 -0.343190725556976 0.605216303023494
-0.238440382025791 -0.341561242579025 0.612144605899583
-0.246132977658343 -0.33837486513817 0.615217132461266
-0.23096100350379 -0.342765264714771 0.633164197579757
-0.242429623316892 -0.339908844732672 0.632993648781366
-0.236851037757439 -0.341989826994402 0.648014123110622
-0.243408300562006 -0.339503463344559 0.647200793250279
-0.229339905682012 -0.342978686291841 0.680373344583411
-0.239764886656728 -0.341012614797464 0.674144569163167
-0.234375740277751 -0.342315706089875 0.689904892959385
-0.231563944728754 -0.342685885996606 0.696130296677649
-0.249941697738381 -0.336797241625735 0.702321967381215
-0.247291245814426 -0.337895094759055 0.716186561294784
-0.245297538363737 -0.338720915424535 0.721339413525343
-0.229262327879287 -0.342988899603328 0.741310539828372
-0.23526133839256 -0.342199114886202 0.740038852643707
-0.232695952369265 -0.342536854363444 0.762839128040846
-0.240253823680684 -0.340810090450996 0.76401673771205
-0.237664113458536 -0.341882783547625 0.773878185834254
-0.236695872026225 -0.342010254950457 0.786370718975538
-0.237044628846193 -0.340209225587215 0.796606100070271
-0.248690821974368 -0.337363879207149 0.794657712653795
-0.263785349544106 -0.326060985283212 0.799313021776477
-0.271598082570537 -0.321514190295751 0.800311335370046
-0.270263727265976 -0.321477182448883 0.800714184651831
-0.277054628340439 -0.309683558302595 0.804587179967721
-0.288845313279833 -0.298721089448239 0.805542837879417
-0.30223783707074 -0.289463505557842 0.805582659305247
-0.317636623102337 -0.283903314248161 0.805615035851637
-0.327504583261321 -0.279360784229985 0.805430104834758
-0.333592745818645 -0.270456013962533 0.805700732723102
-0.342418953850098 -0.26234404107232 0.805618969974701
-0.357398351981718 -0.251402073445599 0.805652674668346
-0.374262850466103 -0.239242497425775 0.80570035133623
-0.385490088811959 -0.230593569462562 0.805565418974668
-0.384827204644615 -0.222628940513665 0.805410291072123
-0.404558386189864 -0.209511899560122 0.805388891349958
-0.420303456969894 -0.206967349431198 0.801291302790497
-0.267383391863007 -0.329572655368552 0.112193773986777
-0.27809541491258 -0.325135590140966 0.0992562640589842
-0.276691853813975 -0.325716964183627 0.117709435306098
-0.278245542621514 -0.325073405207837 0.126813960570365
-0.274853041749863 -0.326478625079238 0.126094360594087
-0.289803232055665 -0.320286053494516 0.130946183407992
-0.269129540551639 -0.3288493768998 0.162804390126796
-0.284228536848482 -0.322595167855428 0.16022191742371
-0.296889129159703 -0.317350978812443 0.153742105404511
-0.265788498769498 -0.330233281718419 0.191046303695421
-0.278039942445709 -0.325158567589083 0.190777743939509
-0.277710987007232 -0.325294825393115 0.198747122367232
-0.279106523401375 -0.324716775291876 0.207224181462585
-0.275038037292447 -0.326401997416521 0.227551254821455
-0.28345497169504 -0.322915589033362 0.217382789059156
-0.275334727205957 -0.326279104430526 0.252654752297414
-0.253575133859484 -0.335292223106358 0.273775957701976
-0.254929239436386 -0.33473133421152 0.280391359077557
-0.263343785094894 -0.331245915278559 0.279405894576584
-0.277923457469491 -0.325206817246044 0.279605106066444
-0.267789046535049 -0.329404627701752 0.294148016401918
-0.26828900432154 -0.329197538405973 0.307837898931257
-0.263729884087276 -0.331085987839496 0.328098654365284
-0.268057305328542 -0.329293511271262 0.326817986498098
-0.271034945421513 -0.328060132360887 0.337323426715248
-0.265241817738542 -0.330459724415733 0.34798621730689
-0.27157712652347 -0.327835553595194 0.359994262296308
-0.282051968691411 -0.323496731905516 0.353888800818819
-0.281174224992448 -0.323860305249914 0.36414449777971
-0.280505514823461 -0.324137294071205 0.369761340890915
-0.265785402417304 -0.330234564269491 0.399975477341807
-0.262162711068064 -0.331735132158638 0.415523778318376
-0.285148326679026 -0.322214178433083 0.394651725445429
-0.274417895473828 -0.326658868568387 0.418265961215185
-0.27644826594794 -0.325817861581368 0.429349835887187
-0.264062464731454 -0.330948228426094 0.446024094398123
-0.274842238305871 -0.32648310001226 0.442486718449203
-0.270662759687848 -0.328214296739493 0.464846683608876
-0.285048906854978 -0.322255359472573 0.458869371248599
