ply
format ascii 1.0
element vertex 857
property float x
property float y
property float z
end_header
0.157968735347011 -0.185031202448235 0.229794186003595
0.155760408228234 -0.190809584484249 0.245176542215199
0.157015664705364 -0.188305711675895 0.242613887820432
0.15808298826642 -0.188874302428959 0.261793091682559
0.155097631117134 -0.19514778896425 0.270410047028355
0.16040626474598 -0.18700851463148 0.278969439166295
0.162225326245424 -0.18551509600052 0.292160266861502
0.157917192160523 -0.19384724802748 0.298886434251616
0.163588696868322 -0.186550875816713 0.319109555598284
0.163077147996974 -0.188453803527239 0.327141381815151
0.159752724439518 -0.195810311503395 0.339670461286469
0.161920138253896 -0.192529712099424 0.343501678628053
0.162973672461854 -0.191094628813012 0.346627166139172
0.166933754953735 -0.186963370387498 0.36837531792143
0.164405331919559 -0.192940967657266 0.38093313610776
0.161631645866704 -0.198207055142059 0.384484820759587
0.162271599850845 -0.198099565925917 0.392434153653149
0.167119421226564 -0.190936737574378 0.402387660810785
0.165593359859777 -0.194727895137636 0.411418398077923
0.164886802279651 -0.197846421603296 0.426393050499597
0.16562658089506 -0.198028690067377 0.438009286550712
0.167587558718472 -0.196257679322626 0.450953852225066
0.167896702600854 -0.196111159079851 0.453922042732181
0.167075414062041 -0.198596581014496 0.462429309831522
0.167410706445906 -0.199226564479173 0.471921285845225
0.171959583690096 -0.193530340113325 0.487634529891338
0.1674544115821 -0.201895297020315 0.493450802965663
0.17069386519103 -0.198960086287355 0.513442983142197
0.169730078201353 -0.201917356902905 0.52385392971106
0.172162831994952 -0.19812713959755 0.526418301918528
0.174302205816832 -0.196890148079035 0.545127650218594
0.172085407499858 -0.201455424272209 0.551516065558107
0.171680179983536 -0.203253627241376 0.560248502715992
0.169815355327256 -0.207475086226464 0.56861365097101
0.175231759923087 -0.200651828230195 0.587004175438158
0.174407337626126 -0.203724427812212 0.60017174889309
0.170919153698271 -0.210596870278005 0.607781799965882
0.172984650743192 -0.208593276911349 0.615910770734393
0.186398953084603 -0.211794724634821 0.615910770734393
-0.318469219735046 0.307766511564777 0.433191763355408
-0.319081407884906 0.308123283541367 0.442321916803551
-0.321481331597821 0.30738082648402 0.450627655415855
-0.324805742961055 0.306637518242437 0.465793622609727
-0.324563968179769 0.307127019102139 0.47028072079462
-0.324170825274307 0.307862493259923 0.47680052208316
-0.324794308976299 0.308743734313229 0.492747603324599
-0.32137144168524 0.311385466227676 0.501221259807834
-0.322071770827408 0.311493971317306 0.507819336842665
-0.325564028200307 0.310539275892084 0.521519077097549
-0.321810510518159 0.313342115664468 0.529603463603258
-0.324064080575787 0.312480225451406 0.535288197687464
-0.326081971293633 0.311646615221935 0.539584320068736
-0.328115955297305 0.311708812288772 0.555500156232572
-0.324573346887401 0.314410049063567 0.56384775496007
-0.325218360370342 0.314445248811053 0.5690936325284
-0.325562121766786 0.315274319061911 0.582291954652045
-0.331863669656992 0.312496224104961 0.593463197245064
-0.330549923902676 0.314127003686485 0.604634375344583
-0.325052898325168 0.317745555801689 0.610232192886922
-0.329485329471508 0.315408146409131 0.613168812207226
-0.320468647507757 0.308608085021467 0.615910770734393
-0.313710108426793 0.300056167640823 0.615910770734393
0.139874872271252 -0.152821072723683 0.0284266509569721
0.144256679845184 -0.167697187747417 0.0284266509569718
0.149889455469083 -0.174421411162315 0.034688285053969
0.153368643423383 -0.169932469490818 0.0469914193845809
0.152435663874832 -0.171449909130123 0.0461758054964093
0.155068056796393 -0.168921754471314 0.0623587024770587
0.154719995354261 -0.171686475457748 0.0794619882809284
0.156182841327047 -0.16932374473304 0.0808715101576236
0.156883702788302 -0.169063499880326 0.0884489742524865
0.156960494150039 -0.169945373251834 0.0964872100457428
0.15364326477734 -0.177713988142991 0.112378077787001
0.156057738275066 -0.174251623884061 0.118167632904203
0.158683439683003 -0.172424910376784 0.139812171922181
0.158089900502416 -0.173666740083005 0.141482257761406
0.157510330744095 -0.175878500006044 0.151023868572932
0.159423338937363 -0.174129016067781 0.163479214516405
0.160058775253431 -0.174979425105643 0.178950582591567
0.162952858568437 -0.170877032978612 0.18626810961256
0.159875267269128 -0.176925123435738 0.191832125956429
0.162130649351131 -0.175739594478148 0.213460768109322
0.159584565377671 -0.180052342361625 0.212594274000882
0.163111514992695 -0.174699883550642 0.218717308960761
0.161959585742947 -0.178716564294801 0.234678534207802
0.162646107386316 -0.178493675432596 0.242354569227146
0.165979128478088 -0.174034848741129 0.252886113532914
0.162186109647768 -0.182171343316596 0.265146811872832
0.161246785266306 -0.184869475180452 0.273592078216995
0.167161062436746 -0.175574595882703 0.281330523076606
0.168031215817775 -0.176145492991558 0.297816585870873
0.165772493434418 -0.181043951235234 0.305539130144162
0.165571537302271 -0.18235293129265 0.31313951641856
0.167920731319441 -0.180168314910944 0.328147945419492
0.167065548609601 -0.182563557349511 0.335352165463014
0.1676872803451 -0.182817389682416 0.34591167731251
0.17016236250562 -0.179339404967098 0.352364654601227
0.168446298176458 -0.183437950002937 0.361262659148614
0.168065761254468 -0.186141549389334 0.377435425449084
0.17138677216744 -0.181942941631333 0.389066881268572
0.168771504646522 -0.187193654466673 0.395470555521191
0.170574005140679 -0.186282850188495 0.412337367970636
0.17166353722725 -0.186187946819355 0.426065745586245
0.171224759496763 -0.186652265394276 0.423881815239415
0.170709525575902 -0.188600123056824 0.432327682008985
0.169945163475759 -0.191797931479714 0.447275955951519
0.172597418662092 -0.188597311842005 0.45738439165079
0.174372442186159 -0.187899551904563 0.475486553733306
0.174991331318578 -0.187112504061653 0.477529733759968
0.174400837408385 -0.190676553869755 0.497662584044555
0.172091674459944 -0.194215142727773 0.494764767407135
0.17755986822935 -0.18739939141698 0.513902185158999
0.1784324151902 -0.187880159943044 0.529267024017756
0.177159076403894 -0.19037466474188 0.53193327819948
0.178099364706932 -0.190358588538551 0.544297876138209
0.176584283023796 -0.193546511797229 0.549195992771826
0.177411376699672 -0.193486466230517 0.559711763555485
0.177841896086669 -0.194778791944084 0.575575244555952
0.175031126323594 -0.200557321086698 0.583597098754897
0.178781545213692 -0.19469274349881 0.587382085638197
0.183142157759143 -0.189720416796194 0.606276851420661
0.17810518503737 -0.199050831349569 0.612607304605252
-0.314620961902016 0.30991624040367 0.432187563881649
-0.312390303896491 0.312076105765386 0.443336132145467
-0.310300463595787 0.313805110943616 0.45000006072599
-0.309948861504142 0.314527673313707 0.456662852070106
-0.312102315886044 0.314451800875028 0.471694144672132
-0.316161480926923 0.3129682773442 0.482818430988339
-0.312232493036963 0.315641041707693 0.487928785279914
-0.317255524671247 0.313334297153717 0.49564864560463
-0.31559542558025 0.314417138033179 0.497211318748753
-0.317727442747376 0.314464670514683 0.513667516445559
-0.310891273087101 0.318996591277945 0.521037837923237
-0.314140575509999 0.31805828950867 0.533142298212216
-0.318754881834715 0.315967598053341 0.540597975379626
-0.319144562570748 0.317082316764594 0.557804656323166
-0.319484857930258 0.317309169544359 0.563246132402957
-0.322205905694997 0.316484912217202 0.572888464235565
-0.320046363854122 0.31775529554832 0.573146695494206
-0.317981622734215 0.320432502262137 0.592169894550702
-0.321736703855183 0.318479689996972 0.595009523253779
-0.319150552913526 0.320987768552824 0.607986183485867
-0.302929816091192 0.302965436891754 0.593508208348325
-0.310289184971585 0.307543949547203 0.615910770734393
-0.310852957794718 0.314259636892883 0.615910770734393
0.147725366613254 -0.148692257471917 0.0284266509569721
0.152993573905469 -0.153943347871414 0.0284266509569721
0.160298142977279 -0.157280273605732 0.0421092197781482
0.157169997573809 -0.162966394054351 0.0441121394220763
0.158680265756755 -0.161496529893805 0.0532430634464879
0.160204567301871 -0.160224259385777 0.0641314162988057
0.162851763632842 -0.157023643558133 0.0751936716697938
0.158729934795411 -0.165458353439189 0.085293832603881
0.162279093880757 -0.159671588658488 0.0882836649944207
0.16371682394873 -0.159144446919489 0.103881080869112
0.162395430811491 -0.163060096167755 0.116711992835386
0.1608631069847 -0.166012199594367 0.119013399522224
0.162856262614715 -0.164457337482632 0.134111817890552
0.163156029685833 -0.165926471733843 0.149865960670474
0.162092785731826 -0.169136842149671 0.160662786193214
0.16604674998547 -0.163237892860949 0.168331108582708
0.167229185097685 -0.161860136372892 0.173683072256555
0.166355337837103 -0.165797078049783 0.192837030283816
0.16530169278379 -0.168240935931005 0.197696992205065
0.164708982151395 -0.169546576752709 0.19988369645393
0.166604196861053 -0.168724197318001 0.219434704584359
0.16664209106255 -0.169671259163602 0.227454172739939
0.164667235857235 -0.173928416321592 0.234002837516206
0.168370577903837 -0.169191279817673 0.247423362134414
0.167796080635213 -0.171566279796045 0.258327180977328
0.167551584721265 -0.172673065915426 0.263727955748576
0.169421404630689 -0.17151984171631 0.280310281524537
0.170956987688633 -0.169732148498497 0.287272913258176
0.173073288319748 -0.168217620185145 0.303729943182263
0.173346943117908 -0.168515181706451 0.309700963937144
0.171599470218833 -0.172389650339496 0.316901218634189
0.175335850799807 -0.168296116039717 0.334402003933888
0.175478633144246 -0.169568133989763 0.346283773973924
0.174166043614595 -0.172502647299378 0.351882586998229
0.173994685461747 -0.173723034890077 0.359186027322765
0.175070229507707 -0.173276050129262 0.369964829646484
0.174794432761566 -0.175012472374094 0.379931661009898
0.173029911079522 -0.178637266550201 0.384945552440104
0.17489707131457 -0.177632174527311 0.401859172511279
0.175244185967249 -0.17779115442661 0.407718200250853
0.17726344755468 -0.176479187682533 0.424243438979123
0.175535088439754 -0.180268247788687 0.43102716390353
0.180696427891792 -0.173105148611448 0.443361727011278
0.177086742588987 -0.180674359597936 0.454827226457511
0.179022063213704 -0.178277662022673 0.46172250512535
0.180792359634176 -0.176490183389333 0.471207830680077
0.18073946024872 -0.178579973636801 0.486909488927866
0.178906541242672 -0.181914363387656 0.488735182024969
0.182192960545816 -0.178366288900426 0.504540414797006
0.181080284172957 -0.181887247288197 0.51739833402816
0.181779521482031 -0.180877799398262 0.518763070130133
0.180656887026124 -0.185436009351385 0.539630892895187
0.182968336538745 -0.182355112859351 0.546151864289316
0.181903310759167 -0.184851624485623 0.551601102169402
0.182965045792828 -0.185039275565674 0.56717821123587
0.184176608024349 -0.183652156808608 0.572384043408545
0.185570333337285 -0.183258475693152 0.587807987954745
0.183633494998142 -0.187149379331885 0.592621722639512
0.183774442168122 -0.188888001068473 0.608141846854849
0.18677173949596 -0.184628230928534 0.614519734960576
0.190573714996681 -0.199968031659897 0.615910770734393
-0.304208743454519 0.315744573253518 0.429622229129696
-0.302742997364007 0.317457675170119 0.440720510096754
-0.304110968522865 0.317040654153382 0.445534220556202
-0.306814780987632 0.316151087004017 0.454210025187558
-0.30354852188833 0.318869477683783 0.464831777307129
-0.306144308440405 0.318131500787658 0.474650760524518
-0.305663001887544 0.319118581253979 0.483745340325332
-0.306211443823442 0.318860753120581 0.484511657185768
-0.30362620714291 0.321807576051979 0.503127579680967
-0.309353369343416 0.319520557162023 0.516334047401781
-0.308439672587497 0.320475334687555 0.521800237802067
-0.309990640319062 0.320943344035253 0.539335801936633
-0.306850120029416 0.322390806286553 0.534576300962376
-0.311225316592059 0.320655957902096 0.544823025663734
-0.312365068101422 0.320875866075704 0.55611722153665
-0.310403277152283 0.323150358133614 0.57073565824279
-0.312179364513085 0.322674414266296 0.577826215160779
-0.308360606184908 0.325261016053231 0.582649709906104
-0.312967354867465 0.32364407974111 0.596131140427286
-0.316851632432248 0.322263979020073 0.607283304875028
-0.298185069025306 0.305783105335088 0.595415630370841
-0.307845826946709 0.321342447438171 0.615910770734393
-0.299521194443833 0.318076192853501 0.615910770734393
-0.299558260063152 0.312404069288829 0.615910770734393
0.156658021774742 -0.143677184252119 0.0284266509569721
0.163722222667454 -0.150700521788804 0.0371005372237742
0.164973541833489 -0.150442268872663 0.0522634360262068
0.165022898722448 -0.151364795850801 0.0602462794189782
0.169455137457546 -0.144582481246133 0.0674975862790983
0.164735906549068 -0.153781842338574 0.0754366510549121
0.166496132266657 -0.152237688108225 0.0874166945957363
0.167326347089415 -0.151770377434359 0.0951335280609122
0.168700825921529 -0.150943107661017 0.107484875488667
0.166832741563873 -0.155293649981441 0.116241185297415
0.170937954059005 -0.149319961905528 0.125397665672601
0.167817225955977 -0.155298484560834 0.129817679647704
0.173135266528334 -0.148423763745525 0.148518535702104
0.168246993623217 -0.158221869810017 0.158873569656444
0.169600326509333 -0.156368302430107 0.162808414709335
0.169249987784998 -0.158773540476986 0.177034177796822
0.173637312139137 -0.152594833986926 0.188446908694752
0.17173173827748 -0.157198036384022 0.198688114940565
0.171038592478575 -0.159794445625819 0.209713336980269
0.172723908135758 -0.157932487482756 0.21814703602522
0.170225427681184 -0.163489542885457 0.22778697141323
0.174024129744842 -0.158422144576371 0.23946868788074
0.173635944368917 -0.159355270349838 0.241636855429809
0.176699746363384 -0.156091906181367 0.256719749911971
0.174398310121139 -0.16160687626295 0.269438713883218
0.177076497488026 -0.159081455027288 0.285191785238267
0.174504386118083 -0.163847771725145 0.288438342811783
0.177930278303177 -0.160086066053 0.304419377964576
0.180055513265046 -0.157696751993948 0.313895438125614
0.17813558183232 -0.162585977725042 0.3267703635108
0.178559955932563 -0.162502774666017 0.331754625326315
0.179681039702631 -0.161535682514213 0.339055653818663
0.18036112541262 -0.162553870259767 0.356082454417429
0.182058860745033 -0.160510107478699 0.362592106533604
0.178176221619067 -0.168208006239387 0.371441856123546
0.183010630106069 -0.161673947435745 0.384371289944951
0.182587737278751 -0.163224547877414 0.390925438046549
0.181417680013615 -0.166078233697794 0.397783172830558
0.181196225985438 -0.168051313607158 0.41032960136453
0.178897323164788 -0.173235538560057 0.420485945961748
0.183495653289614 -0.167416891964552 0.435895135805737
0.181736475025654 -0.170479385846547 0.436566080956842
0.182867895100662 -0.170079728164658 0.448458647314508
0.182938934172677 -0.172011778328062 0.464568480919438
0.183657920230715 -0.172129280023799 0.475041855068414
0.186487833288206 -0.168265169938296 0.482302050681706
0.187387201797812 -0.168496479837434 0.496064994098936
0.189303479191739 -0.166902180832485 0.509005947060793
0.189263424499331 -0.168057188919863 0.517540408824406
0.186956276588291 -0.17311686912031 0.526609577894354
0.188977798181008 -0.170846105531106 0.535638503350498
0.189553086242175 -0.170743386216939 0.54247430852083
0.188799492435582 -0.17293790964824 0.549690071576675
0.192121555223793 -0.169292862433674 0.565207578849777
0.191996496333687 -0.171148864474913 0.57811548627205
0.192587568069311 -0.171451089141323 0.588339679130153
0.188995403829454 -0.179191676784927 0.601383195852635
0.192035148313961 -0.177268343054486 0.615910770734393
0.189149609847712 -0.180673362830795 0.615062564440606
-0.300387561178878 0.318286495587337 0.433854126887194
-0.295972943870558 0.321334653925644 0.440174286239049
-0.297579418225537 0.32140084458481 0.452963971076527
-0.299755718714625 0.320167353368716 0.453303906457028
-0.297417108636751 0.322283016418792 0.463082676601157
-0.29695101232968 0.323555293561343 0.475951573290591
-0.299104752993402 0.322358416187591 0.476593872570061
-0.301798762242733 0.322218535733249 0.494821066076071
-0.299949112568189 0.323450927139248 0.496894808995792
-0.298408158546125 0.325615076935805 0.513224530805402
-0.298663140137713 0.326173725290623 0.522291412285184
-0.300804234984227 0.325172707745174 0.525354111901025
-0.305108247187244 0.323900726952836 0.541013920090939
-0.302729080937988 0.326248922659881 0.553476444484434
-0.300000211384676 0.328089965745731 0.556829164973216
-0.302049251403143 0.327860916156541 0.569117967196916
-0.305377151851151 0.326350865062945 0.574466654647502
-0.301217866985999 0.329251154615109 0.580786250549731
-0.305496249453242 0.327429719555861 0.589201841368165
-0.305945005053586 0.327609598901861 0.594846405932087
-0.306295611404544 0.32895933388367 0.614779738220929
-0.301084746886276 0.327165691494745 0.615910770734393
-0.296977423537899 0.321318692665784 0.615910770734393
-0.288541496063057 0.313938893869606 0.615910770734393
0.166079233225396 -0.137722516671207 0.0284266509569721
0.166748074444591 -0.14594628637406 0.041069119088149
0.172333098795384 -0.13736039506666 0.0498932302582463
0.171166075873665 -0.140679152465423 0.0601210849633401
0.172707358483219 -0.13897257896453 0.0678043599701122
0.174056555189394 -0.138063278372268 0.0791585591227071
0.172365877073652 -0.142323595033714 0.0896401234500619
0.172135940586965 -0.143233760705822 0.0936843707980385
0.173800425359455 -0.143213960047999 0.116416895741674
0.176881633386509 -0.138481349154057 0.12089710662537
0.171333870454671 -0.148919969677415 0.127675203123438
0.174432599709227 -0.144687283001767 0.136775328094691
0.178383014937986 -0.140187229675976 0.154232233945464
0.17460031389145 -0.147177203196247 0.158795608509688
0.177578188388592 -0.144326137161423 0.176030389688213
0.175028457122889 -0.148739856528861 0.176806436506906
0.177520099181711 -0.147019722805874 0.196402761627895
0.180434047466291 -0.142800174746668 0.201989174912766
0.179057001269948 -0.146301622498699 0.211182050657112
0.176926582692618 -0.150970410456741 0.219530478297547
0.178925352711812 -0.148050610641356 0.223162386366879
0.177144371849157 -0.153819796280191 0.244790614836592
0.179138517674007 -0.151000680106306 0.249151438574032
0.178557011218795 -0.153273614284371 0.259268716853266
0.180447145559142 -0.151501001790143 0.270462665450727
0.18248251704008 -0.149534958796375 0.282067559600969
0.18261776916513 -0.151519849800618 0.29944518805539
0.181473322397279 -0.153544276937867 0.300133642410692
0.184283234712056 -0.150076467737292 0.310239019096799
0.184496219581636 -0.151128865937737 0.321329395045752
0.186168169478453 -0.149666213403295 0.332058095433569
0.182374154938995 -0.157961580382511 0.346775122673793
0.18522819933919 -0.154006068318286 0.353638394554948
0.187327674967478 -0.152100703225228 0.366571155972609
0.185848226859945 -0.154820486438242 0.368267837204643
0.18503247035865 -0.158005787781253 0.382435210071992
0.186183726508062 -0.158245929952848 0.399613560912089
0.18633060588748 -0.158568593713337 0.404097543466699
0.188934937656628 -0.155754195751087 0.41660111587194
0.187092448088091 -0.159504168714347 0.421561906430491
0.191111397694085 -0.15481794692659 0.438163878690451
0.190931038352489 -0.156006565417968 0.445098367059905
0.187588926928005 -0.162627647933133 0.452675727750797
0.190391806129795 -0.159607730799127 0.466203526474867
0.192065852930898 -0.157835527852386 0.474530182450945
0.190964705230094 -0.161213429027012 0.486418282302591
0.189719895052785 -0.164736286666729 0.49753584439807
0.189224289206048 -0.167096832171637 0.509481955409082
0.193173137508955 -0.161568640724026 0.518543433166613
0.195847909574666 -0.158686475943864 0.53145078070026
0.194918248814095 -0.160389327589063 0.532468159166079
0.195956303896024 -0.161447851550107 0.554566855936488
0.197173633877599 -0.160238609819127 0.561245600748691
0.195314933188352 -0.164348761857756 0.568818365814312
0.194637022159028 -0.16650532539505 0.576741522638826
0.194607353966651 -0.168256857695987 0.590096536870937
0.195704707643754 -0.167623676385444 0.599703458212778
0.197960345113099 -0.165326522716482 0.61163522355879
0.197415887570585 -0.166500055834948 0.613614613694484
-0.290033159835676 0.323264224269064 0.42079871348018
-0.292145830856664 0.323377506041917 0.437955192454382
-0.287750963760241 0.326784449803897 0.449028121510759
-0.286629236469126 0.327048511587414 0.444080948120149
-0.291008607180563 0.326362235633957 0.467819951317931
-0.291414890683864 0.326476579627589 0.472307523591149
-0.292878392222559 0.326868096995862 0.488211023765927
-0.291445033153255 0.328212195281841 0.494812861211781
-0.289251485588716 0.330007227826379 0.501553635904929
-0.291348944501682 0.329101054755978 0.505509600681402
-0.29244235843564 0.329354759485108 0.516893267389946
-0.289875662812834 0.331253407736772 0.522190845947699
-0.297755108926818 0.328247927813507 0.54217054956519
-0.296041647101265 0.329425657795843 0.544554767377681
-0.295723676877166 0.330598426758266 0.557247139563744
-0.298045882073937 0.329751359554701 0.563632290293362
-0.294066845570725 0.332522316407471 0.569631228978217
-0.300288760710921 0.330143694773612 0.585338926916827
-0.295732000315391 0.333593057904489 0.595753168281908
-0.294322685296829 0.334645297006851 0.598786910962573
-0.279986784796641 0.315825912576181 0.592459934044562
-0.298110638153106 0.333711228687565 0.61494918087435
-0.292157838149188 0.324757884440105 0.615910770734393
-0.286192373170027 0.320716708525192 0.615910770734393
0.175038489217607 -0.131428132987022 0.0401279347967607
0.17462682998667 -0.132383984567206 0.0420349253794588
0.176678723129101 -0.13079364347274 0.057660172513141
0.176021912316392 -0.13237610183815 0.0611571011025532
0.175211406546659 -0.134691638924302 0.0683446324962546
0.177765383490852 -0.131610949094728 0.0787057817845995
0.177169704378504 -0.134165585942917 0.0908460917560006
0.178841979471318 -0.131951989369773 0.0956843736875657
0.180009518350543 -0.131505104283211 0.107686018053469
0.178283053865013 -0.136197378393631 0.121584933884335
0.181169711027696 -0.132483176758778 0.130775665282928
0.179748702104738 -0.136982059847552 0.147214178524298
0.182298201355765 -0.132992295060165 0.149762995777047
0.181289432186039 -0.136666668416464 0.16520549087895
0.183973685052902 -0.133636848753309 0.177079724457157
0.180738466731814 -0.140504990507264 0.188016411756273
0.182804441632538 -0.138216040896283 0.197493098982991
0.185283759169587 -0.135060699166443 0.2056596516513
0.184303509474347 -0.136976609786285 0.207677470621136
0.185631821298118 -0.136368429820951 0.220548695450785
0.182378727858954 -0.143504583144121 0.233351758940616
0.185167825215605 -0.139462337635129 0.238671436477894
0.187353328381512 -0.138808201031679 0.262568844429964
0.188071020771071 -0.138522008561912 0.269856126932578
0.185653375789198 -0.142313588216532 0.267503154351373
0.187509926383664 -0.142267939486883 0.291807245585399
0.18688484064423 -0.143931034863668 0.29655852190024
0.188114507676541 -0.143460642359045 0.309200948988582
0.189911913680326 -0.140764651485107 0.311914785740285
0.190512584984565 -0.141548592426386 0.326047861497663
0.189160282229149 -0.144609375718138 0.33211031430053
0.189868552398601 -0.144598451726945 0.34143322638711
0.193359928889217 -0.14012600812147 0.35270502557643
0.189978426208382 -0.148229520892804 0.371395849998431
0.190832422094735 -0.148084661808525 0.381603223173195
0.189722809378442 -0.150616117103556 0.386734467841476
0.191681154725359 -0.148675412067881 0.397515043768026
0.195137251811442 -0.143836599334427 0.405442277676687
0.195235969946847 -0.145666982458574 0.421121737111639
0.191721541322093 -0.152948086858112 0.431591055948721
0.192792089060812 -0.151685027015684 0.435897485213099
0.193560512600222 -0.151025712247775 0.440929756043936
0.197307880843935 -0.146701523224684 0.456765914843824
0.196300699702157 -0.149783877391144 0.467582290542659
0.198231190981403 -0.148603125342988 0.483958309497897
0.19575834501309 -0.15265266758015 0.482896993928638
0.197060566744633 -0.151494763843111 0.491106432454922
0.199043519047294 -0.151189177859942 0.515049196549782
0.197789774656705 -0.153447788019029 0.516124023955192
0.199672574386688 -0.151819475983842 0.528353265054353
0.198527879694374 -0.15603722829651 0.546255525235389
0.201957149811363 -0.151541017966804 0.556515739853188
0.199816908599999 -0.15627252065244 0.565225979814137
0.200612458830318 -0.156232133932759 0.575477044816296
0.205441460548358 -0.148960737183533 0.582546721451232
0.20134360772341 -0.157205859016685 0.592833147192623
0.201454493386437 -0.158332326929189 0.603148667236921
0.203271590907384 -0.156147843886928 0.61013930524433
0.209898807357748 -0.166413026011673 0.615910770734393
-0.281445487054043 0.328413445778561 0.423075894480074
-0.278341133513534 0.330555103655584 0.427497071733939
-0.279704629057751 0.330627968848806 0.438566528126299
-0.278871388780497 0.331842580198123 0.44796637047891
-0.283962500927798 0.329596786188455 0.456974696539689
-0.28355539514119 0.330679994765787 0.467854829129136
-0.281632824903633 0.332819052366369 0.481026103136801
-0.285221736863565 0.331271950159057 0.487839079850937
-0.288253940524735 0.330234972667224 0.497063207782128
-0.281018612165676 0.335193206672983 0.506939704819939
-0.285851269201099 0.332804303502698 0.512189898872511
-0.284890173166109 0.334322836717635 0.524541123603871
-0.28597351551775 0.334994379530538 0.54121401283845
-0.28293612986785 0.33648487270242 0.537773466967207
-0.28959067418957 0.333588952402108 0.550055711883022
-0.288594395836354 0.334950145778955 0.560125566706036
-0.284348505540951 0.338153113256457 0.569687164317252
-0.285716265621797 0.338080051613268 0.57891495199255
-0.284702650054392 0.339067245491488 0.58405465778293
-0.287765992493235 0.33756002846546 0.587473428955524
-0.289973051494679 0.337305033784184 0.600603615194279
-0.275683493696582 0.318229456624827 0.59214745268064
-0.282674508200532 0.328170613860121 0.615910770734393
-0.275258328590308 0.330056658444616 0.615910770734393
-0.272907208046549 0.32360559107541 0.615910770734393
0.181812408563163 -0.114398272110782 0.0447372986716504
0.182551387068175 -0.115791967224818 0.0617656588434195
0.181758478423258 -0.120809681548972 0.0701237831759081
0.182105168274654 -0.12249701277321 0.0823380377302891
0.184537295686082 -0.115219616910867 0.0898739392890095
0.182270605587831 -0.125107365853034 0.0955471096341177
0.183847706023115 -0.123371633083887 0.112630913888746
0.184506718794558 -0.12099466987056 0.113016706887754
0.184816417225082 -0.121580028011701 0.12015833193456
0.186394181788957 -0.121538340266977 0.144178502438588
0.184396205271338 -0.128129904084077 0.140495035285018
0.184371900389441 -0.130686205820501 0.159207748255908
0.186498852437433 -0.126350703016301 0.165458908577737
0.187369104865291 -0.124704274006742 0.172070295561766
0.187642381373702 -0.126359521753591 0.183027786723699
0.188462474906299 -0.126242400894061 0.195122776287076
0.188014928896121 -0.130895961589282 0.209248283765236
0.190897303086519 -0.122780178586976 0.21829860521511
0.190313999708224 -0.128972611703561 0.234673334557031
0.190929565129504 -0.127107577360901 0.23648602933886
0.191168424253502 -0.128760572852339 0.24690661758645
0.191202838902561 -0.129352257802729 0.249853402182994
0.192814552589601 -0.12694205343256 0.264710294742112
0.18937752373806 -0.136407913500542 0.270616554954118
0.191714569207246 -0.135118179317365 0.291537756156371
0.193865756777672 -0.130219598701506 0.29422797470583
0.195031435204301 -0.129562325568849 0.309413105116259
0.195848354999771 -0.13056207011181 0.326025791628572
0.194001153967554 -0.136085731931306 0.329507820466894
0.194052002038216 -0.136083415082276 0.330165099646493
0.195171682069469 -0.136656473141608 0.349537306558688
0.195388960549123 -0.137800666884388 0.361405292775943
0.194806246542264 -0.140148947407645 0.372097981453334
0.198242791958831 -0.134314851877381 0.378081221466662
0.198993798236306 -0.135755057421017 0.395484154039718
0.19978361384372 -0.134501379413301 0.402468048205098
0.197657038983912 -0.140605959816399 0.413555358738715
0.20136335153136 -0.132971036932615 0.42043203532639
0.200725214357068 -0.137660194358994 0.431189426187999
0.198036546886771 -0.142827143135544 0.436032522070636
0.202100569184445 -0.136705211584258 0.447002559711715
0.200835656885702 -0.141151114661481 0.460059468249102
0.199356170903473 -0.144564806310499 0.467202668322996
0.204595158448453 -0.135218464377046 0.479171481892245
0.199846166195002 -0.146936383316533 0.492328102361236
0.205123518547559 -0.139454128281385 0.504590121706884
0.201918225049486 -0.145783367713715 0.510802430111894
0.206683227480004 -0.138557777957676 0.524839130910239
0.2029013537652 -0.146071715462755 0.526125778372591
0.201608828023665 -0.150449250469224 0.543318507958559
0.207770468221334 -0.141805145899368 0.557315516528086
0.205777113268245 -0.14572199421993 0.561582144153251
0.204809465982951 -0.149411267067714 0.57768786007157
0.209917220371021 -0.14130353792079 0.585649549496167
0.206905195125261 -0.148201396567953 0.596030326099161
0.208452042630944 -0.1474770745484 0.610892891067269
0.217386446775115 -0.146294767342407 0.615910770734393
0.216359572358876 -0.157061842676339 0.615910770734393
-0.272421823770353 0.333805926287648 0.425235507786558
-0.275480934804892 0.332198222080077 0.427332805563803
-0.272467120595259 0.334943188374176 0.440171997062161
-0.272450895295699 0.335566118103143 0.448048387027909
-0.272409082688063 0.33655315125945 0.460408851334945
-0.271848614379068 0.337165834646716 0.464108673774372
-0.272369504549392 0.337618591704227 0.473792492063425
-0.272963400512724 0.337682349373016 0.479025062046112
-0.280852523022494 0.3346679707275 0.498962445347811
-0.279361099173432 0.335659453242822 0.500605948283961
-0.276599188045404 0.338246704593022 0.513292685984259
-0.277928130826445 0.338652080065523 0.528373998684518
-0.281145964391261 0.336686041154464 0.527050792580901
-0.281677227145837 0.337569980247414 0.542347088083795
-0.275051215124983 0.341638805046983 0.545334298382844
-0.280204141462848 0.339483044184868 0.555957870039194
-0.281403928561279 0.339607361373385 0.566471105972117
-0.279840507803868 0.341380102124235 0.577609055649499
-0.278732761107306 0.342687963207352 0.586165770105085
-0.283931545496525 0.340489867207217 0.596586691184171
-0.281658295418027 0.342354505616207 0.603628664405222
-0.283237309767184 0.341636261912566 0.60614392544014
-0.265605449579827 0.324157241513025 0.595431972761467
-0.277329428724551 0.335516163971798 0.615910770734393
-0.266997165863818 0.329745831131948 0.615910770734393
0.183885049800896 -0.107174535224645 0.0469808710925265
0.18366070973794 -0.109746562297673 0.054057097893547
0.185819495670033 -0.105310748292305 0.0690200139566431
0.184070579359686 -0.113042839736802 0.0738182909230596
0.186512491670576 -0.109251123170435 0.0957555822508327
0.187058029043645 -0.110437297223957 0.108969603221862
0.188101190674063 -0.107507211947979 0.112983780158103
0.187553163753014 -0.111573289242284 0.121205668482788
0.186767800071526 -0.116712408706624 0.130175844448713
0.18924638278803 -0.110666691919333 0.143459786866387
0.190474611076416 -0.108869432053238 0.1549430546976
0.188130743312812 -0.118194074422179 0.157130633084918
0.18957751659057 -0.115861760843802 0.169777085361021
0.191497843142904 -0.111945645173029 0.183208704231906
0.190968851824035 -0.113433864922592 0.181182757111508
0.19056025387629 -0.118909646233443 0.197306041263022
0.192614695664204 -0.116039614361918 0.217070906073143
0.191691905964917 -0.120791923516411 0.22235254553417
0.192149870749686 -0.120370961721534 0.227653034066399
0.193722677786314 -0.115794069228661 0.233054794319068
0.194807732984432 -0.118283623612306 0.25986974674413
0.195571732791188 -0.116237541917017 0.263218047528233
0.195018912001437 -0.12057900459816 0.272492361523936
0.195458584585337 -0.121501273532186 0.28300425299852
0.19459816771807 -0.126556004484858 0.290478671541347
0.197938104808073 -0.118042958432811 0.306881284376654
0.196675461588108 -0.124719393485163 0.31481909961327
0.197229388105971 -0.123104462677056 0.316709294172986
0.199077504756957 -0.11968606006903 0.331068699432037
0.198759074300694 -0.124717177174115 0.346756419459934
0.199824985842027 -0.121353282717024 0.349345753259197
0.198204025292439 -0.129502044857343 0.357809452398531
0.199829320503966 -0.126286401908556 0.369581505747034
0.200304455673214 -0.126583257690168 0.378080085486083
0.202929123240451 -0.12257066195688 0.401916343243395
0.204035118513285 -0.119400615073077 0.405912804137367
0.201926727950146 -0.128624478386774 0.411298727734381
0.204703478678472 -0.123129568344038 0.431406243403893
0.204376096888303 -0.124057965148419 0.430182552553037
0.204802637874143 -0.127549126186972 0.450996145256854
0.204743746777504 -0.12743204330897 0.449614515856885
0.20522317593705 -0.129990231832869 0.46742449846478
0.20604401200524 -0.127449434417261 0.469621555808963
0.204940671735038 -0.134560356953406 0.481778259593421
0.20649465633854 -0.131246765798101 0.492056498037869
0.20652129072836 -0.133685296379291 0.502434910332012
0.207498950611989 -0.131077319210868 0.506761755255111
0.209357146926445 -0.12936856725399 0.528265692040437
0.207784990450352 -0.136415265306279 0.532971823870329
0.209206746091342 -0.132633566313336 0.539308819326265
0.211330508414113 -0.129455332949059 0.558153559508958
0.212442615893557 -0.129320360733714 0.574123503805797
0.211909202662828 -0.132575291065258 0.579684263357702
0.211054449903302 -0.13859132002886 0.591911331321637
0.211214195199259 -0.139559882394197 0.598299491762622
0.214216216985976 -0.132827279269309 0.615017765054772
0.21897133777327 -0.140204878253793 0.615910770734393
-0.267102070501347 0.33616027034966 0.41592136360491
-0.264125777849033 0.338673901631405 0.426069621406687
-0.265298553975478 0.338756138941723 0.435841892468926
-0.267165778629095 0.338821510636146 0.450559062460532
-0.263568290519007 0.340733289932537 0.45164519370859
-0.262399038983026 0.341758441191299 0.462001533252524
-0.268405254768812 0.340406041681306 0.480113065210124
-0.268339424602142 0.340661602399557 0.48290460044671
-0.270584977954098 0.340284584563799 0.49475439562086
-0.271449894610546 0.339928580339537 0.496612522223033
-0.266859847429096 0.34290266471121 0.500677878660723
-0.269617809133077 0.342560904051734 0.516788715168891
-0.267332407716229 0.344345446518201 0.522712127466653
-0.26870480749424 0.344916021722562 0.540237213672569
-0.271142663304314 0.344505921893764 0.553091579764925
-0.269937813620118 0.345446908456283 0.556216762892213
-0.269365363192898 0.346468935204753 0.565082555333592
-0.273255799788861 0.34481990717885 0.572828089014977
-0.273414634029129 0.345606497119244 0.58410661044935
-0.275871326195778 0.344569154367354 0.589048621501706
-0.273515404541008 0.346901834085592 0.601484719309225
-0.256129779660189 0.329335146748084 0.59309429580471
-0.257053020065753 0.328983692266155 0.595477690898979
-0.261625712555717 0.335891492774702 0.615910770734393
-0.260623846313763 0.332858218849834 0.615910770734393
0.187629020743723 -0.0955411845765293 0.0568207007606407
0.186998793101225 -0.0998829156276244 0.0649092941129976
0.187317803943664 -0.100582440538255 0.0726604752562213
0.188916181788087 -0.0986909407005857 0.0894336480796764
0.188793945477097 -0.100495393629343 0.0949370873241681
0.18944121794472 -0.101724577292798 0.109886778657063
0.190323483553047 -0.0999645864150016 0.116218051108257
0.190971651354554 -0.101021326471098 0.13047642599128
0.190363106155705 -0.102711970977152 0.128058365567493
0.192946983238234 -0.0962097982298736 0.14109046108451
0.193740958156707 -0.0973330594873002 0.157856355958519
0.192352264737017 -0.105892332285498 0.171559615162748
0.193351906670659 -0.104070785469684 0.179438851344517
0.194357417309278 -0.102343444311404 0.187793232039162
0.193014537357858 -0.107056022607793 0.186471519307476
0.194029932089076 -0.107221207818369 0.202715129069199
0.195097309761805 -0.106685435523069 0.216889853931309
0.196586877047632 -0.103926176054328 0.228446844207202
0.197815748610097 -0.103129901415224 0.2440325505815
0.195330090323098 -0.112347315201464 0.243607758155987
0.197845557527822 -0.104106497252417 0.248482445628474
0.198508325295981 -0.10645571768092 0.268249037726262
0.196785672306887 -0.113585467451688 0.270987286774583
0.201475336090329 -0.101513413169425 0.293533014114653
0.201210114063222 -0.104232270707209 0.300582753522258
0.199869153525218 -0.112043386806199 0.311958988882147
0.200944421572543 -0.109328862179762 0.317346758020231
0.201431504032897 -0.110743900574053 0.330600258919097
0.201454225274163 -0.111237333856925 0.332966051149369
0.201870568058093 -0.111066377405962 0.338650541295471
0.201444012307555 -0.116266599976616 0.353371857676382
0.204146115581721 -0.111017723009907 0.373340781068128
0.203743811822698 -0.114437969359037 0.381156416521483
0.205248681135881 -0.110395275105256 0.387700636457685
0.20626178129377 -0.109955168339615 0.401434300299045
0.205485195381093 -0.114384723032933 0.40763796950256
0.206659946317963 -0.114144842773074 0.424668732139504
0.206413211393067 -0.115881617723216 0.427986628232998
0.205723168910227 -0.120201317971271 0.435068054087233
0.206232921817767 -0.121898893478912 0.449824309406589
0.210252247528976 -0.110376581657428 0.463062257816219
0.206531721546197 -0.124638275835761 0.465605663801032
0.209259807447282 -0.119499668650025 0.486118967980996
0.20846994941306 -0.123072197404734 0.488919988410912
0.212131238847421 -0.113778478414877 0.505087712031299
0.210872406243438 -0.118861353554356 0.507441805531163
0.211673040692434 -0.117733408888898 0.514667296407551
0.211304720672383 -0.123417828528818 0.532749992988801
0.211204939194693 -0.123812873641495 0.532904061236923
0.210653196832733 -0.128676420508971 0.544858731510511
0.212051253779896 -0.126944818226378 0.558462088213613
0.214076350929241 -0.121982187936932 0.567995320643775
0.216620248719062 -0.117431622345869 0.586947158416868
0.215660514775156 -0.124046316395657 0.600094841540321
0.215048755133633 -0.127274831781296 0.604381668605442
0.218890536092932 -0.121286400955809 0.615910770734393
0.225272615118845 -0.137862128377656 0.615910770734393
-0.251229707241459 0.341297836654845 0.41144384993919
-0.254887883195072 0.341298378032326 0.425810995408318
-0.255277121564007 0.341575314679404 0.431376383497325
-0.260831604010224 0.340471147967408 0.437081181925685
-0.26111202967345 0.341753920008607 0.456883785382831
-0.263764402290581 0.341707835619141 0.466623132990054
-0.258513948127631 0.343381465608316 0.470414072640875
-0.256474628949472 0.344706133053121 0.481721903133522
-0.263013400042612 0.34367562771228 0.492364207916352
-0.26371481693279 0.343913029149022 0.498578580547752
-0.258138518958429 0.345774839087413 0.50383402578425
-0.257186279760094 0.346449676624864 0.509934879200682
-0.262357242362112 0.345970998249382 0.523253421623882
-0.260929526082992 0.347097867984088 0.534078202384126
-0.26369325972584 0.346579172308648 0.537364348542406
-0.259706841463821 0.348520067169291 0.550013467380215
-0.261506769576229 0.348147083282701 0.551640806125743
-0.262554367627364 0.349233400472508 0.571590586758955
-0.263805051311973 0.349210763960781 0.576169808497666
-0.267563796508165 0.349039843281349 0.588431923980953
-0.26248727621974 0.350966989517275 0.596601675878233
-0.267485993309123 0.350128791639246 0.604002584623655
-0.265521531340713 0.351149106839955 0.611167018845675
-0.256085226033463 0.344691213972838 0.615910770734393
-0.250641625895599 0.338079921621241 0.615910770734393
0.188932008857889 -0.0903083138570909 0.0554035432579924
0.191130027276337 -0.0864235240618892 0.0732208686249375
0.191986620238275 -0.0852391697721235 0.0815120403298775
0.190496621760571 -0.0914080019387149 0.0838886391483489
0.192165625796095 -0.0896186296190141 0.10216222056765
0.19327049322925 -0.0875876649003925 0.110798580825095
0.19386561609523 -0.0861765441463806 0.114153693424589
0.196201125496626 -0.0835258061000411 0.139124538294416
0.195124923042817 -0.0878291455795549 0.140218387772289
0.194625441797574 -0.0934142707793989 0.155395288090289
0.195466285756913 -0.0907729495934314 0.157488114343945
0.196531345832267 -0.0912969256438225 0.175960136862252
0.19789750509131 -0.0882635941827715 0.18450445334852
0.196257122609352 -0.0959471190114582 0.190768226514524
0.197721354837234 -0.0921420515158465 0.197660938556633
0.196939405107038 -0.0978528921194572 0.209020967013236
0.200295661173457 -0.0880333168770653 0.22033197900728
0.198362855944875 -0.0966582269366845 0.225961164413269
0.201098723961604 -0.0899714039328905 0.240568665029709
0.200219643776293 -0.0958972063167455 0.251318350713426
0.202477323652607 -0.0909608119383214 0.26575088252166
0.201485593406365 -0.0967082815574594 0.274044272162411
0.201632006396547 -0.0969892102717197 0.277437696846005
0.201123004104397 -0.102131465408425 0.290657923175479
0.203344656537724 -0.0983406189025357 0.309221701758511
0.203792574026877 -0.0984219628419986 0.316421843971685
0.202468910321655 -0.103615526031108 0.317361288325003
0.204764483769232 -0.100093438393345 0.338157272618452
0.205296379287211 -0.098418341554598 0.339463691649137
0.206038113770433 -0.0995644059227028 0.35552185696111
0.206146781435525 -0.0991109431370705 0.35533396791568
0.206426226112559 -0.103403546060548 0.377168982852016
0.206683668577861 -0.101348325414223 0.372607970382958
0.207575723063913 -0.102887953377436 0.392247042947522
0.208268784501044 -0.103780965735581 0.406248807940064
0.20826865040517 -0.103846525122507 0.406518502352215
0.207886542212642 -0.107707651129474 0.416840275097559
0.210923925665045 -0.100124353714801 0.430558731037991
0.211429765668083 -0.10151548486578 0.44384209353813
0.210908604793074 -0.104724047241308 0.449392804792154
0.211335684105911 -0.106579936393401 0.463431568354728
0.212591142603545 -0.10605451728521 0.479914075536632
0.211775820914679 -0.110308048514294 0.48542316585599
0.215283911985775 -0.101002938714149 0.499002326972058
0.215003847330405 -0.10276790432275 0.502153987295259
0.213613314207197 -0.11029198594327 0.512667320914392
0.214028902394281 -0.11102401553581 0.521877856633365
0.2160691542628 -0.107264474820515 0.536622109532647
0.215745416126381 -0.11007318852809 0.543450091052456
0.21590943995178 -0.11240604677183 0.555555680811462
0.217742150749523 -0.107955511508885 0.564351663930495
0.217652718038857 -0.111337690062379 0.577038654774411
0.217168930495246 -0.115921824116592 0.588845412960122
0.218571681471593 -0.113165305583878 0.598271137523625
0.219574838389328 -0.113630171264161 0.615107560289978
0.219047616713979 -0.114172106653834 0.609517305757477
-0.245870220586724 0.342824594607405 0.412665524760929
-0.249024965754649 0.342236877955509 0.416480214102477
-0.244660325816313 0.343874807827463 0.423227714243553
-0.241640449721195 0.345451109998744 0.434355261648744
-0.246024726448817 0.345458849722503 0.451677480208019
-0.248412785027907 0.34479617790355 0.451389942937996
-0.247285534092814 0.345541508318479 0.457831565411032
-0.24783583450796 0.34581075316626 0.463917021467506
-0.246891133575153 0.346764507926713 0.474113870235342
-0.251808720996048 0.346310218193052 0.486793420175721
-0.250137993439432 0.347351030687703 0.495409670500091
-0.251647417236122 0.347736578870941 0.506955541112671
-0.254165258356355 0.347735869164004 0.516828348198628
-0.251487639025026 0.349306680761568 0.529219290241661
-0.249569776312752 0.350200862836513 0.534727710947691
-0.254179356395447 0.349458651221858 0.542000568300609
-0.25131667745984 0.351406178158257 0.559157334873321
-0.256091928948825 0.350629071709482 0.566571753054607
-0.258681416525008 0.350509475822298 0.574992518206691
-0.250992600229742 0.352637612971753 0.575838655155107
-0.256258517329078 0.352599325276291 0.595950486405061
-0.260166734080979 0.351979198961589 0.602250230759242
-0.242717420288934 0.333397016248997 0.591268663575651
-0.257691507920668 0.353421512116082 0.613562204672967
-0.252292023269912 0.350566977882963 0.615910770734393
0.191942058354304 -0.0807447861531494 0.0624533070136638
-0.236633739940849 0.337437096094564 0.615910770734393
0.194051358215139 -0.078217201123445 0.0844593773592892
0.194431478283657 -0.0793219385677286 0.0948042285297353
0.196103146843051 -0.0759364057180258 0.106592684701279
0.197423816978703 -0.0738357684000486 0.118252916918764
0.197490979935298 -0.0758379316656123 0.127468613052413
0.199116883396689 -0.0725338893447131 0.138888567174394
0.19863819278874 -0.077804201409729 0.15309710536434
0.198150718968487 -0.0800857539009299 0.154951291789719
0.20016503861611 -0.0760592355898858 0.169372645802469
0.200296322862518 -0.0771934798973419 0.176022934862679
0.201634282368215 -0.0739995904693605 0.183478438006503
0.200239045864855 -0.0827810956543731 0.197989984986003
0.199869341726379 -0.0851634394027811 0.202061930397515
0.202909634735232 -0.0782491796222974 0.220407051913933
0.202062048464904 -0.0821967520421468 0.223551521479619
0.202447194472207 -0.0851383859019901 0.241483669786213
0.202894899707623 -0.0825951488905058 0.237949833574227
0.203346755499525 -0.0850940066991312 0.255094479150144
0.206067710116666 -0.0796268809521883 0.273436185407509
0.205204307945427 -0.0836945024087977 0.277460217296214
0.204959990748665 -0.0862805802099949 0.284545999679078
0.206677681510422 -0.0840256979759624 0.300731536811648
0.20744467242451 -0.0836170639959708 0.310437909209565
0.207342573382256 -0.0864389077288673 0.320614532267568
0.2092805042063 -0.0824778119594919 0.333002711267766
0.209666865087916 -0.0826941989084363 0.339641943703268
0.208847070604791 -0.0858571303210038 0.340564952996787
0.210777780392491 -0.084442792964002 0.363399936900709
0.21178533517538 -0.0829585486778598 0.372224334586203
0.210873450807414 -0.0870422417870698 0.375594377287524
0.208652682491563 -0.0965554792395688 0.382011245590172
0.211052378441982 -0.0895168046558596 0.388508727080667
0.210321924037649 -0.0969710353622885 0.408543359291835
0.211218150687015 -0.0966145496106695 0.42038667621426
0.213754533360057 -0.0888197421677189 0.425782213967382
0.213574155378867 -0.0924400524100183 0.43810433419617
0.214291350849681 -0.0907074364584338 0.441583824553077
0.214926079952484 -0.0919222083218828 0.456052011669583
0.215323745643089 -0.0925783817650798 0.464681806018546
0.215495699098142 -0.0944429979091429 0.474964791829265
0.217406187068307 -0.0919124341145078 0.492873416092608
0.216492667692731 -0.097190024256576 0.501166837818405
0.217271173076185 -0.0951603708827851 0.504326613742504
0.21675749536327 -0.0999487861478348 0.516535683978635
0.219001957150018 -0.096590261596786 0.535976983705745
0.220669838363215 -0.0908896475232366 0.537142593998054
0.21954350557014 -0.0980179829928376 0.549942716746086
