ply
format ascii 1.0
element vertex 857
property float x
property float y
property float z
end_header
-0.274155994011863 -0.289312467544434 0.133292045300216
-0.276101002834704 -0.288816593508377 0.14187260252285
-0.275259425359471 -0.290169652429278 0.153816111070851
-0.275002585214871 -0.291323889733684 0.167655166438708
-0.272593555184795 -0.293170554079631 0.17397622285674
-0.272718824290886 -0.294215518377477 0.189337951981256
-0.282551379271518 -0.289136725239828 0.197345780906852
-0.273480480876483 -0.295321183429583 0.210566334111301
-0.281519861222503 -0.291281522585317 0.218673089634126
-0.278304127649722 -0.294244816989171 0.233962498402543
-0.275587653095518 -0.29633916200391 0.240629982657205
-0.275349666632794 -0.297896938455926 0.259455350285147
-0.275937430876975 -0.298224987325434 0.268426966808348
-0.278236181651034 -0.297042751848762 0.27076681344126
-0.278940311360507 -0.297980977590768 0.288757463440438
-0.285548896927742 -0.294615387962588 0.295924841434631
-0.280128904011007 -0.298932501113069 0.310727684092141
-0.281068213305712 -0.298359494788338 0.310489228863334
-0.283808514207525 -0.298067391038374 0.328119655007752
-0.283507601665548 -0.298527264817785 0.331866525184087
-0.283611176866694 -0.299653869513744 0.347645386671979
-0.282062536053707 -0.302027358271154 0.367018342992366
-0.283956241045608 -0.301333850219037 0.372670929667685
-0.285454543536742 -0.300939475192872 0.379193381410265
-0.287699520758379 -0.300905316782906 0.396362176960387
-0.282800154879018 -0.304575066892256 0.406652249928896
-0.290045947305038 -0.300907621126591 0.414811697750523
-0.288639796777219 -0.30316780920678 0.43379808359487
-0.281855999702814 -0.307704737993947 0.440815408142197
-0.288901725725389 -0.304449995508758 0.452886732143592
-0.288189056615903 -0.305183324078639 0.457033981964644
-0.286748254136307 -0.306586733972139 0.464366914113848
-0.289410582721368 -0.306023261542815 0.47778041317158
-0.291137921543681 -0.306097490762068 0.492325687655388
-0.295184051467759 -0.304635380246052 0.504664198784511
-0.289418861132556 -0.309067594820949 0.518286328574066
-0.292530868848371 -0.307379127605225 0.520285271719544
-0.287082945669626 -0.312095552491201 0.540173326440545
-0.29063750783664 -0.310075009666558 0.541234927143973
-0.295022334866743 -0.308273840720762 0.551728079695049
-0.29224847576051 -0.310435259009979 0.558666208911113
-0.290593678495518 -0.312803026589432 0.577129861302393
-0.295898797385395 -0.310657188668199 0.590268510111151
-0.29458357348974 -0.312083549242542 0.598892082232227
-0.298455835896904 -0.310559180316659 0.609038732365827
-0.300017873258018 -0.310037941835309 0.61437623371728
-0.310102546945455 -0.326839558687881 0.615933257982147
0.191899803728019 0.163042028437806 0.24415064360897
0.193424956983366 0.161240471555877 0.251375873500382
0.191531729535224 0.165750927398427 0.262137188313076
0.194465425223485 0.16186907348129 0.272421800327483
0.194501461385003 0.162394134022021 0.277517253425376
0.195275908371234 0.162759916978524 0.292296440162217
0.194681755465903 0.165471784635133 0.306920786542315
0.19375133616066 0.167948267689923 0.314463738532531
0.19526915028277 0.166420971325846 0.323958470208779
0.196278541707383 0.164675655404872 0.32394257867951
0.195559219767851 0.16782614032097 0.340496618641767
0.195121300933888 0.16949384042416 0.348403049800332
0.195801040111757 0.170195587935607 0.364677799057554
0.195362390534767 0.172259638857112 0.376012018918608
0.198160399187824 0.168091524492246 0.381779666105754
0.198192531004423 0.167998420120954 0.381453411399983
0.196861767404302 0.171199258446902 0.389281417377995
0.196200273194394 0.174117832576759 0.404689990311646
0.198379272463785 0.171854844819273 0.417710206610213
0.19727184157132 0.174289274466755 0.422235655271589
0.19951378349635 0.1731777184623 0.446188934343162
0.196805812050224 0.178303625028003 0.450080364962595
0.19792281761792 0.177084023999185 0.456238252047499
0.199533906206596 0.175008076840242 0.462370675861123
0.200209426120654 0.175492340742785 0.476695308728848
0.200438386967029 0.175418610626447 0.47948677190159
0.203840137368141 0.171107848393571 0.493064317602427
0.200481230062194 0.178142999892179 0.503765606345216
0.201420409955045 0.177910826946219 0.515825571087508
0.203405004008443 0.175631499372746 0.525790718918822
0.201732657045102 0.179806585207729 0.536952419268648
0.204156464851743 0.176539105586136 0.544926299700736
0.204463255568299 0.177027942547955 0.553764931931349
0.205908451882521 0.174938468149486 0.557293976455632
0.205452404422192 0.177343130755315 0.571322623053783
0.205079005448973 0.179174137411385 0.581612779015315
0.207584277746149 0.175844786465623 0.590270668808335
0.20775953636877 0.176270947015628 0.596594415981325
0.208952751068846 0.175655375402396 0.60913491139405
0.206344536720871 0.180822753903431 0.614881085514679
0.202654844511612 0.17592251939881 0.615910770734393
-0.26226867202315 -0.29134598482128 0.0671382400552458
-0.261013672098323 -0.292114584211551 0.0677712335992128
-0.265261952055181 -0.290288576786535 0.0762965053902483
-0.26035853816093 -0.294365377362972 0.0935361737363034
-0.261780385986611 -0.293840284062447 0.0975727922359328
-0.262505881645253 -0.29528924778681 0.123242446327599
-0.259970836241796 -0.297165767850584 0.128976339230349
-0.269304853120044 -0.292452845574119 0.138068294969531
-0.267600507372817 -0.293852794150734 0.143825641858598
-0.269399052351454 -0.293679981223823 0.15568917238017
-0.267108255286497 -0.295967344295539 0.169006642493145
-0.264571949533843 -0.298561831042831 0.183685179546293
-0.263403004894924 -0.299907173956013 0.192380771424133
-0.26446090086476 -0.30049367911974 0.208476148232362
-0.269213968670301 -0.297287422934393 0.203194723541798
-0.270704547349575 -0.297985242151821 0.2241652565181
-0.273412591522266 -0.296957730980712 0.231773320504214
-0.274336631529468 -0.297178146798258 0.24195482682818
-0.263925335129233 -0.304722138969492 0.260442952582945
-0.268329265586315 -0.302405847486217 0.264243173424082
-0.270101440945266 -0.302341497018308 0.277299511478906
-0.269270019482857 -0.303392154287181 0.284729977907634
-0.268069162660122 -0.304834722789462 0.29446661146371
-0.277018267488581 -0.300147292218176 0.302447189722894
-0.275279343799351 -0.302606266832529 0.321462063497559
-0.273787326252907 -0.304142984241944 0.330163826539929
-0.276039630458401 -0.303590421066951 0.340503646884378
-0.270390038592659 -0.307768850516099 0.35166191580946
-0.272679639957857 -0.306854685920863 0.357490996020787
-0.275875719318026 -0.305604270217246 0.365968959790879
-0.269609912004732 -0.310461003049754 0.381300662915377
-0.276329462299665 -0.3069186972619 0.386991590596452
-0.277839056825111 -0.307596588602596 0.407846671630855
-0.275417320056509 -0.30972855884382 0.417157692432762
-0.274356461811769 -0.311377642895831 0.43073663583594
-0.273721607440043 -0.312690813614323 0.443197338212407
-0.275064202785326 -0.312392513428708 0.449773783045501
-0.276569004290366 -0.31221004762853 0.45916225330593
-0.27665912340192 -0.313205325534701 0.473090942136173
-0.280473071365635 -0.311567070117747 0.481266968806294
-0.281813385155769 -0.311521052346626 0.491176824254257
-0.284878330253549 -0.31038368456978 0.500127143135284
-0.275712919715947 -0.317156681036818 0.518153277889497
-0.286383574188521 -0.311588724649473 0.527950718354958
-0.280978891022178 -0.315295551440668 0.534766693337114
-0.2835642253945 -0.314188580166605 0.540355965322747
-0.284303440246963 -0.315110349493027 0.558403418571663
-0.282957879192406 -0.316275839977699 0.563323451957581
-0.283953583066286 -0.31722402518015 0.583735193730941
-0.290909163910165 -0.313839834531729 0.593379309005889
-0.286168175610108 -0.31735505359683 0.602859818800332
-0.287629649211192 -0.316894918739923 0.608219618432977
-0.289519255982594 -0.322320548576484 0.615910770734393
0.194409761495804 0.158086152956685 0.238767022879057
0.196969567501064 0.155691521643106 0.256351767012635
0.19727153076978 0.155495776404977 0.259178621724392
0.195740450301872 0.15952888187292 0.271225482182988
0.196002982236909 0.160386708741554 0.282602220399554
0.197312107568649 0.159300553568328 0.292796938701251
0.196164508404419 0.162080966144217 0.299722184098161
0.198236105705238 0.159001982544422 0.304053324053418
0.199175481161479 0.159118501310429 0.319141468503666
0.199791737278938 0.159460857011007 0.331346794608302
0.199814266660826 0.160419719551035 0.340003504583155
0.198323318154995 0.16431392350676 0.351446662400125
0.201464849514711 0.159030763973877 0.352688117303928
0.200989994231919 0.160782894761546 0.360773549342314
0.198918714800824 0.165806828872232 0.37332156216101
0.201636725068961 0.162579274017113 0.386050668731069
0.200905184943435 0.164440068594777 0.391232257778321
0.201331767354424 0.164920047069312 0.401789199865726
0.200103719176992 0.168670941318961 0.415928756325328
0.201665070442216 0.166148129097418 0.417438829029738
0.203998551945378 0.164572771985673 0.438739957497374
0.202202307726677 0.168003314066052 0.441585305839074
0.205367367220813 0.163680980086915 0.451515468859948
0.20350489468686 0.167921790246637 0.460398222783377
0.204708745067388 0.167567120700602 0.475361687791752
0.205284536802102 0.166239560486195 0.472472436245801
0.206924247625206 0.165296089519474 0.488859147806573
0.204934043463267 0.170377725703199 0.503122755929417
0.205597176376767 0.169471060515789 0.505194060735598
0.206683790421137 0.168617800423992 0.514074882344769
0.207519687527899 0.169123620591855 0.53098990679345
0.207948999030124 0.169846995556726 0.543699454086348
0.210459386752829 0.165503010486742 0.54363103732158
0.207767404410525 0.172744123117506 0.566113602678811
0.209570639709784 0.169310823311086 0.563349094759222
0.21027038575835 0.170399793287447 0.583283203428229
0.207801384011655 0.17485348652453 0.584923647269417
0.207839680572217 0.176872864425098 0.603017670461277
0.212399180212238 0.16900714474676 0.603102126308717
0.21188113395339 0.168818795143301 0.615910770734393
0.202276186720627 0.159823346030919 0.615910770734393
-0.254833206696205 -0.294901366532272 0.0571600553765937
-0.250905801188891 -0.298641596492859 0.0774686559049711
-0.25331320805846 -0.297979925099068 0.0874605114053053
-0.253469336268435 -0.298448781247731 0.0950304596883671
-0.25148229303067 -0.300727287038763 0.10970030359758
-0.257407509725829 -0.298013509848609 0.120162071028705
-0.249848638187364 -0.303077242081699 0.128093297362
-0.25576053403235 -0.300543654344286 0.140844136370208
-0.258384312034815 -0.299117603786821 0.142496531937138
-0.253230100955196 -0.303096537719601 0.154893327345562
-0.257322853481322 -0.301283083495101 0.162930564395405
-0.254659321973971 -0.304446623703963 0.184046930323444
-0.258636014416709 -0.302789547700977 0.193250451086303
-0.253641879703726 -0.306046689250954 0.197315517204682
-0.25707661584721 -0.305119171668236 0.21195626149204
-0.25698609409131 -0.306130059710919 0.224674326067225
-0.256777359417667 -0.307179160631636 0.236972066346774
-0.255946586979743 -0.308709758984661 0.250783166171906
-0.258032640094151 -0.308258517983138 0.261163917641808
-0.256070151634985 -0.31010181408365 0.27024518418253
-0.263834005388035 -0.306601494273929 0.284691396191163
-0.258051686665225 -0.310274483201256 0.288093516444909
-0.264637702466564 -0.307478347979726 0.302648360885999
-0.260560739397803 -0.310782645067821 0.31453942821915
-0.267378781519986 -0.307182658480491 0.320237262238641
-0.264817033278468 -0.30978747970072 0.334730578837609
-0.262640622152573 -0.311166875788207 0.335970152470676
-0.265277281079759 -0.310953650913371 0.353834840097957
-0.263889473486393 -0.312775171086959 0.367137948070795
-0.267672188412562 -0.310963393705741 0.372763736306008
-0.259503025499626 -0.317245395501057 0.392087811681921
-0.264168835356829 -0.315117726779726 0.400449391009024
-0.263133290406045 -0.316065717814693 0.404913716362583
-0.26978878277834 -0.313288407804964 0.420264010106849
-0.266713451021843 -0.315936969767699 0.431306866127271
-0.266028612463916 -0.31705248491093 0.440749546899376
-0.266102267429898 -0.31770122513573 0.44994558843762
-0.273164060328355 -0.314068762044657 0.457125392143142
-0.269346071917924 -0.318007360630595 0.479475413979042
-0.270258328507463 -0.318049851395924 0.487200866287777
-0.269033611156344 -0.319401504345713 0.495542477718716
-0.268145579871403 -0.320906040301161 0.508557895773523
-0.274211388619135 -0.318132601633108 0.519330735312062
-0.269493573857489 -0.321587239932277 0.528188397000723
-0.267729596802024 -0.323901971250028 0.545090479245073
-0.274615645368834 -0.319611836592044 0.542154219348004
-0.271820478688782 -0.322904679868769 0.563954941695687
-0.271355890872755 -0.323770387379857 0.571808094960262
-0.275106639522053 -0.32289813949743 0.589663667745956
-0.274839646324086 -0.323074061391828 0.589904779354157
-0.278407967424392 -0.322201579811166 0.606325233299681
-0.273226533853965 -0.325680237985782 0.611862673833333
-0.283395139495917 -0.336764164037588 0.615910770734393
0.200674097827488 0.146571794073753 0.232744111294196
0.202510448263438 0.145417851824142 0.250251562457769
0.199716593332267 0.150377082512076 0.25140988649088
0.200193018397715 0.15110039046283 0.264824883545428
0.203826802244449 0.145785333247938 0.27316635744441
0.20350906451293 0.147792017278913 0.28581481457177
0.20479139428149 0.146853351137316 0.296887596511325
0.202744895843511 0.151120281731328 0.30323920864414
0.202378473003621 0.152525808114091 0.309942440510045
0.205210489722711 0.148824804075924 0.320272372285932
0.204915525852188 0.150851391600925 0.333434795063889
0.203036003631641 0.155427263230323 0.344969040048721
0.205398992002343 0.152656453145927 0.356340601340918
0.205469010785717 0.153440391605719 0.364191333505813
0.207143092243212 0.15213183795847 0.377925657062057
0.208411372139318 0.150432940728784 0.382192127009793
0.207091754327279 0.153385708743204 0.388034902919455
0.206074379509713 0.157580499810702 0.409182802118494
0.206767246629928 0.157305085545353 0.417176428297998
0.208198731788211 0.155899734513301 0.426435454975864
0.20862362557511 0.156081035039293 0.434375762125857
0.209312485649664 0.155763341812857 0.441942527561064
0.208131761967155 0.159543345071966 0.457043825907986
0.207437320495807 0.161385753706324 0.462621848969036
0.209511424011243 0.158500080626311 0.46866770831549
0.209468202352681 0.160123052247596 0.482100900819238
0.211549942950119 0.157760459318261 0.492799450439945
0.210586177184233 0.16017940124617 0.499343454571153
0.210890714874882 0.160364144147821 0.505510003709957
0.212888253101666 0.158712011207262 0.521110669633021
0.21174296889541 0.161593687493764 0.528949170248984
0.213374373874817 0.159131247134516 0.532032835291293
0.214373467610882 0.158825399713868 0.544351453069327
0.215124937685993 0.159453630723583 0.561063313126211
0.214915208930532 0.160554235991297 0.567469224981585
0.216288644705075 0.158449666589649 0.569791921138386
0.21198734965271 0.167589972174032 0.584635156159855
0.214520174346703 0.164698148311794 0.59750192342356
0.216831952324584 0.162070017982529 0.609343949009291
0.214586565425431 0.166483520292367 0.613986728304762
0.207694540031003 0.157998975038281 0.615910770734393
-0.235705647371304 -0.304275240643759 0.0688341911312073
-0.242592857117915 -0.30308383033006 0.0787259263963089
-0.24194414020589 -0.304205408814776 0.0932698898854928
-0.246342346737107 -0.302789990958861 0.0967538694590875
-0.236630098346674 -0.30679525979225 0.111251308068464
-0.2353616840683 -0.307640774909778 0.119028948706842
-0.24027513549272 -0.307201089891895 0.132376486966341
-0.240698551850708 -0.307572169147624 0.139797108842417
-0.237759796630716 -0.309027979315939 0.150102651085972
-0.24313317872474 -0.308338289273816 0.161497509000248
-0.246372412618682 -0.308140673981767 0.171711392355745
-0.246920662741662 -0.309229033097293 0.190639886280865
-0.249503250759597 -0.307758424228738 0.187566922044607
-0.244300935704073 -0.310993577918469 0.206983374023186
-0.247104701905588 -0.311284519188415 0.222907477318338
-0.245340611240077 -0.311887768976244 0.224944059286589
-0.245388392710304 -0.313359660472622 0.247706761150619
-0.249927263203606 -0.312585847232295 0.255022823088678
-0.250122314771028 -0.312842483541217 0.259963090573177
-0.249661981879264 -0.314246116829334 0.278770866148545
-0.247571206504443 -0.314882308851122 0.279976859286587
-0.244869926644939 -0.31671295262593 0.297000357272996
-0.252478550787214 -0.31394301251637 0.293078432521392
-0.25563266878401 -0.313436178417957 0.311104749340788
-0.250047217401026 -0.317525436437963 0.330625126847346
-0.246214363553412 -0.319253445246312 0.341448510190781
-0.255286952844248 -0.316330103050831 0.346833861466682
-0.245874193504168 -0.320737410335801 0.362810168635404
-0.255683261778456 -0.318099540838718 0.373450012165858
-0.252537560180015 -0.319724380588021 0.3745216786091
-0.256015154786019 -0.318886136019303 0.386504428682335
-0.252448154726218 -0.321406889959671 0.399952722060047
-0.258411746880929 -0.318836653911101 0.404659806141579
-0.26203878966642 -0.318122253351552 0.423641160565338
-0.25828993973442 -0.320447922649509 0.425107746420389
-0.262967355873866 -0.319162624111434 0.444750480267926
-0.263000386590131 -0.319659265467468 0.451607148971484
-0.255622223356961 -0.324941116438668 0.467117544522493
-0.25473968559558 -0.325436579792625 0.471105793575477
-0.260390810043359 -0.324024217850279 0.489106611633589
-0.257566177689535 -0.325900085392225 0.491852925583861
-0.259430155481446 -0.326456487256261 0.513875967380908
-0.263289138634094 -0.324334496888525 0.515979573510451
-0.267577702448653 -0.322472067623936 0.524903299666038
-0.263473117390787 -0.326508566600403 0.546304112655401
-0.258713796060504 -0.329184204831572 0.544813496033168
-0.262032873856006 -0.328820279824074 0.565707336369513
-0.260846405499518 -0.329775623921454 0.569084625727131
-0.265821824024504 -0.327861007958768 0.582706755481818
-0.263794660153135 -0.330319659667217 0.599454720495406
-0.265901430159982 -0.329114603434337 0.599984411176395
-0.262061364070317 -0.334539946354075 0.615910770734393
-0.278616187466837 -0.340298423009383 0.615910770734393
0.204066509071848 0.140386891269602 0.229921660628394
0.205144063185495 0.139929415650034 0.242100538357139
0.203923979991665 0.143652357148409 0.25611693786655
0.207810846499639 0.138124445043053 0.266404311520129
0.207033482428979 0.139950016645088 0.270593600749096
0.20558926069479 0.143821969930984 0.282543946591813
0.208341553725142 0.139931612751184 0.290036332905392
0.207979858611038 0.142265329769325 0.304863394496665
0.208926675036767 0.141424949831687 0.311760994833201
0.206765385996912 0.14668725360046 0.325028242870362
0.210332309802655 0.141104479802394 0.330045061305791
0.208869277564819 0.144946220827042 0.341451396447095
0.210435224236346 0.144386008946389 0.36005785384982
0.212375144346307 0.141291845245874 0.362284012325647
0.213014879498103 0.140845443662299 0.367997931276307
0.209193713346539 0.148558491341767 0.377653360181432
0.211381059462458 0.146225327255882 0.390189810299414
0.213114157416461 0.144358441871792 0.399964453429819
0.213563355517729 0.145276322365381 0.41465954577304
0.212481579772753 0.147098922650985 0.414261224455509
0.212562962337392 0.148581210600609 0.428341130869792
0.212571679174862 0.149584451968414 0.437175880450737
0.212198882326752 0.151871019357685 0.451427504297759
0.212255008536052 0.152266696966822 0.455701495220238
0.212873923532714 0.151984390947604 0.462527101931498
0.214406327286823 0.150822766270924 0.475413037208026
0.212962641144084 0.154503107571993 0.485708983834523
0.216017550470788 0.150664604633855 0.498186183868632
0.214033838491704 0.155475499448117 0.51019813016517
0.216953504817638 0.150703497627466 0.512549579347801
0.215755072011148 0.1540603555553 0.52371428493345
0.218386655271981 0.150106836483401 0.528849754603263
0.217795423327159 0.153319680599137 0.547864345118106
0.218639251742435 0.152051413660122 0.54950624753033
0.220891415728575 0.15016241518857 0.566867621360601
0.21927861533939 0.153684288953611 0.57325440318237
0.218450166556056 0.156928967571601 0.588990322130413
0.219701310446128 0.155803809222797 0.597977754631329
0.221485208865796 0.153711332196476 0.606556446936065
0.21635223972852 0.160034658862476 0.615910770734393
0.216711417759223 0.159056878299877 0.615910770734393
0.20650693828228 0.148631236260844 0.615910770734393
-0.23320190250739 -0.305830347190294 0.0824407265368036
-0.226940971435168 -0.30790909376181 0.0887143845835068
-0.228319564867487 -0.308706053393415 0.106569979443834
-0.232028738281654 -0.308455785371342 0.117897950335674
-0.230342129351407 -0.308968335090673 0.118860687843692
-0.223121076826655 -0.311991307811467 0.135685914385455
-0.233768932402281 -0.309635241781905 0.143096486594296
-0.236966518240124 -0.309602429267684 0.155666880188367
-0.236498937102137 -0.310853126555178 0.172931102115915
-0.233138624450333 -0.311908301741749 0.175370468283305
-0.226731723766582 -0.314444435368221 0.188060075616116
-0.232311098998177 -0.313406686850379 0.194960641690504
-0.228000347511962 -0.315480691498257 0.20913499761801
-0.233476777350191 -0.314660000736086 0.218942640985873
-0.236841388252481 -0.314898045375101 0.236348762434495
-0.238074576623095 -0.315317268932104 0.247818334107895
-0.240636733926008 -0.314964530039462 0.252885570453615
-0.228864050972432 -0.319326824162557 0.271635992330622
-0.230798238294328 -0.31879409283907 0.271376062325938
-0.234097363885997 -0.318947489782355 0.287216607976143
-0.241783094952563 -0.317323528778245 0.293741178947693
-0.240294998758161 -0.318834534410598 0.310824077924099
-0.241804130637295 -0.318975752937467 0.319159427103948
-0.237099204659712 -0.321447125470577 0.337814708523732
-0.240167198201199 -0.321106697700957 0.345138837086869
-0.240442684016866 -0.32118657864117 0.347489925060776
-0.237162252692112 -0.32256817595141 0.355260661392257
-0.23688713804299 -0.323860434160138 0.373949012363861
-0.243502230691556 -0.322528772477486 0.380577820909484
-0.238873887169334 -0.324385347088046 0.390120004353269
-0.244589927487026 -0.323940581452688 0.406671068414938
-0.240058377586477 -0.325793534742889 0.416553474353582
-0.243561036220857 -0.324938660067079 0.417767145395153
-0.247030839162298 -0.324932567470353 0.431860186875613
-0.242461579385263 -0.326826556288989 0.442217579404624
-0.247136494445393 -0.326075118114529 0.44980998647016
-0.247985408952614 -0.326887129003433 0.465730732832753
-0.247515247393304 -0.327652574486777 0.475544423494603
-0.25262705341892 -0.326965458603151 0.485909282737089
-0.252648923811248 -0.327571160961583 0.495285454794194
-0.254986969015711 -0.328120712692709 0.513270504745441
-0.251866776223837 -0.329575064753373 0.522811874834484
-0.252579363384539 -0.32972716789512 0.528057398197986
-0.254250774834208 -0.330455809812145 0.546062732116646
-0.250130367369953 -0.332369045194743 0.558342418918926
-0.246941735690897 -0.333638053470472 0.563989582783392
-0.249622461702169 -0.333709951590031 0.576167519097467
-0.253426411982946 -0.333747786211417 0.592493970712773
-0.253905320750865 -0.333972883689484 0.597824268098897
-0.249031622275667 -0.335669793625363 0.602848189811419
-0.252673933068997 -0.335392653653523 0.613823306959595
-0.26475909258182 -0.343916047762542 0.615910770734393
0.209111560200435 0.126756788190079 0.226150842079237
0.206902516577736 0.137334479887546 0.245938586688962
0.210084587174827 0.128918768887321 0.252780596833403
0.209159140243634 0.136040018819174 0.269759202084512
0.209223733271441 0.13675068004946 0.275658668232123
0.212102736276574 0.125647874479415 0.272264252816778
0.211409856580912 0.131586641102686 0.287774704735922
0.211996621733489 0.13134042911922 0.296688343756851
0.210493842026898 0.138361826139587 0.308670478487214
0.212627273581257 0.135282715818609 0.325661565317796
0.214466407167474 0.128280356305842 0.324878314839366
0.213167280428211 0.135071560545809 0.333936050452976
0.214729037925854 0.131378862720671 0.343659378109296
0.213112630046766 0.139316418046216 0.356196969516113
0.213227420841622 0.139892653314971 0.36291661025372
0.214769059423582 0.139822309840826 0.385408891119759
0.215141729429378 0.137873715760478 0.380666666178573
0.216255999731724 0.137978409591707 0.400231663764302
0.217376525298145 0.136076165199997 0.41065226798477
0.217394054006757 0.137549307301417 0.417743296903929
0.217174621469206 0.139174723517009 0.421478205384269
0.216546922403254 0.143593411651293 0.444769543807178
0.21636657760343 0.144215081152895 0.447460549342127
0.216640377821518 0.144488040664764 0.453931842239495
0.21937031649563 0.139898367611896 0.462416307489562
0.219705517994093 0.141205897812306 0.474184194485955
0.220351261231184 0.142334168297073 0.490855146944063
0.220803166441351 0.141576952768531 0.494692398002231
0.21925864925163 0.145137784409207 0.498805729352768
0.223064370767558 0.137376454541568 0.514053227738761
0.219278383665839 0.147715480706107 0.521465555229809
0.223594039395871 0.138267985413578 0.527233792402668
0.219965661457535 0.149678893408386 0.548799482432356
0.222310546646018 0.146071855437186 0.552644641751556
0.224351203187184 0.142044366242417 0.557608800868074
0.222827096564201 0.147217490780236 0.570325051206377
0.225046742089724 0.145053778754766 0.584815697538969
0.225086152136711 0.145925008705862 0.592965076337011
0.223153859502741 0.150199045876867 0.601089802562834
0.226177524972741 0.145472500825857 0.605394137824515
0.221631238936591 0.146069766911065 0.615910770734393
0.211895231860683 0.138733201526433 0.615910770734393
-0.219343289564781 -0.309554882181427 0.0828844693922986
-0.215533722951958 -0.311499765325625 0.0971282259054641
-0.217900364980135 -0.311899128016029 0.112927465875316
-0.217064501408819 -0.312845228889939 0.124015812296499
-0.214187952508346 -0.314116755092949 0.131750208141451
-0.217145780744428 -0.313996807093352 0.142004362076426
-0.216942968019903 -0.314886785691454 0.154820488660112
-0.218707579923654 -0.314669426433853 0.158702591273677
-0.218260893654627 -0.316048289266009 0.178017303523509
-0.21789204029979 -0.316501501871715 0.183457978499479
-0.215397189815239 -0.317967162575223 0.195729476821077
-0.220590540974895 -0.317487823000221 0.209613406590169
-0.220605146238746 -0.317660174608413 0.212315651433578
-0.217540334256185 -0.320003531085317 0.235713848297453
-0.225034880021314 -0.318099452767069 0.237161932432429
-0.225886559576512 -0.318650746471863 0.249096613999698
-0.227203801428573 -0.318546379888933 0.252882049942472
-0.221118366481601 -0.320964610361767 0.265078269683688
-0.220019276048078 -0.322735113528522 0.287730307127825
-0.223282998707605 -0.322025060310226 0.290187509625867
-0.222677215894763 -0.323111665963285 0.304370800529499
-0.225491225103524 -0.32261235175787 0.308220422345423
-0.228999694523499 -0.322480910985964 0.320549689398995
-0.22638536474282 -0.324071434026149 0.334247106120835
-0.233933895375313 -0.32292197753096 0.347485927924687
-0.230356700030993 -0.324156637675212 0.351790459401379
-0.231929903807232 -0.324354953682524 0.361263199968567
-0.232163273148998 -0.325022031297528 0.372445113680648
-0.230124768483938 -0.326728839388144 0.390279725247852
-0.228796007071076 -0.327902303599005 0.402838817127574
-0.232136637718528 -0.327178090936306 0.405393366061792
-0.230194290098065 -0.328476783449229 0.417363807779436
-0.23447409943849 -0.327822915501004 0.424836773211141
-0.230614509125809 -0.330147461952935 0.444446447269605
-0.234082279152016 -0.329405464105243 0.447498760054382
-0.237069328810012 -0.329476562184927 0.460801545190299
-0.240528205448797 -0.32908226782161 0.468897924133705
-0.234110522483351 -0.331675970573904 0.481652698781031
-0.238066374180923 -0.331003218499531 0.488047179181448
-0.236908392324509 -0.332403144858875 0.504055486168595
-0.230801855146132 -0.334935137361477 0.516382206309271
-0.237091145369551 -0.333374994333388 0.519257470279802
-0.230369657415539 -0.336787819837268 0.542127595011536
-0.239850007076917 -0.334816468121685 0.552115258381876
-0.241962692167611 -0.335036480213241 0.564140574442346
-0.242641788463993 -0.334829280836146 0.563875235833338
-0.239291319252987 -0.33657110792076 0.575879242641593
-0.235154245374628 -0.338995310820473 0.594765620338054
-0.24264113977027 -0.337344053441018 0.601249691946117
-0.243328743272934 -0.33839210513816 0.615910770734393
-0.253965164237613 -0.34554144408235 0.615910770734393
0.210042516738287 0.124210737530014 0.230357193966096
0.210695531607223 0.123753418502975 0.239432235091169
0.211943681780654 0.119281306847007 0.240191979175542
0.212775444982768 0.119078614874001 0.253501937826592
0.212585423430709 0.12199951738229 0.263712412712681
0.213609558355388 0.119970537351134 0.271898061783497
0.213663479557914 0.122558037075152 0.284749257634523
0.21416026510914 0.123500557543167 0.297601734872484
0.214627122197895 0.124448670477716 0.309967453608089
0.214364834896506 0.126999611251097 0.317234907420867
0.214826625133915 0.126715081815144 0.32383165990868
0.215860163163888 0.123375012338536 0.326134524552957
0.216577461242158 0.123624741912177 0.33956977405033
0.216792465918171 0.127085635408308 0.359205739106103
0.216785566143201 0.127782840609126 0.362301530864011
0.21913174255811 0.119735474669536 0.365384382249265
0.218442283616821 0.127118310880485 0.387610240469319
0.218296258369916 0.130023159631139 0.398500167918439
0.218886324602997 0.129067251591654 0.404198805977283
0.218343715428457 0.132393734399699 0.410240688875525
0.219811873751816 0.130147305592192 0.425028051487995
0.219119811220684 0.133963523983901 0.430768044922254
0.22123422394969 0.129207494161854 0.445054130880931
0.220987585104506 0.130686051047148 0.447646131730602
0.222343962969629 0.129311893107747 0.464540168851181
0.220455533344341 0.137863965604879 0.471623018119062
0.222909226789152 0.129860272255687 0.476748467786168
0.223740854437897 0.128937435777725 0.486736406648995
0.224098795962564 0.130172119137563 0.498557919927898
0.223066682856307 0.136763489916109 0.511267199201738
0.223743727490783 0.137579370612145 0.526622915011272
0.224115870665215 0.137434444325984 0.53232795895083
0.226360311421845 0.130530167888173 0.538937917392243
0.226818384493468 0.131000402409119 0.548950297715617
0.225228953532542 0.138351399020835 0.555616954500163
0.227165788563938 0.135515555969872 0.575713555602859
0.226911395226561 0.136196269414211 0.574494884896204
0.228207291363916 0.133044766433498 0.582159998523327
0.227399978989691 0.13977746514926 0.599370580973895
0.228888824761993 0.134916325294649 0.602459016811813
0.229387191512771 0.135832292067709 0.615216166461229
0.218050073135051 0.130551376852095 0.615910770734393
0.217852966722188 0.122632668038941 0.615910770734393
-0.200173302487078 -0.315684946322912 0.0984944771466033
-0.207407176268574 -0.314624048306029 0.111804606360102
-0.203081970027688 -0.31650782564261 0.12300325882852
-0.20778819892466 -0.316377311932657 0.140243836404164
-0.199350004841476 -0.319354883470062 0.151396621427297
-0.207797623680046 -0.317434522196093 0.156491736527292
-0.207258166344803 -0.318495899931159 0.17055940264225
-0.204484536671613 -0.320245530583909 0.186044985018589
-0.205085659171675 -0.320654593873139 0.194774545975491
-0.209587884992167 -0.319413118327455 0.194147550472303
-0.206359534343964 -0.321439699548751 0.212020247940128
-0.205239758296575 -0.322818834598774 0.228587174303269
-0.208718602955211 -0.322362165216234 0.235808846741953
-0.217987841484659 -0.319761886052818 0.2338385512456
-0.21345061329783 -0.322540583788812 0.257891446678191
-0.216966968711542 -0.321788036415911 0.26073002103998
-0.215574541694825 -0.322702549947399 0.26905852765951
-0.21380568395221 -0.324247717150899 0.285517291965184
-0.212373580407719 -0.325352195698552 0.296596162156477
-0.22128905537036 -0.323700513127774 0.30772356676621
-0.222161721504709 -0.323636159807997 0.310304825364177
-0.211450446740994 -0.327400288719157 0.324196507419609
-0.220022866888178 -0.325894497024556 0.33618531008471
-0.217398687611621 -0.327480719866133 0.349776525138926
-0.216926442727956 -0.328019055274783 0.356086565398262
-0.215583707986522 -0.328974879061824 0.364728519472358
-0.223809608558242 -0.327434556839698 0.375280099413387
-0.21108448965917 -0.331766293915455 0.387572001567293
-0.219083119290374 -0.330729992185301 0.405316882414047
-0.221445545186487 -0.330870221031156 0.417191339226654
-0.217861276705577 -0.332238186045147 0.422669724670253
-0.22489156949739 -0.330898861746928 0.431897845082066
-0.216611511321944 -0.334394989530699 0.44954715613674
-0.215931353087266 -0.335473073418143 0.462752077814644
-0.229143956180471 -0.33179259898142 0.462803988818807
-0.216875757941997 -0.336303100874958 0.479002550931466
-0.220804560395109 -0.335424068056674 0.482218978200572
-0.227408229171754 -0.334504062048046 0.495911448566681
-0.223994340506593 -0.335954829562193 0.503326608520756
-0.229947479482392 -0.335402615159918 0.519789688501274
-0.229657276291712 -0.336315772724809 0.532159334574121
-0.223779185359229 -0.338699387783245 0.543227430033062
-0.229500322929828 -0.33745261259638 0.548405784176171
-0.226433478428407 -0.339012353627445 0.558878821631869
-0.223255950349661 -0.340715521686049 0.571024930925759
-0.228681316265 -0.340049300967982 0.583606364339712
-0.230877069416617 -0.339738003680474 0.588079058307787
-0.225664165124789 -0.342443869077351 0.606693399342748
-0.230954359121342 -0.344788290490588 0.615910770734393
-0.245496868121246 -0.353174677646628 0.615910770734393
0.2117805402739 0.115588546530621 0.220375342357749
0.213791694187258 0.111029149499247 0.233799505697563
0.213821434089722 0.112708233584169 0.242049001399901
0.214894655147359 0.1100229022728 0.24804964624845
0.215672748438362 0.108988873238987 0.256608213222284
0.216693743571624 0.107723416377217 0.268259755854797
0.216061998150173 0.11216824553639 0.277930456273907
0.216781765509346 0.110714615956974 0.283555904508876
0.217938406570581 0.108371026033159 0.292560502859202
0.217469030700065 0.112198592772349 0.302166419416374
0.217907471599363 0.11223312718752 0.309834113929907
0.21964912674562 0.109379537352245 0.326506362590551
0.21893392866486 0.113119074252652 0.33149666545448
0.218076632956463 0.118770755493252 0.342868021991948
0.220692129098377 0.112869369052498 0.360455561117689
0.22108630038463 0.112014160799333 0.363263612072081
0.220748943816903 0.118109364352108 0.385583696316861
0.222040714189239 0.114113700490633 0.389286769377785
0.221863590688948 0.115963288265773 0.394779617934699
0.22191195126681 0.119380708442065 0.411361325485721
0.221961038285411 0.12112575417343 0.42024621713253
0.223587974403358 0.114700792414196 0.418490658047979
0.223388143576053 0.11950805564969 0.437228828087922
0.223852855978965 0.119675579338734 0.445959483561635
0.224194459284272 0.120632723841701 0.456221807972695
0.224815766792013 0.120952813607908 0.46833751958364
0.225871042845779 0.117774227174479 0.471757056931124
0.226099004750312 0.119959217852727 0.485733305684447
0.226562640922995 0.120615316757242 0.496697748134346
0.227138837079597 0.119872855282705 0.503142793785502
0.227171998250993 0.121027068623299 0.509031348429906
0.226437071940629 0.127069362342757 0.524298968827331
0.226588441741268 0.128734152027143 0.534565537748356
0.228184049918045 0.125942915474407 0.549024100037707
0.227879264095689 0.128587241814029 0.555994233139276
0.229861926817203 0.122135882624478 0.560208967193989
0.229993582525521 0.126601184314921 0.58304763119187
0.230251211080382 0.125636949093717 0.583014737131422
0.230164448354409 0.127672156918273 0.590910720038334
0.231913201334251 0.124452308536862 0.606016155752609
0.231765548082749 0.126022680847336 0.610726577427391
0.23016664780988 0.11964509514554 0.615910770734393
-0.195474196141438 -0.316986995559402 0.0992452456182191
-0.18827140196697 -0.31960729081306 0.109971188028511
-0.191345671705736 -0.319160703337056 0.115693314533485
-0.196265043588394 -0.318644449702738 0.127891092994164
-0.191729680398406 -0.320375963128655 0.135895966984724
-0.197034663991093 -0.319523208425872 0.14451103324599
-0.196819936165823 -0.320969339362514 0.165805487130705
-0.189197270621611 -0.323941760680441 0.180213635160897
-0.191890230819189 -0.323759335658384 0.188426952878071
-0.19648535280363 -0.32302883187066 0.196014092506828
-0.20217579945248 -0.321654110845862 0.198202247138466
-0.192055867590147 -0.325679541102624 0.218247069357348
-0.196075189427159 -0.324815983362598 0.221738096573162
-0.192367049027893 -0.327417632067707 0.245369950506644
-0.192918339818511 -0.327545984487543 0.24956228450925
-0.201021609394767 -0.326027245832894 0.260533096863842
-0.202045988468804 -0.32597045353699 0.263850568217785
-0.194786100817625 -0.329425630771157 0.285239795319342
-0.197804334117511 -0.328660143606863 0.286370326311759
-0.206091019008927 -0.326920381350894 0.294853393447514
-0.199945744619198 -0.329884600900184 0.313443785241273
-0.201133755302251 -0.330257297388129 0.323906471192189
-0.206698712589381 -0.329133965057965 0.330272326950717
-0.211229692964998 -0.328373808987072 0.337751134562917
-0.203606030803193 -0.33174952807905 0.356331006475544
-0.202663894377564 -0.33244463988757 0.362758126966369
-0.204502610004713 -0.332266233576298 0.367726369091329
-0.204355386398349 -0.33352082458686 0.385763279078605
-0.200100916339773 -0.33581014039929 0.402158319176024
-0.208048826304278 -0.333983697956636 0.407949124180254
-0.207295341804122 -0.334651916356795 0.414758327678079
-0.209512683323471 -0.335297848721182 0.433547821382277
-0.204725513285292 -0.336964773539322 0.43848465957424
-0.210696998452484 -0.336185359970822 0.451646900437969
-0.208402289614739 -0.337478727639649 0.461360662935999
-0.207796278872565 -0.338359083996667 0.471934031926724
-0.212987426235514 -0.337975159952906 0.487740614491473
-0.206505095017632 -0.339955096655853 0.490304767613447
-0.215407878053458 -0.338495329668147 0.505502612132148
-0.2156558636844 -0.338930719821976 0.513001517645137
-0.211389394909398 -0.340707104244321 0.521723117946068
-0.216624099169097 -0.340254235441395 0.536685478399627
-0.217571122595557 -0.340792197018852 0.548605818893249
-0.213157800700573 -0.342999477839116 0.563123265572059
-0.213492904794887 -0.343441158003233 0.571076691088004
-0.208835963134708 -0.345470365225326 0.581937829093569
-0.219426436803256 -0.343217330170934 0.592339336916329
-0.219051340420541 -0.343295252095791 0.591943039838662
-0.221286238909547 -0.34376101890489 0.608127485818199
-0.225615648470862 -0.359079961108818 0.615910770734393
0.215943233890246 0.0984527743159541 0.212671437906597
0.216494633262782 0.0991270862119855 0.22522282253637
0.217129597607469 0.0986089358264603 0.233708321872204
0.216009440099918 0.105915562078983 0.248206961993254
0.218161320329059 0.0983609293089278 0.250233788334586
0.217929393704081 0.102385552517718 0.264814515138581
0.219175384099731 0.100101469612625 0.275623574785234
0.219453677139059 0.102695316332651 0.292346498099333
0.219553524578674 0.101343183119827 0.287823411642577
0.219808482531692 0.1037987539889 0.303509291583744
0.219522848543439 0.106322764239692 0.310252779379296
0.221934675198065 0.0991031364131204 0.318275600682541
0.22210699452415 0.100446194152606 0.327417830408801
0.222238629055763 0.102029015553102 0.336968569222269
0.222764482026004 0.103224180669016 0.351483472132281
0.223282865894865 0.103024759704604 0.359441746405337
0.223697504630496 0.104344582924971 0.37262670001144
0.224137737958032 0.10455957871275 0.381156975550604
0.22445714391607 0.105620471660707 0.391517416497971
0.225560544408514 0.101520340720804 0.391513001189742
0.224669905242299 0.10753805041489 0.404000641802283
0.225022479324668 0.10884623277575 0.416069048471279
0.226217086064549 0.106238905822975 0.424508060004258
0.227511305929359 0.104751058258074 0.439813530543156
0.226888528463026 0.109299484256873 0.450115368546717
0.226688625253114 0.111750654007673 0.457991257003033
0.228348599372623 0.108264958712331 0.470350822207828
0.229181646135625 0.106697096361298 0.477389645059862
0.228442549940736 0.111847052861805 0.488472387630539
0.22973722024895 0.109324004907605 0.499013539621902
0.228826037225688 0.115941423223907 0.51391387439856
0.229620644481925 0.115372468474798 0.524899134594738
0.230246686458685 0.114004233437951 0.529313142165862
0.231684212855415 0.109619577885729 0.533719192076105
0.231782531877617 0.111757597873863 0.54525872383593
0.232529772141351 0.111216023299501 0.555559019065989
0.231995440389398 0.116701578638703 0.571695477882145
0.232328868037299 0.11602215889207 0.574273610584574
0.233753528205789 0.112400056291102 0.581974511942722
0.231952482227856 0.123269357601316 0.601235730652812
0.233407218377169 0.118562530008102 0.604451367324353
0.233635229574208 0.119675483329057 0.613486617799872
0.226016086006156 0.10714631124372 0.615910770734393
0.223540797308279 0.101436908186433 0.615910770734393
-0.182878059012531 -0.322007125725234 0.124715014270718
-0.179765187532142 -0.323854281095103 0.140183835003707
-0.180163624695609 -0.324529216582212 0.151866603032094
-0.17645612848486 -0.326284980665552 0.162598184900729
-0.181011891382155 -0.325310394432204 0.166992612575089
-0.177224713236597 -0.327632992978779 0.185818859571794
-0.182704552708251 -0.325670488235831 0.179359328930805
-0.180833248781009 -0.32766182975664 0.201201749317092
-0.189640255682349 -0.325994985500779 0.212924887870004
-0.190704726676392 -0.325850047002008 0.215181982563697
-0.178756321313 -0.330527156880439 0.235182111849007
-0.18390194737627 -0.329628954995446 0.243156319888175
-0.18935120852575 -0.328623671212438 0.250797273564594
-0.188134404346402 -0.329767836641847 0.262760429672788
-0.193237814582667 -0.328895060154917 0.270937587774055
-0.187926032599141 -0.331353753388418 0.285468437856286
-0.189756208107611 -0.331086282431594 0.289077517876403
-0.197296734370996 -0.330028526468211 0.304605077851856
-0.193185695533079 -0.331808018725082 0.314016993902119
-0.192744455597919 -0.332913607088953 0.328620827110049
-0.191552550633702 -0.333452239457039 0.331687112176834
-0.193519375713424 -0.334191450286604 0.350824830661626
-0.196299891319081 -0.333949206648043 0.358747210498074
-0.191959782218031 -0.336070127116662 0.372284484849192
-0.192069050897805 -0.3366651860349 0.381581689332994
-0.196418006196522 -0.335974357817141 0.389336581035717
-0.195562448040628 -0.336890615797707 0.399409396785731
-0.194732969254932 -0.338064247482118 0.413415642641216
-0.201002953572732 -0.336449578976817 0.415400486291214
-0.195193144491311 -0.33927398964164 0.433303110488736
-0.193050443449589 -0.340177000387164 0.437844927811663
-0.20014379544652 -0.339556710529272 0.458021406117626
-0.19685894519887 -0.340822633694378 0.463223972365179
-0.196303066881029 -0.341761278010811 0.474871433073835
-0.198986637269929 -0.341464019917164 0.481574376477847
-0.202669537984317 -0.341477723388765 0.49704051932454
-0.202704381126185 -0.341732817591466 0.500976387456976
-0.199726227955192 -0.343243785415841 0.511092056774473
-0.205289713935986 -0.342507935798625 0.52321098298966
-0.205643343267853 -0.343151698069735 0.53424473245952
-0.209306413173454 -0.343226263632367 0.550533288771052
-0.208447351853835 -0.344114570864669 0.560176154057802
-0.202347483949753 -0.345980001606795 0.562623384196127
-0.20281116898464 -0.347569167374072 0.58816478217754
-0.207526390761767 -0.346509658674771 0.591957824989415
-0.200708548543457 -0.348802896445352 0.59778817613295
-0.202104022331926 -0.352617141856646 0.615910770734393
-0.209090371694166 -0.363155427435674 0.615910770734393
0.218557030783475 0.0889171527429685 0.213476899440179
0.218436427918246 0.0898489820748772 0.21570703687528
0.219512132455593 0.0896996080990477 0.233440384881439
0.220079538553309 0.0889520600468494 0.23971144885657
0.220433257262825 0.09062384454445 0.253475578915393
0.22070752456454 0.08809502155381 0.246515245857205
0.221445181686944 0.0908596128016798 0.271892079562789
0.222337305497204 0.089794465353874 0.282260022168625
0.222854698209207 0.0881096661510809 0.283354074843355
0.222814045911194 0.0908592460821982 0.295332808669502
0.222790307245002 0.0932908694620775 0.306135490480415
0.223911466499139 0.0907061847373532 0.313421055962145
0.223366750192474 0.0951217933640268 0.324447469528205
0.225563211170827 0.0898948389235152 0.337967816138031
0.224074477056499 0.0977727553761135 0.348787929706472
0.225459027005931 0.0939337359165414 0.354801989226319
0.224525316573355 0.0998917695345284 0.366276922095354
0.225374993962852 0.0973330576014698 0.369032966248795
0.227674834508256 0.0935908001702083 0.391167842030636
0.226698282832506 0.0967160008729523 0.388850399519716
0.227668426097735 0.097208372423709 0.407734260299592
0.228476605617921 0.0952497728730886 0.412546012910671
0.227665374921862 0.101384713529065 0.426933966946778
0.228895238723474 0.0991930018393218 0.43789266114959
0.229055070723991 0.0984969262237053 0.437421110119344
0.23036548555953 0.0977943586535581 0.45662388467124
0.231122699884328 0.0956080316279965 0.45951306463726
0.230590215759142 0.101933854966613 0.479554604594641
0.231500937692098 0.0985936859997085 0.479753729345031
0.232147825529111 0.0994034928251897 0.494564997216364
0.233034472120481 0.0977365389797293 0.502064952695552
0.232790587237557 0.100027452293547 0.508448890253642
0.231449136444684 0.108787272699596 0.525856669128312
0.233123873762758 0.104787601262182 0.536099750533223
0.232340358975811 0.109119426696523 0.54265041101233
0.233991019799926 0.103325101517026 0.544208235957711
0.23378370834521 0.108492024827388 0.564476246011321
0.235020346700917 0.105191854872278 0.570441223185746
0.235930059676276 0.102994895956792 0.575893001051554
0.236545625549608 0.102455642208128 0.583949011195689
0.237170372217574 0.102763597092381 0.596067681004179
0.23744481772315 0.104387421729213 0.608253137770744
0.229604078861226 0.102381796672581 0.615910770734393
0.2308904368002 0.1012622314811 0.615910770734393
-0.167813177320907 -0.326456767283708 0.129333828071557
-0.174409029824147 -0.325204041061389 0.138048675671616
-0.16525498632158 -0.328548053889962 0.149815177063995
-0.174084935415921 -0.327125954095427 0.165271035981913
-0.172203814446987 -0.328431134576172 0.176874340003126
-0.171144726806237 -0.329011907964476 0.181117382379446
-0.166739247370086 -0.330887420329405 0.190736244334312
-0.17582764760988 -0.329391765906013 0.206169917028459
-0.170553797365046 -0.33155468992781 0.216461934560743
-0.173344961585115 -0.33194630018857 0.233849434239159
-0.173118746731031 -0.332356431117435 0.239007756411119
-0.171833068902163 -0.333667641984605 0.253168291857501
-0.169977423746551 -0.334093372709041 0.251805881882122
-0.17965842128461 -0.332423456378009 0.267105302383317
-0.177270951914321 -0.334202265630687 0.283649785499814
-0.178277996797605 -0.334187919697539 0.28760989958474
-0.181293967493687 -0.334323442541396 0.302122794138506
-0.179705723310769 -0.335358602017225 0.310926490785787
-0.1786594963322 -0.336314153277051 0.320793164889614
-0.173093437398068 -0.338389716002834 0.328575774094967
