ply
format ascii 1.0
element vertex 855
property float x
property float y
property float z
end_header
-0.435799707654653 0.194108618820132 0.757877817504792
-0.432641495528652 0.198835217287625 0.760235695497338
-0.433719200489 0.197222317833515 0.774322087672767
-0.433755656674565 0.197167757296114 0.785845621130575
-0.431205334271598 0.20057204036121 0.790950976102708
-0.434744146069149 0.195688378371846 0.80196225337395
-0.436064717273048 0.19371200389808 0.816252276535939
-0.431519036510421 0.200214331514896 0.816357896864517
-0.437097409470863 0.192166470803771 0.835130688282725
-0.433755200076649 0.197168440643185 0.839945362371872
-0.43592381347866 0.193922881328743 0.845127959727651
-0.431174687351908 0.200606986475483 0.85264934432369
-0.434536460019575 0.195999202510464 0.862220136953202
-0.433385698965572 0.197721438135336 0.865353159564586
-0.434189289348686 0.196518780137144 0.873794758550096
-0.435543192168277 0.194492521375256 0.88960082664805
-0.436347924297634 0.193288154633059 0.895492520731989
-0.433137621672957 0.195142312419576 0.906224653940189
-0.426377465239395 0.198652566518079 0.910241372631347
-0.421467069947587 0.196836824550047 0.913204205053771
-0.418070935107261 0.19411620804709 0.9143715268038
-0.0796787511456161 0.219268137495915 0.651340836812857
-0.0588272282568279 0.222358978663638 0.651340836812857
-0.0577695683572768 0.227544572477889 0.651340836812857
-0.0295337544669374 0.229069665738246 0.651340836812857
-0.0217027276628185 0.230735161974687 0.651340836812857
-0.0129306094496385 0.226409911149051 0.651340836812857
0.00368928148860598 0.232576896333833 0.651340836812857
0.00819194454929581 0.233257417344137 0.653394631719831
0.0175555803650258 0.229554868787566 0.657666446932071
0.0125739480241224 0.233923643097821 0.672694810055353
0.0150335948738301 0.231766590703354 0.677162547157306
0.0186527350966447 0.228592689911675 0.693218893973179
0.0191485649375141 0.228157858811583 0.691551038351219
0.0127615478467743 0.233759122468895 0.707841967842147
0.0179039891012009 0.229249322526439 0.714928426604201
0.015644172460007 0.231231128531446 0.727558527474547
0.011503544631906 0.234862361678704 0.739236848323404
0.0199947419222085 0.22741578151248 0.748750663692184
0.0179093050551302 0.229244660559965 0.757261982498671
0.0132884976983556 0.23329699985188 0.766403136742093
0.0125987527729866 0.233901889916898 0.788418883285759
0.0116592054931914 0.234725850767147 0.794049433301772
0.0126605877018706 0.233847662139675 0.798968394861602
0.0188039114732648 0.228460111787618 0.799708267641889
0.0105606064624506 0.235689296259373 0.817291896636484
0.0206920872897872 0.226804226038537 0.822719838916765
0.0130059769629786 0.233544763887113 0.834355927574922
0.0176643053615554 0.22945951952467 0.851392468549215
0.0159319830362371 0.230978725430292 0.857257914087184
0.0203936498156305 0.227065948679047 0.865339462508257
0.0176395789619837 0.229481203995109 0.881440253883639
0.0151601006545244 0.231655648111253 0.886516783949662
0.0148666328509124 0.231913012467666 0.89957032532204
0.0155927928948052 0.235818862790443 0.908758180173826
0.0224063596213836 0.232964042384468 0.911109343277167
0.0304605049962425 0.227603066781806 0.912391961643661
-0.427665327712824 0.204608644201972 0.420644931426082
-0.427704392556658 0.204564099284882 0.423996221018168
-0.424957008228874 0.207696890692313 0.431839827081335
-0.424145920971106 0.208621758453303 0.443687171747729
-0.428637557171196 0.203500028977505 0.450522771528331
-0.426811154060189 0.205582642580127 0.460250912542451
-0.425282360380826 0.207325897666068 0.470919285128323
-0.423710633799343 0.209118108344242 0.479222604570352
-0.42913642016108 0.202931184759975 0.486001890917593
-0.427251537574725 0.205080481424019 0.500707215540713
-0.428299487270521 0.20388552381681 0.504244042451773
-0.426764749269704 0.205635557102287 0.510149750626084
-0.429577025234649 0.20242877096421 0.517614046135172
-0.43016741007417 0.201755566078521 0.536970428502628
-0.42592551897385 0.206592515847781 0.534087673327039
-0.425457278692021 0.207126441559118 0.542164398037118
-0.425236911543417 0.207377722132661 0.548120332859319
-0.425638188517589 0.206920153439423 0.561295552170916
-0.428656060364178 0.203478930129632 0.574596014895108
-0.424860369571051 0.207807085961971 0.575201965721018
-0.427219748711206 0.205116729675666 0.595209527410636
-0.426750872079599 0.205651381004854 0.597702345602736
-0.422874895343546 0.210071085409265 0.600804838019396
-0.427756754648942 0.204504391761939 0.61008636003076
-0.425488510677895 0.207090828304724 0.620440447019895
-0.429266847135856 0.202782461298994 0.641435071935544
-0.426665173192949 0.205749101856287 0.636845328898538
-0.428944121016467 0.203150459908999 0.656010439317893
-0.426748863513181 0.205653671335899 0.660240579951975
-0.425857387177557 0.206670205271806 0.667629974995799
-0.424607643183006 0.208095265176249 0.676755386584016
-0.422860194213624 0.210087848835129 0.681548766360744
-0.426027346228976 0.206476404116825 0.691790275794553
-0.426650697856568 0.205765607813964 0.701896527064547
-0.427592713245472 0.204691445132687 0.707093544176326
-0.428938658707581 0.203156688478541 0.719908011174307
-0.428599964933264 0.20354289470939 0.725346312870166
-0.42700575208661 0.205360746058803 0.734957660890034
-0.428707908326152 0.203419808859949 0.742865557301748
-0.424075247213419 0.208702346428771 0.757367137314266
-0.424777923064926 0.207901098184197 0.753586943054347
-0.426622403655832 0.205797871166437 0.76568014546254
-0.426055555546987 0.206444237554549 0.781932488236877
-0.423769157991578 0.209051374292982 0.78534935882034
-0.430354854917177 0.201541826199612 0.797339564469846
-0.425322494223579 0.207280133789332 0.808334483956951
-0.423428068020889 0.209440312862126 0.808837244098205
-0.426669129201857 0.205744590892682 0.815687860098047
-0.4276822588588 0.20458933793015 0.837971348340291
-0.429665166121326 0.202328265545426 0.84770984525514
-0.424372923668312 0.208362911486724 0.840368922487192
-0.428350377573528 0.203827494547891 0.857950870289742
-0.422887065916234 0.210057207530893 0.859231495723432
-0.427021233140727 0.20534309329984 0.87728301301025
-0.427004341421572 0.205362354613989 0.888283859467922
-0.426261141577402 0.206209811616009 0.883569781046457
-0.428689141859775 0.201874257808863 0.903958207583458
-0.425702384336781 0.205122268123775 0.904347178133853
-0.422853395324855 0.205423642722838 0.908422533644217
-0.415676406113493 0.207133439366959 0.912550247229238
-0.401477776972106 0.209347427831865 0.913802820429888
-0.0633890572031024 0.238001223980683 0.651340836812857
-0.0446782484454727 0.240827027536588 0.651340836812857
-0.0417070147136105 0.239512438169005 0.651340836812857
-0.0217524782152691 0.239224625915168 0.651340836812856
-0.0142623867731375 0.236468293038224 0.651340836812857
-0.00238886798186151 0.240564463863435 0.653584595300348
0.00247678459832416 0.241390638322897 0.650647545245929
0.00184217142561044 0.241814673288247 0.662451524986006
0.00777950738058089 0.237847472236985 0.671930037672549
0.00326763341697765 0.240862210036449 0.684270442891718
-0.000841028389950767 0.243607530086274 0.704756164924927
0.00570015037987648 0.239236854165464 0.710503594056109
8.57333046936844e-005 0.24298828771947 0.722349208144335
0.00366405462421986 0.240597329854152 0.728930198157883
0.00435348466411747 0.240136667429152 0.735261151031663
0.00322569487703018 0.240890232472948 0.749441823156044
0.00467547897923078 0.239921517706262 0.753309268365441
-0.00141073630563764 0.243988196745389 0.773512758706886
-0.00224353178143659 0.244544652892073 0.782189858689074
0.00833675300375975 0.237475132615503 0.779694924398662
0.00821688320897519 0.23755522705171 0.791785875636287
-0.00165596152520218 0.244152050998581 0.813813650368876
0.000577986786209277 0.24265937445868 0.817105064473353
0.0045265565190166 0.240021024512884 0.821281511362011
0.00275355044647312 0.241205709295458 0.837651981211342
0.00677275220431492 0.238520164539381 0.841721290753281
0.00637564849970043 0.238785500751843 0.856328023787473
0.00716419686408862 0.238258609579792 0.867152541415059
0.000669269261613672 0.242598381458599 0.879088330982988
0.00912426496289522 0.236948933947303 0.880977493407995
0.00289520406689915 0.241111059372305 0.899989933890112
0.00680160922593666 0.239558076805705 0.903381724748063
0.0117582820754393 0.238390107725047 0.908161798910672
0.0308524068661795 0.243254263371043 0.913130808967388
-0.420020524635122 0.213325871402817 0.416787582755087
-0.416063434161102 0.217838068298633 0.414370625808235
-0.417032077663205 0.21673354207361 0.428860753210985
-0.418912960780324 0.21458880593018 0.433871442506847
-0.420800970755114 0.212435943163091 0.447988345986354
-0.415754984397145 0.21818978784525 0.451723841476317
-0.416064121228698 0.217837284848192 0.452634290072172
-0.415733322016094 0.218214489056701 0.467891121143463
-0.417536449152042 0.216158416616862 0.476851232020476
-0.420030402117646 0.213314608292641 0.487965948392817
-0.418993184463287 0.214497328351991 0.49347841545053
-0.414669109537644 0.219427990813428 0.496436977055829
-0.419224900179365 0.214233107217381 0.516269101470221
-0.416121145182254 0.217772261491282 0.517940320296319
-0.421564667258221 0.211565114200931 0.536688439200564
-0.418445945917545 0.215121334318896 0.532105173612397
-0.414468220858824 0.219657060449043 0.540043980929788
-0.414788717740212 0.219291603797795 0.557292182302569
-0.419626101157038 0.213775625181543 0.57037553284359
-0.415009580427591 0.219039758170575 0.568933816241266
-0.415223331595517 0.218796021677129 0.581438909502385
-0.421981897469201 0.211089354327563 0.591023934187159
-0.419060844977408 0.214420176322289 0.595160893572392
-0.420484426688756 0.212796892492653 0.612474035014849
-0.417352719332387 0.216367920323527 0.61848565627658
-0.414350037371458 0.219791822888348 0.61497647373597
-0.421769748472822 0.211331263894503 0.642223238049374
-0.420030856341631 0.213314090349453 0.644499731125625
-0.421982013324636 0.211089222219759 0.653991712490557
-0.420020516547353 0.21332588062515 0.658589777775649
-0.41860309246268 0.214942143027263 0.6744348593033
-0.418632455171993 0.214908661274271 0.676974001018272
-0.416966017628727 0.216808869106051 0.683953856865691
-0.415816774110873 0.21811933018038 0.690542519765527
-0.419316156254221 0.214129049607277 0.708562240723986
-0.417482143362839 0.216220340501361 0.713341394484597
-0.415838129882115 0.218094978590408 0.712733694652655
-0.421971194631422 0.211101558575033 0.72784764616467
-0.415596087084893 0.218370975504163 0.736167724003735
-0.420682917900722 0.212570556644039 0.752105948963756
-0.415223761225842 0.218795531777635 0.754485795854668
-0.421338184426801 0.211823368374193 0.766426071356642
-0.417483737585372 0.216218522638966 0.772576728668933
-0.421220249616359 0.211957847251812 0.781798389636232
-0.421203106879497 0.211977394796799 0.78876587859616
-0.422782833085439 0.210176062295181 0.804928391939037
-0.419534483223386 0.213880095412521 0.80097598828994
-0.417273870872812 0.216457829759985 0.817529051716942
-0.416678239896145 0.217137016718589 0.825610149423705
-0.422765456498674 0.210195876494876 0.839672239989945
-0.414153674449771 0.220015731887019 0.833913693607055
-0.416431859215552 0.217417960040319 0.85347466916197
-0.418273322768946 0.215318173294493 0.858463194801782
-0.417507564568524 0.216191353171873 0.861059918200825
-0.421582976970292 0.211544235975752 0.874509895249475
-0.419752825024074 0.213631124305654 0.886446763204629
-0.416063491528471 0.217838002883686 0.894721554620662
-0.41534382951219 0.218231182332816 0.901148179412224
-0.419544771730573 0.210983532431176 0.907208091737203
-0.413471766778704 0.211462758186604 0.911500740613663
-0.405901414908997 0.217358083737638 0.9127134161889
-0.0621044838008614 0.240873018070446 0.651340836812857
-0.05208424063521 0.244482078176087 0.651340836812857
-0.044299456582821 0.250356723265939 0.651340836812857
-0.0273422081995446 0.249730870501833 0.651340836812857
-0.0197036792259156 0.252133850856316 0.653754895071998
-0.0119609875779797 0.251037649270249 0.662477312518489
-0.010062213045704 0.249768928689557 0.667082738242252
-0.0098600547843624 0.249633850857849 0.684464741759482
-0.0137914020395228 0.25226069311199 0.691398379530171
-0.00252028232877444 0.244729571695838 0.687282635926453
-0.0129779854640564 0.251717185532534 0.707108395450102
-0.0124539743046757 0.251367052469805 0.725557583804043
-0.00988249769832021 0.249648846733529 0.726883651645233
-0.0154756967851468 0.253386102880976 0.738740061784884
-0.01035785497324 0.249966470310009 0.743894105554809
-0.0154978903279291 0.253400932132163 0.761262902320888
-0.00404903790700503 0.245751053515811 0.765733732065433
-0.00427380277538024 0.245901236599414 0.768897945966095
-0.00268620459870575 0.244840437412161 0.790607216105501
-0.0135780980788812 0.252118167962106 0.793452845433259
-0.0135547585762595 0.252102573005035 0.805752078837352
-0.00883188478453308 0.248946849627814 0.815825736893318
-0.00243250953081861 0.244670923787253 0.824459382182811
-0.00638977454082498 0.247315083731524 0.841953456673821
-0.00388155633250963 0.245639145905488 0.842811399717375
-0.0069427352692485 0.247684560277865 0.860969940769019
-0.00675104703959022 0.247556478297667 0.859891914155193
-0.00827159413113513 0.248572475382188 0.879417284939157
-0.00980832711310841 0.249599287532928 0.888726644911884
-0.00472653106601027 0.246203739971995 0.89247534303738
-0.00733231273778185 0.250188092241262 0.90706997786492
0.000659438166975906 0.248091153887234 0.909906886800302
0.0172080764040608 0.2556039147855 0.912879680482097
-0.40813708526129 0.226876336980055 0.402139379361789
-0.413225759088665 0.221073816568037 0.417166761938863
-0.413782525344697 0.22043894632975 0.416868385217258
-0.411585894468945 0.222943723787809 0.429154692493469
-0.411735247755085 0.222773419004907 0.436788905293508
-0.409020675445783 0.225868795476059 0.44239381838345
-0.410546187562721 0.224129282294905 0.458392116251647
-0.409508171622314 0.225312912625033 0.457625962340949
-0.410298491932008 0.224411725029876 0.464100725472925
-0.406609461333719 0.228618258219718 0.480260280709874
-0.407854453678189 0.227198616533757 0.479744659903145
-0.410566650062101 0.224105949286274 0.502978058271412
-0.411083315957817 0.223516804745321 0.506577869263014
-0.409883171546841 0.22488530716428 0.513535200312253
-0.414458556466224 0.21966808057673 0.529106855688116
-0.410993535447769 0.223619179796234 0.533543015616657
-0.413109263387104 0.221206654456482 0.536727488360078
-0.410934442664883 0.223686562200871 0.54836557495498
-0.413799263443884 0.220419860185603 0.561675732253465
-0.413060996473948 0.221261692322598 0.568901865379403
-0.414491894072227 0.219630066322744 0.580354236880535
-0.410033553334201 0.224713829600508 0.582039837272916
-0.413447889663057 0.220820525192765 0.593361791858224
-0.411036973317196 0.223569648399144 0.601639460431376
-0.411695812701632 0.222818386065162 0.614707028818503
-0.413182599763902 0.221123030345811 0.617616354364013
-0.412970181761075 0.221365246655817 0.621845689631988
-0.407314992078265 0.227813754593544 0.633390778641852
-0.413531444922084 0.220725248680165 0.646465776063524
-0.409634693532131 0.225168642037217 0.655272329455049
-0.408831579492591 0.226084418085299 0.66285628875353
-0.4120101221866 0.222459984787326 0.668127382679809
-0.412238781226451 0.222199249123941 0.680425425721311
-0.407663734097165 0.227416090535709 0.687653605632031
-0.406383415950524 0.228876013578878 0.692007430005384
-0.409379215853177 0.225459958497504 0.705865189378859
-0.408438746630565 0.226532358114025 0.716213388047585
-0.414566241354337 0.21954528949549 0.727333093869327
-0.409047244719074 0.225838499026368 0.730642253386284
-0.410079820265036 0.224661072277151 0.734849565274388
-0.407820901412771 0.227236875559893 0.744774108690757
-0.412330903285674 0.222094204047922 0.751667346533924
-0.407438646492909 0.227672753757305 0.764747408523752
-0.412389652218265 0.2220272137294 0.776045486662864
-0.407863244550923 0.227188592464578 0.778586964140203
-0.407594492321698 0.227495045648405 0.785879222149483
-0.413215797289963 0.221085175822387 0.794725884198448
-0.409161546672737 0.225708162627974 0.804540226879174
-0.411953168134766 0.2225249284366 0.815306696007813
-0.406327637524241 0.228939616684135 0.819156080404978
-0.411418270836198 0.223134861908181 0.836055061959479
-0.408500626706974 0.226461797410266 0.836568587524448
-0.410203813193944 0.224519685439372 0.852499581786056
-0.409786476399894 0.224995566847439 0.859082764240062
-0.410557966157462 0.224115851381718 0.870524626690549
-0.405836095671927 0.229500112744242 0.868109151991703
-0.408742722959347 0.226185739542594 0.884356629717421
-0.413980717207242 0.220212951823732 0.891290180889704
-0.405814414316619 0.229524835591688 0.89752998229609
-0.403724034452936 0.225300551035132 0.909701731186649
-0.400491929740963 0.225134300886789 0.912246821744872
-0.384190755462921 0.225946351150699 0.913610496023549
-0.368753446708578 0.229464825949549 0.909107834680443
-0.0372159761464786 0.25327785008043 0.651340836812857
-0.0302410575600235 0.257600273096498 0.651340836812857
-0.0215317331362338 0.257432617001235 0.658831277074307
-0.017033067416177 0.254426704667953 0.669519681939372
-0.024928290556379 0.259427489806158 0.678109419585873
-0.0295607861269322 0.261711983807886 0.691302385255713
-0.0233592494428549 0.258653724357768 0.69857974450999
-0.027437923033919 0.260665103583476 0.7123997155326
-0.0236907026629929 0.258817178997222 0.717434394112862
-0.028629078333598 0.261252516371206 0.734542492664102
-0.0250523998932767 0.259488693757976 0.733999594766627
-0.0161637167774108 0.253845823142268 0.744599671000221
-0.0285996023836712 0.261237980441322 0.764243282215476
-0.0227993874620085 0.258279636541983 0.767304440712761
-0.0205866449118688 0.256801129238765 0.773153865766002
-0.0162171640287183 0.253881535453847 0.777614723596011
-0.0229486501445012 0.258379370677864 0.799295015871713
-0.0198784351494272 0.256327918604336 0.797883047220311
-0.0293241332485641 0.261595279523362 0.822277766523429
-0.0225695220508204 0.258126045384631 0.8203866329597
-0.0235396202402344 0.258742673391486 0.830886269770491
-0.0275757531287422 0.260733073864308 0.850774318877169
-0.0232744120198049 0.25859703780399 0.858212437189967
-0.0160118698617155 0.253744362276966 0.864021551475662
-0.0300442933464478 0.261950423181643 0.88628963258101
-0.0193585426822378 0.255980537563744 0.88835335469501
-0.0260794179015005 0.259995162991184 0.900094121223797
-0.021987611983747 0.261655326471754 0.908641280393875
-0.0154004073576337 0.258759466473818 0.90985478084738
-0.0079183283781553 0.264195783094623 0.914117765971725
0.00310439118310305 0.258516249385892 0.914333488871958
-0.401415540770965 0.233825002229863 0.394083889649216
-0.398825078429463 0.236096776731629 0.401296112037566
-0.402084929815668 0.233237963793073 0.406002200428134
-0.395660665752861 0.238871892168206 0.412841487375289
-0.403142146932846 0.232310809265035 0.42357563067217
-0.403667141265352 0.231850401592223 0.433342382902958
-0.40495444404707 0.23050544374463 0.445834287784656
-0.402216398032499 0.233122669261281 0.449539130562887
-0.401675951722486 0.233596627954674 0.470654455945454
-0.398279968418708 0.236574825380803 0.460602764345899
-0.402469988311484 0.232900276555367 0.480925281698823
-0.401428234314647 0.233813870290822 0.491329569240442
-0.398410634328059 0.236460234453787 0.494542317562526
-0.403089137578324 0.23235729722127 0.503447339717343
-0.400935928979244 0.234245610482577 0.513884672146246
-0.404998303628806 0.230455431476813 0.529502847526563
-0.395741325018272 0.238801155890918 0.522250560501252
-0.405843447017227 0.229491730141503 0.549710793808916
-0.39800196483038 0.236818627984394 0.543093991432044
-0.396890946924662 0.237792964537673 0.556509160000813
-0.405969688328973 0.229347779514465 0.568805443447036
-0.397497914362142 0.237260668381201 0.575126920728661
-0.403335582508171 0.232141170818369 0.579674234695641
-0.398710971458149 0.236196845859735 0.592075153545253
-0.402979332875929 0.232453593360796 0.609457511246423
-0.398728658325775 0.236181334893124 0.611788074041811
-0.40192994748803 0.233373879646591 0.61905539271983
-0.398871280706013 0.236056258422559 0.625706898257233
-0.401084319695877 0.234115475316763 0.638157503807415
-0.400197842942731 0.234892894564262 0.642704490239029
-0.402170186779031 0.233163195442898 0.649103231564229
-0.402862338092832 0.232556195031864 0.659598514985992
-0.397432251855313 0.23731825285419 0.670825578190619
-0.403360578020436 0.232119250342433 0.683952254844759
-0.404642667367342 0.230860956911613 0.692664776414051
-0.398865580298782 0.23606125754553 0.695016815919126
-0.396782000309991 0.237888508154462 0.697125176473193
-0.397570598558445 0.237196926051811 0.714141367790296
-0.402065557126472 0.233254953185523 0.724607130319635
-0.399588802912769 0.235427008335558 0.72187704016645
-0.403235430600095 0.232229001684476 0.741620470447279
-0.405877913337203 0.229452428835903 0.749729390323812
-0.405785242033862 0.229558100204808 0.757794174059797
-0.401647905715569 0.233621223642621 0.760622131663453
-0.403249044670769 0.23221706246493 0.77307383666543
-0.401310794904898 0.233916861889 0.779282021469725
-0.404361582855811 0.23118147236829 0.790840335945318
-0.4052883566271 0.230124689420972 0.803074536542721
-0.404016140031339 0.231544337888839 0.813631789906236
-0.404811549731172 0.230668383483526 0.81774727017223
-0.401712933999371 0.233564195368297 0.833058494355111
-0.404975429116521 0.230481514859037 0.837733166251941
-0.404717807762721 0.230775275712002 0.84443486237185
-0.404760439982962 0.230726662981742 0.857427566652233
-0.396919210103084 0.237768178395428 0.855467445677836
-0.396823992870213 0.237851681667527 0.860629740381219
-0.396242519949843 0.238361619732559 0.872449320322312
-0.402691098831338 0.232706367833735 0.889731402130074
-0.402421142421655 0.232943113251061 0.89658892851446
-0.404508116040197 0.230676875030959 0.900926413889601
-0.39532254116861 0.236308736584624 0.907490124258129
-0.387619561423753 0.238802741180306 0.910700834157989
-0.378814344572001 0.233713553188567 0.91422669918359
-0.368251504320845 0.23728689934507 0.91307795818621
-0.0403938647578042 0.267054266984539 0.661088877898232
-0.0434110875107236 0.268542196584458 0.671502645588034
-0.0387594602366934 0.266248267870668 0.679207351048086
-0.0357912334098153 0.264784500387569 0.683569619133001
-0.0420775985452834 0.267884592600489 0.69630984776428
-0.0401057499183564 0.266912184469293 0.709524175272976
-0.0440558963360261 0.268860181107321 0.725035915153166
-0.0323171821339358 0.263071287891071 0.722562485116761
-0.0434676253429246 0.268570077957806 0.746219466461066
-0.0358383656982079 0.264807743460008 0.746103129094674
-0.0367200200895482 0.265242527290438 0.764216919081514
-0.0436640575885581 0.268666947621265 0.776211748764559
-0.0383502509502296 0.266046468182759 0.778666394881779
-0.0340706065104302 0.263935981102231 0.780922123527389
-0.0387423616226929 0.266239835767382 0.799871415258668
-0.0410081354824077 0.267357191782722 0.815166580786432
-0.037416415975651 0.265585951736377 0.818257002935963
-0.0318368587697833 0.262834418621023 0.825825223089789
-0.0317394457042978 0.262786379813343 0.829343786382664
-0.0420476088776795 0.267869803333081 0.856434841384249
-0.0437983525786203 0.268733174581354 0.859298341465781
-0.0326728900032033 0.263246703599804 0.862037550074963
-0.0415047878833142 0.267602113642556 0.884104530649103
-0.0337746881780037 0.263790050330116 0.880601330499279
-0.0411309911298233 0.267417777483307 0.899443317486987
-0.0377465039976037 0.267983883504342 0.907344434334567
-0.0273158298261192 0.26769638199548 0.911709296791097
-0.0187204557836378 0.272615614355562 0.914337350301618
-0.0105818138668843 0.267203391059199 0.914391924100146
-0.385662536183605 0.247640016474396 0.37670338184907
-0.393157898896833 0.241066759793301 0.395489464698716
-0.391760119148798 0.242292579732776 0.403740004610666
-0.39324464829593 0.240990682612114 0.409840469858243
-0.393583387972797 0.24069361588842 0.422412174340897
-0.386386561331288 0.247005063461263 0.415704076871321
-0.392406581472587 0.241725647490601 0.436879921816079
-0.389229734219726 0.244511667757884 0.439209376251563
-0.395828594029326 0.238724623022275 0.461651566052665
-0.395510509838903 0.239003575370526 0.462166713119218
-0.389162942263932 0.244570242731032 0.46599503586589
-0.392758370501824 0.241417136792021 0.481182726305588
-0.387742536640896 0.245815905030338 0.487276905701469
-0.387195263780445 0.246295850447788 0.488535475551372
-0.387435984133934 0.246084744363615 0.499461582291824
-0.391534628774701 0.242490329483491 0.516716930562598
-0.389649844223734 0.244143241172501 0.521268625935998
-0.392099908486392 0.24199459248133 0.534328423948283
-0.391554120790539 0.242473235444384 0.540108837099318
-0.39165984697079 0.242380516072782 0.546196192055762
-0.394904486585376 0.239535043499896 0.560311088796484
-0.388636959960458 0.24503151683113 0.56058982466258
-0.391894996635114 0.242174295351889 0.582056340830948
-0.395713918394166 0.238825190855189 0.58831523800872
-0.394393479031661 0.239983185096915 0.590317429746609
-0.384587534184086 0.248582767925645 0.591850305054867
-0.394919651523161 0.239521744206396 0.616376435638047
-0.39495043691859 0.2394947461392 0.620278713035603
-0.394049814362001 0.24028457092337 0.62906395883232
-0.392624425108209 0.241534603749549 0.640072803510804
-0.391380079559258 0.242625865507808 0.648580237324471
-0.392628430478808 0.241531091133807 0.653647452854171
-0.391170548027329 0.242809619729565 0.66333327543932
-0.395675457083081 0.238858920519747 0.671865644913494
-0.389273248686121 0.244473506595056 0.676480812450538
-0.392728306123863 0.241443502543868 0.68574292677354
-0.388241647578557 0.245378196485587 0.691573639632134
-0.386208123993412 0.247161548806699 0.69541567820034
-0.395201104499757 0.239274916570482 0.713172147480538
-0.384483404146055 0.248674087518088 0.713086564726065
-0.39214760222809 0.241952766192428 0.726427563643838
-0.394412789166059 0.239966250563552 0.740727280152438
-0.39013327021742 0.243719287954439 0.750081354047973
-0.390920651721653 0.243028772907832 0.754431293214624
-0.391172497251186 0.24280791030612 0.767720660462866
-0.389809877672415 0.244002895604716 0.776215016364099
-0.386665644848553 0.246760313785413 0.779526491511257
-0.387452530661802 0.246070233448131 0.792685355106556
-0.39565608227515 0.238875911770277 0.80376258622371
-0.387915397892553 0.245664309781271 0.809400057380891
-0.387134248452877 0.246349359453946 0.811957230232282
-0.384597492747359 0.248574034500049 0.819115748971939
-0.392308096687091 0.241812016329443 0.833265571584568
-0.393630698811883 0.240652125396098 0.839463640318277
-0.392822577038143 0.241360829170899 0.855138406955702
-0.394723302046847 0.239693938075644 0.860114825574639
-0.392834492917484 0.241350379225181 0.870579807593153
-0.38708956323631 0.246388547337119 0.870631873058062
-0.391037207377729 0.242926556340824 0.879994449342046
-0.388078454975274 0.245521312557601 0.887963509999636
-0.387391049346351 0.246090280561855 0.900189362674967
-0.387895303634027 0.243539166286555 0.906119417429072
-0.38052902712943 0.247138207440331 0.909105597399235
-0.370190330397258 0.241244343121783 0.914220184787844
-0.360963360420974 0.24366953149681 0.913076161692143
-0.0556953216446834 0.274600110459919 0.685835712497278
-0.0540974857724119 0.273812145007959 0.695723907538448
-0.051532275035134 0.272547123066064 0.700942027714352
-0.0616600381427699 0.277040222302735 0.715883197788933
-0.0543362182975645 0.273929874860783 0.722842445911981
-0.0647389265496556 0.278085364085017 0.742084593871975
-0.0626285832134915 0.277368999051892 0.750955039927784
-0.0510687394402192 0.272318532607629 0.752492925308956
-0.0643075688051363 0.277938937861546 0.772397043415461
-0.0482922575617676 0.270949323268812 0.763094030263664
-0.0557501779965991 0.274627162618954 0.780260613677119
-0.0545432474824125 0.274031970356346 0.792363081695574
-0.0514694550314395 0.272516143668579 0.798885340818536
-0.0588473257215489 0.276085435092393 0.812059171598162
-0.0563190131049783 0.274907681050818 0.821478577310843
-0.0594115152243162 0.276276951621914 0.832671542082007
-0.0654402483560865 0.278323430759044 0.846481644509967
-0.0574699966931488 0.275475283342761 0.858493720680337
-0.058961711137753 0.276124263709075 0.860456132664139
-0.0606608944755102 0.276701058729667 0.869415969671119
-0.0501405487439936 0.271860799611301 0.872427035303822
-0.0512675024329834 0.272416551668375 0.885593623836838
-0.0577217582393081 0.275886016736072 0.901055407157146
-0.0473586846247045 0.271102787644558 0.902153198372268
-0.046905193341005 0.275398414606541 0.909949117283692
-0.0381828473885258 0.277195730815531 0.913281834507079
-0.0258788710142693 0.281591032011788 0.913025953309988
-0.378044422275185 0.25432092306448 0.373620935892927
-0.383833754996302 0.249243814531625 0.377647935197151
-0.378176734095994 0.254204888711854 0.383797747509761
-0.38384080855718 0.249237628724755 0.407478582420415
-0.383184305185171 0.249813366729883 0.406065621249407
-0.384730927724818 0.248457015165478 0.415225599893737
-0.376089543836112 0.256035305443559 0.417719450201272
-0.373675440351731 0.258152417378589 0.42376726678905
-0.373816540709648 0.258028675685776 0.431232031164547
-0.375947022307772 0.256160293469382 0.446472589833897
-0.383990977263043 0.249105934304235 0.456655146089375
-0.380263865233352 0.252374523829212 0.471663168561576
-0.373637749060834 0.258185471753566 0.46580988078542
-0.374055926450992 0.257818740025042 0.476040350216873
-0.384003786222648 0.249094701148146 0.493859634403232
-0.38384486892674 0.24923406787622 0.512773108768519
-0.376476462554908 0.255695986834083 0.510235296972282
-0.377415489360653 0.254872482427325 0.518426992213341
-0.384213304150177 0.248910958857128 0.534142103605586
-0.377282617054903 0.254989008312051 0.537707826116898
-0.378926762367738 0.253547131570956 0.549036108452985
-0.379470915714275 0.253069921893783 0.561093081020302
-0.377491784892041 0.254805573042066 0.564323036966801
-0.377791511984137 0.254542719436976 0.568828255265268
-0.380117567476738 0.25250282351835 0.582974057373211
-0.377004837520121 0.255232614425956 0.589625123988121
-0.382627191306018 0.250301942489106 0.600469835332569
-0.375011155226525 0.256981026872126 0.604567918182882
-0.374939125485994 0.257044195259207 0.610105053853051
-0.374934566253445 0.257048193598842 0.620544913073353
-0.377110983201902 0.255139527161386 0.624475524566527
-0.380177050962009 0.25245065790183 0.637106463726066
-0.376546420136178 0.255634635681901 0.647643303002933
-0.38324247357803 0.249762354418454 0.663135776723681
-0.38021977548159 0.252413189503766 0.667854893457255
-0.383000350258772 0.249974690870586 0.680136698523242
-0.381253745985973 0.251506421707993 0.689329316216862
-0.37398934046937 0.257877134363689 0.686865221604044
-0.379134365655444 0.253365068373997 0.706910651864057
-0.379667596370666 0.252897437587403 0.714259784760126
-0.37612802483327 0.256001558514778 0.710604765400289
-0.377873932072976 0.254470438958987 0.732855250801503
-0.378447593595686 0.253967351305846 0.741293275475271
-0.374988558676814 0.257000843514367 0.743922029819899
-0.381367006923073 0.251407094531979 0.75437162029978
-0.38382848307142 0.249248437885661 0.761813091693681
-0.377869734682461 0.254474119971674 0.776274424435319
-0.379310282526117 0.253210793418974 0.780119972472452
-0.383158300320076 0.249836172384494 0.793903297211195
-0.373984870606122 0.25788105432855 0.789725528503966
-0.377137432642932 0.255116331624143 0.802658402496771
-0.37605118628837 0.256068944110105 0.809905443933785
-0.378294812657967 0.254101336592219 0.821778205543033
-0.383363869984045 0.249655892627688 0.831927312011895
-0.375788933917815 0.256298933266447 0.838891203063402
-0.374138887446319 0.257745985184793 0.842643268659623
-0.376808674607661 0.255404644683096 0.860576949314921
-0.376571926525716 0.25561226717862 0.865006993924603
-0.374404019456309 0.257513470652446 0.873448483649568
-0.374393402137308 0.25752278179131 0.88474089391659
-0.381964731473855 0.25088290416959 0.898865515599045
-0.379253379873282 0.252918264729372 0.901057011416699
-0.375529072569804 0.249129252362598 0.910909211358712
-0.368246178014731 0.253463733319998 0.912455633084502
-0.357460151381321 0.252270732655198 0.914389792377308
-0.35429984636142 0.259956973154093 0.913145155136757
-0.0682616717578937 0.279281174948844 0.707718510027772
-0.0817056568515405 0.283844792944978 0.723456333007576
-0.0829366461602448 0.284262657508433 0.732166309522857
-0.0719689501241978 0.280539626379078 0.732018665244649
-0.0864916907916951 0.285469432549028 0.755823653252017
-0.0888049029484383 0.286254662267289 0.765493526262614
-0.0856314765104061 0.285177429147709 0.772314317401639
-0.0882438884286688 0.286064223499269 0.78180538531615
-0.0722449939481105 0.280633330630738 0.783976529490231
-0.0808780475090525 0.283563857428995 0.799100080850441
-0.0703562392821043 0.279992184815414 0.801428125524121
-0.0854340019213131 0.285110395557425 0.81961777061818
-0.0823756153725285 0.284072213218189 0.834382849940197
-0.0694006968651252 0.279667821872446 0.827778347769661
-0.0671225543180148 0.278894496682531 0.836758679474343
-0.0666516282759006 0.278734638831926 0.846289808390488
-0.0852794445451558 0.285057930397849 0.872657106743554
-0.0714951677517147 0.280378798934964 0.866540337735142
-0.0685783037264409 0.279388657019059 0.886474148256307
-0.0756432212731906 0.281786873368822 0.889117318793283
-0.0764832627363551 0.28652784658832 0.909563888823058
-0.064537736666449 0.280242596194523 0.907447427861044
-0.0580082479584221 0.28769721955277 0.913601848352342
-0.0545837634002801 0.283374066820789 0.91282191752992
-0.035224451921459 0.285505864842369 0.913193066044986
-0.372228850912816 0.259421042268131 0.35972032894843
-0.368957783357393 0.261665989032582 0.369918562254043
-0.372010476635998 0.259612551369024 0.382776830385124
-0.371211062263929 0.26016039620196 0.389319869269829
-0.361882804905862 0.266393338497635 0.394953297792645
-0.372569805830467 0.259122032830411 0.40199128299368
-0.363669802564658 0.265199304836015 0.404268461237469
-0.360605954929587 0.267246502375609 0.41412694673595
-0.362496410988076 0.265983340021401 0.426095864546746
-0.367633330608846 0.262550960066094 0.438218060170091
-0.370885014876696 0.260378254101059 0.457251718178498
-0.359353879906999 0.268083112158775 0.448507284493391
-0.361631096458879 0.266561524704892 0.462316751581563
-0.364664623286428 0.264534586881169 0.471449069640098
-0.372178509685954 0.259465190339208 0.483518271841078
-0.372717035775298 0.258992915634146 0.499200426645145
-0.37176675457303 0.259789094471763 0.496911626446698
-0.36777499428724 0.262456303422423 0.504374042222034
-0.367155261996936 0.262870395300033 0.516981107145246
-0.372784105825277 0.258934096778942 0.526247121372448
-0.365393379134225 0.264047647791412 0.527321127465375
-0.366703324542245 0.263172370252933 0.543213900608079
-0.368258098563562 0.262133503465097 0.553562420628084
-0.359362532296775 0.268077330816759 0.552027485424687
-0.372652694103011 0.259049341766331 0.5742440352899
-0.362990142188846 0.265653439380173 0.579305181646982
-0.362390407848938 0.266054169054526 0.581675183579764
-0.365092097739434 0.264248957583414 0.588885446317762
-0.360533494751859 0.267294918718467 0.599921214206952
-0.372141874746494 0.259497318318837 0.621264408344616
-0.372070680470048 0.259559754023581 0.625431025674026
-0.363427691793012 0.265361078081639 0.623294389218696
-0.364886557436504 0.264386295223064 0.639624823158754
-0.359309800207146 0.268112565272582 0.6465080059687
-0.362668897867651 0.265868087973148 0.654048591334988
-0.370346882422205 0.260737822711521 0.668520301576168
-0.358770536373444 0.268472889846465 0.671444639440387
-0.3625369694061 0.26595623975289 0.679701995518881
-0.365858384971824 0.263736940824221 0.6885397195939
-0.358869285414746 0.268406907846551 0.689241251658341
-0.367563580698293 0.262597565466323 0.7103949339643
-0.366891299564233 0.263046769358778 0.717249235539829
-0.371518250825893 0.259955139367043 0.732656952223636
-0.371270471425944 0.260120700269005 0.742352744358075
-0.370950421153027 0.260334551024429 0.747249464164839
-0.363757872645424 0.265140458289408 0.747283359843014
-0.370712354572324 0.260493622028057 0.763142745525924
-0.368584301924937 0.261915541347409 0.771797673574896
-0.369382136318127 0.261382445449282 0.780722244664235
-0.364116476098884 0.264900847122321 0.785412322217405
-0.371802404572061 0.259765273903969 0.799239501616774
-0.367951721700406 0.26233821794021 0.805061672897123
-0.362271873030978 0.266133371487737 0.81121467525041
-0.363475675885537 0.265329016136054 0.82210919978782
-0.358767906836268 0.268474646847033 0.827052925736225
-0.365666500251548 0.263865154095253 0.841832793459097
-0.360247888002073 0.267485755047519 0.844848987859304
-0.372232899075977 0.259417492124322 0.857252041958488
-0.364829311510748 0.264424545727761 0.86466684636417
-0.359431166255017 0.268031471072026 0.870418286832423
-0.366205919878265 0.263504725423806 0.878398333307992
-0.361717429412715 0.266503838869391 0.893344219326663
-0.358764199736653 0.268477123851805 0.891858587931436
-0.358924163150054 0.268370239716121 0.900094121223797
-0.355225877592352 0.268742455471449 0.906621164005635
-0.350939120897466 0.266128811814459 0.911648936136831
-0.338521301788163 0.269366497135145 0.913398200570533
-0.315678840057218 0.265489224208376 0.908665540531874
-0.303996778353892 0.270938833081835 0.908385703259592
-0.110488573253935 0.291493601561067 0.762693343977653
-0.0943060657394145 0.288122055405387 0.760732925681961
-0.100820728446918 0.289570547663044 0.777037795457692
-0.10296305281232 0.289996682474261 0.791022339719142
-0.105502009268201 0.290501712313574 0.795485290258747
-0.0901898851032374 0.286724800358186 0.79827628444795
-0.0994594648826799 0.289299775504853 0.814803763657458
-0.0966447210419338 0.288739888143923 0.817597158309613
-0.11420454150189 0.292232753602375 0.849072459310491
-0.115172195791411 0.292425232007909 0.850862763320483
-0.115823345752947 0.292554753788277 0.863888285327581
-0.111525625575766 0.291699884093499 0.876274472393968
-0.100768025673381 0.289560064429592 0.869814083700828
-0.0918287847357272 0.287281131818284 0.878531607803836
-0.110955604199234 0.291995228390279 0.90159341717226
-0.10123054395277 0.29109847134064 0.905399820708606
-0.0929683718891789 0.290154184917413 0.9076948113367
-0.0841737772391566 0.28866000812505 0.909109889906923
-0.0726436524560187 0.290388772147035 0.913022995102496
-0.0518342631473925 0.291417413673166 0.913742043380301
-0.0451427798458103 0.296591881121466 0.909531421204228
-0.348928413830284 0.275049185881588 0.339062310633386
-0.351100567026989 0.273597799517262 0.35713750451969
-0.357351252766687 0.269421224833648 0.367190960319693
-0.356759060103226 0.269816915320906 0.378100801469676
-0.355286089747253 0.270801122647055 0.38629361680411
-0.350194351725153 0.274203313223304 0.385532608200695
-0.357819084512163 0.269108629655181 0.401725722204625
-0.349314701936395 0.274791076421002 0.403873937089009
-0.355364975962944 0.270748412562904 0.417292834479125
-0.354902979095185 0.271057109000727 0.423595558113114
-0.35549486725902 0.270661621973615 0.433653429247455
-0.356187644314996 0.27019872314397 0.444561542487968
-0.356209650037451 0.270184019390315 0.448297538501337
-0.345525903860272 0.277322670358857 0.450465779087857
-0.345056915336166 0.277636038472094 0.464541040853139
-0.346680410837576 0.276551253459294 0.469034427496371
-0.35936367726988 0.26807656577019 0.494975149100405
-0.350727369880907 0.273847161878006 0.490249033379733
-0.34732736441362 0.276118972900056 0.494498183050659
-0.353707814780811 0.271855692264394 0.516151461815697
-0.351888248506217 0.273071487579357 0.523869011063896
-0.353214404330532 0.272185378586997 0.533637299670292
-0.342674812038435 0.279227709008955 0.524969629416546
-0.346866982251492 0.276426590426069 0.542293724596107
-0.358610193851391 0.268580027294451 0.558175019172373
-0.355953368379928 0.270355261319162 0.573342916609773
-0.347528236897609 0.275984754197308 0.574260984139073
-0.351196071760095 0.27353398529478 0.582254653222191
-0.356145669320107 0.270226769938882 0.591911081668989
-0.35395081950147 0.271693321701137 0.604252520025973
-0.348488289018295 0.275343267878977 0.602985436100563
-0.353540509273389 0.27196748223046 0.61653597700365
-0.348258702305499 0.275496672816017 0.62190390157467
-0.354945528398847 0.271028678464961 0.634376445277237
-0.348588137837519 0.27527655103095 0.640922816991585
-0.354793805593025 0.271130056402697 0.660519213034824
-0.346975350447458 0.276354181112495 0.657853397360511
-0.346838604733495 0.276445551677392 0.664034310394552
-0.35370039646772 0.271860649022731 0.684527913462933
-0.353723341520135 0.271845317628862 0.68875624239409
-0.349230339882786 0.274847445343075 0.692837547157182
-0.350736060858451 0.273841354752468 0.698194508947502
-0.345808790926941 0.277133651263966 0.712780643062692
-0.342762598833089 0.279169051748076 0.712053904838488
-0.352553616627548 0.272626902814331 0.733767443116879
-0.346710193967317 0.276531353008231 0.732067440368333
-0.358077266930941 0.268936117678267 0.760761714265025
-0.348314488616379 0.2754593975948 0.748318406860373
-0.353596986790094 0.271929745160276 0.766845242857831
-0.353460519650807 0.272020929587525 0.774322194669745
-0.349266991841812 0.274822955287016 0.785499363550175
-0.345208531471824 0.277534731809084 0.78982112286251
-0.351616404164998 0.273253128160999 0.806589849000279
-0.349119567207816 0.274921461278155 0.806566936253005
-0.35892160418018 0.268371949565126 0.827312691103746
-0.348208804985461 0.275530013139357 0.82913877500756
-0.343832831238673 0.278453945317056 0.826303398570834
-0.352933701420198 0.272372938275284 0.844096606557704
-0.34576713598415 0.277161484206902 0.85235824892046
-0.344049796887366 0.278308973505436 0.857647407990419
-0.346981825473851 0.276349854638179 0.870107905268627
-0.352767566158897 0.27248394630789 0.880550721806335
-0.354686725718875 0.271201604887155 0.889105462948524
-0.352957206085922 0.271636029896357 0.902336878873684
-0.35375180215541 0.269068332920388 0.907633574483116
-0.339835850557074 0.276292399139247 0.909361972048913
-0.331390415751154 0.27903611279878 0.911504925772436
-0.3192439923113 0.277713252861246 0.913991109086825
-0.317586985603438 0.281447648367393 0.913288541977722
-0.305416290549939 0.279186387438237 0.913549020133948
-0.279988619241507 0.283346257754323 0.910115737918584
-0.276872804237916 0.283036060851671 0.908817677970661
-0.122273722664796 0.293837813530304 0.799303145688045
-0.122232023877024 0.293829519125711 0.807778144589589
-0.131232611368138 0.295619847291376 0.835522628897878
-0.133300515006047 0.296031178899506 0.83606273168814
-0.124712890962562 0.29432299427085 0.838417251417865
-0.147066084000416 0.296987914884576 0.873770107717772
-0.160473135919431 0.297866659493492 0.895280466733759
-0.144884468476754 0.296844924248624 0.887383929989669
-0.119799226436924 0.293345605627546 0.879682751071045
-0.13490109114877 0.296190579127956 0.89402573679738
-0.126934483797492 0.294764896560999 0.89911679128098
-0.11792484729213 0.298263748572179 0.910535937586109
-0.116645343361361 0.301172230147898 0.912803329821306
-0.102648432739766 0.303127589007912 0.914051550510063
-0.0874503005230834 0.305163910327613 0.913325703158433
-0.0794677577383633 0.301952970666643 0.913453153091827
-0.331557063441352 0.285818036561087 0.316832526315325
-0.334494647200273 0.284369380566791 0.339420979485188
-0.335392255313511 0.283926729231379 0.340277930144314
-0.325748124022419 0.288682688465626 0.348236534146335
-0.329844640354899 0.286662510173601 0.359610686762221
-0.322968013368328 0.290053687318552 0.355983684862957
-0.340634620707568 0.280590921273509 0.385603147321397
-0.333428457181113 0.284895167298019 0.386167831731078
-0.324603255874982 0.289247274955944 0.386406157833844
-0.341527333432727 0.279994429700758 0.411914697270277
-0.332368093536022 0.285418080779527 0.407146357710655
-0.326660596928551 0.28823270662559 0.412710432023334
-0.332496427275782 0.285354793582758 0.428744058079615
-0.331622263029677 0.285785883682325 0.436073706173053
-0.337585550216593 0.282628245041088 0.453316459289428
-0.339753253746068 0.281179831849351 0.463940118241559
-0.337110781249646 0.282945475522749 0.468076954322784
-0.336745855758104 0.28318931094063 0.480001312495889
-0.327769291483156 0.287685958977121 0.47667528592458
-0.329904869682858 0.286632808356005 0.496261991047759
-0.340782962341637 0.280491802562509 0.508190828174201
-0.33479806178616 0.28421975305157 0.509573876079187
-0.340007641011503 0.281009855712828 0.533546654724451
-0.332297926946775 0.285452683112073 0.521568409380641
-0.340132751207412 0.280926259752536 0.543237715351887
-0.341359159096436 0.280106800199715 0.55537577119296
-0.343530402750687 0.278656021572226 0.569179755425272
-0.337907598110732 0.282413059517837 0.562166290459513
-0.3368100336572 0.283146428639427 0.574082796439753
-0.325209691534813 0.288948213984116 0.575156277032301
-0.330024002362183 0.286574058620106 0.58150483599908
-0.331828200183635 0.285684326716801 0.601053947544847
-0.335743671771178 0.283753429812648 0.607034397531218
-0.332292806603809 0.285455208185787 0.615701456493053
-0.335070338505133 0.284085481032993 0.628850762046978
-0.343123479524121 0.278927918979491 0.645738812330404
-0.335682832435789 0.283783432452618 0.648744930592259
-0.326243435353377 0.288438427948303 0.652090637144471
-0.324536934680325 0.289279980949738 0.653701208503863
-0.32560498340918 0.288753277604324 0.662064343625586
-0.324475174094221 0.289310437900284 0.667465649986849
-0.342068715192531 0.279632689973899 0.699356111056584
-0.341191470126239 0.280218846387415 0.701568007092611
-0.342693975322389 0.279214904511985 0.711305213592454
-0.336887379380668 0.283094747879272 0.723563660329641
-0.327891495813018 0.287625694470808 0.72138178534452
-0.329114708783892 0.287022472589159 0.733748191636506
-0.343578270310776 0.278624037491126 0.758394721510062
-0.33580790337312 0.283721754291944 0.754421311614063
-0.328982420884978 0.287087709761428 0.762915878414152
-0.337292263359219 0.282824213053968 0.773418670918715
-0.336562472202524 0.283311843915014 0.777726844562092
-0.340585254919028 0.280623906438855 0.798602747226187
-0.327599228660962 0.287769824680024 0.788049432601949
-0.33390052448565 0.284662369466008 0.809384618235514
-0.326823605842561 0.288152319525243 0.806908378341112
-0.341312980716569 0.280137655606676 0.827090860025349
-0.333154593240664 0.285030222047607 0.828701803283271
-0.336038724043835 0.283607926133948 0.839447516035872
-0.32309358961143 0.289991759968648 0.841746302148955
-0.340178663015726 0.280895582462993 0.862560573144112
