ply
format ascii 1.0
element vertex 849
property float x
property float y
property float z
end_header
0.182916899279286 0.00638580872343916 0.732429148427506
0.184071069336555 0.000474381143257241 0.732557886592549
0.204087264915696 0.0218179330518679 0.729720584242037
0.209547074792956 0.0332042388827763 0.727318392807095
-0.215041030782156 -0.35694567726868 0.39377237583804
-0.215696285316563 -0.356790882167636 0.401804673701887
-0.222654523881445 -0.35514709157149 0.416308674423497
-0.219187445373459 -0.355966142397987 0.425898957847526
-0.219018783666097 -0.356005986465693 0.427196888952098
-0.221046815894997 -0.355526891034362 0.436304207945793
-0.222045492531176 -0.355290967064835 0.447153310444976
-0.220464323956679 -0.355664496947354 0.459500227424634
-0.217879310497366 -0.356275171728867 0.467893662641603
-0.220778373360757 -0.355590306985004 0.472356167790086
-0.22162233855018 -0.355390931521097 0.493133341774489
-0.222282036617245 -0.355235086695021 0.494750592741255
-0.221179421630419 -0.35549556470675 0.509912535851746
-0.220387103309586 -0.355682739290202 0.508950738691311
-0.220292553556071 -0.355705075402171 0.522134496968802
-0.221335409539964 -0.355458714653905 0.526164890305772
-0.224385215906014 -0.354738238778031 0.539355723815077
-0.223093124574407 -0.355043478036566 0.54524920498931
-0.221787358566314 -0.355351947754133 0.553043164131309
-0.217722799174462 -0.356312145431102 0.566556088446222
-0.22110132375024 -0.355514014284157 0.567873996846483
-0.221690135778186 -0.355374915334702 0.578660966594564
-0.220993557137115 -0.355539472702057 0.581730873194491
-0.219222030331404 -0.355957972165232 0.594575630218581
-0.222777214175279 -0.355118107634053 0.604012882149167
-0.223605853254785 -0.35492235275819 0.615159126341575
-0.217580008513895 -0.356345877810765 0.622010057348211
-0.219811187721563 -0.355818791628583 0.627314231284393
-0.21835969802374 -0.356161686614639 0.642084627552617
-0.223872327152607 -0.354859401871515 0.656594453135435
-0.221116906913658 -0.355510332970669 0.660585157880771
-0.2245930240574 -0.354689146887625 0.663460898303005
-0.221198752888648 -0.355490997956101 0.672588259860648
-0.221349805518154 -0.355455313797015 0.679199835381153
-0.218082811263866 -0.356207390493875 0.687453821311646
-0.218354550642624 -0.354706872174047 0.698076250012979
-0.212979641525936 -0.353245696922473 0.705239805514398
-0.212873604948728 -0.348254950509598 0.713895300291472
-0.214108448947711 -0.348731992978587 0.712919839719272
-0.20455935574935 -0.344599690768411 0.720483842973287
-0.205062189781116 -0.339427903301995 0.724258959779416
-0.198702784685289 -0.337433323870829 0.726871510857653
-0.192407762051322 -0.329385947907503 0.730771190008784
-0.19297356750453 -0.321017639424664 0.732369819382776
-0.178062637970442 -0.315991683981502 0.732791646820331
-0.171987454475679 -0.309478896123465 0.731772853961051
-0.1606007317755 -0.293762867036194 0.723219186529203
0.143139829640008 -0.0181067969674102 0.388921551110614
0.142964729002913 -0.0122358047712027 0.384664403299087
0.142886726546269 -0.00962044127598815 0.398231720436614
0.143099195723408 -0.0167443724142062 0.420696331547711
0.143020492006398 -0.0141054961882247 0.426576998740149
0.143008642740263 -0.0137081992385414 0.427242389302518
0.14313592312261 -0.0179758143876973 0.455643642685151
0.143148439424292 -0.0183954765357996 0.455414460850838
0.143076379749835 -0.0159793700417647 0.468126745451445
0.143169430126911 -0.0190992789508831 0.486633184286397
0.143225494845334 -0.0209790866420992 0.496131951369719
0.143253846437172 -0.0219296941166971 0.495998421440166
0.142994626049133 -0.0132382301647035 0.505884311908546
0.143040392090794 -0.0147727309975104 0.51935116831869
0.1429625386694 -0.0121623645417441 0.524799984140434
0.143201992017277 -0.0201910545572465 0.542552963926113
0.14295367012858 -0.0118650090620236 0.549596070735827
0.143137153425411 -0.0180170655119773 0.555702541561668
0.143264260560966 -0.0222788718269562 0.566271351641136
0.143110571633682 -0.017125798099179 0.584577921189546
0.142955593317471 -0.0119294921339162 0.582852464523084
0.14328634214563 -0.0230192506936238 0.602351743438885
0.1429903350092 -0.0130943548346439 0.604909878578361
0.143041751184919 -0.0148183003976821 0.617683725761014
0.143251049700437 -0.0218359216449314 0.634849793128359
0.143223222428506 -0.0209028942210671 0.638336276159615
0.143356898589968 -0.0253849550164115 0.658920341916551
0.143015878369384 -0.013950804421549 0.661251346669028
0.142967315643064 -0.0123225328630549 0.673663807554167
0.143278333583874 -0.0227507296627949 0.682163422053799
0.144233050471656 -0.0200531262682291 0.695170990469645
0.144127866139093 -0.0128793250103391 0.695997197403844
0.146873349478862 -0.012722471192634 0.70479920421121
0.156078136267306 -0.0135559381300645 0.719256536030768
0.159094172336143 0.00152065691104435 0.722101537985552
0.167269711438313 0.00638280821919391 0.727797547620714
0.168462705830764 0.00249213820707181 0.72824363752184
0.1751547380931 0.0105143552614478 0.731114672903322
0.180801653682797 0.0250911361019066 0.732224117482975
0.205502283095087 0.040826316561905 0.728899638768233
-0.233137679898581 -0.352670586473511 0.414100253319287
-0.230114267132541 -0.353384827215149 0.406372248840163
-0.232669084882549 -0.352781285765231 0.425641643642171
-0.229994070579456 -0.35341322203976 0.433985143116659
-0.230868702690759 -0.353206601926604 0.440745834098063
-0.234013104727906 -0.352463779091347 0.443864558216728
-0.227295156879324 -0.354050804226504 0.455758764683279
-0.231206598824066 -0.353126778494104 0.459296833203931
-0.227055471783842 -0.354107426617691 0.471646972705665
-0.22820667938152 -0.35383546925296 0.479779735560492
-0.230742276720696 -0.35323646836748 0.499089894875491
-0.229302000081103 -0.353576714418823 0.497247706853757
-0.228442910118801 -0.353779662907598 0.507238911004073
-0.236236101767585 -0.351938625836681 0.517242473493147
-0.23400911138635 -0.352464722464764 0.526571127361237
-0.234588771013849 -0.35232778564724 0.537728269028064
-0.229640134268965 -0.353496834749126 0.546799521450384
-0.23144390349748 -0.353070718445724 0.553472170282847
-0.226964693951488 -0.354128871663843 0.553239525857919
-0.230578114748807 -0.353275249432992 0.574880712255088
-0.236502407961116 -0.351875714567897 0.58012520092591
-0.226902674231551 -0.354143522991396 0.584550229812981
-0.236050370973018 -0.351982502247453 0.593592939117682
-0.232198864028022 -0.352892369139504 0.607474244041583
-0.233444591361323 -0.352598082754129 0.609837465881084
-0.229587363229205 -0.353509301199952 0.625169395827614
-0.23005205023535 -0.353399525123186 0.63056442159075
-0.229689684615203 -0.353485129143975 0.638295476006869
-0.23379752732281 -0.352514706363807 0.645145736386868
-0.231283623510561 -0.35310858244432 0.664070217797155
-0.233030849979757 -0.352695823609937 0.662547288501691
-0.232651676625123 -0.352785398232716 0.674711242231858
-0.230569280706341 -0.353277336357118 0.677622615012136
-0.232101709998174 -0.351844979283637 0.695223858868223
-0.229860543510876 -0.351473946712075 0.700030583508676
-0.228220609415547 -0.348753664369979 0.70733549059149
-0.223983220877699 -0.345708259891848 0.713796572328886
-0.225309611153044 -0.343216163599574 0.716561147788056
-0.218443956529089 -0.338901509304594 0.722290438301069
-0.216516774658283 -0.335375978858617 0.725264511327591
-0.212965616479921 -0.333380212046852 0.727201696513587
-0.203723619633196 -0.327263616367512 0.730549018487184
-0.19555005718285 -0.323466757218946 0.731977864716056
-0.197639662174265 -0.322180812689996 0.732079424378785
-0.1825742779105 -0.310746463122407 0.732255918806902
-0.18136130844795 -0.305219879259597 0.731389417510289
-0.162188705992976 -0.293560685089738 0.723045560693454
0.142466700044677 0.00446273028732305 0.375253380066
0.142621770812848 -0.000736675522368176 0.384597685821553
0.142905643917123 -0.0102547264419544 0.404128475006514
0.142745306870672 -0.00487874629645878 0.409433171623174
0.142669268393059 -0.00232923353576882 0.426232580153776
0.142715769259935 -0.0038883725033626 0.428310526172003
0.142727092007909 -0.004268015696576 0.434330296555892
0.142759845894312 -0.00536622878512628 0.444798349699502
0.142607891517029 -0.00027131320962163 0.45801220978718
0.142817896169612 -0.00731261069972076 0.474918460727736
0.142752889064355 -0.00513297152762765 0.479086632655157
0.142621102482413 -0.00071426690732502 0.487412826368118
0.142667942255951 -0.00228476915950314 0.506189361196416
0.142605137860688 -0.000178985190964482 0.510592907274919
0.142856259787255 -0.00859891384249973 0.520689730088943
0.142561857636332 0.00127216806385729 0.529883039662455
0.142676233061956 -0.00256275362696441 0.540494806398259
0.142617783240075 -0.000602975217106643 0.549179366990095
0.142566129557512 0.00112893377112259 0.55768520001425
0.142713564169273 -0.00381443747788381 0.571378931952961
0.142712585682898 -0.00378162956831157 0.591083170743058
0.142566901651942 0.00110304602768782 0.593708615139452
0.14277619489148 -0.00591439831995076 0.605311280602575
0.142519868879585 0.0026800193845549 0.610000598078742
0.142719557500393 -0.00401538934656044 0.626592123129555
0.142834835975148 -0.00788058959318305 0.631085283176856
0.142454764987714 0.00486290373876671 0.643758578951411
0.142727464548425 -0.00428050669889585 0.660162285583546
0.142510547053567 0.00299257317490455 0.667998791096982
0.142746055684155 -0.0049038534473484 0.679593216764268
0.143076526578463 -0.00375738124258177 0.69007797633782
0.145360232917753 -0.00299511506316141 0.701846618634987
0.145778303805984 -0.000192811683599419 0.703057705905424
0.150542253388662 0.00504112617172613 0.712764869615838
0.153435530980994 0.00210006178072797 0.716421148158127
0.155048543415149 0.0150159280203339 0.719025284888362
0.165580694905648 0.0145473510114883 0.727198797187982
0.172490835491928 0.0330078566499001 0.730289128516411
0.175147186315153 0.0306475518443135 0.731360266322206
0.192845543165664 0.0450771091544668 0.732369031597352
-0.238858688157681 -0.351319074953879 0.406662415546349
-0.246581770226919 -0.349494600331417 0.423877829617126
-0.234642314659926 -0.352315136678527 0.424150670983633
-0.238701965041874 -0.35135609868935 0.439093018369448
-0.241406869654692 -0.350717101229783 0.438440351232953
-0.238914127199893 -0.351305978223235 0.449664769581889
-0.241747364742492 -0.350636663829119 0.467338786438974
-0.243007781853233 -0.350338907180717 0.471819474395332
-0.243979342061748 -0.350109389103771 0.483053498974033
-0.237892074183129 -0.351547424549349 0.487970136051454
-0.241747314681273 -0.350636675655411 0.500730242371865
-0.242944007025395 -0.350353973128987 0.506465777361614
-0.243795616401274 -0.350152791828489 0.516886851567103
-0.239488789510007 -0.351170221954962 0.526757262212887
-0.245633941185183 -0.349718512238292 0.534072910795928
-0.235104506404786 -0.352205950073795 0.53331007051762
-0.243814110576686 -0.350148422827435 0.548555294749497
-0.245902356588549 -0.349655102696955 0.560177518748203
-0.239597424041924 -0.35114455850288 0.562914323199387
-0.235730499565202 -0.352058067580151 0.568239345129507
-0.242249304985883 -0.350518087174378 0.579798990262644
-0.242642905810192 -0.350425104255267 0.590138643826194
-0.241380756209411 -0.350723270181219 0.595123792000228
-0.240530512067614 -0.350924128963464 0.603728982205857
-0.236789760678622 -0.351807831339921 0.611417283810781
-0.242019905490941 -0.3505722797303 0.632565944889953
-0.238652312483678 -0.351367828440705 0.62963455240847
-0.23955908205384 -0.351153616283647 0.644456663944149
-0.234920739153944 -0.35224936262368 0.645453944820227
-0.241095695574319 -0.350790611935447 0.663743144460288
-0.239100938724871 -0.351261846504388 0.666303944563303
-0.242653514150598 -0.350422598177035 0.676445766746921
-0.246135232912397 -0.349600088786806 0.686720876633219
-0.240312080217878 -0.350217213421568 0.692917742795516
-0.233636815868341 -0.351005966603017 0.698746844992471
-0.23949160058468 -0.346595190579058 0.706150449655423
-0.233164699186866 -0.34448271983737 0.7125994343997
-0.231663064578682 -0.339977584026395 0.718766029633651
-0.230688489573929 -0.339604678660123 0.719531335735456
-0.226098951117262 -0.336817090835804 0.72249666040277
-0.217718353121852 -0.328418514695825 0.728749924172955
-0.210061785464708 -0.322260227812528 0.73169308459258
-0.207085636541659 -0.324208389622378 0.731460871059815
-0.203495647088971 -0.317274242851002 0.732531034416463
-0.188802650573987 -0.302158403982702 0.730863696535155
0.142161789265773 0.0146861585579926 0.35249225068139
0.142397911663115 0.00676915279978674 0.358471206049746
0.142528851564807 0.00237883672918175 0.370186003221788
0.142539768811901 0.00201278967447389 0.379865639819696
0.142442484687524 0.00527465293497252 0.392343327899918
0.142341862942836 0.00864842408529823 0.402258398213262
0.142337534033473 0.00879356914880645 0.416744637138821
0.142456049576097 0.00481983245987866 0.42472983385368
0.14213956617483 0.0154312820234119 0.428583669499499
0.142168692038217 0.0144547138081871 0.436760870969685
0.142428390949069 0.00574720534746677 0.45384178900327
0.142303270651812 0.0099423944739659 0.464682459570035
0.142555668108704 0.00147969825342058 0.479555798519101
0.142258603642063 0.0114400455962923 0.488875240775327
0.142321569757938 0.00932883925767888 0.497091776738037
0.142347206421013 0.00846926129529809 0.503954282905892
0.142335737745893 0.00885379731554451 0.515074976420104
0.142297863669377 0.0101236865138365 0.518820393488914
0.142238582905123 0.0121113257942644 0.536530616931514
0.142309711257804 0.00972644581642267 0.545178073497558
0.142060948515768 0.0180672727913065 0.552915850157034
0.142412066608609 0.0062945481614895 0.5668503896278
0.142522926365587 0.00257750418673198 0.576512169375851
0.142332046009976 0.00897757843429527 0.583519301057109
0.14256993898528 0.00100120653343783 0.598895524435264
0.142307809236495 0.00979021915524533 0.61371069236296
0.142371586849225 0.00765180393961852 0.624139189511814
0.142364196741173 0.00789958868456538 0.631764184938304
0.142298191847725 0.0101126829415395 0.64411577896792
0.142271065579257 0.0110222062484099 0.651924747934127
0.142403242116488 0.00659042672160332 0.654653092945487
0.142337814272831 0.00878417293464014 0.668069608832602
0.14232422531393 0.00923980046968286 0.677766298798074
0.141998634078633 0.0201566288336782 0.685719974541832
0.143112664602382 0.0170608943863168 0.695068668198441
0.146881891435859 0.021317143776944 0.707270788147795
0.148100688671954 0.0181775063362598 0.709987160964873
0.153621710792238 0.0227041950213651 0.71746463041989
0.161270600402672 0.0307374690881597 0.724440205623216
0.163988814514483 0.0272371057137811 0.726445857788435
0.17093652043871 0.039473811005484 0.729725189242878
0.180842654060952 0.0488329277579017 0.732322737370832
0.186577099390677 0.0574185286399355 0.732951677820956
-0.246369753449696 -0.349544686453267 0.41859191393796
-0.253318463781802 -0.347903146774404 0.422314380314555
-0.247685092980936 -0.349233955119176 0.433519752932681
-0.255830049419387 -0.347309818331583 0.446739934020234
-0.248608096559139 -0.349015907895311 0.450388440100911
-0.254829448904353 -0.347546196791702 0.459973945472583
-0.248794614992147 -0.348971845415515 0.469837567463975
-0.249279676260373 -0.348857256192419 0.477387429888876
-0.253401292610639 -0.347883579573788 0.492067963830615
-0.251210147007854 -0.348401208353407 0.500502722540741
-0.246820687385419 -0.349438159355049 0.498077671003203
-0.250366225359318 -0.348600573531363 0.514112962429543
-0.251006286333892 -0.348449367705182 0.513273345714671
-0.250934003850991 -0.348466443472929 0.533501258902914
-0.249977229662339 -0.348692468550867 0.535290555901973
-0.254783623439043 -0.34755702244366 0.551328701771695
-0.249869353194534 -0.348717952920463 0.548134903965238
-0.255582450531204 -0.347368310250222 0.566170491305178
-0.246813897209678 -0.349439763443056 0.566143025774503
-0.249514631551502 -0.348801751154115 0.577028494940462
-0.253293826630679 -0.347908966971132 0.582619257152952
-0.253093942739745 -0.347956186861219 0.596281989677175
-0.255459802325398 -0.347397284244928 0.609231857513263
-0.246371889279998 -0.349544181891986 0.61190978814801
-0.25118632415769 -0.348406836182449 0.617726276338638
-0.246192280738187 -0.349586612002604 0.625342944622511
-0.249480987871272 -0.348809699022626 0.631593677266337
-0.250925635621272 -0.348468420355037 0.652701094300633
-0.249160990142952 -0.348885294196849 0.656491508477393
-0.253785045032285 -0.347792923207802 0.669491337806583
-0.24965699110088 -0.348768120618692 0.669047229874158
-0.24914172546339 -0.348889845219181 0.681220137634578
-0.251188733852333 -0.348177271901634 0.689001625855824
-0.254413258063167 -0.345186451384625 0.701175896714965
-0.248351937600473 -0.347292802818271 0.699590553356566
-0.243257868764128 -0.343470888173853 0.710857841806956
-0.242874962237541 -0.33982950888538 0.715593089563953
-0.24280632277302 -0.337526969130779 0.71853530875527
-0.238678268065728 -0.334520968673116 0.721991937144543
-0.235891890009703 -0.331483998196083 0.7247526474087
-0.226310229530359 -0.320837281187151 0.730988834541547
-0.22340267612372 -0.320636923933324 0.731346650820124
-0.218177318402971 -0.313965561946672 0.732510567833145
-0.206835380657479 -0.305284814926988 0.732290491264759
-0.201184697281112 -0.298035924556589 0.730380794037658
0.141711748742529 0.0297756776128388 0.335059879184829
0.141642439663954 0.0320995587031202 0.349918593628246
0.141694229051047 0.030363099644375 0.354126929157281
0.141939805726198 0.022129099087297 0.372863371748995
0.141897678120817 0.023541605897905 0.380779795363939
0.142060943954333 0.0180674257327773 0.39734624168663
0.141748892457586 0.0285302768829661 0.394138956730932
0.141959799554751 0.0214587211072223 0.418257470706086
0.141958207005676 0.021512118075643 0.432026334571666
0.141911937397199 0.0230635031236726 0.43274865253273
0.141864838176592 0.0246427044402483 0.443116918874175
0.141867241278995 0.0245621302305266 0.456933701658279
0.141941192217756 0.0220826110718785 0.466155210535114
0.141778618807251 0.0275335748160834 0.46915593165965
0.141914089473548 0.0229913456280795 0.485132982528659
0.141860437424075 0.0247902583504609 0.495676463539556
0.142007060916095 0.0198740833341019 0.511899128387733
0.142017872068011 0.0195115935706056 0.517506247029608
0.142144326979156 0.0152716558477851 0.533552340238135
0.142117595246844 0.0161679506551565 0.545737239084768
0.141892921748459 0.0237010834729736 0.548032900565046
0.141829395136006 0.0258310828387611 0.562005132700613
0.141993558760056 0.0203268004347101 0.569376135630192
0.141727147602032 0.0292593654767091 0.574439631678173
0.141838396162505 0.0255292852142347 0.593217558545281
0.141885850873259 0.0239381645813515 0.599576214421556
0.141964055422129 0.0213160250863589 0.612983598032104
0.141885831008135 0.0239388306439826 0.622130465225584
0.142081529355016 0.0173772127856872 0.633251327364203
0.141878356299481 0.0241894519832435 0.645252134231244
0.141817277185454 0.0262373885741893 0.651159674445349
0.14186528616855 0.0246276836080345 0.658037342531513
0.141790021538435 0.0271512498462148 0.6741894404709
0.142214847947783 0.0208974370486253 0.689118208478117
0.143162444517316 0.0238828120774502 0.696992229341371
0.143256990962585 0.0270504230630302 0.698427975159976
0.14639565051869 0.0324552128163671 0.706898875547684
0.150399650998142 0.0353760625897983 0.713758094524747
0.155164151582285 0.033154550738458 0.719809878292325
0.157606235223846 0.0366083217581323 0.721762795579048
0.166897664538137 0.051702644992988 0.728544470111387
0.180667550674801 0.0575676664136167 0.732565710330905
0.182406160336912 0.0617857848877574 0.73294476343509
0.195984829635606 0.0776132406405678 0.729782947002488
-0.255945817782292 -0.347282469607549 0.414808083860859
-0.258755226027059 -0.346618784565649 0.430274140305535
-0.257863468123686 -0.346829450417636 0.432895209825252
-0.261406143156702 -0.345992540925361 0.450853321605145
-0.262794802682351 -0.345664488725336 0.454240501210969
-0.260067467814851 -0.346308785031927 0.462646927851223
-0.260777299399536 -0.346141096834279 0.471640856842016
-0.259416951553151 -0.346462460779553 0.485713797879098
-0.257217779435316 -0.34698198571577 0.486979639636193
-0.263201429510764 -0.345568428587349 0.502206273307698
-0.259057342146434 -0.346547413681863 0.502324785693918
-0.260106629802206 -0.346299533537322 0.519544576000649
-0.259150527484191 -0.346525399894828 0.518047804864423
-0.262276703627513 -0.345786882682696 0.535278077336427
-0.259399922827953 -0.346466483587637 0.533856008418058
-0.2568595072769 -0.347066622711092 0.544945761671678
-0.265497127221264 -0.344425238535651 0.55664166371215
-0.261389200129949 -0.345996543488335 0.569888058100105
-0.262630245589802 -0.345703363132808 0.581332300660318
-0.262690474467154 -0.345689134867812 0.585806114703038
-0.267013280114064 -0.34360915840645 0.595710945291617
-0.263431893687975 -0.345513984514512 0.599398205717035
-0.259857943078253 -0.346358282442582 0.614749844515433
-0.25738230091574 -0.346943119721185 0.617130032177997
-0.263528417298361 -0.345484910720344 0.630051649193362
-0.258132643380838 -0.346765861371028 0.63790395690756
-0.259499271258498 -0.346443013852538 0.650162139572672
-0.265075827987215 -0.344652005859044 0.650594794754961
-0.25609413870465 -0.347247430777662 0.659640252065869
-0.257226366277277 -0.346979957189451 0.669853871910512
-0.25757752958748 -0.346896999564236 0.68310681857088
-0.257780569493899 -0.346849034107791 0.685240103802876
-0.263587762655613 -0.34454346698563 0.693393898152008
-0.256714304094471 -0.343040321327336 0.704942803580199
-0.25674360698594 -0.343427399646351 0.704016670562508
-0.255240860185777 -0.33871462042457 0.713301000433355
-0.251960303639492 -0.333143748908007 0.720676672979276
-0.249530273438114 -0.335011024399533 0.719712195858153
-0.247911151526543 -0.331847014284826 0.722360117089239
-0.241966587196856 -0.325780674152433 0.727503543037219
-0.235654737526989 -0.318157652802932 0.731179236536504
-0.230143362778698 -0.309686683445155 0.732696697065465
-0.217882688815482 -0.304156702764734 0.732480415401764
-0.210875211389 -0.295303279729908 0.730201975886744
0.141465714108752 0.038025033176991 0.323586513571254
0.141466710176998 0.0379916357605097 0.335298702319282
0.141598329341841 0.03357854450918 0.348168077187917
0.141471359040875 0.0378357628637055 0.349265703316043
0.141431704760126 0.0391653409662304 0.365272731084901
0.141472790681576 0.0377877610315874 0.370034348068507
0.141657827544356 0.0315836146879598 0.386628926919429
0.141547754618785 0.0352742767995642 0.398305925375812
0.141361865181747 0.0415070093145152 0.402066059716512
0.141458285365173 0.0382741133419998 0.420031441950899
0.141415962745432 0.0396931588368957 0.423085552681122
0.141533024768197 0.0357681575717179 0.438848145442255
0.141424560679917 0.0394048765833201 0.438669593048681
0.141052458341192 0.0451022337324003 0.445920128764009
0.141424528533939 0.0394059544136854 0.467601550121046
0.14145049664462 0.0385352632632236 0.472677547548946
0.141347325790234 0.0419945041376478 0.488069332371965
0.141370603785209 0.0412140105363226 0.493663954003054
0.14134658960227 0.0420191879644034 0.510836125328852
0.141466945117728 0.0379837583751867 0.521612214092541
0.141482787132053 0.0374525875923899 0.540105795517889
0.141525716207581 0.03601320809268 0.543305725322094
0.141297404820955 0.0436683165573577 0.548714601369037
0.141569173546639 0.0345561163155824 0.566974813134556
0.141489308920128 0.0372339169608837 0.568752459757245
0.141461282579135 0.0381736190201355 0.57854182062192
0.141530846468174 0.0358411943273105 0.602562614125326
0.141481222486344 0.0375050489819976 0.599161152695617
0.141371783694196 0.0411744490785788 0.617338671365145
0.141563232778284 0.034755305794453 0.627479781489933
0.141440507492146 0.038870192005884 0.632539800832251
0.141437486680869 0.0389714775278968 0.649150916068957
0.141421560919839 0.0395054562745136 0.657461675371755
0.141563469044772 0.0347473839574317 0.667577665784808
0.141445814536486 0.0386922508149123 0.666941257787121
0.141588783644067 0.0338986045504695 0.684745956781266
0.142762211234347 0.0372066626218453 0.69697055629845
0.145013507072292 0.0457370187315842 0.705001947361344
0.147453190200526 0.0463668599516859 0.710685131883503
0.150743247575516 0.0487717631295435 0.715695083472369
0.158225163036518 0.0534186807183123 0.723872001097178
0.161864287187641 0.05990284873152 0.727523677488061
0.169758941255644 0.060442467343783 0.730721372626429
0.179955615907787 0.0784693224397439 0.732989852053994
0.203075866494247 0.095293959255598 0.72304810492098
-0.270095938829818 -0.341949895323563 0.429280193552033
-0.268106222405659 -0.343020874407673 0.433941357683005
-0.269668723041258 -0.342179847274702 0.448589053129979
-0.270429037924292 -0.341770602355588 0.449416778545507
-0.27264333705226 -0.340578740026252 0.458941402724982
-0.269615756132232 -0.342208357091995 0.465580033214117
-0.266905855929669 -0.343666980241369 0.474100680511243
-0.275123578170793 -0.339243732520034 0.48651404373207
-0.271302052345529 -0.341300696104668 0.494426659598157
-0.270848722685264 -0.341544704033865 0.504883690170359
-0.273250637647535 -0.340251856140986 0.513940071734792
-0.269129210115184 -0.3424702439626 0.523557086960722
-0.269168996813843 -0.342448828487726 0.521030626464559
-0.271428782054329 -0.341232482933276 0.5349951620008
-0.265374081890107 -0.344491468564446 0.543185547034684
-0.274338349487035 -0.339666387470427 0.554097030835638
-0.269063424891287 -0.342505653329474 0.562191317448314
-0.267235784458258 -0.343489393853139 0.566960327836508
-0.267593049038426 -0.343297093639798 0.584019959552461
-0.269220215303179 -0.342421259769826 0.584722904552223
-0.267664279535686 -0.343258753315625 0.595913796391629
-0.272954513717176 -0.340411246962647 0.601719194590438
-0.268054597236542 -0.343048662023872 0.610689616272083
-0.268117984303935 -0.343014543481874 0.62590637036614
-0.27066422471941 -0.341644011382436 0.633054068656571
-0.273456363357615 -0.340141122807389 0.642455316969322
-0.265456105067261 -0.344447319003193 0.646071611388314
-0.272570175011942 -0.34061812001728 0.655687855936265
-0.265911415878677 -0.344202244705231 0.659705074159348
-0.266746762877349 -0.343752613213684 0.672863478674886
-0.273035779690635 -0.340367504971694 0.681146134169413
-0.269649094898557 -0.341451252518673 0.69225408114865
-0.267429774560276 -0.342311555981227 0.694490754534012
-0.263893605700521 -0.340520187729509 0.705538784983401
-0.267048685242702 -0.339439713191377 0.704224930026441
-0.262837047310066 -0.334906578121674 0.714789920772608
-0.254625224134155 -0.330969921743948 0.721830407486146
-0.256103025574858 -0.332247651432663 0.720614988287634
-0.246939028322398 -0.324101201736336 0.727707127289544
-0.247550156744762 -0.318153394421299 0.730047635646771
-0.245140035512477 -0.31905514912395 0.729913581399336
-0.231632283786971 -0.312472908815055 0.732294464182129
-0.225769444374144 -0.300909138221836 0.732302956024918
-0.217025766317748 -0.293860685056605 0.730206166743076
0.139930998015368 0.0488382836699886 0.322482807976602
0.14129390472435 0.043785672154655 0.328492423528498
0.140196903592971 0.0479524417960207 0.332637045618479
0.140602118820921 0.0466025016401083 0.355260323849713
0.140030054855391 0.0485082842108298 0.352318113092891
0.137828065512844 0.0558440249021022 0.364079987541048
0.139798477729991 0.0492797637585008 0.381684140111776
0.139605091679927 0.0499240129785902 0.389021350482199
0.139240147530117 0.0511397934540353 0.389470097488259
0.138983474592457 0.051994877571273 0.410999286746131
0.137652670384439 0.0564283388929212 0.414570727928824
0.14087278469463 0.0457008012434985 0.428695952480248
0.137333097638638 0.0574929683849429 0.441486714623048
0.140397908398504 0.0472828113384159 0.445525258744484
0.139850447020035 0.0491066324774798 0.465560487489895
0.138535906707899 0.0534859120097335 0.473494938516089
0.140868693172628 0.0457144318019454 0.487519625408966
0.140219757497117 0.0478763059531443 0.497812013373296
0.140489011918844 0.0469793076890743 0.50743449162343
0.139709611015062 0.0495758156803761 0.511709734483432
0.139958199243861 0.0487476650848485 0.521523014962663
0.140205967567122 0.0479222459350693 0.540400715888114
0.140630227038276 0.0465088614985208 0.543213687822151
0.140693470816653 0.0462981702160761 0.555267471381745
0.13875590987062 0.0527529901368619 0.56667958717743
0.139724323085984 0.049526803664181 0.585796012177451
0.140850085299067 0.0457764223541385 0.586355908632875
0.139623325050421 0.0498632700515994 0.595343062504379
0.140132357710253 0.0481674709286138 0.608930211666431
0.139657902763992 0.0497480773322005 0.613970775631136
0.137307788677671 0.0575772830413449 0.621278014782125
0.139707722778519 0.049582106180231 0.63848065062134
0.139279064308633 0.0510101455078733 0.650719693536466
0.138092316086374 0.0549636965338024 0.657543729965397
0.139947062210742 0.0487847671658891 0.677020359231852
0.137337589045544 0.0574780056438607 0.673878464569707
0.138111865414426 0.0548985696058458 0.683798901897333
0.141881083383174 0.0513337481097267 0.701641999835471
0.144125889141079 0.0571265426956087 0.710563330824367
0.151576415638059 0.0575019290077567 0.719884648336722
0.152138355721749 0.063028984514896 0.721517664333247
0.152601467557818 0.0704896991886656 0.723504783069498
0.16587589747734 0.0765906015335469 0.731104060078449
0.167731835126393 0.077329298838098 0.731682177341079
0.183548955347302 0.0963473955129054 0.731859564392188
0.184502922400299 0.0951404099901887 0.731784925941671
-0.276610371507703 -0.338443455381599 0.42908841088782
-0.275591877584753 -0.338991667013934 0.434408415239855
-0.279043578371366 -0.337133764399178 0.450285065967733
-0.280393457115095 -0.336407182518935 0.452806556710318
-0.279954038042741 -0.336643702974782 0.465190207255149
-0.278973418854168 -0.33717152826068 0.470633671655056
-0.27691814177872 -0.338277795833852 0.484006913113794
-0.282673792215719 -0.335179775855414 0.491242254171734
-0.279724632447195 -0.336767182175951 0.498958593506367
-0.276621061194388 -0.33843770158135 0.501719589493695
-0.275968496856965 -0.338788948999289 0.516272188140989
-0.27468481739751 -0.339479898641703 0.516236132579306
-0.277353315064075 -0.338043560703197 0.531852181787983
-0.275409030832072 -0.339090085585214 0.539215284192049
-0.276793371856455 -0.338344954136136 0.546243550883375
-0.277817348221388 -0.337793791540225 0.560881952665318
-0.277586330374145 -0.337918138547391 0.560657596172066
-0.282219115514922 -0.335424508838804 0.568796375257624
-0.274962621248096 -0.339330368733898 0.581296902780667
-0.281125835315647 -0.336012974718805 0.587486297580993
-0.281171902304459 -0.335988178832875 0.598910998478945
-0.278116776427417 -0.337632622168572 0.604026050376255
-0.273232938994496 -0.340261382567461 0.616156514002033
-0.277868319441604 -0.337766355916695 0.622055297466953
-0.278074247475286 -0.337655513680974 0.630159728390152
-0.275204270084081 -0.339200299521071 0.641085387074176
-0.278052971526692 -0.337666965612347 0.641898022514341
-0.278504514650852 -0.337423919298974 0.661963820044766
-0.273894830811146 -0.339905114567173 0.66716094661514
-0.279243019241839 -0.337026413925412 0.673372104147846
-0.278903025868178 -0.337209417788428 0.68245725347994
-0.27473618888976 -0.33845365964525 0.693990015393564
-0.27624386134832 -0.336096569958811 0.700808853694953
-0.272949876420256 -0.334111662967807 0.708801087866245
-0.272931588721581 -0.334172191826863 0.708693291636691
-0.271545401389526 -0.329311355763265 0.715832231692821
-0.268837651273478 -0.324084574683722 0.721944353535959
-0.264581903727938 -0.320606249354751 0.725844017002342
-0.257289307301326 -0.322786367111132 0.727008111358673
-0.254961437353123 -0.308376786105193 0.731934741619663
-0.2476247822368 -0.312965954612983 0.731746987855406
-0.244376300009214 -0.303811279457367 0.733018828560376
-0.237149635034981 -0.29533355493175 0.731932871031486
0.135222871588918 0.0645230074508 0.301664531197096
0.138247000526188 0.0544483784450531 0.31147530847262
0.134597935307876 0.0666049296552874 0.318412960629499
0.137019544228204 0.0585375449718358 0.33481021798741
0.135586820044035 0.0633105440477589 0.338870219706182
0.136732966474654 0.0594922544462675 0.356158306865199
0.136548725231301 0.0601060385185867 0.367982504893256
0.137174384164228 0.0580217088606532 0.376470469472115
0.135780975228378 0.06266373252207 0.384849028241898
0.135644321076363 0.0631189842365992 0.401095682481977
0.135283456703058 0.0643211732827164 0.406689645515854
0.135787830814904 0.0626408937171452 0.421315795135875
0.13387353530472 0.0690182068120978 0.423806642230199
0.137123911540754 0.0581898541239661 0.439924258078507
0.135696707957347 0.0629444617867858 0.436462619901533
0.135061776901303 0.0650596807362917 0.455770101380076
0.135783458242525 0.0626554605710815 0.4660908589938
0.136044355923101 0.0617863020812194 0.48373086335742
0.135802804377916 0.0625910105622335 0.490006885612024
0.135121095747599 0.0648620650321102 0.496228792582371
0.134231672351878 0.0678251036216637 0.501484101588599
0.136643079672013 0.0597917047038124 0.515393619792011
0.135801269310393 0.0625961245094656 0.529037543215412
0.138065458401562 0.0550531706323103 0.544595053786507
0.13509616100063 0.064945133026323 0.544077129563998
0.136160585983846 0.0613990914941013 0.553770469814355
0.134313196459728 0.0675535129723737 0.566063052846467
0.13557937964199 0.063335331115973 0.575095116907741
0.135464841299815 0.0637169058861895 0.593426548884029
0.134595723819289 0.0666122970419033 0.605244140014288
0.135698029931721 0.0629400577413061 0.612985020108627
0.135666721155633 0.0630443602727949 0.620020618510599
0.13735608350432 0.0574163929234064 0.633746048355004
0.135501156998655 0.0635959232163104 0.642658505661763
0.137847206293664 0.0557802590145868 0.655484218547659
0.137103784437176 0.0582569058620732 0.663059085409673
0.133922443038855 0.0688552748448595 0.672159084562648
0.134685954081142 0.0670833644708076 0.688993964147362
0.135332215473819 0.0675374624967409 0.694689739325889
0.140140503065383 0.0649469932387272 0.707068447229061
0.137999272407396 0.0722365421886537 0.707176925953245
0.150329000541862 0.0732768536576846 0.722449071067279
0.150681149069476 0.0810806156231196 0.724430315193046
0.158848667205884 0.0829558402222339 0.729073286595443
0.16687940684239 0.0946310535225681 0.732229806713536
0.172329366355413 0.0919819834818496 0.732817008699981
0.188330374417901 0.120654793337509 0.727693080269551
-0.285801873343032 -0.333496063834911 0.425049323208634
-0.28563042676336 -0.333588346181601 0.435558034934112
-0.285418528158467 -0.333702402119943 0.449235887507114
-0.28866748202164 -0.331953629485589 0.460877661271009
-0.285555234905404 -0.333628818736478 0.466826194637913
-0.28696346075673 -0.332870831108613 0.476621218009571
-0.287498548148192 -0.332582816496345 0.477917251230254
-0.284987153477969 -0.333934592624388 0.488688962004697
-0.288967900327432 -0.331791927185663 0.49591287968374
-0.283829500263498 -0.334557707739837 0.502267799082555
-0.289536704035824 -0.331485764524866 0.513482633356808
-0.289773336363589 -0.331358395483438 0.527893067660475
-0.284862386332747 -0.334001749431909 0.531959275368961
-0.287347694730153 -0.332664014426626 0.54466863320031
-0.285053193600711 -0.33389904605639 0.550006695376817
-0.287456167045607 -0.332605628427674 0.5600290162616
-0.285937946831267 -0.333422821307467 0.561936253260743
-0.289383012126791 -0.331568490293208 0.578064779196135
-0.281742542839116 -0.335681027487215 0.587480759516721
-0.28094757473642 -0.33610892474945 0.586137560886663
-0.287165029659407 -0.332762335206306 0.60293912643652
-0.283271599813994 -0.334858001643621 0.605924544983754
-0.28830808167822 -0.332147079288762 0.617435397393296
-0.287655611942254 -0.332498275786791 0.628314546678712
-0.289550971375834 -0.331478085027149 0.633489453417682
-0.285907318972753 -0.333439306971183 0.640760688465544
-0.287639997904154 -0.332506680154378 0.651318468641143
-0.285332271921034 -0.333748830156142 0.66518880357862
-0.284907805873522 -0.333977302039512 0.669081279717723
-0.286523368199256 -0.333107714072639 0.679643251432837
-0.285145975493959 -0.333849105539317 0.683621748673842
-0.28327155940163 -0.33328336356161 0.697844735258429
-0.284500653142476 -0.330516126152712 0.703225220915413
-0.279512384956354 -0.332649900721188 0.704397489984638
-0.275420072994454 -0.330261660064348 0.712346864877412
-0.280000989216237 -0.32187032600113 0.719149838415544
-0.275068637550188 -0.32329304332364 0.720212294406394
-0.272392721048962 -0.3179553714392 0.724794002951158
-0.265620317375524 -0.312642115926343 0.729073434093781
-0.261807134624751 -0.308185594986934 0.731448542287228
-0.259955701935521 -0.30512925809198 0.731999611333872
-0.244692329244188 -0.287753418862664 0.730693489132832
-0.237860391055595 -0.286426329830615 0.729192901485744
0.132338472620399 0.0741321379194984 0.298600399210566
0.133719107226922 0.0695326708525387 0.303541379802379
0.132865468834004 0.0723764947410351 0.315625240757731
0.132756460553769 0.0727396465790401 0.329492208409664
0.132039542492226 0.0751279982820884 0.342921745588478
0.13289475061494 0.0722789449719368 0.349324476591832
0.134658604895092 0.0664028140723166 0.362720975933771
0.131539512961638 0.0767938042437672 0.363945799606902
0.13056039327787 0.0800556584076625 0.374628491252105
0.130958335993449 0.0787299460097565 0.385492776675283
0.132763739558897 0.0727153971909596 0.403000961172239
0.131027780279194 0.07849859826303 0.404320547449537
0.132934912174923 0.0721451501419189 0.415412316851953
0.130855906371063 0.0790711816072267 0.422402051718808
0.133813018180261 0.0692198144783255 0.439636665627264
0.132327059846674 0.0741701586069748 0.455196324053638
0.132548356962914 0.0734329260377237 0.469351151494639
0.132428359261993 0.0738326881984651 0.474499934478459
0.131959820756829 0.0753935844804511 0.480706743538323
0.131255719063832 0.0777392395389533 0.493321639798201
0.131965113183605 0.0753759532096255 0.503062461359087
0.132820480965881 0.0725263680071908 0.516968037927688
0.132859434205007 0.072396598595598 0.524881168188345
0.133341122543119 0.0707918947606966 0.538164176137693
0.132313168298274 0.0742164371219932 0.542793926908697
0.132106191457653 0.0749059629078625 0.560789032602494
0.131515021921509 0.0768753940662848 0.564068050067818
0.132739176715355 0.0727972262204568 0.578953055301684
0.131153050360336 0.0780812716148607 0.579895479754172
0.133670521318835 0.0696945306835968 0.603418482889816
0.132343366678128 0.0741158337813551 0.603659766303113
0.133597056735496 0.069939271710701 0.619423318670476
0.133492815705152 0.0702865418601137 0.627951654350127
0.132224860226368 0.0745106279720261 0.635103331071065
0.133737669029947 0.0694708337804319 0.656458499042301
0.131494036001049 0.0769453068799802 0.658316269818063
0.132024393468266 0.0751784659702571 0.665172688277628
0.131096695021699 0.078269014644684 0.675783521160637
0.132789166038125 0.0747052432050328 0.691840450801068
0.134898779622262 0.0742515412379397 0.701403711852774
0.138782549732519 0.0801146494380452 0.712507728110575
0.140037826644033 0.0814299928806201 0.714568314568146
0.14738132723236 0.0854609439543798 0.72297085293669
0.150482639036828 0.0963745789576137 0.727351489749721
0.159297401482664 0.103035472804596 0.731591583627838
0.166500968758723 0.114080088261511 0.732918540883801
0.173768355756067 0.120394138159482 0.732182814822162
-0.290856693405757 -0.330775270813661 0.430716710199233
-0.293750179002358 -0.329217831514018 0.443961859488845
-0.2952582798206 -0.32840608547149 0.453200055872829
-0.294746572228076 -0.328681515739903 0.465090654564835
-0.294351025091661 -0.328894421812716 0.464610333349262
-0.294666803201843 -0.328724451988314 0.477060033286754
-0.294121623486249 -0.329017898866168 0.484925536324185
-0.294512895241452 -0.328807294047843 0.489333795085573
-0.2913207688949 -0.330525478865279 0.496418340146469
-0.295304800689139 -0.328381045281553 0.514782125984362
-0.292983139417995 -0.329630696051679 0.52204051854902
-0.292096134066031 -0.330108133021044 0.520010552851913
-0.289050233635368 -0.331747610694301 0.536100643847628
-0.292899936000659 -0.329675480885644 0.540837217613779
-0.291686101526225 -0.330328835965747 0.552910656468112
-0.296294783898499 -0.327848179744549 0.558457418620099
-0.293848527316132 -0.329164894831318 0.566005980755786
-0.292154503224195 -0.330076715404548 0.574629442195098
-0.289832149585356 -0.331326738846534 0.58271050411557
-0.294148992827061 -0.329003167122889 0.590156517206842
-0.295358905086723 -0.328351923202916 0.60214179757851
-0.295814897963031 -0.328106481778651 0.614235205888522
-0.294216580684383 -0.328966787475694 0.619807119868517
-0.291914208952554 -0.330206055513437 0.624873138188971
-0.295706100233302 -0.328165042934162 0.637112954487193
-0.293105971239924 -0.329564580945751 0.645360867058662
-0.28914651180545 -0.331695788281236 0.65718643036643
-0.292727047035708 -0.329768539606519 0.664824588444359
-0.295438345295535 -0.328309163942832 0.668508226069914
-0.292469777566105 -0.329907016737018 0.686228380076914
-0.291080595519745 -0.33065475390077 0.682056704098512
-0.295675039296051 -0.32640794202203 0.699177390805945
-0.292773299038149 -0.328339927421435 0.696700888755375
-0.290311940266308 -0.326511634440498 0.705089389406322
-0.283319249284016 -0.320472516740248 0.718704083361561
-0.283242333914641 -0.317005339675386 0.721488624238336
-0.277516421299548 -0.317589642401316 0.723176995009725
-0.280421051867081 -0.312282948533855 0.725707313526755
-0.275728896573094 -0.307168280136501 0.729085410284236
-0.271184891274923 -0.307573677251532 0.729829961693317
-0.259183515770346 -0.294081732431465 0.732928150277837
-0.248386889240768 -0.290836231948503 0.731877756666596
-0.244496980294492 -0.284033825627522 0.729297854962247
0.129099679306553 0.0849219030849855 0.295369788789945
0.129683245281036 0.0829778025471959 0.309292701592303
0.129473481654641 0.0836766122734556 0.305098104886841
0.129952866097278 0.0820795836708807 0.320848570022633
0.130393051222184 0.0806131442698934 0.330195852300772
0.129535142999435 0.0834711927342507 0.344215447358349
0.129345286156527 0.0841036847000907 0.360027829055676
0.128449073467876 0.0870893412430827 0.361974857480402
0.129032278862115 0.0851464419477875 0.374058086868889
0.130092809808398 0.0816133730692589 0.381998765678576
0.130527644011086 0.0801647598117058 0.392776227821664
0.128464945415209 0.0870364651970256 0.397006413810886
0.129393708554499 0.0839423695891123 0.412332251883939
0.129012055477795 0.085213814437019 0.420294876432029
0.12928971610826 0.0842888116016666 0.44125187518436
0.128839949971937 0.0857871693293958 0.450345922310336
0.129078671391481 0.0849918891718641 0.452828221291977
0.130950206809646 0.0787570276959665 0.476787489837673
0.127976884171533 0.0886623998261749 0.475406605918549
0.129749153634198 0.0827582344599009 0.489587285784388
0.128637526109531 0.0864615272545888 0.49916667327091
0.130046203757986 0.081768637172431 0.511825249986528
0.13049419470548 0.0802761933356948 0.524641673195772
0.128820234137092 0.0858528509606098 0.532095636729167
0.130060122102803 0.0817222693874246 0.542407572273112
0.127389141505381 0.0906204146579334 0.551811534157536
0.131082196767755 0.0783173143477548 0.564321467237864
0.130050284566035 0.0817550423066084 0.571682729405726
0.131219136985661 0.0778611096289753 0.582663367549551
0.130206392389003 0.0812349823376328 0.597898729723992
0.12779103773405 0.0892815314665629 0.606180033602288
0.128736321566908 0.0861323985695456 0.616572658421306
0.128666007738277 0.0863666431246316 0.624281552359424
0.128101495358316 0.0882472682286633 0.635960777917848
0.128842094407633 0.0857800253237973 0.647462695118176
0.129914712551783 0.0822066889709843 0.653339751472654
0.129212117163729 0.0845473259023501 0.66716675011845
0.13133959310669 0.0774598202805372 0.677210352796089
0.128722580194825 0.086937752002111 0.688967557812093
0.131258893135211 0.0844029691306925 0.700032599117284
0.133636288053774 0.0907217551602044 0.709919991933357
0.139908590490859 0.0908704888853337 0.717945637911693
0.140569895413021 0.0965284881307401 0.72040534963565
0.145666325279056 0.0979737979541634 0.724471525616081
0.150409357334887 0.100091421882099 0.727765225821092
0.161129382841491 0.114684798651526 0.732263812229957
0.171057397529816 0.117829699923573 0.732621910275154
-0.30030124320387 -0.325691674392687 0.427917973311191
-0.299944052816117 -0.32588393467143 0.449473468511437
-0.301471454573145 -0.325061799760673 0.455374134183949
-0.301267080586408 -0.32517180551952 0.459896317288477
-0.29816864835575 -0.326839558809524 0.462375401779093
-0.304366073127932 -0.323503750638189 0.480828847678369
-0.299351352538127 -0.326202959831582 0.488119057096419
-0.305504591162784 -0.322890935169912 0.496020709340734
-0.30045513271201 -0.325608842265214 0.504460138437588
-0.297214908423511 -0.327352916143617 0.51459568893437
-0.304999923858953 -0.323162575952626 0.520721156047553
-0.300982225643862 -0.325325130727961 0.52032417312749
-0.300553426567801 -0.325555934894912 0.532217208198556
-0.304352748886773 -0.323510922506209 0.549833510060373
-0.299029461342592 -0.326376220067859 0.55348134525289
-0.302607865923554 -0.324450118230352 0.560500165558113
-0.300057520250056 -0.325822860014258 0.574724759676674
-0.296857866648128 -0.327545096430689 0.579575752451441
-0.297006638152953 -0.327465019105075 0.590001739917545
-0.300121425983163 -0.325788462296733 0.60097596111665
-0.298425633861919 -0.326701234524372 0.598320208076459
-0.300244503170212 -0.325722215121276 0.610367527605727
-0.300246796241774 -0.325720980859121 0.624206638815655
-0.297112011491211 -0.327408301152745 0.624380129775224
-0.29904361351185 -0.326368602561624 0.634256918217723
-0.303306184461062 -0.324074243287252 0.649272250714419
-0.299506213659134 -0.326119604726539 0.655545644262024
-0.304058676394764 -0.323669209126519 0.664415254253724
-0.303744829772265 -0.323838139313873 0.672708448890267
-0.303758828280605 -0.323830604516723 0.676764898326464
-0.298769736867049 -0.325836007732444 0.691858293301453
-0.300121818770744 -0.324327071854026 0.697085391271529
-0.29729688434172 -0.323864241008341 0.702723775441988
-0.291803700833722 -0.321877079204336 0.711848579203383
-0.293185379262978 -0.320063180636831 0.71307723380568
-0.289053501459573 -0.311705839136783 0.722956553565868
-0.289134773373568 -0.308753374105588 0.724922753113488
-0.279679698948415 -0.307959623536118 0.728020682454369
-0.276861472817649 -0.304539292436346 0.729822271222914
-0.276109730064905 -0.299233655753456 0.731674941309732
-0.263180562701463 -0.287186556495901 0.732377982795335
-0.259979154444309 -0.283363481202675 0.731734741004955
0.125342957692325 0.0974371024453007 0.2755614318706
0.125704670596608 0.0962320865902101 0.292868897566536
0.126003335163674 0.0952371109219201 0.301881333397055
