ply
format ascii 1.0
element vertex 854
property float x
property float y
property float z
end_header
-0.307103915712359 0.310856519962352 0.469676571416514
-0.302512331777333 0.312758416301014 0.469608602377696
-0.306516337301043 0.311099902909277 0.474630178823981
-0.305699115029914 0.311438407457452 0.488543092128098
-0.308481955795601 0.310285717070379 0.500501692758595
-0.303011957041605 0.312551464740448 0.512085799010864
-0.306313102468336 0.31118408553333 0.512869393834779
-0.304046664881519 0.312122874720062 0.528923863329211
-0.302783429917587 0.312646123774587 0.535658145042061
-0.304842439664848 0.311793254012212 0.542066003545478
-0.300083404163543 0.313764511060668 0.550371450131302
-0.299581066345861 0.313972586197645 0.564481441607366
-0.306281627296984 0.311197122976182 0.574846409893184
-0.30551849738513 0.311513221735525 0.574094284063215
-0.305983022762206 0.311320809024274 0.587992816309479
-0.303793142723233 0.312227887036386 0.59527837684198
-0.301537956964537 0.313162015563309 0.614287066494675
-0.304140384944287 0.312084054598997 0.615150520262736
-0.301764614956504 0.313068130749016 0.62983513859943
-0.303437529050147 0.312375187042744 0.63297654194169
-0.30838831852518 0.310324502897732 0.645066954608799
-0.30842253295498 0.310310330816879 0.652365270170738
-0.305721098588478 0.311429301569345 0.667305456079124
-0.302606959592011 0.312719220176796 0.662720540637395
-0.305803929247475 0.311394991987008 0.682604910106563
-0.307273643937575 0.31078621622955 0.689866030901856
-0.303721664038934 0.312257494476843 0.695996276240419
-0.301937096685669 0.312996686477534 0.711680356142542
-0.308159969480455 0.310419088169011 0.709860782152576
-0.304590887781961 0.311897450213746 0.719233761825687
-0.305709296594632 0.311434190115259 0.735287712055966
-0.309359155660714 0.309922368989338 0.742949696756696
-0.300651925407634 0.313529021850869 0.752951791263125
-0.301830122625425 0.313040996584109 0.76332622361738
-0.30605108034833 0.311292618649078 0.766455751696521
-0.30254752244495 0.312743839849218 0.779268340330289
-0.308393034027111 0.313273201639199 0.789165191724527
-0.301481768901542 0.312238295768374 0.798180056160548
-0.304253695750783 0.305978551609943 0.801768882719705
-0.306073005912976 0.304523458443595 0.802039655558859
-0.363341871806147 -0.231695818979682 0.385251996148206
-0.362924488072792 -0.232016088782629 0.392626007264789
-0.370443052521307 -0.226246891370423 0.40888651397986
-0.366203159828444 -0.229500275459792 0.41781850486703
-0.370376306812428 -0.226298107154178 0.428532879888885
-0.369311100599398 -0.227115468629199 0.439183377551571
-0.3633721649259 -0.231672574251345 0.440495252245913
-0.369105853888478 -0.227272959969682 0.464687806339138
-0.366896189965061 -0.228968494732482 0.469444463257893
-0.365776306879176 -0.229827811247664 0.479073152903504
-0.365218167833186 -0.230256086400696 0.491939027271252
-0.367380398848864 -0.228596948188122 0.500550693078415
-0.365645517494425 -0.229928169472325 0.512854445902512
-0.364448661748082 -0.230846549187211 0.522873960513167
-0.365789204246556 -0.2298179147496 0.533150191159312
-0.367889749422952 -0.228206109746282 0.547870885699898
-0.371185190054511 -0.225677429212404 0.553558803761414
-0.369338806372416 -0.227094209241839 0.573935579100962
-0.370007219093294 -0.226581318122001 0.580505966031244
-0.365699308121219 -0.229886894472685 0.586023951687333
-0.361827753083534 -0.232857643138547 0.590820464224634
-0.361553938537274 -0.233067748429594 0.601406757111942
-0.366587528447753 -0.229205339044864 0.625008115348434
-0.368503127058098 -0.227735448533011 0.630399906017569
-0.363488030632685 -0.231583667367547 0.641318307408105
-0.362935424712942 -0.232007696803483 0.646130386630092
-0.363916708233025 -0.231254731475664 0.661980602676761
-0.369718127548261 -0.226803145866502 0.668372547529145
-0.360877069545558 -0.233587128274263 0.689687031000575
-0.362172694570871 -0.232592960226039 0.692368981393599
-0.362838469019707 -0.232082093523541 0.712023193174209
-0.371260835117673 -0.225619384713932 0.71452160073403
-0.368970431951182 -0.227376872876933 0.731691856982178
-0.368035901232714 -0.228093963518309 0.741008609452013
-0.366739260425385 -0.229088911003488 0.756585017254375
-0.366832225057345 -0.229017576732456 0.761782996144199
-0.368734413345525 -0.227557976322719 0.772685425769827
-0.369107601121908 -0.227271619270317 0.786049981674393
-0.364297602747159 -0.230962460835397 0.788220863353826
-0.36402498748289 -0.237530429108502 0.79004982998535
-0.36868763024334 -0.251773327196094 0.803248999513251
-0.293381072465131 0.316540707749674 0.30540108770179
-0.295007285567541 0.315867108227347 0.321624917239779
-0.298761991204925 0.314311858229624 0.322001596710606
-0.292119203565457 0.317063390961856 0.33656791340537
-0.294155084128635 0.316220101621216 0.335385696284486
-0.298170441206788 0.314556886261673 0.346169615838785
-0.292424359137476 0.316936991385292 0.359448057248053
-0.291638473447145 0.317262515896702 0.366067113220263
-0.292805858341677 0.316778969240877 0.379163579950212
-0.295312619289403 0.315740634858702 0.38162325427931
-0.295178174133293 0.315796323865758 0.393430541325966
-0.29800541463603 0.314625242505434 0.408139116010408
-0.291410763122787 0.317356836601343 0.420755955029105
-0.299494746358827 0.314008341106978 0.421508820769239
-0.295290713610644 0.315749708487936 0.431954012163551
-0.298946257898982 0.314235532465851 0.433779980894919
-0.293295122154823 0.316576309533894 0.449367872569899
-0.294736861194202 0.31597912167038 0.451752755485556
-0.295939575216606 0.315480941210644 0.471195286762733
-0.292607006003446 0.316861336576281 0.473696349925335
-0.297241751915065 0.314941561961536 0.488798654210359
-0.294989777975039 0.315874360109605 0.4944313201014
-0.298815281463285 0.314289784681869 0.499832197820495
-0.298513480485034 0.314414794740197 0.506912168756167
-0.29455355678469 0.316055048842843 0.519261110471701
-0.298850542434562 0.314275179109343 0.534808953444537
-0.299965299739804 0.313813431514757 0.539042319803188
-0.29195639204212 0.317130829702932 0.553510353188452
-0.297873929685143 0.314679705355339 0.558785707946131
-0.29370173403586 0.316407885378146 0.572279023113849
-0.294656666351095 0.316012339462028 0.579493645102466
-0.29482096314962 0.315944285499824 0.578168115249077
-0.296051358013048 0.315434639260318 0.592022216531576
-0.29350450987373 0.316489578300928 0.600166714019354
-0.296738347352056 0.315150078958895 0.610014255828792
-0.291534150508856 0.317305727872608 0.62031892601325
-0.30010555099306 0.313755337543519 0.623856753806149
-0.296696816944716 0.315167281416866 0.636830102238014
-0.295202910089856 0.315786077897071 0.644976970853129
-0.291733009281929 0.317223357871804 0.650557140300445
-0.299623881402512 0.313954851620507 0.665055719354046
-0.293403722574356 0.316531325767244 0.678568306105203
-0.291681119343014 0.317244851388253 0.690620128891867
-0.299553823835859 0.313983870414761 0.693643124430165
-0.296290991649709 0.315335379758012 0.697654280265116
-0.290894573471803 0.317570649355537 0.709768292369165
-0.29262236786682 0.316854973484129 0.721627310894154
-0.295584741464719 0.315627918163064 0.732666610681574
-0.299346867238844 0.314069594644067 0.732587901767556
-0.295330547205865 0.315733208872558 0.747651579078698
-0.297572422087821 0.314804593891309 0.755786509947531
-0.29724553037088 0.314939996873893 0.764394212779668
-0.293208029462647 0.316612384508176 0.76685311550328
-0.298355716155391 0.314480142865194 0.780081378544888
-0.294683074849854 0.31802136759954 0.793436944309208
-0.298073235158234 0.312406483112441 0.799393330908452
-0.294962256831749 0.300895657593842 0.803016130333463
-0.297594139701542 0.302655255485227 0.803207663079619
-0.359643762594562 -0.234533477982224 0.377105193737573
-0.353630535830489 -0.239147589163135 0.388326059097823
-0.354134373909071 -0.238760980607867 0.399763337380636
-0.351187726013532 -0.241022023062186 0.408338474231964
-0.359487369412482 -0.23465348269157 0.420868525311769
-0.359330621122207 -0.234773759885018 0.434868938864977
-0.356552860442406 -0.236905210620776 0.446622621602544
-0.353720456978929 -0.239078590239147 0.45067730649071
-0.35323665896914 -0.239449821508788 0.467996896567169
-0.35414015707811 -0.238756543026188 0.469629222898666
-0.359697623867654 -0.234492148773773 0.484833553119754
-0.360608449264277 -0.233793247865608 0.496093834006938
-0.354448773090306 -0.238519733631108 0.501607291565685
-0.353538296594895 -0.239218366817956 0.516257363262291
-0.353329514350263 -0.239378571068873 0.525024643308936
-0.360267575577624 -0.234054809444869 0.541551753520191
-0.357891587090097 -0.235877969534476 0.552436150432183
-0.354305896082905 -0.238629367014847 0.557872094062727
-0.359812762307096 -0.234403799941836 0.579199987723502
-0.356685366672952 -0.236803535014003 0.580484232072845
-0.353945091435021 -0.238906222158558 0.593409234863649
-0.354937597252768 -0.238144645658874 0.608307698265474
-0.356701442440249 -0.236791199643903 0.610983235177871
-0.356207387108115 -0.237170301633804 0.628653379784872
-0.352954789942943 -0.239666107219665 0.640565904156586
-0.358452647160915 -0.23544745300026 0.647119659777907
-0.355669694089138 -0.237582887998513 0.654973938384595
-0.356944851786937 -0.236604425083063 0.669446415687346
-0.358267790165934 -0.235589298761425 0.678673484824932
-0.358547190405576 -0.235374907417101 0.694323112421587
-0.361315015305459 -0.23325108067342 0.699794562826504
-0.355141939468185 -0.237987848362201 0.712084655110593
-0.354080807690823 -0.238802083412773 0.717143178582493
-0.35989174879194 -0.23434319148033 0.733774473718867
-0.360319058147324 -0.234015305479728 0.748195815858097
-0.356798727530781 -0.23671655016841 0.758301643623914
-0.353197440310807 -0.23947991504376 0.763782224060695
-0.357671286910449 -0.236047011807777 0.772408393455496
-0.356418755380526 -0.243540371766984 0.791104234137637
-0.351910141525828 -0.248966191000713 0.79575797274686
-0.360616287452781 -0.256517885482026 0.803096370924712
-0.358003322668433 -0.263863028686844 0.802914457947122
-0.281606968581566 0.321417701263036 0.311910152243347
-0.28263514394411 0.320991817083372 0.320535152419816
-0.287708892249861 0.318890201723063 0.332868889467333
-0.288119221029089 0.318720237977675 0.337347553783476
-0.285050771256797 0.319991231488819 0.347380829323151
-0.287354876327607 0.319036839919357 0.352111841787372
-0.287847925166526 0.318832612403364 0.362423277699475
-0.290495791183279 0.317735830387878 0.371720754135894
-0.290307693040124 0.31781374318983 0.37589936593443
-0.287299918026966 0.319059604392847 0.385059203800381
-0.286773252961809 0.319277756205663 0.404645488873446
-0.283286773046511 0.320721903471521 0.407054942700222
-0.283858033785184 0.320485279525912 0.414003376460665
-0.28828396033695 0.318652000722102 0.429110324843541
-0.282220901149707 0.32116340206693 0.434324028297458
-0.286434115896233 0.319418231377728 0.445397294285131
-0.284379632193244 0.32026922639118 0.454828138182645
-0.282147305950162 0.321193886196707 0.467080782670646
-0.281910438507297 0.321291999904025 0.468524492237361
-0.285088993517405 0.31997539931009 0.476575248387909
-0.28856837415313 0.318534192662115 0.490268514818112
-0.289070160015651 0.318326346152452 0.495436930692014
-0.284402361995229 0.320259811398929 0.515608742774152
-0.287739765820876 0.31887741347123 0.520670520851519
-0.288554955448323 0.318539750871635 0.519128402109647
-0.281591386782396 0.321424155455578 0.537083926098076
-0.283099859969868 0.320799325402851 0.54619466211889
-0.289729453427412 0.318053257879716 0.549898905332505
-0.283624011317038 0.320582214806117 0.555211192167257
-0.28603805419439 0.319582285506168 0.572698624257558
-0.290479386915052 0.317742625258259 0.575797516987601
-0.284401996068788 0.320259962970623 0.585860399068743
-0.288901099719866 0.318396373219825 0.593821245391425
-0.289353866337646 0.31820883114615 0.604414953785058
-0.285780704759548 0.319688883132349 0.617582804556234
-0.287720481994232 0.31888540109376 0.61465919881291
-0.281456137465925 0.321480177556762 0.633822502151617
-0.287912855319171 0.318805717453531 0.641368823809685
-0.288331258357805 0.318632409240391 0.649230763962924
-0.281975493072722 0.321265053420732 0.664557710900873
-0.285089488244788 0.319975194387298 0.670032680424266
-0.288222064087975 0.318677638987888 0.674242045410324
-0.290406741576423 0.317772715942762 0.680674225874846
-0.290509633021392 0.317730096910803 0.687361023607178
-0.290062458874899 0.317915322507024 0.701031411259382
-0.285046735253967 0.319992903255929 0.705186588667712
-0.284672287503032 0.320148004592766 0.724519178802706
-0.282555359220286 0.32102486499805 0.72572646922427
-0.286331803715161 0.319460610470724 0.735193237667929
-0.285913731533514 0.319633781638414 0.747221978264291
-0.284693288913977 0.320139305523524 0.758770727296998
-0.282015126782418 0.32124863660065 0.761946192386149
-0.290293772225171 0.317819509380183 0.77007269862396
-0.284665688289517 0.322121342500089 0.793547994515058
-0.284400328779685 0.322370791208735 0.793234088222416
-0.289343335474303 0.315348405251142 0.799875350756578
-0.289390727870172 0.314206895036895 0.800677533878056
-0.28737223548287 0.300897872392634 0.802301106142412
-0.350829658799595 -0.24129677769895 0.373197875382452
-0.34088708049019 -0.248925986365851 0.378269621055118
-0.346435676262373 -0.244668399084468 0.39468968218249
-0.345343569431142 -0.245506402129829 0.400520296481678
-0.348476948184496 -0.24310207604882 0.421037192307518
-0.349679997359386 -0.242178943949062 0.424586905775518
-0.348860265457916 -0.242807946359966 0.432470792515443
-0.343211236478131 -0.247142598752031 0.445185512327233
-0.344466576796713 -0.246179342246486 0.455781410563799
-0.350904384602629 -0.241239438573584 0.470682793813631
-0.346869220362667 -0.244335728995834 0.478436602785055
-0.341068214280816 -0.248786997519869 0.492026629983178
-0.349549357783197 -0.242279187221569 0.499714287932072
-0.350945430439738 -0.241207942995025 0.513977151953074
-0.347173253138223 -0.24410243644192 0.522205130026698
-0.349364637214114 -0.242420928299462 0.53531251594053
-0.349185395884394 -0.242558465009117 0.544046068007456
-0.348965564421716 -0.242727147623237 0.556093894525579
-0.346897479176459 -0.244314045245363 0.572896607559725
-0.342265819036642 -0.247868043069792 0.571862391373597
-0.342640865960752 -0.247580259443163 0.578706191933145
-0.342018451995501 -0.248057854476395 0.59280027002942
-0.345630772541713 -0.245286023432056 0.610408268139806
-0.341583832112498 -0.248391350042135 0.614822414085787
-0.347034804062442 -0.244208672154227 0.633453965653357
-0.350602081782722 -0.24147140368584 0.644517307114282
-0.350447959708867 -0.241589665712552 0.656833194168003
-0.343255632939195 -0.247108532149285 0.665210710360703
-0.351171008118579 -0.241034851154166 0.678863862070224
-0.346667971688425 -0.244490152534875 0.681609808824751
-0.345690740032043 -0.245240008758324 0.703087458386477
-0.350490490797599 -0.24155703046034 0.704634836004034
-0.34955051852152 -0.242278296555728 0.723673811020566
-0.342184198778547 -0.247930672496593 0.72130023348383
-0.343035854226823 -0.247277174286672 0.730878287147708
-0.342776194688282 -0.247476418058281 0.755936217263239
-0.342234184734876 -0.247892316923283 0.762731274044319
-0.348702138645107 -0.242929281330958 0.768065151993615
-0.348286335071689 -0.24324833863454 0.78614201560879
-0.349052179954025 -0.250865529064018 0.795190678749562
-0.349214320667397 -0.250685309546186 0.79508287259374
-0.35143281622712 -0.256481697915353 0.80141855038578
-0.280381510352636 0.32192530268158 0.311722255247408
-0.277966098279007 0.322925799121197 0.322926707192252
-0.280613082296496 0.321829382441769 0.333143483164106
-0.281178359256031 0.321595237058632 0.33562954114073
-0.273127053996598 0.324930196891896 0.35101035180649
-0.272666143005975 0.325121112475258 0.355317361483894
-0.277125590806358 0.323273948715645 0.374233883651555
-0.271796951487686 0.325481143390433 0.381720010123769
-0.275546028425812 0.323928224876281 0.38503269420476
-0.275991641173101 0.323743646032788 0.3910503939183
-0.277969016740998 0.322924590254659 0.400701817074852
-0.275910468901064 0.323777268688754 0.410136802574952
-0.272392053640246 0.325234644007846 0.426612162105594
-0.275532460941975 0.323933844712094 0.431669360574086
-0.275840864338018 0.323806099842771 0.440411222894135
-0.280165483656206 0.322014783869077 0.449375870839235
-0.275807170933169 0.323820056108022 0.456212161008485
-0.273096292589446 0.324942938683935 0.467870953932026
-0.273626581276251 0.324723285917888 0.483364528815057
-0.280056678035648 0.322059852632774 0.477858535554509
-0.275219454691302 0.32406349614623 0.492833493949237
-0.273365633068924 0.32483137420444 0.500062929847161
-0.277529032406867 0.323106837733088 0.515807678538571
-0.280770483501243 0.321764184728028 0.517795691169308
-0.280544702582194 0.321857706246824 0.530646732032853
-0.280365135274815 0.321932085460899 0.53649460411751
-0.272909389183485 0.325020356609538 0.546151786908679
-0.277080013592702 0.323292827415676 0.561214149435641
-0.27670806933553 0.323446891771444 0.566001660691924
-0.273996337240017 0.324570127982928 0.575989041229833
-0.274641641172552 0.324302834342219 0.58465385618383
-0.274718619538158 0.324270948859176 0.589314767264995
-0.276526849396009 0.323521955528165 0.600136817598537
-0.276851974048405 0.323387284487681 0.608671333806507
-0.273737237189542 0.324677450737846 0.623355572517905
-0.275969835173609 0.323752678373519 0.629939061449853
-0.27529736018476 0.324031226634256 0.642744661587433
-0.278428302068551 0.322734348042988 0.642622167054021
-0.274918522687716 0.324188146263467 0.655320527573091
-0.273048669968837 0.324962664619267 0.663513194680105
-0.274336508378976 0.324429224483643 0.671158181431044
-0.279376681996581 0.322341516214516 0.67628048091925
-0.274133949765869 0.324513127008367 0.688940382551977
-0.27864963532178 0.322642668807697 0.697112200559805
-0.275855978703075 0.323799839267777 0.704936073191658
-0.273445133152211 0.324798444191732 0.717898565010866
-0.273828354374105 0.324639708764234 0.724907194340457
-0.278765833732079 0.322594537850225 0.736237882706859
-0.280026231468175 0.322072464013949 0.739769685058221
-0.278063384002661 0.322885502055035 0.74628974298047
-0.277154881531957 0.32326181609985 0.7558018245163
-0.278673068975343 0.322632962270575 0.767212284021141
-0.272384232196393 0.325237883755966 0.781799284961924
-0.279603950679834 0.324908059279657 0.791217641027786
-0.274078189075738 0.32608144562643 0.794504973116718
-0.28009332903852 0.317669458758887 0.800955357099495
-0.273428664572917 0.312603770489748 0.803215165309141
-0.33516401273938 -0.253317450705079 0.349316104221655
-0.331167656090527 -0.256383963015333 0.361204370747984
-0.333568446233068 -0.254541771946487 0.375437907787296
-0.33240707316315 -0.255432924846148 0.384294327655994
-0.340466517581547 -0.249248695635796 0.40093746425181
-0.341194659107965 -0.248689972991507 0.411977865011535
-0.340393771266543 -0.249304515846574 0.425106613314567
-0.338862728634345 -0.250479326178006 0.434333176874593
-0.340124194660319 -0.249511369251857 0.448350291810859
-0.334560622421773 -0.253780448380064 0.457228803343518
-0.331422441226371 -0.256188459504464 0.453956208122807
-0.339585797812644 -0.249924495683321 0.470856553189363
-0.33175672927018 -0.255931951266691 0.483037704629535
-0.335236523042777 -0.253261811592377 0.501755777342177
-0.3323122887506 -0.255505655483937 0.51114238526988
-0.334309277028515 -0.253973312483616 0.517133887915912
-0.339502524808684 -0.24998839330663 0.525545464550569
-0.339688983015348 -0.249845318892527 0.539400361358843
-0.334442031888224 -0.253871446096975 0.546352485247872
-0.33650884795153 -0.252285522352412 0.566368306486679
-0.33356948951996 -0.2545409714043 0.568443092896813
-0.332594060717605 -0.255289444249199 0.580526404300228
-0.334117920224546 -0.254120145723635 0.592890039276585
-0.338089373265175 -0.251072742624068 0.608029284211748
-0.331393293783173 -0.256210825124262 0.611178948327889
-0.334152580802155 -0.254093549727016 0.629061871488764
-0.339999026133192 -0.249607414440767 0.639703840778163
-0.33822774027362 -0.250966569884243 0.650249017917387
-0.338761165598063 -0.250557258236727 0.666485848980206
-0.331026958193762 -0.256491924308673 0.671199996979205
-0.337564129605609 -0.251475776259319 0.680981270135875
-0.338440035962911 -0.250803669672418 0.68363758630947
-0.338563342499289 -0.250709053239261 0.700719923412795
-0.33398118183939 -0.254225068776857 0.709201203704232
-0.336528702700243 -0.252270287267886 0.721783185421546
-0.333479330166394 -0.254610153109509 0.733496960870912
-0.335385860675333 -0.253147220796595 0.743842003654179
-0.337184927658953 -0.251766748146881 0.755863150940785
-0.331277665731482 -0.256299549648891 0.771177975423137
-0.33599713861137 -0.252678170739118 0.771776416087615
-0.336294180647162 -0.25867299379506 0.789223012940874
-0.333177298601953 -0.261302252540195 0.790667118808396
-0.332913986580503 -0.270227402776289 0.801224945017749
-0.34234271670316 -0.272202926277985 0.803271589955841
-0.264544620104321 0.328485157408247 0.325401261338652
-0.268230116178845 0.326958574950106 0.333861123458882
-0.263502911075427 0.328916647416061 0.340810125708749
-0.264291206691445 0.328590124680747 0.342527209911877
-0.265740528169359 0.327989796068357 0.359939472491226
-0.266027017738218 0.327871128203457 0.362693889821819
-0.264251464947487 0.328606586250087 0.369957627002781
-0.263987884822324 0.328715764712702 0.386487714840971
-0.264991306463033 0.328300133860342 0.386599043687555
-0.262802703979509 0.32920668269166 0.401901351042984
-0.2677620810857 0.327152441433354 0.413877386614317
-0.272151496129594 0.325334286191289 0.409450901052374
-0.270959565509789 0.325828000019419 0.42428166112555
-0.267695999862496 0.327179813172223 0.434453261942281
-0.263075285225956 0.329093775842533 0.444842828916767
-0.264653544306697 0.328440039526353 0.456449867973131
-0.265868833452528 0.327936650279944 0.455366106483974
-0.269572993914098 0.326402336779555 0.468688258888587
-0.265297241847378 0.328173411274936 0.480115106983497
-0.266358631194323 0.327733769412473 0.483385630858229
-0.267902544183453 0.327094259713251 0.497333280543329
-0.264178753971737 0.328636704122376 0.500955427550337
-0.271256860396747 0.325704856445217 0.510022063219066
-0.267077382731731 0.327436052777702 0.526659611823815
-0.267959215251732 0.327070785788175 0.533251818058414
-0.272355856845866 0.325249637210992 0.534643209810624
-0.263728042853956 0.328823394780073 0.545426677538401
-0.26852349997113 0.326837051404361 0.554985330249161
-0.268929713396974 0.326668792294159 0.570688659032046
-0.268144476650804 0.326994048004096 0.57595722565633
-0.270192106571607 0.326145891920179 0.584825038558363
-0.263736578422802 0.328819859231695 0.593823276195546
-0.264199833387134 0.328627972742632 0.604527937567825
-0.268272808088866 0.326940891381972 0.607419633958417
-0.262902352274792 0.329165407016287 0.623793180500838
-0.266927804258036 0.327498010210146 0.632096496692083
-0.27095022146562 0.325831870449241 0.637326435949928
-0.267086397456792 0.327432318756321 0.647427777471048
-0.269336863914727 0.326500145027778 0.659022383278963
-0.263389839121123 0.328963483353058 0.66621616509022
-0.270405462219731 0.326057517117117 0.669207490610341
-0.264606719799946 0.328459434872099 0.682702893389164
-0.268833688010142 0.326708567311716 0.696893044825794
-0.266903679646593 0.327508002951392 0.700616951435999
-0.267112674116095 0.327421434607663 0.711215327958217
-0.268519472737599 0.326838719539109 0.717424531409661
-0.268943466389648 0.326663095618071 0.726733006427531
-0.26879424747127 0.326724904117824 0.743141082748297
-0.262920770262405 0.329157778036026 0.751299983858813
-0.266313282336942 0.327752553524238 0.755066735949901
-0.265550807425716 0.328068380973437 0.770681208579947
-0.272114835406455 0.325349471560018 0.765609909235423
-0.262331998961151 0.329401655094142 0.78419795791581
-0.26407485848487 0.330494930250447 0.793897625899955
-0.26510159189525 0.327962907662231 0.797384070345243
-0.26921355445327 0.322381693131668 0.800808285725064
-0.26574066666741 0.311785879252123 0.802867225862515
-0.326508560311456 -0.259959012946193 0.34977134651339
-0.322238033646792 -0.263235903308874 0.351307429404326
-0.326740155713443 -0.259781303543957 0.367296006569067
-0.329270937792527 -0.257839366153982 0.386732091548971
-0.327700063059328 -0.259044740731501 0.387276875095761
-0.324036098287197 -0.26185619978416 0.398286545737302
-0.328430501347637 -0.258484255719827 0.41254915232243
-0.327759275000662 -0.258999305810904 0.419644546563395
-0.32435086176093 -0.261614673275936 0.440241729836561
-0.32280611422964 -0.262799999746308 0.438306424437849
-0.323336496183314 -0.262393023359317 0.461522672696122
-0.322653790800207 -0.262916881624614 0.470821331687696
-0.326968467567685 -0.259606113696521 0.482343882605305
-0.32948516192036 -0.257674986199219 0.486025407535584
-0.323236975606445 -0.262469388183809 0.490162361403867
-0.322985393026024 -0.26266243428747 0.502473223627162
-0.322660213490812 -0.262911953320776 0.520014198023856
-0.325703579979342 -0.260576696079816 0.531932486531165
-0.324971164644897 -0.261138698132346 0.5428864283548
-0.321957697813328 -0.263451012559588 0.549455810157479
-0.323832431618247 -0.262012478715798 0.566065986299357
-0.32246383954304 -0.263062636350638 0.574210122535277
-0.322718959185332 -0.262866876163944 0.589235626959692
-0.322983105771147 -0.262664189359866 0.597931129809574
-0.326753189473423 -0.25977130238817 0.606380603247261
-0.321004683190694 -0.264182286399474 0.613185643174517
-0.328990346246237 -0.258054671620049 0.630208242095604
-0.328653473905328 -0.258313162858732 0.636731469041409
-0.325851785112052 -0.260462974281731 0.660116902892222
-0.32701210648599 -0.25957262837678 0.662714437165064
-0.328308102391211 -0.258578175742394 0.672617000664971
-0.326484796804066 -0.259977247326743 0.678204681110137
-0.322854886522352 -0.262762575449844 0.698428757705273
-0.328497528602061 -0.258432823898578 0.713405314059017
-0.330955308226138 -0.256546903262519 0.71649075142942
-0.324510884081875 -0.261491883830394 0.728781808865298
-0.324367055492665 -0.261602247388539 0.745320516293498
-0.325993727325786 -0.2603540581904 0.74859221443755
-0.325503441606988 -0.260730267654254 0.763055270557659
-0.323535224161011 -0.262240534018763 0.773736966179659
-0.32094188321473 -0.264230474515877 0.779379492505927
-0.32646763176836 -0.265484609537218 0.788541689118006
-0.327666270317267 -0.26962594614553 0.79797475484989
-0.324889137563891 -0.287957083353755 0.803053028067024
-0.33276423284311 -0.283797801762869 0.802854605589916
-0.254828176498521 0.332509840127802 0.323074236351424
-0.253421991469582 0.333092301037995 0.336959169171796
-0.25908051342063 0.330748464502885 0.338197619235408
-0.255946875850859 0.332046459683846 0.342813324345797
-0.259275324532613 0.3306677710982 0.359367362819936
-0.254578494414504 0.332613261833284 0.36824652680943
-0.25384166164906 0.332918467957931 0.373343150283753
-0.256755251312468 0.331711619604158 0.389019755237065
-0.26110671143704 0.329909185804435 0.390670469689295
-0.260916205375578 0.329988095998807 0.400767154141982
-0.258728041713989 0.330894463064128 0.413023275624185
-0.261192769795664 0.329873539265137 0.425609811266471
-0.25889282546854 0.330826207398135 0.435654664821126
-0.258047725837943 0.331176259126685 0.4406898320653
-0.25974772996223 0.330472094362315 0.448975642310538
-0.258431884466114 0.331017135412793 0.452002527173677
-0.2550857852652 0.332403135082858 0.467151207967916
-0.254513561211836 0.332640158046477 0.472862032106089
-0.257460468415073 0.331419509115842 0.480683704544759
-0.261212827905874 0.329865230923852 0.488360347817031
-0.259590038672736 0.330537412233092 0.502343987258917
-0.259136889304764 0.330725112847086 0.506694366706081
-0.259273657477748 0.330668461614935 0.51558721191442
-0.261590598115621 0.329708753379515 0.527103352575326
-0.255018986505087 0.332430804035247 0.544479426267651
-0.254528269013077 0.33263406587573 0.546646002843147
-0.260112388031567 0.330321048044367 0.554079195500301
-0.260136092954635 0.330311229143736 0.563915013269575
-0.256678256403838 0.331743511939546 0.571082483905906
-0.257296321541146 0.331487500977243 0.580166021001101
-0.256086760606221 0.331988517521005 0.590540695885755
-0.260809365248521 0.330032350628439 0.596335055866555
-0.258651881850187 0.330926009512624 0.606014775921406
-0.261072160179229 0.329923497404017 0.613025914499868
-0.254066747535327 0.332825234331141 0.628728624382052
-0.255275906171986 0.332324384424777 0.632482062949164
-0.259824733318524 0.33044019852779 0.638659655445287
-0.254786717708354 0.332527012920968 0.652955637249615
-0.261412531330019 0.329782511057119 0.666024863613043
-0.25438900334823 0.332691751602883 0.670392612209246
-0.253912131716226 0.33288927830037 0.673354542244568
-0.258592580392774 0.330950572980553 0.691530962104841
-0.260751868446688 0.330056166583551 0.687562832350606
-0.255480775626649 0.332239524718139 0.708877240226598
-0.255725963670826 0.332137964504909 0.709722608635044
-0.261010432436643 0.329949065872171 0.720716195590055
-0.258744795352781 0.330887523479723 0.734458700688003
-0.258222503908019 0.331103863679654 0.737850325016063
-0.26086870186545 0.330007772596962 0.742446612648746
-0.262043414619425 0.329521190642372 0.750566130380726
-0.254667618629253 0.332576345374799 0.76875938814054
-0.254904945709991 0.332478041279239 0.777416133097661
-0.261147222454357 0.329892405591636 0.784699141478499
-0.256831632398251 0.333732424480662 0.793363883272448
-0.259491857270389 0.328357036331288 0.799415051350762
-0.261793257053376 0.318383404097313 0.80309738089321
-0.260934384028623 0.310487062140731 0.801775499184008
-0.314332875110341 -0.269301744798145 0.340845915066286
-0.320312678623334 -0.264713280179815 0.349243408274496
-0.316118736758191 -0.267931404958954 0.364271804426818
-0.31854080898896 -0.26607288356945 0.375375928981025
-0.31739157238787 -0.26695472382904 0.38444968282989
-0.313327754502791 -0.270073000966493 0.396044336883159
-0.314324672143864 -0.269308039155705 0.406556256373648
-0.318404426142089 -0.266177533808551 0.424903438209077
-0.315516938911935 -0.268393180687693 0.434136257184928
-0.313262747535092 -0.270122882567214 0.439422517913002
-0.313978056246836 -0.269574006887957 0.45310577144834
-0.313844726186611 -0.269676314641476 0.458834785742236
-0.318761789990903 -0.265903318882828 0.472805673799503
-0.315647412295022 -0.268293064939638 0.482111514755718
-0.320613503417383 -0.264482449196687 0.495738735700056
-0.314215896707275 -0.269391505483828 0.509230913249731
-0.313121502361818 -0.270231263800589 0.518467144709568
-0.314805360580199 -0.268939193945695 0.52478302636544
-0.312333654293074 -0.270835800886163 0.539370402406491
-0.31848134130421 -0.266118514728871 0.547027602983605
-0.313921523384846 -0.269617386078669 0.559562798118261
-0.312751235845452 -0.270515379291341 0.564083301440344
-0.311789552900715 -0.271253304568717 0.582969170087807
-0.311539481672408 -0.271445190971114 0.593788444275878
-0.315814518815774 -0.268164839596397 0.598956652400756
-0.313378989304566 -0.270033687120367 0.617595634092224
-0.316322896767123 -0.267774747474233 0.626854158611509
-0.318820124871358 -0.265858556954715 0.635064184814589
-0.316587632632715 -0.26757160849988 0.645646845831909
-0.312489959782442 -0.270715863465802 0.657173691081435
-0.316965031729181 -0.267282019987922 0.67049622008719
-0.319057747172101 -0.265676222950409 0.68096748206405
-0.31232297800632 -0.270843993089121 0.691711956999456
-0.311107424599008 -0.271776720023882 0.701905613030391
-0.317617637771532 -0.266781257759107 0.713306172618927
-0.311938760759616 -0.271138813351764 0.723275591657773
-0.311295881519818 -0.271632111942473 0.727855702974077
-0.318768467896889 -0.265898194745342 0.740219711335313
-0.315716790475562 -0.268239829189332 0.761149231575133
-0.317346443519464 -0.266989352427705 0.767315958532254
-0.314327329415877 -0.269306000159174 0.769405236765288
-0.314963976215787 -0.268817483887792 0.784864933196971
-0.317451409566033 -0.275856944981556 0.796298765750752
-0.31719567648268 -0.284233351968832 0.801909291168205
-0.252105238275958 0.333637718069092 0.329529220407861
-0.245098765741602 0.336539894017217 0.334518371883016
-0.247143209706847 0.335693057599301 0.34083960481824
-0.247849392516027 0.335400547102224 0.349364790849768
-0.248135552370204 0.335282015809617 0.366168083765673
-0.248266309871179 0.335227854279331 0.369164046272103
-0.250385621001388 0.334350006866311 0.382333620120287
-0.24830745184419 0.335210812716127 0.392636413909329
-0.245905190846949 0.336205861801544 0.403468680117294
-0.252707782669442 0.33338813600938 0.412170976642532
-0.245317589786965 0.336449254129854 0.414502679493075
-0.25092383354015 0.334127071933316 0.426192795492973
-0.253126943415019 0.333214513943748 0.431075362747075
-0.249707812709666 0.334630764253431 0.440701685064381
-0.246710432604158 0.335872319744719 0.454832748921353
-0.248213629332661 0.335249675272859 0.45825827367791
-0.253227937448234 0.333172680845471 0.470389837890449
-0.244385567972586 0.336835310205798 0.480619306044339
-0.249752359434005 0.33461231239605 0.481462532285885
-0.248278690388739 0.335222726101048 0.489446714596897
-0.244548755765765 0.33676771560865 0.508319153865755
-0.245138373692547 0.336523487866758 0.512904293689492
-0.253166778490486 0.33319801371523 0.515020114375748
-0.249046767558439 0.33490457812041 0.526024826441139
-0.248235954415385 0.335240427920813 0.54061923266424
-0.25230154809115 0.333556403881213 0.543510734285724
-0.253017096362108 0.333260014082849 0.55867248347558
-0.250961590360782 0.334111432546138 0.570768000299735
-0.253323677770357 0.333133023905581 0.568945267648209
-0.250572212822116 0.334272718003537 0.586637987025617
-0.249828403831607 0.33458081377522 0.589550558419127
-0.247436484667822 0.335571579132961 0.598722321872202
-0.247830792102108 0.335408251645935 0.610393300546567
-0.251826549727105 0.333753154645705 0.620410249578863
-0.252227764443342 0.333586966068816 0.62318009710173
-0.246231008296007 0.336070903795287 0.638003155179301
-0.253370123830084 0.333113785317723 0.643408851215726
-0.247553793558656 0.33552298819939 0.655974896139784
-0.250811199772444 0.33417372636748 0.663507606837537
-0.2444568004779 0.336805804736015 0.676016873320729
-0.25282187297913 0.333340878255771 0.675490594616604
-0.245529272228902 0.336361572391488 0.691657011803037
-0.245249303568305 0.336477539207746 0.699566158430398
-0.251898136728521 0.33372350233883 0.707746242614206
-0.243978861824853 0.33700377340809 0.720374724540886
-0.250187545971508 0.334432052230054 0.732639498470673
-0.252993210368884 0.333269907985193 0.737328210962642
-0.245275208259731 0.336466809133229 0.744615417594886
-0.248542382197841 0.335113501377432 0.749096822074576
-0.251133057913917 0.334040408360122 0.758647973229031
-0.251937513863104 0.333707191795638 0.768601413949469
-0.250040216684538 0.334493078018852 0.7739569217086
-0.24942411601843 0.337293580226947 0.792034284890083
-0.246656948404508 0.337749364166694 0.793808314751783
-0.250690195574835 0.324621687656056 0.802896277348238
-0.252306132177581 0.320096738342473 0.803204118155645
-0.308564079121567 -0.273728297648476 0.324235181061301
-0.309398745223027 -0.273087835822874 0.338307631748708
-0.307790829208406 -0.274321633175296 0.350175971127851
-0.301387902256276 -0.277980887978368 0.350550464110225
-0.309680686648728 -0.272871494557904 0.372359049335029
-0.301785070091384 -0.277816375674527 0.373888696143646
-0.30423697981589 -0.276800761412923 0.386732007110184
-0.303794047191872 -0.276984230113009 0.399273924803765
-0.30286971609645 -0.277367100588855 0.412454495621619
-0.308223012874971 -0.273990006984178 0.421335162372503
-0.310103783243378 -0.272546841122309 0.43849893914811
-0.30235608448546 -0.27757985376819 0.446898327809897
-0.304994595305257 -0.276467258913885 0.454670774322176
-0.306273056400457 -0.275486261212457 0.458748644638688
-0.309506064593814 -0.273005486773337 0.485804173622159
-0.310242912107401 -0.272440083790137 0.488874816262569
-0.307010687029577 -0.274920257323573 0.494266287190682
-0.304746182396789 -0.276589842797919 0.511547745972302
-0.302503597187598 -0.277518752006343 0.514530028803788
-0.309400122089058 -0.27308677931641 0.536688825154391
-0.306745271898891 -0.275123917516367 0.545786439318046
-0.310305634271535 -0.272391955380852 0.555494857284753
-0.301350670950369 -0.277996309690218 0.558989182378036
-0.304994587130343 -0.276467265186717 0.57323405649153
-0.310602353238416 -0.272164274909719 0.587374783048416
-0.302366043002079 -0.277575728815546 0.59885853203569
-0.303823208114457 -0.276972151263381 0.609645157745981
-0.310461498537345 -0.272272356523234 0.623764648108714
-0.304634445636566 -0.276636125679418 0.630143250424775
-0.306486192369245 -0.275322716231496 0.646490023399242
-0.304303036543939 -0.276773399820278 0.650928942266635
-0.304561938895489 -0.276666158954936 0.663640408961453
-0.305503245749945 -0.276076957700228 0.664737146002619
-0.301173001213305 -0.278069902904935 0.68731369010738
-0.300894993489286 -0.278185057474667 0.693623275611297
-0.309557417022643 -0.272966082668798 0.710440328077501
-0.306149174697773 -0.275581318986244 0.714093681188306
-0.310511592220532 -0.272233918288198 0.736215214079533
-0.307753382700463 -0.274350366891447 0.743323301416107
-0.30697068715497 -0.274950950306875 0.750640541574767
-0.305040581988725 -0.276431972090572 0.759078045357478
-0.306180803097796 -0.275557049661318 0.774527981269933
-0.310103467803975 -0.272547083167475 0.777493525996641
-0.301137725745495 -0.283680366624435 0.791008498499053
-0.310339513711101 -0.284765531347407 0.799515606457017
-0.302278911864481 -0.298682507394974 0.803286701803753
-0.305613849445756 -0.299207252178546 0.80305285772112
-0.242635408814677 0.337560249865315 0.32534256998333
-0.236480745038901 0.340109595073088 0.341621077260263
-0.239122677747271 0.339015270714404 0.344413595079447
-0.239500191697529 0.338858899316222 0.355403027643848
-0.235873251067951 0.340361227314916 0.367779331667043
-0.241645563821593 0.337970257086098 0.370919981776899
-0.243050977980847 0.337388115480583 0.38881200564851
-0.242856667789837 0.337468601397007 0.38491618019462
-0.243628505593534 0.337148895710764 0.398995944966281
-0.237719160421457 0.339596626625782 0.414198919912134
-0.24203850364965 0.33780749608012 0.417352421766668
-0.243178598007974 0.337335253534517 0.423154785026911
-0.239688925314593 0.338780723292359 0.439999954727052
-0.241124626389506 0.338186036435616 0.445982842221527
-0.239973810249499 0.338662720088604 0.457617706764336
-0.242597484848123 0.3375759584866 0.460351042991168
-0.23533470424631 0.340584300712412 0.474826542598571
-0.235997371209349 0.340309815068985 0.481847453822167
-0.244109939125644 0.336949479412382 0.487615337268062
-0.241289026224188 0.338117939794439 0.495919116973972
-0.239259542178472 0.338958579610794 0.506742067935208
-0.236491329385996 0.340105210892972 0.513662454560079
-0.238185876883966 0.339403306337228 0.528777032503762
-0.243065063611403 0.337382281021373 0.528199745276152
-0.235886610209804 0.340355693777178 0.548797901024672
-0.242195723340356 0.337742373551957 0.556115833767247
-0.235509961807063 0.34051170665384 0.569304417917822
-0.238919501707451 0.339099428985647 0.570648612795483
-0.235451366833459 0.340535977486593 0.583088577713484
-0.239104392146566 0.339022844858212 0.588474412117248
-0.242946516069828 0.337431385020879 0.595111281721863
-0.236408948226601 0.340139334286478 0.608762160949236
-0.238497874972819 0.33927407249739 0.616012133875696
-0.236375821488663 0.340153055830609 0.624027714961936
-0.240531088607804 0.338431887834578 0.627118158655893
-0.237606543450986 0.339643274102304 0.636353394140352
-0.240222316535283 0.338559785414698 0.645845119378899
-0.235732014452993 0.340419729436334 0.65680096748195
-0.241893869597355 0.337867405466162 0.667352107647167
-0.24119496970076 0.338156899282072 0.679135182105462
-0.237681697182352 0.33961214440751 0.682050373544059
-0.241146292587733 0.338177062002465 0.694892374387869
-0.236623404092159 0.340050503758433 0.703991020633929
-0.242377928798847 0.337666901579912 0.705575412785753
-0.236973483027368 0.339905496315569 0.71544662172348
-0.243450380862032 0.337222677390346 0.727869625388286
-0.235597318505013 0.340475522324785 0.739495534124772
-0.240018566537524 0.338644181427104 0.748431580762734
-0.237498392583524 0.33968807165839 0.753491320005379
-0.243339758422333 0.337268498705172 0.765338182552773
-0.239818682132349 0.338726976258634 0.771187763902462
-0.235154644292216 0.340658883987438 0.784398199900006
-0.238057203911589 0.340623936350585 0.794555106628661
-0.242509284172105 0.333193949149132 0.8009863400791
-0.238219894385389 0.33571455426194 0.800454438693876
-0.296861623597611 -0.279855733985867 0.313320528333385
-0.291621696579465 -0.282026182822628 0.312959800082212
-0.299506855568549 -0.278760043027881 0.340974630254658
-0.296563565096824 -0.279979193859273 0.344366122831028
-0.300483638275508 -0.278355446383167 0.356569159464506
-0.292760018950836 -0.281554674258053 0.369009975263105
-0.300491152602875 -0.27835233384686 0.378718282293272
-0.291303909027483 -0.282157814736611 0.383532712164156
-0.293121207518753 -0.281405065054647 0.3992815219201
-0.299044570309821 -0.278951527851731 0.401118632356997
-0.292549600304882 -0.281641832514983 0.418550414235597
-0.294543158880913 -0.280816073515407 0.430820947136377
-0.292783010786881 -0.28154515072774 0.439903032268738
-0.297351437401931 -0.27965284646508 0.453214291260159
-0.296202029153027 -0.28012894695048 0.461771400898834
-0.294007011653371 -0.281038152968483 0.470041639487852
-0.299877132122711 -0.278606669457318 0.484527550753208
-0.293065159067523 -0.281428281083297 0.492773433447473
-0.298553616359788 -0.279154887636336 0.512931529243061
-0.299749781300601 -0.278659419895016 0.51854082793839
-0.290256088562215 -0.282591836184259 0.523905284893121
-0.29364013434791 -0.281190118524132 0.542070186096421
-0.299721629828524 -0.278671080616551 0.554069823522039
-0.29465154163003 -0.280771179910795 0.562908489631303
-0.296227303221371 -0.280118478088594 0.57499310128374
-0.291487971998169 -0.282081573357824 0.580561480297767
-0.294946919621911 -0.280648830340531 0.59603760569742
-0.292365948846305 -0.281717903439876 0.601193981096577
-0.292236840733427 -0.281771381771243 0.617919496049455
-0.300703289678005 -0.278264463793259 0.628211681008751
-0.29527797963654 -0.280511700792512 0.642373454947085
-0.297138730741245 -0.279740952448742 0.647128289050319
-0.290110534795152 -0.28265212652863 0.662980852068955
-0.293020609128544 -0.281446734272226 0.663771219859455
-0.296351995921361 -0.28006682868113 0.683809356537965
-0.292064510833414 -0.28184276315303 0.694044100151864
-0.29111415956864 -0.282236411535918 0.704527171141791
-0.292632863334904 -0.281607343838704 0.707493052117496
-0.299487979877579 -0.27876786159508 0.729255543025954
-0.29931321197936 -0.27884025282879 0.744146137494654
-0.299539758140972 -0.278746414336146 0.750862368304845
-0.293459533811433 -0.281264925715712 0.755248715701789
-0.29551838907635 -0.28041211994202 0.769368341369871
-0.296759799594123 -0.279897910869087 0.773918312035537
-0.296750775349034 -0.284738716157568 0.788541689118006
-0.296782433778996 -0.29177548004188 0.80040167072414
-0.30181132726122 -0.304885980041589 0.802045343377987
-0.233046843097336 0.340961757251807 0.33531099969484
-0.234066199273828 0.340827556465241 0.343672809246579
-0.227339584463197 0.341713132105368 0.351692184643332
-0.230206047666372 0.341335755065427 0.357005569093111
-0.228449408869339 0.341567020950416 0.362580693896289
-0.232492265016682 0.341034768841231 0.376098268859891
-0.232932776039072 0.340976774464919 0.388070005986994
-0.229489528972991 0.34143008654098 0.393403825274438
-0.230443061078734 0.341304551657728 0.41122541672656
-0.234274252452365 0.340800165744655 0.412078840702171
-0.23421341240009 0.34080817548949 0.421417427308997
-0.226712606468668 0.34179567532428 0.434386482791688
-0.233547323353375 0.340895867776106 0.436490491838297
-0.228058091075077 0.341618538915381 0.454122805958266
-0.233577340324861 0.34089191596684 0.452662075787412
-0.227983163564839 0.341628403309242 0.468219962747886
-0.227847119911722 0.341646313795956 0.478477197143762
-0.228653170868875 0.341540195174264 0.484290801418461
-0.226729067194156 0.341793508228658 0.494186236543
-0.234339063638934 0.340791633190071 0.502281739204624
-0.229343457060404 0.341449317273098 0.5144283428445
-0.231015398903549 0.341229201953628 0.515610191419849
-0.233454700685995 0.340908061781599 0.529626575494233
-0.232981620381027 0.340970343985308 0.533423085808593
-0.225683196828486 0.34193119967445 0.552479098013009
-0.230735510128755 0.341266050009876 0.559529797504507
-0.232732945952535 0.341003082594905 0.558855273105051
-0.227901565050941 0.341639145957396 0.573529167150967
-0.226593525886997 0.341811352580271 0.586853046628
-0.232275166062912 0.341063350460719 0.588072516045771
-0.229679258793418 0.341405108136253 0.596760822194528
-0.228974050904119 0.341497950516198 0.609339555317729
-0.233052329394475 0.340961034967086 0.617460147241644
-0.230476137539744 0.341300197059025 0.623202235209027
-0.227276931255556 0.341721380556636 0.637500075046651
-0.226773376121475 0.34178767484771 0.645066245289673
-0.234507370432735 0.340769475180306 0.656799358924752
-0.226873303727344 0.341774519128819 0.661786779757061
-0.232725437516909 0.341004071099209 0.66948914536295
-0.227513505721119 0.341690234937379 0.678955110049001
-0.228643478098197 0.341541471251732 0.689376368193093
-0.232687905367797 0.341009012300378 0.693393919815444
-0.227272242629527 0.341721997825963 0.704016812038059
-0.233313252301002 0.340926683814764 0.715915022343486
-0.230874095177121 0.341247804942131 0.717155626792145
-0.230395010191185 0.341310877677085 0.726011854586055
-0.2308827749058 0.341246662234171 0.739255732068516
-0.235016590881278 0.340702435036433 0.750487830606503
-0.225605478516936 0.341941431484275 0.761510713709452
-0.230573289350097 0.341287406780547 0.768650577618973
-0.227349271783446 0.341711856745462 0.77450973642222
-0.22660766869967 0.34180949064366 0.783618891643172
-0.227484370001669 0.341650265004943 0.795437770475699
-0.227660503959896 0.336167450635386 0.801207835847352
-0.230357820627058 0.33640424174007 0.800753655324908
-0.233296092525883 0.321496696675392 0.801705146477359
-0.284163007142567 -0.28511567314492 0.323878183010095
-0.28802219410322 -0.283517145566084 0.333240530966334
-0.285368461334941 -0.284616357669619 0.342209462004349
-0.281107919341627 -0.28638113194631 0.355530610799588
-0.28682950620022 -0.284011173071186 0.367640946492775
-0.280208200134396 -0.286753807844272 0.370011746132386
-0.285133458744744 -0.284713698929671 0.374599013826352
-0.279492054773274 -0.287050444965479 0.398348766106608
