ply
format ascii 1.0
element vertex 870
property float x
property float y
property float z
end_header
-0.200682581428359 0.371896559002475 0.677218858622292
-0.194834924676732 0.376383623844436 0.685406665419102
-0.201365320546941 0.371063263929517 0.691150260591129
-0.197408581231793 0.374408787711948 0.704203346804574
-0.194548129575405 0.376603689465704 0.720724862149279
-0.194509569280604 0.376633277820569 0.732612554060663
-0.201720791635208 0.370600004987975 0.7356967974632
-0.193587193882358 0.377341041356691 0.757050308853865
-0.198160954001955 0.373831471780383 0.766916857730238
-0.203057173258583 0.368858398548594 0.773772175616516
-0.199839888749083 0.372543179837855 0.782874777209779
-0.194302528265126 0.376792145979364 0.789448627863424
-0.193549903955533 0.377369654923924 0.808373024148619
-0.201584128325541 0.370778108080669 0.808149129442854
-0.2042755605278 0.368597527706206 0.818766146300427
-0.198441104100061 0.377070715598664 0.830881295254346
-0.21099034496847 0.376921462828242 0.840574183349205
-0.215747081447107 0.374009752129243 0.84229387796593
-0.230570530041216 0.377680915232978 0.845348651072197
0.289244709104619 0.325020771551813 0.280195548547799
0.289269410970198 0.324961135972916 0.28493362698723
0.2883149888057 0.32726531490668 0.300795147310995
0.290284835807861 0.32250968355826 0.30735790689672
0.28813214490234 0.327706739137966 0.311309077257438
0.28737663099791 0.329530711052603 0.329468947929239
0.290041726460484 0.323096601441838 0.334839023761551
0.289384953782243 0.324682190949044 0.343327688378099
0.290200657464689 0.322712908056006 0.355598491631098
0.287972117122587 0.328093080374203 0.354879287942635
0.290992591664136 0.320801009771192 0.371672505333698
0.2889505781493 0.32573086649326 0.380482182759071
0.28830282519171 0.327294680468539 0.379214557276781
0.289681495939169 0.323966274851977 0.398522156422372
0.288931238269181 0.325777557094136 0.409948050357277
0.29109645490253 0.32055026173243 0.413966795555877
0.291067990513745 0.320618980845879 0.431764126203072
0.289033346452112 0.325531046134075 0.430589578780576
0.291062748634314 0.320631635862295 0.450125124186698
0.287782372773594 0.328551163754926 0.448136976162671
0.290213282707552 0.322682428023456 0.459281884771028
0.290757313347297 0.321369021874637 0.473830244948564
0.287206741700344 0.329940860098889 0.477161248971281
0.287434412483721 0.329391214205903 0.488603647952213
0.287284238504412 0.329753766263468 0.492851867099024
0.289612484331892 0.324132883610228 0.505362689903219
0.29009121249929 0.322977131575805 0.51620763764427
0.287184198907713 0.329995283214594 0.516815164824249
0.288390465385042 0.327083098325189 0.524870985650573
0.289672925691134 0.323986965261016 0.540462406540443
0.290208119506881 0.322694893092542 0.545556550179948
0.289192838880846 0.325145997349532 0.560254486389932
0.291036190393272 0.32069575312801 0.572129973749325
0.288327431028112 0.327235276724586 0.57894902885333
0.287432529010287 0.329395761313011 0.588874756017368
0.289299674773444 0.324888072688672 0.594045667190806
0.290752860437537 0.321379772149774 0.607327866929686
0.28959051474073 0.32418592289517 0.612599948450615
0.290618594970057 0.321703917662321 0.626431285863788
0.287687463795913 0.328780294296033 0.63803185064576
0.291136952028744 0.320452493021086 0.644202706783084
0.287749206141929 0.32863123508691 0.654325136095149
0.288978131652141 0.325664346453009 0.661572393771492
0.29076851785713 0.321341971795041 0.671727297292215
0.290424997411586 0.322171303513625 0.678116931639393
0.288501600837385 0.326814793608882 0.689754588453929
0.290803883557014 0.321256591442737 0.696595662890764
0.289741038891552 0.323822525448791 0.710005006309918
0.289898935973977 0.323441328170942 0.713981826228289
0.289653527506119 0.324033796622365 0.730907323079004
0.28991754422366 0.323396403882186 0.727803311651884
0.290620613682956 0.32169904405826 0.742647767758018
0.289047971551896 0.325495738019826 0.748753619680735
0.289844442411585 0.323572887268328 0.757317283247207
0.288757532475805 0.326196919976367 0.771579369113563
0.28854414242196 0.326712089138436 0.771558749006392
0.287483515747925 0.329272668439504 0.779118525463349
0.287366592487356 0.329554946160926 0.796257381708093
0.289279117866318 0.324937701452653 0.803530182795467
0.289143002472302 0.324675913506555 0.815118527534867
0.288367463777204 0.324972925174119 0.818897637925971
0.285023599318508 0.327943562562516 0.831137587990189
0.28384623910172 0.325228193775452 0.835165532372815
0.281436722950121 0.323508859308609 0.837643855335877
0.271584199752015 0.323212252033327 0.845348651072197
0.257316811443489 0.329682292731787 0.845348651072197
-0.182796714556977 0.385620867356285 0.50905059692397
-0.184119113191983 0.384606155194778 0.525603990766533
-0.185961084977382 0.383192760532746 0.52490816390935
-0.185719359729602 0.383378242839043 0.53942843423397
-0.183470964911948 0.385103496862261 0.546617525296044
-0.189651303307075 0.380361156416838 0.555479091116717
-0.192306230388737 0.378323959215962 0.570484051733957
-0.188095532405926 0.381554941416402 0.578348661538358
-0.191869782939037 0.378658857122952 0.588612406332528
-0.192619602797002 0.378083500109813 0.594901328024775
-0.182993752939275 0.38546967448788 0.612030725838097
-0.18872617620028 0.381071031413192 0.622896151148919
-0.18912206194519 0.380767257596967 0.628498839981393
-0.182310484035159 0.385993965158055 0.648254347355486
-0.181782717326447 0.386398934797007 0.662578466874147
-0.188718487666093 0.381076931032972 0.662306697507063
-0.190691880264267 0.379562693634515 0.666710134866525
-0.186381014610948 0.382870537191858 0.685820516925464
-0.189027762013658 0.380839616479396 0.694252800446988
-0.186629161526984 0.382680127366201 0.701787660600132
-0.192263469910721 0.378356770484763 0.714190368883291
-0.184326541745918 0.384446989667266 0.728373374275695
-0.187725553344748 0.38183883633503 0.740686510944212
-0.181873874516524 0.386328987424912 0.755799132120489
-0.18832961414462 0.381375324180909 0.751843200657151
-0.185882503190181 0.383253058458829 0.771904602544238
-0.185202490851827 0.383774850278207 0.778676036333401
-0.187796424999701 0.381784454601503 0.787594985163298
-0.182987506301352 0.385474467701743 0.80427549754474
-0.183608738629428 0.385499894031965 0.816199385347215
-0.1888410773009 0.38243517962168 0.820925097240995
-0.189212830524583 0.384552124620118 0.832872169459801
-0.197808085816133 0.383277733358711 0.837203188006361
-0.205041508338391 0.387786335297289 0.844060827810412
-0.215277508811583 0.388338759387989 0.845348651072197
0.28622406976918 0.332313240002469 0.276528821728609
0.284923113242496 0.335454026893246 0.28202329396038
0.286187964771399 0.332400405177782 0.302253554882892
0.28700078410669 0.330438085714763 0.308471929012186
0.285878416710015 0.33314772030578 0.316025139425524
0.286469235433052 0.331721357731721 0.320347071389608
0.286394902345524 0.331900813679763 0.337398321991607
0.284102356693997 0.336551199736973 0.338093010600572
0.282386158431524 0.338787792857453 0.345985117634041
0.286202776525825 0.332364646439363 0.359313764580107
0.286435910250418 0.331801811839604 0.366814475270491
0.285634123158602 0.3337374971108 0.378189332257863
0.285491930290154 0.334080781062283 0.38560199940322
0.287029998496419 0.330367555938862 0.397618786702746
0.284925629329108 0.335447952522824 0.400047999417415
0.285047041315464 0.335154838058729 0.415837685010913
0.284676914875097 0.33580242093719 0.425376346801359
0.287032623310861 0.330361219076239 0.437387359403023
0.281664316761417 0.33972851523711 0.434343695520231
0.286453161218123 0.331760164319407 0.44802420030271
0.28709275027683 0.330216059739532 0.45725699749132
0.281271157977407 0.340240889739988 0.46118092676293
0.285985152321567 0.332890037744783 0.481490499631625
0.286220390213196 0.332322123236428 0.483560887111068
0.286000984515093 0.332851815448451 0.500595373400376
0.282313136555422 0.338882956819161 0.500877076215273
0.284297900338125 0.336296362298448 0.511357856864214
0.284576083899413 0.335933826423069 0.519993688265251
0.286960236089082 0.330535977288798 0.532943639898858
0.282071401419772 0.339197992181449 0.531502730074683
0.281800159047368 0.339551482123356 0.547280220396223
0.285886703846987 0.333127713387311 0.554549573750762
0.287192194880394 0.3299759792289 0.570517182931281
0.284546431429601 0.335972470274095 0.572316881941243
0.282935698257296 0.33807161861312 0.580391701800656
0.285268208364847 0.334620893568559 0.593362006276603
0.286520834138807 0.331596787436486 0.602316446676956
0.284610290243821 0.335889247847124 0.604903586893711
0.284330465673731 0.336253922326809 0.615070871145967
0.28622259954202 0.332316789444819 0.633016787968942
0.283119173471705 0.337832509058415 0.639092014836313
0.284150000497036 0.336489109123993 0.651620228423006
0.284656144387198 0.335829489564025 0.660144697672518
0.285172934053055 0.334850906104234 0.665301361512917
0.281717710873695 0.33965893067523 0.675675786316606
0.286770842431985 0.33099321402439 0.691485614783741
0.286706919345085 0.331147538007734 0.691281718954389
0.286755432396871 0.33103041714016 0.696389016057543
0.282280975269636 0.338924870222821 0.706812670134944
0.287008891224296 0.330418513401486 0.719556772114903
0.284792036833781 0.335652391079662 0.727597763687005
0.285706545647467 0.333562653755964 0.740660900292564
0.285510546710698 0.33403583704732 0.748271261053874
0.285175625729866 0.334844407821567 0.755205550798249
0.28639699754338 0.331895755424682 0.763557120550714
0.281586516530789 0.339829906471678 0.77085472452649
0.28544223091164 0.334200765975931 0.779489806255916
0.283891205444798 0.336826377402435 0.792837986846585
0.285823612765713 0.333280028731385 0.804359163021245
0.285743430058583 0.333473606910406 0.808522483019929
0.282637688213787 0.338262303209584 0.814456601496338
0.280808794747829 0.337944897771094 0.824763679789507
0.281308517932299 0.334644684794826 0.833849880490571
0.274215109299682 0.336821541207138 0.837546997423739
0.269803446439881 0.336306899143679 0.840823830015551
0.263158220976312 0.342687995067568 0.842016085721255
0.229248934431602 0.344100263941449 0.835852439849731
-0.17979880057964 0.387921247658735 0.523352555698254
-0.170555173402855 0.395014132258297 0.537951345225438
-0.172362100381729 0.3936276284221 0.543794591573401
-0.173632194143603 0.392653051201351 0.552226341446376
-0.179548272587898 0.388113484548043 0.562081182283741
-0.169720378339406 0.395654693039914 0.581978081509519
-0.17131301391371 0.394432620781735 0.587904851720201
-0.176658806392799 0.390330649940396 0.596152464055364
-0.178364422850286 0.389021884401424 0.611078010378039
-0.178759469292817 0.388718754604565 0.618202107888761
-0.180850903470167 0.387113940716703 0.626680738499478
-0.177335816609573 0.389811161729927 0.639176709062032
-0.174858012418744 0.391712447756478 0.651351104180762
-0.169391311104717 0.395907195209951 0.663970651292109
-0.178212693408722 0.389138310496807 0.672549554893924
-0.178522135374342 0.388900867325374 0.673066513172381
-0.174163314052509 0.392245508561395 0.695101368751586
-0.170136041786391 0.395335743259126 0.705474255240262
-0.176670920505095 0.390321354455095 0.718915961300977
-0.179602412151185 0.388071941800015 0.719804002112227
-0.180529894342491 0.387360259683757 0.729680427728895
-0.180047656630111 0.387730293695087 0.737197302443756
-0.175238044712318 0.391420838721315 0.763411542078114
-0.180813399856358 0.387142718251726 0.768360937531716
-0.169961256126303 0.395469861013224 0.777747421858082
-0.173600039826706 0.392677724076486 0.787962897046552
-0.172359017648691 0.393629993886358 0.795703850619585
-0.171058119244317 0.394704057177127 0.81407940121555
-0.18174450449592 0.388234653974532 0.822686085981902
-0.17771840102036 0.39103843041584 0.821265879091114
-0.184143592461092 0.389956371886266 0.834608141517002
-0.192418982325774 0.396362674397727 0.843304595246414
-0.197460149748925 0.395173552399906 0.845131050275666
-0.216463943068857 0.392035444492281 0.845348651072197
0.277790396671833 0.344777106190216 0.267098975154774
0.278368451206517 0.34402377085373 0.27614654839601
0.276094265139767 0.34698754783848 0.287730093590627
0.280715193212313 0.340965437128264 0.300687269631887
0.27595650555238 0.347167079628115 0.300843170158909
0.276128957601586 0.346942335741991 0.311050313110048
0.280128857784678 0.341729564334553 0.330930637141055
0.277574482148706 0.345058491475119 0.335294164268415
0.273506321405466 0.350360221776506 0.335804352517905
0.273842658142564 0.349921899206902 0.342087899029586
0.277571755914286 0.345062044372989 0.358784502982825
0.27703690686497 0.345759073224698 0.365631878443599
0.280333284574362 0.341463150155349 0.384399482504707
0.275477819224867 0.347790915795762 0.384035587645086
0.279341340042199 0.342755877438114 0.391113323320394
0.276343874585245 0.346662250475832 0.408258211886723
0.281195754862447 0.340339156992595 0.417310675735596
0.281672934961655 0.339717283779892 0.425007193445939
0.281198128945563 0.340336063027241 0.440577329810316
0.276971487202917 0.345844329788166 0.43658039179928
0.278386806608454 0.343999849628196 0.450023605478867
0.281051087506439 0.340527691161567 0.461363811191591
0.273556410458323 0.350294944451922 0.459611077371171
0.274215143652725 0.349436466639044 0.469850277174081
0.275664120702498 0.347548122983116 0.475843679291436
0.280525828883665 0.341212221526068 0.498607949761636
0.280190374633773 0.341649394015956 0.499388593860837
0.28038163868723 0.341400133848578 0.517553457843787
0.274743427521392 0.348747993697335 0.518461722872299
0.276235261820954 0.346803797386071 0.527192828718908
0.28113980667216 0.340412070093741 0.536467545029202
0.278373712999202 0.344016913551996 0.55473399418906
0.277853718013718 0.344694584210829 0.559649334382047
0.279854834674206 0.342086678204865 0.565958412651446
0.276234259377778 0.346805103795453 0.577766452890001
0.281996905907573 0.339295076623108 0.591808556236577
0.275429981550338 0.347853259066986 0.593295991234033
0.274457583280356 0.349120513164933 0.607516906736895
0.275634637862037 0.347586545768868 0.606279704401461
0.279117198906829 0.343047983852826 0.61962665120818
0.274693865707073 0.348812583911279 0.632195585845885
0.276959048071446 0.345860540779916 0.636877151616993
0.278022255846306 0.344474941431116 0.647625625896574
0.277817953923866 0.34474119288016 0.655254382132196
0.279489660608114 0.342562582313301 0.673486685312013
0.280531229688823 0.341205183059753 0.676453188593606
0.275730045031468 0.347462208724914 0.686904675342404
0.274741885752494 0.348750002969682 0.685167167020289
0.275700797528768 0.347500324812525 0.70192708142721
0.274537961661438 0.34901576201928 0.71383030193271
0.279206361947163 0.342931784316343 0.727267439404358
0.275849148253268 0.347306990384277 0.7333916828803
0.277814184141317 0.344746105756429 0.743974916561476
0.276332382118802 0.346677227749698 0.742879168494506
0.27924163464957 0.342885816035598 0.754715293274761
0.277203082460733 0.345542508971951 0.766091325844529
0.277417220463997 0.345263438892809 0.779340440431757
0.278172991206435 0.344278499285212 0.788035976054235
0.279921476616678 0.34199982873454 0.798653812320382
0.279017552559305 0.34317784550123 0.80444057630576
0.280712872968473 0.340544018356318 0.815321938856935
0.27793307919573 0.344167832745621 0.815317677622744
0.272951914177329 0.348327261952628 0.824217663444537
0.27379819657714 0.345142914185268 0.832160923378332
0.264521741712617 0.351380081363328 0.836539524461555
0.259782467187302 0.346893173983288 0.842117669650431
0.244049104374584 0.352880610888395 0.845348651072197
-0.165162625390092 0.399151979882463 0.536612729184277
-0.167335345763537 0.397484792902588 0.544963339308507
-0.168418903274272 0.396653349981573 0.548787753010868
-0.164508150394358 0.399654176209647 0.566485997424959
-0.167827259987362 0.397107333842875 0.56683274353554
-0.167634966795572 0.397254885598541 0.585060653149726
-0.163821813541847 0.400180820999424 0.59679996669603
-0.162312384461644 0.401339046669104 0.603797007453827
-0.165730634918251 0.398716130842078 0.618885914466126
-0.158414606221959 0.404329917105571 0.62274981155471
-0.167608477989265 0.3972752111745 0.633685070844556
-0.159602816578674 0.403418171231467 0.656135715289289
-0.164445314947172 0.399702391544076 0.659632487665373
-0.1656314137403 0.398792265929699 0.664188801532955
-0.157575545148513 0.404973751311789 0.679718311752975
-0.160748557872244 0.40253901301567 0.694015615583782
-0.158259969925474 0.404448573709186 0.702948539717922
-0.158158814824972 0.404526192747772 0.715451140402825
-0.164852144994856 0.399390219868966 0.723598504101883
-0.163506487659402 0.400422779059032 0.725454443318181
-0.164102894528277 0.399965139972728 0.744673953292394
-0.159481400913557 0.403511336748075 0.757080185960404
-0.161832085608154 0.401707592941682 0.769319986345534
-0.161051552850422 0.402306516791692 0.771811205194515
-0.168429333274532 0.396645346760889 0.78333206916473
-0.158089311284711 0.404579524689975 0.801556143781443
-0.164694953726077 0.399510836971775 0.805873813703634
-0.165936488437441 0.399699738979954 0.819379618668885
-0.168873173732257 0.397396816454581 0.819133313541582
-0.17054021243256 0.405098721791358 0.837815128276945
-0.176599949606011 0.401366395155949 0.838440607905564
-0.183613215268821 0.407758202167559 0.845348651072197
-0.195601969457869 0.399720271796611 0.845348651072197
0.273723168182703 0.350077621554392 0.26456635700762
0.26996450132628 0.35497601156974 0.266759367245641
0.269996562865944 0.354934228157758 0.283581627114202
0.272505265411892 0.351664823346967 0.289576155509951
0.268023771138715 0.357505220392013 0.301811115500182
0.270802522833854 0.353883880678083 0.302225056757092
0.266618441544961 0.359336681575799 0.315268276531046
0.26879731520831 0.356497118133507 0.324428974981713
0.270442355083388 0.354353260428969 0.330634521926929
0.270761374778589 0.353937505867748 0.339268340526858
0.268493967969282 0.35689244795219 0.355183325682997
0.266048300651586 0.36007970365414 0.357170286647219
0.274095242813148 0.349592724455406 0.375417834535875
0.267690069850825 0.357940108377342 0.377757735761307
0.268449827535619 0.356949972885308 0.388234613342688
0.267979844816413 0.357562466289774 0.395102748979973
0.269327654397684 0.355805966645703 0.406678798434226
0.270139364007881 0.354748126086315 0.416207629538318
0.272665933328326 0.351455436841669 0.42989031543096
0.269856579631792 0.355116657860277 0.428972088391162
0.266368448132868 0.359662479333482 0.440675211246068
0.27251703274309 0.351649487862379 0.453718183045414
0.271108150709125 0.353485578676383 0.464061052464492
0.26785097275794 0.357730415626225 0.466289516584463
0.268950778661487 0.356297120667522 0.481845457765659
0.268262825898536 0.357193678163517 0.485970285221925
0.266799749864323 0.3591003959737 0.493261221681471
0.266582682687698 0.359383283425888 0.506219957630326
0.272943916086458 0.351093162658058 0.52052260552063
0.271154626414786 0.353425010357544 0.517778290797116
0.272573561259998 0.351575818464855 0.542417284245995
0.268630779700644 0.356714151432576 0.544865514427668
0.27023582199857 0.354622419585435 0.552270767457835
0.272209950329345 0.352049685455525 0.560288210290867
0.271367937730588 0.353147017638477 0.573276757685219
0.271377863210026 0.353134082501836 0.582656768332383
0.272284218211986 0.35195289766648 0.588809309315483
0.27032657907501 0.354504142660655 0.596929700374356
0.273224275559417 0.350727791079382 0.604013392516441
0.266742427722547 0.359175099643288 0.618946726138936
0.267276875497343 0.358478593742715 0.620101888002609
0.267939260149393 0.357615357257581 0.635788665408905
0.26702306245377 0.358809369341057 0.639773309824127
0.272000586107091 0.352322534222132 0.651837123400107
0.266848088604906 0.35903739970048 0.654748738624611
0.266583428320892 0.359382311697791 0.668477401215413
0.272664963042285 0.351456701343055 0.684919395519632
0.27181111058486 0.352569463530236 0.685376649954418
0.268922948332573 0.356333389858298 0.697313811787747
0.271123119889989 0.353466070460071 0.707616839963188
0.270647383798749 0.354086061804951 0.716933640113138
0.270637828225034 0.354098514871067 0.725310960524768
0.267346360477399 0.358388039153674 0.732048893294724
0.266786548203135 0.359117600713522 0.734787730742728
0.26818852938377 0.357290503266673 0.749814526829158
0.272779215064028 0.351307805209423 0.766908671748171
0.27044397365295 0.35435115106805 0.765059566217912
0.268036090695818 0.357489165232616 0.773268304480285
0.272608459678039 0.351530337960993 0.797134432788738
0.273287288538956 0.350645670965629 0.805009946154457
0.270614993846919 0.354128273212001 0.809088589035338
0.268078207363209 0.357434277723052 0.811927533386037
0.264623994841071 0.360380929964923 0.819636253470333
0.265473437780969 0.355686498329563 0.833326595998693
0.260517406936172 0.355107194753886 0.837319723144263
0.250923296959462 0.36104059097662 0.840756555915966
0.252178262062727 0.353658549587141 0.84376267773082
0.243524075355869 0.358888484519541 0.845348651072197
-0.147473984004325 0.412724951798444 0.559132498093095
-0.153121436272149 0.40839150926002 0.563256523133228
-0.149851800705675 0.410900388871031 0.577860852160557
-0.155373423645775 0.406663498571648 0.574586542178387
-0.148813317831129 0.411697244807224 0.591834181279439
-0.157059901444637 0.405369418641955 0.602852390015162
-0.153087172985904 0.408417800404252 0.613752973938337
-0.148638629214415 0.411831288097322 0.6314665681161
-0.149119321328551 0.411462440065237 0.640638174636946
-0.153264909809542 0.408281418142717 0.646322101578007
-0.151024509439968 0.41000053781017 0.664446582462664
-0.155921404691643 0.406243017926253 0.663351655745153
-0.146675090617349 0.413337964254788 0.682979293813564
-0.146400161679133 0.413548924648859 0.693343802476354
-0.149720744320561 0.411000951972275 0.695258475781671
-0.154163898645317 0.407591599747136 0.711140010154676
-0.154064179783782 0.407668116720802 0.710612910370583
-0.14732744560011 0.412837394670773 0.73434353367706
-0.153549886140986 0.408062748112665 0.731165211911983
-0.154640668751345 0.407225761177719 0.747735420018391
-0.149116999395432 0.411464221747183 0.763813236849419
-0.149466191434633 0.411196277271517 0.776641643359088
-0.152079374640957 0.409191111272771 0.790758755091208
-0.147578130977466 0.412645037015236 0.795032510749676
-0.145641702955343 0.41413091049689 0.804467282238802
-0.146706867909477 0.413313580680934 0.812063664128155
-0.155384125477167 0.408012913812006 0.820454177945201
-0.158641114658746 0.408447428911841 0.833873440609817
-0.162828804005068 0.413928263998509 0.839800612195653
-0.173898585772217 0.413422446995504 0.845246585478126
-0.182760536069282 0.414310021390894 0.845348651072197
0.265152422774121 0.361247234435018 0.254512444959976
0.262560353817301 0.364625284467701 0.266712451729177
0.262391025055874 0.364845958005943 0.271790925125273
0.260734176702063 0.367005204819581 0.274857119478902
0.259198394514119 0.369006675134067 0.281054401192361
0.263937176349485 0.36283097440986 0.304866841348014
0.264930023140778 0.361537071280103 0.305049165821688
0.26126651217962 0.366311451718366 0.315138543889674
0.26191587902561 0.365465180368388 0.325062772831361
0.260384885196665 0.367460410371934 0.330432835801224
0.260398532338454 0.367442625070487 0.341958546727416
0.264627998423582 0.361930677554777 0.347532580969469
0.262076593497864 0.365255733190365 0.364547554556849
0.265248339062714 0.361122233894055 0.382600078912861
0.263589406457855 0.363284196956542 0.376622107734056
0.264751006376841 0.361770370469028 0.388075926403774
0.261361907718678 0.366187129831409 0.39870422250328
0.264586070824922 0.361985318665174 0.409987802929321
0.265233296247653 0.361141838072323 0.419613729719375
0.263947385646684 0.362817669394711 0.433315016877068
0.263249193988815 0.363727570478351 0.430541167958181
0.262697794913055 0.364446167744443 0.447757008432926
0.263772308470889 0.363045834412412 0.453026442436328
0.265345263054021 0.360995920089347 0.462752202158632
0.258518820271363 0.369892313529956 0.46715888840155
0.265380018240331 0.360950626248711 0.48547670909295
0.262205680086961 0.365087504272161 0.488475104697552
0.261986326377702 0.365373371591693 0.503001217742034
0.262907498005259 0.36417287735392 0.509922563764645
0.260836281773964 0.366872138899184 0.519973658391544
0.262127368917506 0.365189561375172 0.527490776091135
0.265047897671493 0.361383454200863 0.535960248387491
0.265023234574918 0.361415595774093 0.550078762333346
0.258482845930163 0.369939196204179 0.548562665402309
0.261969801073769 0.365394907787073 0.564608657963033
0.260001205089134 0.367960432023123 0.568565428307786
0.263963602939891 0.362796534606725 0.582085622420664
0.264353113192878 0.36228891496205 0.587562356536293
0.261315378782538 0.366247767521558 0.593305718555241
0.263054853510555 0.36398083992059 0.607472219980391
0.263195434017199 0.363797631837405 0.614311693329699
0.265653388341411 0.360594363396808 0.624297569378277
0.264375913658465 0.362259200816784 0.633245157150086
0.26521370597129 0.361167368617539 0.646044245237729
0.259206550825394 0.368996045622264 0.656514045185968
0.260911195535085 0.366774509384915 0.666628481291974
0.263082320299194 0.363945044504725 0.678157092210155
0.264246627466 0.362427689863163 0.685948569134967
0.262238790082129 0.365044354486362 0.692991514443213
0.258672256369187 0.369692351714163 0.691855118166783
0.260642634994031 0.367124504296161 0.702333906709039
0.262632200360532 0.364531652229611 0.721142803202747
0.258754884421739 0.369584668739568 0.72930237044181
0.263091702091865 0.363932817914473 0.735384723971808
0.263100516518115 0.363921330730537 0.743599983086182
0.264288160039178 0.362373563559997 0.753703221635111
0.261956529348584 0.365412203836075 0.760019660705192
0.265455341597372 0.360852462938647 0.777259027208649
0.262986673498928 0.364069693841663 0.789529066894801
0.262849021081809 0.364249085964285 0.785474909984123
0.264963037359726 0.361494046312305 0.799429804382197
0.2625211776879 0.364676339793546 0.802677133695041
0.261915677746127 0.365465442680918 0.812633598680813
0.258422306189935 0.365524459087862 0.83085083886607
0.25621433571465 0.369056419790487 0.828353213327
0.248777159342217 0.368478486741177 0.838328764935206
0.244987041086864 0.366902194692305 0.841737233688059
0.238680189217001 0.370713849732353 0.84404292854851
0.216499168004612 0.368743399334811 0.840051679040816
-0.138573482067853 0.418352181693987 0.56852241192657
-0.134925459031554 0.419863242311472 0.58758240737151
-0.130326173698764 0.421768328673537 0.596844318621133
-0.140902976796658 0.417387273383839 0.598853809278141
-0.134466786495708 0.420053230696507 0.623094083494423
-0.13225306911719 0.42097018245795 0.63194687529754
-0.138610331960738 0.418336917968582 0.639907037572643
-0.137917075012786 0.418624074398633 0.651326519210776
-0.144879726602441 0.414715595516673 0.645510915311998
-0.145520512010889 0.414223903579269 0.664069859170862
-0.142350756698309 0.416656142375901 0.668415699416519
-0.138695735755018 0.418301542558713 0.690535181134646
-0.140477474658327 0.417563522140354 0.696270688317375
-0.138893944872444 0.418219441654089 0.705395335814192
-0.138775825544279 0.418268368281793 0.71746559185494
-0.129444789961071 0.422133409771344 0.731735693150371
-0.137610048360887 0.418751249001859 0.743909641435225
-0.134912655827332 0.419868545572302 0.754444179622213
-0.134341767238659 0.420105015368334 0.768458144628335
-0.140363238495229 0.417610840308423 0.776343765362709
-0.129901667715745 0.421944164809012 0.779717665231625
-0.130116012056712 0.421855380475965 0.792997094555919
-0.139472077654039 0.4179799712151 0.81024522883909
-0.145036551680508 0.414633011385251 0.813889930891329
-0.14602799531625 0.415748698839348 0.823222234085487
-0.141341284535227 0.420422379359735 0.832331873441255
-0.146593065626058 0.417211460857273 0.832653541482858
-0.150229508490706 0.424419505041777 0.840362000160964
-0.174171567838633 0.425843121776024 0.845348651072197
0.25712527850065 0.371708412523664 0.248029725189835
0.251585131807126 0.378928472263926 0.254276727093745
0.250956789597299 0.3797473437746 0.26683679954098
0.255000439712689 0.374477556345331 0.272815192358551
0.254925671538414 0.374574996127128 0.280913303314202
0.254323498369472 0.375359763479736 0.295905474248744
0.256588462214119 0.372408005128826 0.296146799652465
0.25652765380789 0.372487252186705 0.307764859005754
0.252494139733558 0.377743830070087 0.315466582577998
0.255747084836248 0.373504509475802 0.329542553736493
0.253335730650137 0.376647047434048 0.333116039699941
0.25323066660811 0.37678396955939 0.345360454140018
0.253576045166207 0.376333863459244 0.358463374546576
0.257349134592373 0.371416677585065 0.366009110988792
0.253293155975538 0.376702531830225 0.376580563571466
0.257405062645581 0.371343790727071 0.379063500885385
0.256338191094539 0.372734164801951 0.393772859167633
0.252089919508498 0.3782706201236 0.399812271383818
0.257951273970957 0.370631954268907 0.415615457274102
0.255489767410251 0.373839852074234 0.424101580802091
0.254711572528456 0.374854015389204 0.426388276819601
0.257933836808989 0.370654678820814 0.446431962771755
0.256272585645352 0.372819663487929 0.444459251017362
0.254224283788364 0.375489062439193 0.457756835040479
0.256637065009988 0.372344664732057 0.471330701469064
0.251561393752163 0.378959408299456 0.473909633988823
0.251711770912959 0.378763432968011 0.479906964370715
0.256789690147612 0.372145759780172 0.488494206311847
0.25175271877333 0.378710068677412 0.498077759262885
0.253638865386309 0.376251994554479 0.511137119632332
0.250747517476183 0.380020072512666 0.519778932568704
0.252772481395475 0.377381088153957 0.529828421250493
0.257772876808123 0.370864445977955 0.543452886287152
0.255913743679841 0.373287315442222 0.552330242621949
0.254308427945866 0.375379403638159 0.559206581697112
0.251676380108141 0.378809555162816 0.562855364429832
0.255538055794624 0.373776921426507 0.579307444125864
0.255184135742839 0.37423815901795 0.586474029980652
0.254076846352494 0.375681206646525 0.587156572297249
0.254768028446861 0.374780440603892 0.600511943611521
0.258172787415943 0.370343272326976 0.619374569918341
0.253842135141233 0.375987088252331 0.618377577863658
0.253568021284081 0.376344320386017 0.629380113360282
0.253479094024284 0.376460212647324 0.642566735302978
0.250169594856216 0.380773235934545 0.644101543366077
0.254487946729741 0.375145450204112 0.66400234977013
0.251196245607285 0.379435278626706 0.659936783130723
0.252843282427879 0.377288818452105 0.67236920121366
0.25502531306866 0.374445140756722 0.686525054235025
0.253894387945805 0.375918991071611 0.689772820241044
0.254029063716886 0.375743478189631 0.706908424010111
0.251735165686741 0.378732944305226 0.713586262720052
0.251343150305676 0.379243828696374 0.720870654668996
0.255807582869725 0.373425666903567 0.731098178778679
0.257913443232385 0.370681256247287 0.742247431245479
0.252283181274299 0.378018756486809 0.743853016509258
0.25799726706971 0.370572014895637 0.754015257480451
0.250143949588903 0.380806657497601 0.761360734441285
0.258129122717127 0.370400177270371 0.783667038712048
0.25725719234998 0.371536499048188 0.788866624988067
0.252888399837859 0.377230020298661 0.794345114249523
0.250905614564251 0.379814036376123 0.794929958402699
0.255764113781463 0.373482316922325 0.81311797249062
0.254267671956209 0.37192858191909 0.827073940510308
0.251957584760854 0.374504572072256 0.828732367667726
0.246847493104888 0.377668590855045 0.834836783537875
0.240214338054281 0.380370391337149 0.837945518456347
0.235821281526614 0.380035169811499 0.841115808107139
0.227585753538356 0.375057941343246 0.845348651072197
0.205232374275793 0.385989203384497 0.842935493851331
-0.114343771874105 0.428388456268607 0.602612997181992
-0.11467252499192 0.428252282268536 0.605962416390226
-0.115520214982596 0.42790115757771 0.627062709950837
-0.1164798716996 0.427503654750304 0.629199579827636
-0.110829712612802 0.429844027273621 0.642324504786085
-0.116411311425646 0.427532053345616 0.646390779060969
-0.111656109906996 0.429501722306458 0.667944575267504
-0.112863922228632 0.429001430062035 0.671811345262871
-0.120621399152758 0.425788177910265 0.686134050391082
-0.114375268393375 0.428375409983158 0.69261200107657
-0.125027930553858 0.423962932840907 0.691692559440169
-0.111333130242523 0.429635504863853 0.717515440744858
-0.118185053978914 0.426797345123894 0.722216391603917
-0.117753544925442 0.426976082026129 0.736002261837845
-0.128407482038194 0.422563076781357 0.734919444734441
-0.121971255695884 0.425229049022844 0.750078678370847
-0.117613573811037 0.427034059960056 0.765964117912284
-0.113937145412014 0.428556886464025 0.780580756514477
-0.121417397796593 0.425458464476359 0.78816380948698
-0.127826224892984 0.422803841374129 0.790128955298185
-0.111017055119217 0.429766427466655 0.812368692890698
-0.111429865602615 0.429595435765742 0.813634617473722
-0.117236295016806 0.429786280067255 0.828736934339718
-0.129611929079149 0.423587364758779 0.822523906611519
-0.132981158913676 0.427416759716251 0.836305269418612
-0.143402933252097 0.430416252037822 0.842113741362897
-0.158331971124486 0.435949569283639 0.845348651072197
-0.158057183690841 0.429496702283153 0.845348651072197
0.24418196464892 0.388576467543885 0.238745172569542
0.246816644780801 0.385142885546698 0.249572869479073
0.249686653374543 0.38140261752706 0.265951873674277
0.249469972799759 0.38168500114992 0.268883432712528
0.245244281306169 0.387192029522166 0.274051542983093
0.245061161713896 0.387430675621081 0.283882218350214
0.249540853301988 0.381592627880975 0.288400062256745
0.246037048211068 0.386158875576954 0.308833900506081
0.244811292216724 0.387756311889695 0.306158177900463
0.245141197417924 0.387326371060858 0.317574213241296
0.248951919301083 0.382360141613884 0.327955638336635
0.246188162151797 0.385961940055204 0.343929061208385
0.248279584196696 0.383236345780974 0.34969181035231
0.245330374428897 0.387079830780199 0.357002609889947
0.244254675100242 0.388481709438851 0.362615756507301
0.24371562053917 0.389184219020186 0.374489346338946
0.247889011996475 0.383745349382228 0.383320675216559
0.244656522089021 0.387958012247074 0.392004164112121
0.244145224939223 0.388624347665753 0.404761442626579
0.248338067489631 0.383160128869733 0.416751754356797
0.243551547523437 0.389398043137288 0.421189102409324
0.250157354497285 0.380789187880878 0.437272851986232
0.242563894584473 0.390685177506907 0.430632158457548
0.246723358582262 0.385264458487569 0.44110991124702
0.245091073751618 0.387391693494568 0.451114569272432
0.249283586012707 0.381927905139969 0.470958425999448
0.248876674406851 0.382458202669225 0.477007304059905
0.248829572987144 0.382519586434483 0.48576408353545
0.243495889365795 0.389470578260532 0.484341019533161
0.243423487885258 0.389564933706999 0.50465909342492
0.245595701027433 0.386734050424898 0.508734384308788
0.247513974284242 0.384234108044581 0.519913695661583
0.248807586451857 0.382548239845131 0.531547852973452
0.249902474561207 0.381121353880602 0.541913632673329
0.243042471928063 0.390061483369874 0.548966602476025
0.248722963547286 0.38265852256149 0.561103011622803
0.247909136036403 0.383719123222789 0.564647344059358
0.244809911103513 0.387758111791473 0.574260714408931
0.248410418886138 0.383065838694044 0.591127866030319
0.246670696289475 0.385333089323721 0.597988795034725
0.249745155127143 0.381326376558716 0.602776266179539
0.242958436453789 0.390171000532166 0.606724677912126
0.244156920427848 0.388609105808228 0.623725536999011
0.244995824724876 0.387515824442956 0.627070893409352
0.24450457091581 0.388156038871436 0.6404902895846
0.245377775286406 0.387018056779999 0.652748258353823
0.248877027411532 0.382457742624566 0.657804960778883
0.245096148491765 0.387385079964447 0.664702673933163
0.246732234987957 0.385252890530446 0.681842705588155
0.242075042694633 0.391322261693308 0.675334406391638
0.246576298930547 0.385456110357006 0.700303992015695
0.246609624591307 0.385412679510336 0.707897458910037
0.249036174257624 0.382250338416732 0.713403230316583
0.244537785068249 0.38811275334524 0.728585060527166
0.246762433787586 0.385213534688542 0.736588728593786
0.249113184964351 0.382149976109745 0.74368716401657
0.250557403164636 0.380267834307214 0.754256130192274
0.245978769673196 0.3862348256462 0.762664345718389
0.244958159641787 0.387564910534908 0.767848781165466
0.243447698131937 0.389533382299244 0.776233269914291
0.247122335187078 0.384744502053003 0.788519083483291
0.244382184467542 0.38831553599611 0.794195217296653
0.244589916220539 0.388044814704861 0.807295174502899
0.243053316580886 0.389983658193047 0.813945238526835
0.241881933610463 0.389661252417302 0.821001346223204
0.245852956488851 0.381213790209957 0.83348923217045
0.238896527421995 0.388636841006022 0.834519590570514
0.235934774212454 0.382846229540167 0.83956791762303
0.222717050805373 0.392221384428425 0.843674669912437
0.216708725727637 0.387661461166265 0.845348651072197
0.186704272411263 0.393832523990294 0.838590215010569
-0.102816848419153 0.433163064296085 0.623422600543788
-0.101559368839469 0.433683929392397 0.636960400888041
-0.0955517753729242 0.436172356083464 0.650858869790766
-0.0995445494083197 0.434518494926512 0.652559124155838
-0.0969710157438858 0.435584487473544 0.666471283051267
-0.0929396141154433 0.437254348703418 0.681842171806786
-0.106421643267928 0.431669909380149 0.684298106817383
-0.110912024248383 0.429809932677823 0.687783146407554
-0.0963874967261781 0.435826188964581 0.709771901170129
-0.0972990094942908 0.435448628013753 0.717483530531419
-0.101807764773012 0.433581040427885 0.722208410469451
-0.0930226282784613 0.437219963111227 0.747996273016294
-0.0952214638870476 0.436309175580721 0.743326236241623
-0.0914420421024186 0.437874663341843 0.759772266711969
-0.0926085907518343 0.437391463070087 0.771514638301587
-0.0927421424324528 0.437336144152697 0.778695164999798
-0.107299111216035 0.431306450255495 0.781892818398432
-0.103933510261014 0.432700527816601 0.797244597894295
-0.0974258215078156 0.435396100757879 0.812759549461156
-0.103914918647815 0.43353979054945 0.818518273952123
-0.110146458717355 0.430918869691415 0.818288158333569
-0.110364022957599 0.435237269707044 0.835076452006072
-0.113338564059386 0.437712611615667 0.838019804366151
-0.13020583481998 0.433718144566972 0.840395314761388
-0.145710257908033 0.440149599123912 0.845348651072197
0.239261866667814 0.394988464069728 0.226020228373996
0.234589545782589 0.401077551197408 0.229765394878582
0.239823841928052 0.394256083651676 0.247200860075217
0.236811614019632 0.398181695490709 0.264197464050085
0.241445896786347 0.392142180604205 0.262351821467588
0.237368489114464 0.397455961737621 0.268349075318344
0.236600113099348 0.398457328856402 0.285163330677983
0.239152126327888 0.395131480465143 0.298412235465926
0.235034276192605 0.400497967243001 0.292004474849483
0.235720457788142 0.399603717977321 0.308085706067004
0.241113903938452 0.392574842107184 0.326264854423271
0.241755594019243 0.391738575312397 0.334603799138268
0.239926699003997 0.394122037700528 0.34224018657911
0.2374873300814 0.397301085174177 0.349797443568782
0.241646583837352 0.391880640147336 0.365749252115385
0.234243662233089 0.401528315415166 0.358602126335935
0.241359664181194 0.392254561123207 0.378843602005376
0.242814723768237 0.390358290550376 0.391524459230034
0.240437484832273 0.393456368649032 0.395457717905083
0.236181704631557 0.39900260938784 0.405641877679642
0.241629723582033 0.391902612859859 0.41371256483793
0.236604752372383 0.398451282838071 0.417990908581203
0.240416735566139 0.393483409619125 0.433862786533458
0.236906684195178 0.398057797625738 0.434254787354305
0.237436913814469 0.397366788932445 0.444304739103686
0.234470164117057 0.401233132412982 0.447807507930865
0.236507268545015 0.39857832623534 0.459572995158216
0.23728413859682 0.397565889472427 0.481328857371276
0.240119056049959 0.393871353117585 0.485505556224696
0.240331178807733 0.393594909357498 0.503692872740563
0.238526462474274 0.395946861474042 0.512449439942136
0.237617342589626 0.397131649574669 0.511324863985472
0.24128418943599 0.392352921726166 0.527036573564287
0.236019175456489 0.399214421532616 0.537491546873108
0.236614574614301 0.398438482243186 0.537706946947685
0.236203067788196 0.398974768380065 0.548676119786094
0.237555141280484 0.397212711898967 0.561781013783081
0.240558900047428 0.393298137259993 0.575641234235825
0.24121460625091 0.392443604298484 0.583005522041083
0.240485871241109 0.393393310253335 0.588334721800587
0.238627600927429 0.39581505527572 0.590340286980264
0.235417050097911 0.399999126577545 0.606481539526724
0.241927968600341 0.391513932384677 0.613343756310809
0.238899211878767 0.395461084992396 0.621028474711985
0.235400365193307 0.400020870768568 0.626932882915602
0.238955070743859 0.39538828830211 0.642071297526647
0.235294271065361 0.400159135328016 0.644211097720959
0.235477248029452 0.399920675105768 0.659431637622536
0.240279764256829 0.393661914104769 0.673477483479788
0.236652686751435 0.39838881353906 0.678942303313417
0.238002571510812 0.396629609470228 0.688442039704839
0.241087643621894 0.392609065218021 0.69837681687725
0.234942991116692 0.400616932270093 0.70652800881515
0.236882372921298 0.398089480694704 0.716648051354959
0.24291934847037 0.390221940983931 0.736509998725616
0.24247755554958 0.390797696727847 0.734206210779681
0.237332297927513 0.397503127010728 0.743242692671538
0.238683249111669 0.395742533150067 0.750720201823447
0.24090821173245 0.392842905409041 0.772642606950685
0.24038608222243 0.39352335783441 0.766945365700835
0.235576939265453 0.399790754957562 0.784137197809667
0.236845343891753 0.398137737865538 0.784592647097645
0.242132186889913 0.391247789928109 0.803426495994302
0.239074037981148 0.395233247179938 0.813333395738217
0.235559089363932 0.397793590399442 0.821412554847444
0.235330389142226 0.399062457657571 0.817707701841401
0.234093273494106 0.39765831319204 0.829218868347117
0.225309392042136 0.394360105586682 0.840788558315261
0.214561822736314 0.40019784714995 0.84274458534066
0.215830051753075 0.397784846064785 0.843726194088706
0.203520328229756 0.400246368122967 0.845348651072197
0.182687896518958 0.404690835827514 0.843891736068577
-0.0893749160972994 0.438730894968298 0.640889311992526
-0.0797469286872951 0.442718937931879 0.660412802439717
-0.0832231388125571 0.441279044552336 0.66895582180924
-0.0740538777579936 0.445077076838076 0.687594677521234
-0.0756153821090473 0.444430280558165 0.687508124752647
-0.0797980708607158 0.442697754150038 0.692269891657532
-0.0886753888997799 0.439020648620759 0.701474420032502
-0.0812759069235494 0.442085614409849 0.720636582213326
-0.0870599910498713 0.43968976831882 0.722167664748442
-0.0770377835736207 0.4438411025804 0.747375759304943
-0.0812295855710104 0.442104801342298 0.744710947540572
-0.0763552383469284 0.444123822070229 0.772127435315231
-0.0743411058480695 0.444958103067672 0.77624284621607
-0.0727470457194686 0.445407467970341 0.783406076988992
-0.0829744381423593 0.441382059742903 0.788854904968323
-0.0908261408110434 0.438129778009814 0.800023247742833
-0.083890714559855 0.441002525623894 0.803606252448713
-0.0791676981887145 0.44414803191278 0.820589401377916
-0.0851355990851937 0.44436118690228 0.834023703901255
-0.0870081595929292 0.447603809753385 0.837213822240924
-0.109291078768054 0.443700371877075 0.841442516305263
-0.114445721151113 0.446207616342161 0.845128114187403
-0.128049906899102 0.453759441709072 0.844649881621682
-0.134388440815803 0.446802249590338 0.845348651072197
0.224067221538483 0.410207891423058 0.212823555196267
0.230929207362202 0.404942504509389 0.236344573970322
0.226949980838651 0.407995872412191 0.232412810559504
0.22812789760584 0.407092025087135 0.24000591753226
0.231309540240864 0.404650664827176 0.261428828569884
0.225460649940883 0.409138676204079 0.271103342976822
0.226553404979589 0.40830017577163 0.276332042434993
0.221893157151631 0.411876109700693 0.274536966061361
0.228282064384988 0.406973728756844 0.29297974252872
0.227036256514954 0.407929670757358 0.307908480181998
0.225348638587036 0.409224625538846 0.306044575897316
0.228109374816404 0.407106238123361 0.325351777522726
0.234090158084414 0.401728365916555 0.330541422152941
0.230304320600824 0.405421996985825 0.334511555401592
0.233246476345078 0.402827873365861 0.349764343771046
0.234116167669834 0.401694469564898 0.355769641506926
0.223140841043477 0.410918728178013 0.355593628506514
0.227215584056723 0.40779206789487 0.371895571415721
0.232659349471903 0.403593032004059 0.391210806239277
0.234329038042684 0.401417051493874 0.401871891048064
0.221466669601704 0.412203365107789 0.398103387624586
0.231106490735973 0.404806470192175 0.421705288488159
0.232544538496209 0.403703017335742 0.426745478495447
0.234151835276895 0.401647986634387 0.436202978590138
0.224320723125376 0.410013372813939 0.432809613842958
0.232995156399393 0.403155399895777 0.454681634110982
0.231143144067991 0.404778345101318 0.465298363853846
0.222144414540638 0.411683313125179 0.45662465753819
0.226692323960787 0.408193579488215 0.47179651986414
0.232556484132237 0.40369385112683 0.488826100580978
0.223072366462895 0.410971270571684 0.484625017733912
0.223997728254363 0.410261215495446 0.500960254203632
0.228672911021189 0.406673821584727 0.514191168922844
0.23434510330442 0.401396114837158 0.531681401325777
0.227937487936414 0.407238131565257 0.54121203051449
0.22803461308252 0.407163604819438 0.547591102267819
0.225263844422703 0.409289690389562 0.544826490315074
0.226068666938001 0.408672128353041 0.555879073240131
0.222685222295495 0.411268336739569 0.572860514880129
0.227722299319927 0.407403251598193 0.579225228912388
0.226926789432166 0.408013667804276 0.583329701929299
0.226261776239467 0.408523950374396 0.600638811779256
0.225655234057294 0.408989366560126 0.603772368962917
0.230262218140262 0.405454303340074 0.618015852540036
0.23358592005917 0.402385501705004 0.633642881371352
0.232736907739817 0.403491956101439 0.637463695000247
0.229944409837773 0.405698166227578 0.644433073481168
0.228324385656961 0.406941254502694 0.65030641198294
0.225511708978073 0.409099497226864 0.655151622033319
0.221980762183526 0.411808887995437 0.658661476372561
0.234248606608116 0.401521871780177 0.690078870880946
0.231684264893481 0.404363128488162 0.692237898823735
0.231885300274703 0.404208868614611 0.696714381039153
0.222506839390528 0.411405214756744 0.708821921555277
0.226862425176813 0.40806305623447 0.719863248009269
0.23364804998976 0.402304532403047 0.725437710488411
0.234211833532745 0.401569795385038 0.740967604594668
0.231953539285097 0.404156506980303 0.750394259080135
0.223845462959138 0.410378052765805 0.755261743888843
0.220494297678087 0.412949492327133 0.758075460481717
0.222886994218241 0.411113511697829 0.772668081281934
0.233438068488614 0.402578185623166 0.786859918189113
