ply
format ascii 1.0
element vertex 849
property float x
property float y
property float z
end_header
-0.331502544302072 0.277777777777777 0.952178937026076
-0.331847354158758 0.300651791113841 0.955555555555555
-0.330520350260776 0.306588821857468 0.955555555555555
-0.259668825356063 -0.333333333333333 0.33158728769335
-0.253328858724453 -0.333333333333333 0.336976054502858
-0.257090258488237 -0.333333333333333 0.34031733926307
-0.254019092943991 -0.333333333333333 0.353923358147476
-0.256680887503426 -0.333333333333333 0.358330271771777
-0.2601543100864 -0.333333333333333 0.373163116211191
-0.261046771140714 -0.333333333333333 0.376303142920144
-0.254094041231496 -0.333333333333333 0.385555546485019
-0.259688869542749 -0.333333333333333 0.393006651288835
-0.258878997638017 -0.333333333333333 0.408503342385998
-0.261451220171849 -0.333333333333333 0.413461460088494
-0.254328745384228 -0.333333333333334 0.425474640678155
-0.261271394937583 -0.333333333333333 0.432130189517485
-0.258678355977002 -0.333333333333333 0.442791343096061
-0.255154477949135 -0.333333333333333 0.452045613145206
-0.253672169835392 -0.333333333333333 0.457698424933735
-0.256482184703395 -0.333333333333333 0.463138845844047
-0.259680863279158 -0.333333333333333 0.477341216299297
-0.260802028112378 -0.333333333333334 0.483230140529047
-0.255266534603169 -0.333333333333333 0.496034962084835
-0.261346851446817 -0.333333333333333 0.499358947933916
-0.256243463990481 -0.333333333333333 0.50894302990784
-0.257298700346351 -0.333333333333333 0.523000189494941
-0.253659570593303 -0.333333333333333 0.526087021118443
-0.262216474244964 -0.333333333333333 0.534363189807622
-0.256796848453423 -0.333333333333333 0.549616857981996
-0.255914837582727 -0.333333333333333 0.551037883310621
-0.257925664515483 -0.333333333333333 0.564223951308515
-0.253423301607388 -0.333333333333333 0.573968380058042
-0.260553730920348 -0.333333333333333 0.581508654046628
-0.257383498330064 -0.333333333333333 0.589840815665685
-0.253399245621123 -0.333333333333333 0.605120666651724
-0.254121106614211 -0.333333333333333 0.60475879648674
-0.254905144622121 -0.333333333333333 0.615789764399696
-0.253489390829126 -0.333333333333333 0.625812615537467
-0.258332204786893 -0.333333333333333 0.628870609363076
-0.261367278201229 -0.333333333333333 0.64986748096939
-0.254498781308186 -0.333333333333333 0.656401961085159
-0.261257448803306 -0.333333333333333 0.663902782721275
-0.25911908190746 -0.333333333333334 0.673369539478635
-0.259482170529963 -0.333333333333333 0.682779078764356
-0.256872270875949 -0.333333333333333 0.689019912528767
-0.260814921851714 -0.333333333333333 0.703341660826396
-0.259851855025282 -0.333333333333333 0.709707425424511
-0.256963361746541 -0.333333333333333 0.714295602359229
-0.257886294842813 -0.333333333333333 0.722266184037684
-0.253993116925085 -0.333333333333333 0.737729455434389
-0.257496009112998 -0.333333333333333 0.742360077915909
-0.261739942261556 -0.333333333333333 0.752469973009625
-0.259495729588384 -0.333333333333333 0.761005392338355
-0.258859504269588 -0.333333333333333 0.771456347640885
-0.258305438844659 -0.333333333333333 0.777577549449409
-0.257400141172007 -0.333333333333333 0.782771396028645
-0.262020366263863 -0.333333333333333 0.795585088428066
-0.259114957745201 -0.333333333333333 0.806198431211564
-0.25879087854444 -0.333333333333333 0.814326688073948
-0.255707204474586 -0.333333333333333 0.82796426668963
-0.25433761753794 -0.333333333333334 0.829064658421081
-0.262253054746084 -0.333333333333334 0.838512763877134
-0.2538087197439 -0.333333333333333 0.849850229949156
-0.254355091452279 -0.333333333333334 0.854746120807558
-0.261725674073263 -0.333333333333333 0.871126687203388
-0.260346492306907 -0.333333333333333 0.873093369155683
-0.256196221714742 -0.333333333333333 0.891517059496453
-0.256898073523399 -0.333333333333333 0.898745353325578
-0.261950565481232 -0.333333333333333 0.903631224924566
-0.261923178614988 -0.333333333333333 0.906389193182974
-0.256974630451368 -0.333333333333333 0.916865393178653
-0.257250345749641 -0.333333333333333 0.933101310281865
-0.258591652773857 -0.333333333333333 0.937864714301887
-0.260544837074735 -0.333333333333333 0.949239990879072
-0.260257441052549 -0.324177530097755 0.955555555555555
-0.256465650764919 -0.319772581644076 0.955555555555555
-0.260681052308154 -0.316390345234656 0.955555555555555
-0.315925280945117 0.277777777777777 0.517599585060285
-0.313766491361475 0.277777777777777 0.539847395912716
-0.318344802305773 0.277777777777777 0.540867578570316
-0.317672784070011 0.277777777777777 0.554945029191535
-0.312587896937675 0.277777777777777 0.567091740293757
-0.312610393315346 0.277777777777777 0.572527315938606
-0.318021455684279 0.277777777777777 0.583997147908213
-0.321248625439404 0.277777777777777 0.594078639210142
-0.321583324528834 0.277777777777777 0.605146050898811
-0.31257931923303 0.277777777777777 0.620988739019591
-0.317876690253802 0.277777777777777 0.635986151847589
-0.321938858950247 0.277777777777777 0.639179316693002
-0.319755955015146 0.277777777777777 0.651586959014554
-0.32258558364669 0.277777777777777 0.655785634853387
-0.319533222431503 0.277777777777777 0.67266375716126
-0.312308626559191 0.277777777777777 0.675994077888874
-0.316775404212198 0.277777777777777 0.694249982876776
-0.316095665419915 0.277777777777777 0.704763647337855
-0.314466340072948 0.277777777777777 0.713368365156694
-0.320420190098131 0.277777777777777 0.728291941223902
-0.316463335437611 0.277777777777777 0.734588023853082
-0.31262206050469 0.277777777777777 0.753985490898163
-0.319156601972671 0.277777777777777 0.752842196314017
-0.318334823444171 0.277777777777777 0.773230184076977
-0.318335243754842 0.277777777777777 0.780812330391276
-0.31194135847047 0.277777777777777 0.789914621591331
-0.321624938327713 0.277777777777777 0.802746845460368
-0.31979927226157 0.277777777777777 0.816109739958043
-0.321138292628524 0.277777777777777 0.822852684257607
-0.318935273263222 0.277777777777777 0.838483766189569
-0.314431879737505 0.277777777777777 0.854163102614582
-0.31332464248083 0.277777777777777 0.855868396533193
-0.312006620344947 0.277777777777777 0.872811677887644
-0.320768121197014 0.277777777777777 0.876814531417093
-0.317294977915092 0.277777777777777 0.890556551052906
-0.314612173616178 0.277777777777777 0.902060485065446
-0.314977004021855 0.277777777777777 0.906908272531807
-0.321291550510054 0.277777777777777 0.920775796743565
-0.315790369362354 0.277777777777777 0.934549475777988
-0.319352113476911 0.277777777777777 0.94721432429087
-0.319940561941445 0.280036997147275 0.955555555555555
-0.317053537479957 0.289455984732802 0.955555555555555
-0.3249855483446 0.313048414556912 0.955555555555555
-0.319783016949609 0.320488927990513 0.955555555555555
-0.248558864209163 -0.333333333333333 0.324747954115286
-0.246891713593841 -0.333333333333333 0.333407372346586
-0.24695234593176 -0.333333333333333 0.345535020136598
-0.245981112160376 -0.333333333333333 0.353364857349175
-0.24702672698039 -0.333333333333334 0.353280404613947
-0.252115858210006 -0.333333333333333 0.373844791542808
-0.248681176122209 -0.333333333333333 0.37851040761265
-0.249485617979549 -0.333333333333334 0.387727869459514
-0.253411882711776 -0.333333333333333 0.391178452020208
-0.247554489776777 -0.333333333333333 0.408528785721591
-0.246522395864006 -0.333333333333334 0.412492842556706
-0.248481112692505 -0.333333333333333 0.429326439688575
-0.246493585562013 -0.333333333333333 0.430384586084135
-0.245168096969382 -0.333333333333334 0.44678510507233
-0.252969312465944 -0.333333333333334 0.447041117276065
-0.248352620740379 -0.333333333333334 0.457609835187541
-0.249347780556182 -0.333333333333333 0.466159462529006
-0.249722598370938 -0.333333333333334 0.475346736234252
-0.251499939803661 -0.333333333333333 0.481839353788483
-0.253056360577743 -0.333333333333333 0.487182160749914
-0.248085095300247 -0.333333333333333 0.501561751458182
-0.247509171428034 -0.333333333333333 0.508796736630974
-0.24630431588192 -0.333333333333333 0.519526067470035
-0.252542510085708 -0.333333333333334 0.524223250577951
-0.250593732736892 -0.333333333333333 0.538377602329407
-0.245034467455972 -0.333333333333333 0.54944171738294
-0.247453287678154 -0.333333333333333 0.553402515215273
-0.244458526190488 -0.333333333333334 0.56476566373168
-0.25337793345804 -0.333333333333333 0.571606100940042
-0.251722673356714 -0.333333333333333 0.574608134461253
-0.248947827224744 -0.333333333333333 0.591340057161042
-0.247268619048455 -0.333333333333334 0.602257059556045
-0.249872023153204 -0.333333333333333 0.60583873290617
-0.24607635053792 -0.333333333333334 0.615456877425262
-0.248244511672051 -0.333333333333333 0.624036833660118
-0.249569975604738 -0.333333333333334 0.636248538929965
-0.250624304763563 -0.333333333333333 0.639544944403906
-0.245731433681963 -0.333333333333333 0.651733424857197
-0.251839418737274 -0.333333333333333 0.658627512336638
-0.248028646893819 -0.333333333333334 0.670879385163125
-0.251142256959746 -0.333333333333333 0.679760440275965
-0.252223123279152 -0.333333333333333 0.684421080641989
-0.251459731432599 -0.333333333333333 0.695385519863096
-0.247718977815679 -0.333333333333333 0.709881043097776
-0.250680717439995 -0.333333333333333 0.715542531605974
-0.244935166583939 -0.333333333333333 0.725188969299232
-0.247609676189072 -0.333333333333333 0.735586902330921
-0.252666810071986 -0.333333333333333 0.747356413583975
-0.252618444527821 -0.333333333333333 0.755082507830581
-0.244819804774056 -0.333333333333333 0.762946665325377
-0.252563101815083 -0.333333333333333 0.772106813547291
-0.247388940410265 -0.333333333333333 0.779982531544807
-0.249270140085238 -0.333333333333333 0.785542612401511
-0.252033502753934 -0.333333333333334 0.790703868345381
-0.244701244203652 -0.333333333333333 0.802201683247965
-0.250384946230546 -0.333333333333333 0.81684758014493
-0.246592180158704 -0.333333333333333 0.826527145658485
-0.246501294024235 -0.333333333333333 0.832288648695529
-0.244845599120595 -0.333333333333333 0.845917198231894
-0.247134121599964 -0.333333333333333 0.844638515371862
-0.245522466660366 -0.333333333333333 0.860684863562777
-0.252291993457067 -0.333333333333333 0.866267858288228
-0.248104679608211 -0.333333333333333 0.873791597268532
-0.251483833827501 -0.333333333333333 0.883831790978848
-0.249305126216199 -0.333333333333333 0.892029354310794
-0.25205294750775 -0.333333333333333 0.89606627109323
-0.245471879646301 -0.333333333333333 0.914695672005434
-0.248749256458964 -0.333333333333333 0.918638366725518
-0.251118993344149 -0.333333333333333 0.924628576241996
-0.251132773675956 -0.333333333333333 0.940854470621232
-0.248852187549854 -0.333333333333333 0.944877241663883
-0.247449726453609 -0.333333333333333 0.954904775244451
-0.247977326131529 -0.317603465023536 0.955555555555555
-0.309560450133728 0.277777777777777 0.516849005374742
-0.302686252295279 0.277777777777777 0.516361506198644
-0.304234845418506 0.277777777777777 0.533624630753521
-0.311390304961099 0.277777777777777 0.540673039894857
-0.302533815224196 0.277777777777777 0.548186949242465
-0.307883942364476 0.277777777777777 0.570375478840502
-0.307698890311543 0.277777777777777 0.578090045200851
-0.303780844609474 0.277777777777777 0.590875236678924
-0.30680605700933 0.277777777777777 0.60145984040648
-0.307091643078892 0.277777777777777 0.611617543307423
-0.305248671513441 0.277777777777777 0.615105742927678
-0.311460788334988 0.277777777777777 0.631818705509737
-0.304464838061324 0.277777777777777 0.637352884614366
-0.300971437096838 0.277777777777777 0.657743363673457
-0.307343044138002 0.277777777777777 0.659591395114839
-0.306867704353608 0.277777777777777 0.664322976509588
-0.300526731820666 0.277777777777777 0.680584357558593
-0.306773383314617 0.277777777777777 0.702029575639906
-0.309246337778949 0.277777777777777 0.696664803499436
-0.308164327151027 0.277777777777777 0.715842028713438
-0.30400690285143 0.277777777777777 0.721731665661049
-0.306791987755447 0.277777777777777 0.734154427143931
-0.310566592043748 0.277777777777777 0.7431167878013
-0.306933574003768 0.277777777777777 0.758367499980806
-0.302766926567091 0.277777777777777 0.776041898673075
-0.308525926913512 0.277777777777777 0.780460737253972
-0.303575887884763 0.277777777777777 0.791298207353337
-0.302196406361967 0.277777777777777 0.7987537792416
-0.300233190280208 0.277777777777777 0.81343725875278
-0.309812474169251 0.277777777777777 0.820834176320367
-0.309109201426343 0.277777777777777 0.842631470231919
-0.309352407016831 0.277777777777777 0.847092340049226
-0.300477496129918 0.277777777777777 0.856003734601496
-0.308424118230751 0.277777777777777 0.873309803296786
-0.300456715234844 0.277777777777777 0.877324870200406
-0.308135819166536 0.277777777777777 0.889738555171712
-0.301249178463142 0.277777777777777 0.908229962193026
-0.303835541197459 0.277777777777777 0.91071095577901
-0.31106886112161 0.277777777777777 0.919836996782176
-0.300840936172208 0.277777777777777 0.940801070885205
-0.304107397499542 0.277777777777777 0.952165993296547
-0.303067461073355 0.288957653442893 0.955555555555555
-0.302716565839935 0.306725963128516 0.955555555555555
-0.312889648955433 0.323455207143644 0.955555555555555
-0.315173083737116 0.328182521411654 0.955555555555555
-0.240980752729209 -0.333333333333333 0.32019071055824
-0.240798659047579 -0.333333333333333 0.331103189269447
-0.23998752173463 -0.333333333333333 0.344045594066371
-0.236016248127052 -0.333333333333333 0.350476912743742
-0.241456958833024 -0.333333333333333 0.35579805673598
-0.240932747707952 -0.333333333333333 0.371636812522439
-0.23640003080943 -0.333333333333333 0.377878207939763
-0.239686174203005 -0.333333333333333 0.382598220003475
-0.236942468197357 -0.333333333333333 0.397713169400124
-0.239555616089015 -0.333333333333334 0.40542589541993
-0.242638242845461 -0.333333333333333 0.413725047134335
-0.240233975444949 -0.333333333333333 0.421984478663862
-0.242419193296902 -0.333333333333333 0.433342520357121
-0.239113865022979 -0.333333333333333 0.437812777330059
-0.243157942310373 -0.333333333333333 0.443252859604746
-0.236247198793431 -0.333333333333333 0.462520831954943
-0.236083525495264 -0.333333333333333 0.461147142453984
-0.236648183288902 -0.333333333333333 0.47721630960711
-0.238006070008116 -0.333333333333334 0.487144450781863
-0.242412714642634 -0.333333333333334 0.493858024791663
-0.238439213867539 -0.333333333333333 0.507669800039943
-0.242851755734488 -0.333333333333333 0.516272814051144
-0.237461133856259 -0.333333333333333 0.524313203939413
-0.238652854485373 -0.333333333333333 0.528313100717117
-0.240673421033604 -0.333333333333333 0.541601535278814
-0.244238565024817 -0.333333333333333 0.544448651253407
-0.243865876259482 -0.333333333333333 0.556527709754705
-0.240352470288519 -0.333333333333334 0.561907710166562
-0.237118452369596 -0.333333333333334 0.574250925156493
-0.238174107286258 -0.333333333333333 0.574925647263423
-0.240230087234839 -0.333333333333334 0.592589726720465
-0.238342763775939 -0.333333333333333 0.600454869454294
-0.243257254963871 -0.333333333333333 0.609295148799849
-0.242652590791627 -0.333333333333333 0.61122789676989
-0.240176731023499 -0.333333333333334 0.626175582647751
-0.240596100519646 -0.333333333333333 0.632638699271196
-0.241319312623972 -0.333333333333333 0.646574871174356
-0.239388876676489 -0.333333333333333 0.650048924802339
-0.236870225687489 -0.333333333333333 0.663311413976566
-0.239560942527764 -0.333333333333333 0.670302665447684
-0.24201198299081 -0.333333333333333 0.677592794453578
-0.236670643065912 -0.333333333333333 0.687404025693339
-0.241601670522941 -0.333333333333333 0.699161662395113
-0.240708875370889 -0.333333333333333 0.708279785141634
-0.243264862286424 -0.333333333333334 0.715481026054533
-0.241219691195146 -0.333333333333333 0.724416990648651
-0.241216611149268 -0.333333333333333 0.737592667720998
-0.244523634274812 -0.333333333333333 0.74393326429925
-0.24157827758142 -0.333333333333333 0.749086071386486
-0.243900071009597 -0.333333333333334 0.764866650242968
-0.235796828848438 -0.333333333333334 0.771795187708668
-0.242998043503334 -0.333333333333334 0.776822213369477
-0.238706886960837 -0.333333333333333 0.78362830316206
-0.244176165685075 -0.333333333333334 0.790742092398072
-0.239747681525113 -0.333333333333333 0.808605780942837
-0.236719536027867 -0.333333333333334 0.813169326398085
-0.24121206054974 -0.333333333333333 0.823222768304639
-0.236512593376068 -0.333333333333334 0.830263582918219
-0.24263078450362 -0.333333333333333 0.844714796615936
-0.239992502496195 -0.333333333333333 0.84217611175725
-0.242097309049142 -0.333333333333333 0.859440589774475
-0.239279771643578 -0.333333333333333 0.865141016707711
-0.243254659500207 -0.333333333333333 0.8775614247966
-0.23939780608195 -0.333333333333334 0.878273965845165
-0.244033887092942 -0.333333333333333 0.895781172034543
-0.238176299726467 -0.333333333333333 0.902377276710763
-0.2389628679529 -0.333333333333333 0.907754882651904
-0.240810756620064 -0.333333333333334 0.922155945382446
-0.243283485388966 -0.333333333333333 0.92374830540409
-0.244142079679247 -0.333333333333334 0.932744593089434
-0.241744982895992 -0.333333333333334 0.94572828607786
-0.237543763837348 -0.327217510779968 0.955555555555555
-0.238689054361021 -0.324443853772568 0.955555555555555
-0.240500693853302 -0.316887243351442 0.955555555555555
-0.292557170354651 0.277777777777777 0.516355308437425
-0.294961604119523 0.277777777777777 0.53719498359663
-0.300466976320597 0.277777777777777 0.542685504432194
-0.290097712807806 0.277777777777777 0.555485455681347
-0.295803991490542 0.277777777777777 0.561476592877479
-0.296855218499162 0.277777777777777 0.572750014956187
-0.296635944456465 0.277777777777777 0.583609162829806
-0.29591194949455 0.277777777777777 0.592292171401378
-0.295647949116106 0.277777777777777 0.606496902738645
-0.293562106442852 0.277777777777777 0.613333929991247
-0.297584624102849 0.277777777777777 0.633336395176336
-0.297464354289721 0.277777777777777 0.64162354947643
-0.296684423209345 0.277777777777777 0.649143325126934
-0.292293491929291 0.277777777777777 0.662226092577692
-0.294513250171151 0.277777777777777 0.66508849108715
-0.29696400397842 0.277777777777777 0.680125848828812
-0.296449811062786 0.277777777777777 0.689730254829847
-0.293541981803202 0.277777777777777 0.701950303682308
-0.295166304319325 0.277777777777777 0.710915173728698
-0.291005502196283 0.277777777777777 0.722090228211733
-0.297624439977078 0.277777777777777 0.744757913864875
-0.290572837340377 0.277777777777777 0.75059613031888
-0.292741816766255 0.277777777777777 0.758804895339532
-0.297625214334596 0.277777777777777 0.766792640298488
-0.290341478196234 0.277777777777777 0.778093645770437
-0.298986924944011 0.277777777777777 0.790131929957891
-0.299316981212035 0.277777777777777 0.798227350286643
-0.292534403685737 0.277777777777777 0.820453271308607
-0.297344488122349 0.277777777777777 0.827083483024211
-0.296729494366249 0.277777777777777 0.831342501641302
-0.299889152665035 0.277777777777777 0.848173100291401
-0.2917998308409 0.277777777777777 0.864086374543359
-0.292475056684576 0.277777777777777 0.872949283372983
-0.290865721967653 0.277777777777777 0.875599076195274
-0.29339106035455 0.277777777777777 0.892428103748435
-0.294074097657362 0.277777777777777 0.902900411757608
-0.296241168296693 0.277777777777777 0.911056121642332
-0.290042843485187 0.277777777777777 0.917620143198215
-0.297172466592338 0.277777777777777 0.93398677048025
-0.299608425230133 0.277777777777777 0.948006416459004
-0.295268037191609 0.28069155435928 0.955555555555555
-0.296300374085565 0.293607944369653 0.955555555555555
-0.297680230074493 0.309294417679604 0.955555555555555
-0.303405389869442 0.326480738373896 0.955555555555555
-0.228373573607178 -0.333333333333333 0.327851808539168
-0.235506048568019 -0.333333333333333 0.33432043544927
-0.231761688241785 -0.333333333333334 0.348134784898679
-0.234237578453166 -0.333333333333333 0.350720395273625
-0.226792579958585 -0.333333333333333 0.362016500239846
-0.232113468867776 -0.333333333333333 0.365772685143475
-0.231695805768136 -0.333333333333333 0.370023364834465
-0.23530990450739 -0.333333333333333 0.383628767418572
-0.228235903038508 -0.333333333333333 0.395234871971314
-0.23087805359172 -0.333333333333333 0.404788813467206
-0.230277346966553 -0.333333333333333 0.412225986002185
-0.232467754615971 -0.333333333333333 0.423654933227224
-0.232538579077534 -0.333333333333333 0.432425922261687
-0.229101084406043 -0.333333333333333 0.444554795581037
-0.227375960407824 -0.333333333333333 0.440479357222079
-0.227663923503387 -0.333333333333333 0.456039125492317
-0.234241198277266 -0.333333333333334 0.462107378706206
-0.233148363000843 -0.333333333333334 0.470016192532473
-0.228176086557162 -0.333333333333334 0.479126459851689
-0.227410784727448 -0.333333333333333 0.49200278576017
-0.229795618608095 -0.333333333333333 0.50123872383791
-0.233863256901078 -0.333333333333333 0.51362029195159
-0.230992371284617 -0.333333333333333 0.523354597225687
-0.231866565486507 -0.333333333333333 0.53049089955632
-0.235581469075719 -0.333333333333333 0.534429050508933
-0.235437753577813 -0.333333333333333 0.552216126541739
-0.233580566258337 -0.333333333333333 0.551249005172358
-0.231520275284115 -0.333333333333333 0.566694955870033
-0.227661962607744 -0.333333333333333 0.569125662329939
-0.22958779052341 -0.333333333333333 0.578907221304389
-0.23006479461703 -0.333333333333333 0.585511967014425
-0.227499564183515 -0.333333333333333 0.603128016708191
-0.234417234178077 -0.333333333333333 0.608013645055348
-0.23329819790391 -0.333333333333333 0.618749786889255
-0.227388538803736 -0.333333333333334 0.633681926289751
-0.23523037711981 -0.333333333333333 0.63755112153055
-0.233842167789192 -0.333333333333333 0.647123428641599
-0.227372846777218 -0.333333333333333 0.647949914275485
-0.233906401828222 -0.333333333333334 0.66311856898392
-0.226668977377652 -0.333333333333333 0.675100161165161
-0.23167819078528 -0.333333333333334 0.679789674136968
-0.23181363885602 -0.333333333333333 0.684042073828542
-0.228247580463487 -0.333333333333333 0.696636817500632
-0.229926675614597 -0.333333333333333 0.706760322228748
-0.227640452730789 -0.333333333333333 0.711345542488538
-0.231207959643723 -0.333333333333333 0.726870139926229
-0.23094622271479 -0.333333333333333 0.736335329426527
-0.232306532312545 -0.333333333333333 0.743469546705726
-0.232027246207121 -0.333333333333334 0.74526915094111
-0.233963148401049 -0.333333333333333 0.761910706405677
-0.234872945336291 -0.333333333333333 0.765237166967086
-0.227572540915715 -0.333333333333333 0.776712124598158
-0.233665073584629 -0.333333333333333 0.786513382017392
-0.227258906667681 -0.333333333333333 0.795510864090949
-0.228885047781326 -0.333333333333333 0.806195337729288
-0.233882559025777 -0.333333333333333 0.812114227911479
-0.230057347340803 -0.333333333333333 0.828845853580503
-0.232257142835786 -0.333333333333333 0.836889649402774
-0.231537545251288 -0.333333333333334 0.840381877405792
-0.22978919241675 -0.333333333333333 0.851429289053181
-0.22676319782361 -0.333333333333333 0.856852272127926
-0.230320027070896 -0.333333333333333 0.871246024962197
-0.231583203938329 -0.333333333333333 0.883111325382705
-0.230039163660155 -0.333333333333333 0.884236185945642
-0.23118992429941 -0.333333333333333 0.896540334775112
-0.233694355553942 -0.333333333333333 0.901612212084837
-0.234056168034309 -0.333333333333334 0.91390008815115
-0.231929478555108 -0.333333333333333 0.917807629332841
-0.23019698545917 -0.333333333333333 0.923564087979566
-0.233809348544447 -0.333333333333333 0.934716145666366
-0.23505097968393 -0.333333333333333 0.949791187524061
-0.22714229210488 -0.333333333333334 0.95544980487038
-0.229896483161292 -0.325716794565864 0.955555555555555
-0.285512605689525 0.277777777777777 0.510589986620047
-0.284179892694781 0.277777777777777 0.521954507025109
-0.279171142418398 0.277777777777777 0.52668186557668
-0.280570891637567 0.277777777777777 0.540981218901957
-0.280437206885499 0.277777777777777 0.557527430143626
-0.284033570259291 0.277777777777777 0.563209751059306
-0.286167512395652 0.277777777777777 0.57930187641641
-0.283643046780111 0.277777777777777 0.587027951935148
-0.281241919535575 0.277777777777777 0.595252730508008
-0.283661629723417 0.277777777777777 0.6082186105266
-0.289123333869385 0.277777777777777 0.615742578364041
-0.286282055052266 0.277777777777777 0.634155123127835
-0.2791273057388 0.277777777777777 0.635096074443849
-0.279717633886059 0.277777777777777 0.649708355909557
-0.289260212265502 0.277777777777777 0.661296336920994
-0.279859713877286 0.277777777777777 0.674385607692501
-0.282732458753574 0.277777777777777 0.67874423317733
-0.279525506679177 0.277777777777777 0.690841702554908
-0.282821347145265 0.277777777777777 0.706290404044244
-0.28360147994062 0.277777777777777 0.713078472707008
-0.287036510040682 0.277777777777777 0.72566717203091
-0.282604693334394 0.277777777777777 0.734331687598854
-0.28905156760381 0.277777777777777 0.749201428722462
-0.279141326747465 0.277777777777777 0.75653615451885
-0.288506883792744 0.277777777777777 0.771231633510752
-0.288833922190483 0.277777777777777 0.785718339744074
-0.278136214513838 0.277777777777777 0.795379104018701
-0.281952997925997 0.277777777777777 0.809539147700352
-0.287111766718259 0.277777777777777 0.816562508714767
-0.279310348256021 0.277777777777777 0.823125850522148
-0.283484929432129 0.277777777777777 0.840596313627942
-0.283247746124407 0.277777777777777 0.84464014779879
-0.287170803653318 0.277777777777777 0.857326258596182
-0.279616697381603 0.277777777777777 0.867592952026676
-0.281734714838089 0.277777777777777 0.881445809136497
-0.285730057159623 0.277777777777777 0.895148956535904
-0.288317941068267 0.277777777777777 0.903441051537315
-0.289708440224447 0.277777777777777 0.915749667409377
-0.286091617731033 0.277777777777777 0.92414607611051
-0.282612696075209 0.277777777777777 0.938021919901804
-0.279154914289177 0.277777777777777 0.947670366605802
-0.279113745703765 0.283204945000026 0.955555555555555
-0.28767042926583 0.3033376766807 0.955555555555555
-0.283538539996048 0.310819782521738 0.955555555555555
-0.286690629492768 0.329242887479909 0.955555555555555
-0.224852877056395 -0.333333333333333 0.323828049152404
-0.22079903975819 -0.333333333333333 0.327318549697772
-0.219679423176977 -0.333333333333333 0.34357688286744
-0.22584025016741 -0.333333333333333 0.351306564990671
-0.226025913641984 -0.333333333333333 0.36653149314511
-0.217620127988767 -0.333333333333333 0.372488694451871
-0.217960592223337 -0.333333333333334 0.377487337635489
-0.219351144109542 -0.333333333333333 0.384771492968419
-0.225306493000081 -0.333333333333334 0.396457878399918
-0.226155544138917 -0.333333333333334 0.402861038957579
-0.22001943890839 -0.333333333333333 0.409469722142804
-0.220569606790637 -0.333333333333333 0.423276181545475
-0.223940461746385 -0.333333333333333 0.424909125397946
-0.224498975082143 -0.333333333333333 0.440688396041427
-0.221482726873432 -0.333333333333333 0.447796423218188
-0.220061966542228 -0.333333333333333 0.46097551537637
-0.220903893528135 -0.333333333333333 0.470704563852454
-0.21835619572065 -0.333333333333333 0.470164192170747
-0.218547485309308 -0.333333333333333 0.481141915231973
-0.22315534454397 -0.333333333333333 0.491765796352917
-0.224895559668017 -0.333333333333333 0.498002794580702
-0.220541929805543 -0.333333333333333 0.505759290550919
-0.21906796345033 -0.333333333333333 0.519727899999602
-0.219565874928144 -0.333333333333333 0.532768669033167
-0.219446226493908 -0.333333333333333 0.53542168471261
-0.226535664410568 -0.333333333333333 0.549396467540069
-0.221919184821973 -0.333333333333334 0.551843855854521
-0.224550323040883 -0.333333333333334 0.567977673437366
-0.225330364515223 -0.333333333333333 0.569066698352739
-0.22538893002736 -0.333333333333334 0.582440548563652
-0.22089880645951 -0.333333333333333 0.590078310143933
-0.217844290431567 -0.333333333333333 0.601319967643169
-0.217931441975021 -0.333333333333333 0.603639935809122
-0.218930855887865 -0.333333333333333 0.611206473422534
-0.223610890398842 -0.333333333333333 0.623880597195481
-0.220021674642313 -0.333333333333333 0.639248013203587
-0.219819622119598 -0.333333333333333 0.646073229477381
-0.220342690556485 -0.333333333333333 0.65329757462572
-0.223003603865433 -0.333333333333333 0.661316903513752
-0.220810396189557 -0.333333333333334 0.674178262014184
-0.219685716984904 -0.333333333333333 0.679754505562515
-0.225933108769103 -0.333333333333334 0.69078882671813
-0.223073951591321 -0.333333333333333 0.693106628925119
-0.221273709909681 -0.333333333333333 0.709460233582171
-0.217916317783293 -0.333333333333334 0.719723808127149
-0.223643212683605 -0.333333333333334 0.724235208572774
-0.224432412992522 -0.333333333333333 0.73538657288644
-0.221378025438019 -0.333333333333333 0.737619780620508
-0.222059903661492 -0.333333333333333 0.756057260641166
-0.222192231029478 -0.333333333333333 0.753211489001148
-0.224672108009949 -0.333333333333333 0.766251726687864
-0.22614504378098 -0.333333333333333 0.776180863660548
-0.223455150823725 -0.333333333333333 0.782871161101511
-0.219923739118995 -0.333333333333333 0.801973147687399
-0.224302537081344 -0.333333333333333 0.79943461605628
-0.220657296041345 -0.333333333333333 0.807810632312091
-0.226148180500049 -0.333333333333333 0.826880536885467
-0.218581128799985 -0.333333333333333 0.83319269524018
-0.22200658159213 -0.333333333333333 0.834022043767221
-0.218242718841265 -0.333333333333333 0.84932763749694
-0.226294991573581 -0.333333333333333 0.854397984933234
-0.217787729964011 -0.333333333333333 0.866606582811232
-0.225301722142512 -0.333333333333333 0.879057567222869
-0.219739006081215 -0.333333333333334 0.881202826154125
-0.221789299610175 -0.333333333333333 0.896939694478553
-0.219970608078236 -0.333333333333333 0.904697778576476
-0.226162937455387 -0.333333333333334 0.909836206192038
-0.22625612664657 -0.333333333333334 0.923882406194406
-0.221518998755956 -0.333333333333333 0.927626869299176
-0.226442473541427 -0.333333333333333 0.935855929123025
-0.217830795220283 -0.333333333333334 0.942433060572722
-0.219395574386178 -0.333333333333334 0.955271196545245
-0.221610111710962 -0.329351139338442 0.955555555555555
-0.278137288538136 0.277777777777777 0.516176810863002
-0.273383445261663 0.277777777777777 0.517865386546984
-0.276135392400713 0.277777777777777 0.536450337330717
-0.268508469247101 0.277777777777777 0.538289812928455
-0.277517708129322 0.277777777777777 0.552482141318463
-0.274856375366727 0.277777777777777 0.567063882930933
-0.277435412430017 0.277777777777777 0.576600723765029
-0.276253869090522 0.277777777777777 0.584333813822131
-0.275997394817747 0.277777777777777 0.600218919851373
-0.27607596449494 0.277777777777777 0.612691091457794
-0.274099756222835 0.277777777777777 0.622891773301552
-0.27543978476443 0.277777777777777 0.631250175550534
-0.270957784173564 0.277777777777777 0.639640432423025
-0.269611652543002 0.277777777777777 0.654976693025528
-0.269158777514438 0.277777777777777 0.657399159374753
-0.269016241995465 0.277777777777777 0.677058738488916
-0.270942897814743 0.277777777777777 0.687003228616433
-0.27526935574649 0.277777777777777 0.698015008485761
-0.276821508074559 0.277777777777777 0.70380000507081
-0.267738911265635 0.277777777777777 0.714762226523746
-0.272235798975039 0.277777777777777 0.727178746944397
-0.268670364172285 0.277777777777777 0.737194367368887
-0.276357889165018 0.277777777777777 0.74774331780015
-0.268722459442768 0.277777777777777 0.760680282920977
-0.272911848828627 0.277777777777777 0.771340086814505
-0.270362802244696 0.277777777777777 0.784676893802438
-0.275867075902723 0.277777777777777 0.792176216495862
-0.269442695457033 0.277777777777777 0.797544462290992
-0.271762231283138 0.277777777777777 0.817184061675866
-0.274540263514525 0.277777777777777 0.822162915296091
-0.275027007107666 0.277777777777777 0.833750976315413
-0.276289050077863 0.277777777777777 0.848955207281971
-0.278404675830861 0.277777777777777 0.856157834004439
-0.27763119984825 0.277777777777777 0.863655199547097
-0.275501206412279 0.277777777777777 0.87745637024536
-0.269588356012321 0.277777777777777 0.895441753490866
-0.276446678055035 0.277777777777777 0.904746722289166
-0.278390507526708 0.277777777777777 0.907365611197432
-0.26922237973482 0.277777777777777 0.923838277831819
-0.277227882092658 0.277777777777777 0.934869793598138
-0.273874438558903 0.277777777777777 0.938529259939353
-0.268869130679073 0.277777777777777 0.951864084134403
-0.280550995043204 0.304193468504279 0.955555555555555
-0.274144073223091 0.313001538530422 0.955555555555555
-0.209524462361511 -0.333333333333334 0.322713623956586
-0.213763900621231 -0.333333333333333 0.332127867915437
-0.212586839385771 -0.333333333333334 0.341374010271241
-0.217450296583649 -0.333333333333333 0.35489925700528
-0.210864719625798 -0.333333333333334 0.355907113352757
-0.212833896945654 -0.333333333333334 0.371137286553578
-0.214462387294764 -0.333333333333333 0.379290458992715
-0.209397494889097 -0.333333333333333 0.391115827464435
-0.216955790781328 -0.333333333333333 0.395981342624823
-0.217051579811524 -0.333333333333333 0.408455145658562
-0.208875408623609 -0.333333333333333 0.412329601827902
-0.209099933697549 -0.333333333333333 0.426101473648258
-0.213270122512959 -0.333333333333334 0.433269384371983
-0.213978779310999 -0.333333333333333 0.441317528377158
-0.213619800799371 -0.333333333333333 0.450961153401086
-0.214383988572079 -0.333333333333333 0.464372365359699
-0.20962991397551 -0.333333333333333 0.467896546212777
-0.211132033594201 -0.333333333333333 0.479521905580308
-0.217762535441083 -0.333333333333334 0.477025889134838
-0.208841451409908 -0.333333333333333 0.495213339441226
-0.214819595045971 -0.333333333333333 0.498295332404472
-0.21560679134217 -0.333333333333333 0.508559971663696
-0.217086424153515 -0.333333333333333 0.517992012081416
-0.210898658970054 -0.333333333333333 0.529917936113146
-0.211856240461579 -0.333333333333333 0.542059609299972
-0.216078271557098 -0.333333333333333 0.550481801978291
-0.211750340030629 -0.333333333333333 0.553474720730774
-0.211216225455744 -0.333333333333333 0.566164718041157
-0.213409866224446 -0.333333333333333 0.573075350704502
-0.209779344072938 -0.333333333333333 0.584705426331022
-0.210612280516313 -0.333333333333333 0.595221789547916
-0.210130185629234 -0.333333333333333 0.60396770707254
-0.2172032009012 -0.333333333333333 0.612260649027732
-0.212280870276441 -0.333333333333333 0.621281470958589
-0.209429840189493 -0.333333333333333 0.62396189889978
-0.21720205861408 -0.333333333333334 0.636701860595149
-0.216057535589616 -0.333333333333334 0.647976841395903
-0.214306377912546 -0.333333333333333 0.652985737520506
-0.209937930341709 -0.333333333333334 0.665616017182673
-0.209601946936028 -0.333333333333333 0.670408526214302
-0.217429053363698 -0.333333333333333 0.680851537126366
-0.214802876475132 -0.333333333333333 0.691976420442732
-0.21112192458661 -0.333333333333333 0.690367888730774
-0.215342905162209 -0.333333333333333 0.703349634500484
-0.215084300934955 -0.333333333333333 0.720782678943279
-0.21609357934649 -0.333333333333333 0.723567956598455
-0.209905550582589 -0.333333333333334 0.735877457186274
-0.217450192866065 -0.333333333333333 0.740452832948141
-0.215453101922747 -0.333333333333333 0.750089016332861
-0.211458692551846 -0.333333333333333 0.760306379531523
-0.215758028512709 -0.333333333333333 0.765842135671818
-0.216574686979884 -0.333333333333333 0.778603347514325
-0.211704537216065 -0.333333333333333 0.783967200330028
-0.209450439606556 -0.333333333333334 0.794522580881811
-0.212096591790502 -0.333333333333333 0.801408430673211
-0.211439874863376 -0.333333333333333 0.815798880199165
-0.211817907361591 -0.333333333333334 0.818639077203757
-0.217586945089714 -0.333333333333333 0.828829738928326
-0.209082776229388 -0.333333333333333 0.841533732493469
-0.216337160597522 -0.333333333333333 0.851123244355855
-0.21553107094309 -0.333333333333333 0.854351839650337
-0.213260136712673 -0.333333333333333 0.861369400119646
-0.210964287079081 -0.333333333333333 0.877039645995917
-0.21728972833883 -0.333333333333333 0.88154101612812
-0.209544342789 -0.333333333333333 0.895148658227305
-0.213381957817603 -0.333333333333333 0.897790930184486
-0.21482575147465 -0.333333333333333 0.904788459306033
-0.20959325418785 -0.333333333333333 0.920397749748155
-0.217682932179376 -0.333333333333334 0.928844753140058
-0.211697222647846 -0.333333333333333 0.934286900064366
-0.214833733469698 -0.333333333333333 0.941819977956855
-0.215100758938648 -0.333333333333333 0.955039749500723
-0.213182635766716 -0.320753562620973 0.955555555555555
-0.213254280417978 -0.311961686796189 0.955555555555555
-0.256579658165834 0.277777777777777 0.525210956713488
-0.265192208995029 0.277777777777777 0.530653538595754
-0.257833867098823 0.277777777777777 0.539044218850018
-0.26561056751279 0.277777777777777 0.555198955057273
-0.264083740823435 0.277777777777777 0.565513315276365
-0.26406486146767 0.277777777777777 0.570532205050798
-0.26160693902122 0.277777777777777 0.586216316288489
-0.263763669083408 0.277777777777777 0.598497455032649
-0.259461171310539 0.277777777777777 0.611656763450712
-0.26547688102997 0.277777777777777 0.614852672879246
-0.258555192133522 0.277777777777777 0.628272377806597
-0.265710404091737 0.277777777777777 0.631892469791399
-0.263402971509038 0.277777777777777 0.650465624919126
-0.264204477052859 0.277777777777777 0.661218914966624
-0.25866285239105 0.277777777777777 0.673266077119675
-0.265895274551918 0.277777777777777 0.679466133905625
-0.263790108543419 0.277777777777777 0.695878262996188
-0.267422844315799 0.277777777777777 0.701619022349623
-0.25840441891891 0.277777777777777 0.712599392082098
-0.26722173465452 0.277777777777777 0.728237997095984
-0.262898770127691 0.277777777777777 0.74534545800043
-0.257694336718632 0.277777777777777 0.748587226506559
-0.259081263740846 0.277777777777777 0.76260415675018
-0.258100912266538 0.277777777777777 0.767802708058885
-0.26621439959903 0.277777777777777 0.785765897018145
-0.266564937225097 0.277777777777777 0.792112356026278
-0.267198741353632 0.277777777777777 0.802856895972203
-0.264437721037584 0.277777777777777 0.816718057552026
-0.258104358691442 0.277777777777777 0.828776434675078
-0.264052760637575 0.277777777777777 0.840913083372646
-0.257062607175016 0.277777777777777 0.841892687763367
-0.257644521377251 0.277777777777777 0.85932827464539
-0.264582332231756 0.277777777777777 0.867588865206687
-0.257158887719776 0.277777777777777 0.879163803821136
-0.26369346238043 0.277777777777777 0.890114589452606
-0.263464651790571 0.277777777777777 0.904439113324831
-0.26817455902613 0.277777777777777 0.90775370254899
-0.266547004078801 0.277777777777777 0.921374738113588
-0.257308518079712 0.277777777777777 0.9267718839061
-0.258995992175174 0.277777777777777 0.94347972803205
-0.263260962701252 0.277777777777777 0.951806260810177
-0.261774632811665 0.291984689567951 0.955555555555555
-0.269723464964537 0.32298697421808 0.955555555555555
-0.206299015249932 -0.333333333333333 0.32458671810216
-0.202874721312696 -0.333333333333333 0.327601856104272
-0.208597210731724 -0.333333333333333 0.340052399743956
-0.20651244061624 -0.333333333333333 0.349239503695096
-0.206433953906584 -0.333333333333333 0.360274086161284
-0.207296541055573 -0.333333333333333 0.372038146982174
-0.209112878735797 -0.333333333333333 0.375550721396457
-0.205252362561188 -0.333333333333333 0.381791532198186
-0.202499882972226 -0.333333333333333 0.399973768273262
-0.200323760244212 -0.333333333333334 0.398952865025836
-0.207481549676411 -0.333333333333334 0.414616741648522
-0.203512224784311 -0.333333333333334 0.418206733401382
-0.200365868061358 -0.333333333333333 0.434270976938212
-0.202119465741037 -0.333333333333333 0.439215351652379
-0.206585638482857 -0.333333333333333 0.450462877612797
-0.206896259102402 -0.333333333333333 0.4637043573792
-0.201870941568187 -0.333333333333333 0.466450571649355
-0.199751333349081 -0.333333333333333 0.480187263392404
-0.20707350566474 -0.333333333333333 0.479621305428437
-0.200864427794588 -0.333333333333333 0.497623133777022
-0.201615076582441 -0.333333333333333 0.500686208480154
-0.202927181166841 -0.333333333333333 0.50771949740133
-0.203331141421842 -0.333333333333333 0.524407080791243
-0.204044826561812 -0.333333333333333 0.527964651427122
-0.205913078979128 -0.333333333333333 0.536481672621523
-0.207782039576699 -0.333333333333333 0.549976554033775
-0.201759021285801 -0.333333333333333 0.552636381366793
-0.202111239592478 -0.333333333333333 0.560464629981798
-0.207645285189988 -0.333333333333333 0.577288240257941
-0.206483024889135 -0.333333333333333 0.586078531132879
-0.200922314824167 -0.333333333333333 0.594226266309105
-0.202339565687991 -0.333333333333333 0.600920111300598
-0.203325342780825 -0.333333333333333 0.609599031535518
-0.203681093055041 -0.333333333333333 0.618347388291014
-0.200455933993351 -0.333333333333333 0.62465786447356
-0.204141418479577 -0.333333333333334 0.62975697809273
-0.205876278116297 -0.333333333333333 0.64864287168496
-0.200166814593677 -0.333333333333333 0.656394872243183
-0.205389701187029 -0.333333333333333 0.660311909000986
-0.208679478879506 -0.333333333333334 0.671185981120609
-0.207476616157233 -0.333333333333333 0.681565069437401
-0.202168845544209 -0.333333333333333 0.693705629502502
-0.200225229615004 -0.333333333333333 0.698574954122856
-0.202987536642943 -0.333333333333333 0.699275088390785
-0.203718022056787 -0.333333333333333 0.722353089933734
-0.202644664708781 -0.333333333333333 0.720887416192516
-0.208928229253907 -0.333333333333334 0.728391672755331
-0.201058189923397 -0.333333333333333 0.745566679076959
-0.202154632401037 -0.333333333333333 0.756464775236402
-0.208449244844376 -0.333333333333333 0.759764939223153
-0.201596267189804 -0.333333333333333 0.76653752126264
-0.208288130990061 -0.333333333333333 0.785052789977556
-0.20528870042923 -0.333333333333333 0.785301917291733
-0.200173470922903 -0.333333333333333 0.798253153245906
-0.204520332412648 -0.333333333333333 0.80820970930936
-0.207559989908294 -0.333333333333333 0.81410054633954
-0.208443570713729 -0.333333333333333 0.817766144774936
-0.205172201795274 -0.333333333333333 0.830836527262252
-0.207878057393269 -0.333333333333333 0.83946372218478
-0.200594713597845 -0.333333333333333 0.851172699470181
-0.202763570926893 -0.333333333333333 0.864168619231888
-0.204677806283869 -0.333333333333333 0.866968647716589
-0.206809930385098 -0.333333333333333 0.873891264223346
-0.208838633195703 -0.333333333333333 0.88238522791436
-0.201643150882547 -0.333333333333333 0.890821417415647
-0.200532855396728 -0.333333333333333 0.901514322482578
-0.205956653523758 -0.333333333333333 0.917270112136778
-0.201745527497431 -0.333333333333333 0.918046368706624
-0.202067338539306 -0.333333333333333 0.930733895956305
-0.202551723788802 -0.333333333333333 0.931186982305824
-0.206821351475079 -0.333333333333333 0.951035933316393
-0.203246394604186 -0.333333333333333 0.953817188182195
-0.205912773216203 -0.316663298324871 0.955555555555555
-0.247027641983345 0.277777777777777 0.512748839579406
-0.252439063586092 0.277777777777777 0.516065321021445
-0.247126026373283 0.277777777777777 0.536253113554882
-0.249344074313586 0.277777777777777 0.540318242679716
-0.248221366275437 0.277777777777777 0.551878294024323
-0.249306692560541 0.277777777777777 0.564705185870316
-0.24952268181179 0.277777777777777 0.576381056339178
-0.250151926368525 0.277777777777777 0.583653338667151
-0.246113795333503 0.277777777777777 0.595170943344676
-0.248862935312197 0.277777777777777 0.612553641847944
-0.251589638575084 0.277777777777777 0.616777589992174
-0.25334683495038 0.277777777777777 0.635768847519794
-0.257036270816146 0.277777777777777 0.636566078192864
-0.249861252667841 0.277777777777777 0.646493269512341
-0.251466050924105 0.277777777777777 0.666198759871169
-0.255550017773688 0.277777777777777 0.67585632879151
-0.247681348033676 0.277777777777777 0.691591018092734
-0.249325984627838 0.277777777777777 0.694392130752119
-0.254163358320554 0.277777777777777 0.708341460649851
-0.247469437920033 0.277777777777777 0.720710183927653
-0.251854441382196 0.277777777777777 0.728053704067321
-0.254771335232676 0.277777777777777 0.73754529076751
-0.247311801618494 0.277777777777777 0.750927583688009
-0.247246525945585 0.277777777777777 0.7601183638856
-0.246070366748409 0.277777777777777 0.76770331612456
-0.248333701231242 0.277777777777777 0.775797034648261
-0.252265154870245 0.277777777777777 0.789162792554823
-0.249544228572953 0.277777777777777 0.803438889731982
-0.248872704557633 0.277777777777777 0.811024797231516
-0.254793313198032 0.277777777777777 0.820449250579123
-0.246276797603499 0.277777777777777 0.835557401198387
-0.255089422048936 0.277777777777777 0.846194683797856
-0.245707933244929 0.277777777777777 0.86328165278012
-0.252898425477344 0.277777777777777 0.865590683052211
-0.251634920026685 0.277777777777777 0.874446784022975
-0.25239592294651 0.277777777777777 0.891987191901727
-0.250003365943307 0.277777777777777 0.902778558619654
-0.24763908559022 0.277777777777777 0.917612666038452
-0.25470374312256 0.277777777777777 0.916593819205807
-0.254266305650372 0.277777777777777 0.935502195839029
-0.254473954743941 0.277777777777777 0.943227775759575
-0.255783287750353 0.277777777777777 0.951023521268043
-0.253752553708811 0.290632310611011 0.955555555555555
-0.258999008291121 0.310518633731096 0.955555555555555
-0.257276421785677 0.330806852163692 0.955555555555555
-0.196496073486738 -0.333333333333333 0.322621451682027
-0.19752768426638 -0.333333333333334 0.332765567945793
-0.193363664055872 -0.333333333333333 0.341152970041355
-0.196202347317312 -0.333333333333333 0.35285117217898
-0.191851928900141 -0.333333333333333 0.35968424607196
-0.193712113740167 -0.333333333333333 0.371760638429968
-0.191362546275164 -0.333333333333333 0.377286053477565
-0.196701807105852 -0.333333333333333 0.389688059919029
-0.194241586770394 -0.333333333333333 0.392711947072428
-0.198671269028695 -0.333333333333333 0.403117521238933
-0.199080950237906 -0.333333333333333 0.411655663026375
-0.192496673061984 -0.333333333333333 0.4180984616817
-0.197349596055711 -0.333333333333334 0.432665222423912
-0.197828648536489 -0.333333333333333 0.432718079063299
-0.198517121787899 -0.333333333333333 0.456144418335513
-0.198492409338507 -0.333333333333333 0.454343928347142
-0.191460544595589 -0.333333333333333 0.471762826172655
-0.193720100450765 -0.333333333333334 0.474611236757264
-0.198190923907814 -0.333333333333333 0.486410773171045
-0.193969510251515 -0.333333333333333 0.497137725280984
-0.195157443833323 -0.333333333333334 0.504577719089392
-0.193228709683703 -0.333333333333333 0.506738592548959
