ply
format ascii 1.0
element vertex 838
property float x
property float y
property float z
end_header
-0.0785795389373095 0.362538014157474 0.768279131680306
-0.0762479107619988 0.362470154441526 0.769837682356571
-0.0750256021336683 0.362104209977088 0.786822925431116
-0.0783058634870492 0.362530049106051 0.791880344337221
-0.0833718936479818 0.362677490868562 0.801392555539751
-0.0779459155907678 0.362519573181007 0.815117903562295
-0.0805650189503558 0.362595799575889 0.818611483186806
-0.0770645802082318 0.362493922792431 0.828859501859736
-0.0777436554267075 0.362513686600366 0.832534943842088
-0.0813178005110373 0.362617708533509 0.843928502294125
-0.0772744441831388 0.362500030674415 0.854107835943534
-0.0806661262617603 0.362598742203494 0.866944154619825
-0.078474874666563 0.356385461191276 0.872003847556387
-0.0767298419579608 0.3512732978317 0.872003847556387
-0.0774936446119767 0.337450096491509 0.872003847556387
-0.101595192529507 -0.337588616961502 0.347405867148799
-0.101248069913074 -0.33759871961955 0.350826182919242
-0.103808456549823 -0.337524202116408 0.371148568287379
-0.0956920750782174 -0.336547444302778 0.383728507375342
-0.0996133794092396 -0.337476781635232 0.382148443478489
-0.098075444351603 -0.337112295652177 0.398208308494317
-0.0975520409248907 -0.336988250614272 0.407966833170458
-0.105671713574883 -0.337469973876335 0.414214134702947
-0.0992437801726547 -0.337389187727795 0.426458140426075
-0.101390379288272 -0.337594577846912 0.434375491616694
-0.0945928986180402 -0.336286942787679 0.45372198368415
-0.103983380805738 -0.337519111120149 0.465215264599715
-0.0982973280190602 -0.33716488141401 0.476036475221488
-0.104817161618663 -0.337494844759962 0.485858053518768
-0.101981702597685 -0.337577367970898 0.498678038931448
-0.102850944810139 -0.337552069541994 0.504702035607336
-0.102839446762517 -0.337552404181219 0.520445983531864
-0.101086423536444 -0.337603424176356 0.536930533714952
-0.0983167284500569 -0.337169479257807 0.540831098718789
-0.102971477016848 -0.337548561572158 0.55664279836565
-0.101631307678956 -0.337587565866045 0.555814325512561
-0.0955233555659641 -0.336507458285827 0.582432235738302
-0.100250408303191 -0.337627755567126 0.586002667306858
-0.105274542164585 -0.337481533154684 0.602196439702789
-0.103348698098801 -0.337537582928246 0.60991712202211
-0.0977986673476337 -0.337046700334691 0.628255607952921
-0.094710435645453 -0.336314798709662 0.631171874538813
-0.102848205040999 -0.337552149280247 0.641409630787071
-0.102863472243467 -0.337551704943523 0.653305938543291
-0.0984930666696977 -0.337211270885494 0.664577340056167
-0.0996530754103352 -0.3374861894681 0.669215048576093
-0.103263477179838 -0.337540063198221 0.688151658449135
-0.100250408303191 -0.337627755567126 0.693302517685031
-0.0970513115080471 -0.33686957924851 0.715127939075639
-0.105858063987901 -0.337464550333152 0.714375474995357
-0.104701741659195 -0.337498203942934 0.73686076933049
-0.0957794805018751 -0.336568159125298 0.746941871877945
-0.0960274654372972 -0.336626930809136 0.76046027021548
-0.10418181652835 -0.337513335846067 0.765250651217645
-0.0983293538813697 -0.337172471447055 0.777754302652683
-0.0964872745960936 -0.336735904196815 0.785141027574456
-0.100529811709115 -0.337619623809254 0.791812883482416
-0.104769133815458 -0.337496242561342 0.812113847125407
-0.100851569586213 -0.337610259366684 0.822399454005478
-0.0989757613042042 -0.337325668062085 0.838946021845499
-0.102585116801428 -0.337559806201446 0.842530969591813
-0.0995794014938816 -0.337468728971487 0.851568095728305
-0.0947503921366852 -0.336324268277909 0.863029111762262
-0.100660728975258 -0.338739908553372 0.872003847556387
-0.10442346453139 -0.350126103661212 0.872003847556387
-0.0741718476001376 0.361848606164523 0.350159623553887
-0.0742933410087897 0.361884979826077 0.357379297379204
-0.0675822645619352 0.359875764461628 0.373896052629617
-0.0685452091709982 0.360164058466168 0.378578039404162
-0.0673248940696392 0.359798710839669 0.387518538389429
-0.0747399775326794 0.362018697415681 0.393948659567111
-0.0726746754041951 0.361400370862312 0.405672101200972
-0.0672867960399137 0.359787304748963 0.418183290805216
-0.0735620885599015 0.361666051660494 0.421678509250303
-0.0667136092465169 0.359615699534642 0.428289653846971
-0.071953087605403 0.361184336176429 0.43807515199485
-0.0716028528391773 0.361079480110634 0.448944399845675
-0.0658805472048716 0.359366290804632 0.458743139165968
-0.0660885375900536 0.359428560617959 0.465985646353238
-0.0710435526851753 0.360912032388699 0.475317272037871
-0.0713055680064923 0.360990476616459 0.480109292236891
-0.0714865320405148 0.361044655066139 0.49084762470709
-0.0663239140792697 0.359499029500605 0.497101551999733
-0.0711667545125403 0.360948917530216 0.5097690775686
-0.0697209422381552 0.36051605876921 0.521401402074221
-0.0685380269563727 0.360161908197714 0.526318229218075
-0.0666307094725749 0.359590880341949 0.536874252728273
-0.0662783171499325 0.359485378329779 0.539449662022796
-0.0667305209378252 0.359620762691095 0.55571408900542
-0.0714128138185624 0.361022584719397 0.567894628929739
-0.0734787501114319 0.361641101133937 0.571326675755057
-0.0671385280101455 0.359742915088702 0.577102978018786
-0.072808831404909 0.361440535551241 0.595033200057991
-0.073851045751267 0.361752561959275 0.595018532177086
-0.067226328139443 0.359769201388699 0.606637832699011
-0.0704832556636452 0.360744286216646 0.619830706104249
-0.0691388565039572 0.360341789319317 0.62944116673787
-0.0718864260800181 0.361164378519549 0.634450198726943
-0.0697314117139175 0.360519193204009 0.64046099968618
-0.0681152403386215 0.360035330982421 0.646659913103182
-0.0747147220413382 0.36201113622611 0.660479094016682
-0.0706733798316056 0.360801207099972 0.669538996045335
-0.0688293374639183 0.360249123050983 0.676524510611141
-0.0725654198403316 0.361367661063921 0.683631418756067
-0.0720902534543787 0.361225401977634 0.694009211979422
-0.0660734907395212 0.359424055772347 0.702373766998468
-0.0746630525482194 0.361995667002913 0.711078191095498
-0.0717446779880739 0.361121940850053 0.721056865871802
-0.0660488368511195 0.359416674695443 0.731365090601079
-0.0695153710721848 0.360454513240943 0.737633667108667
-0.072898300347456 0.361467321473802 0.745820526288224
-0.0738199916086021 0.361743264723419 0.763043657101126
-0.0692822080915367 0.360384707056071 0.766046099532245
-0.069179631000297 0.360353996711853 0.777713040653808
-0.07135223410386 0.3610044478833 0.788576947958167
-0.0709302815052555 0.360878120363281 0.794070259425411
-0.072656951393501 0.361395064507231 0.799629839888984
-0.0719576000231966 0.361185687139904 0.813953317731088
-0.0706711710655158 0.360800545822039 0.821668051593391
-0.070627800857477 0.36078756130472 0.830557649459508
-0.0696809964324738 0.360504099476664 0.834057020293406
-0.0665209050045133 0.359558006208259 0.845336408220363
-0.0662719228870408 0.359483463964573 0.847836516691588
-0.0669239923070951 0.359678685686131 0.86589463416074
-0.0675988184986697 0.359880720510675 0.871661968103241
-0.0728531630093928 0.353019829217815 0.872003847556387
-0.0679855109143439 0.341229791317257 0.872003847556387
-0.0887760075050625 -0.334908357089204 0.346416095861933
-0.0944458173101 -0.336252084960069 0.360527772727396
-0.0876667355910323 -0.334645462981905 0.371174030276023
-0.0844876065473137 -0.333892018960322 0.377998342221638
-0.0858404644032823 -0.334212642203234 0.389858323434877
-0.0919490412648045 -0.335660356546818 0.400854664819144
-0.0902815907562871 -0.335265175791443 0.411947805540667
-0.0919435637550845 -0.335659058393489 0.419932108541669
-0.0931162085910355 -0.335936971692678 0.435718852476497
-0.0914186502344763 -0.335534655467872 0.441092302408181
-0.0844498935747336 -0.333883081099249 0.451885445313043
-0.0839153893899788 -0.333756405215075 0.461497024274952
-0.0855164508108898 -0.334135851956362 0.475496594964429
-0.0885027781017299 -0.334843602542398 0.479962020539482
-0.0836680245332699 -0.333697780488028 0.494457741362185
-0.0882629925885418 -0.334786774096969 0.511034438424375
-0.0843589654494803 -0.333861531407046 0.524237980103034
-0.0939369367022712 -0.33613148178656 0.538183520827572
-0.092428582896473 -0.335774006471219 0.550980700065089
-0.0869721938639893 -0.334480858681549 0.557616564667138
-0.0841158067927723 -0.333803903536747 0.564788182567987
-0.0924929873200771 -0.335789270125906 0.576140368089573
-0.0937636393858953 -0.3360904108438 0.588238653084216
-0.0892577614607597 -0.335022531327746 0.598502172103914
-0.0917159577789891 -0.335605116461718 0.603106989413067
-0.0836123307672905 -0.333684581232999 0.614788134555255
-0.0930351381844064 -0.33591775825014 0.627962245724636
-0.0911329973060068 -0.335466956582975 0.638401243228294
-0.0868541208003468 -0.334452875720592 0.654428706450015
-0.0901230440165398 -0.33522760069098 0.664741410306751
-0.0900863235195384 -0.335218898043634 0.675822795632753
-0.0883434483540453 -0.334805841871409 0.687687090701779
-0.092451477264181 -0.335779432367507 0.700433847094442
-0.0887035252731339 -0.334891179018239 0.706435983836765
-0.0855579530620043 -0.334145687865052 0.720492745569731
-0.0831849838367146 -0.333583301295772 0.736346805762069
-0.0839580899328004 -0.333766525115294 0.746695048757447
-0.0886373737969798 -0.334875501317353 0.757992594057916
-0.0938470053859459 -0.336110168335074 0.765603987493405
-0.0848000993270759 -0.33396607880925 0.777387919043266
-0.092229936924564 -0.335726927973338 0.77854703742299
-0.0908138822696933 -0.335391327279162 0.802120546264505
-0.0860871026205731 -0.334271094718925 0.815139984861117
-0.0899990684166203 -0.335198218846677 0.824191345597224
-0.0834379165380039 -0.333643245585239 0.828174227377461
-0.0880443349349205 -0.334734952890711 0.84467169116629
-0.0852155812374711 -0.33406454677238 0.854498424902857
-0.0908163235829536 -0.335391905863062 0.870280824696913
-0.0942427168084845 -0.343752943297259 0.872003847556387
-0.0855326331642127 -0.357791198110454 0.872003847556387
-0.0626950553239323 0.358412592946889 0.348611279996784
-0.0660190925272675 0.359407769603545 0.357098897741607
-0.064741655084873 0.359025320236933 0.362533773135976
-0.0579324366136246 0.356986722333801 0.382490723196909
-0.0613532297736097 0.358010866557172 0.38564506449379
-0.0583594592058843 0.357114567748785 0.398305521183125
-0.0605763162124576 0.357778268005169 0.402529389887732
-0.063256167552449 0.358580583182084 0.410960000880326
-0.0601301492324272 0.357644690991335 0.415152065232989
-0.0585614479867989 0.357175040754162 0.428299954644035
-0.0617049432646964 0.358116165335359 0.436521369840811
-0.0644886241957267 0.358949565839829 0.446038506130124
-0.0588676153770987 0.35726670357898 0.456230974563603
-0.0578892876423723 0.356973804052108 0.458939526890228
-0.0621380333792738 0.35824582729336 0.466798326770381
-0.0621732067912105 0.358256357788765 0.478506908696907
-0.05830555778475 0.357098430313253 0.491217152519244
-0.0602766732990007 0.357688558530044 0.492860736338115
-0.0615352386376786 0.358065357816368 0.508762030060865
-0.0602471576180055 0.357679721891062 0.513086337895931
-0.061770895094308 0.358135910517882 0.521753403505782
-0.0614043704166527 0.358026177449033 0.531720446842468
-0.0647681796534221 0.359033261372917 0.546799166915747
-0.061571795862947 0.358076302608797 0.547278021863545
-0.0612432218705593 0.357977931517499 0.559433791818556
-0.0592182891672576 0.357371691083246 0.562409442468458
-0.0627861668737435 0.358439870646258 0.579785921004874
-0.0620543823554704 0.358220783185518 0.58681934661058
-0.061800970323126 0.358144914678736 0.599910732828731
-0.0639115519997115 0.358776797382815 0.608010092750314
-0.0575381330202888 0.356868672592561 0.612421481224495
-0.0592431757834537 0.357379141836047 0.624600989703956
-0.0622526021299681 0.358280127795821 0.630910168526138
-0.0628996717622893 0.358473852641221 0.639780526647919
-0.059040962416978 0.35731860159246 0.648634672839908
-0.0645099487595455 0.3589559501571 0.658690641570088
-0.0618897101276273 0.358171482306158 0.665876008932852
-0.0583866692410897 0.35712271410522 0.672029073194653
-0.0642891203163775 0.358889836784016 0.686077819480791
-0.0626766213461587 0.358407074036225 0.690648344103196
-0.0615469958003696 0.358068877769107 0.700411804836581
-0.0653372873330672 0.359203645349769 0.707349596314427
-0.0629119941712792 0.358477541821885 0.722723375262495
-0.0576592787348278 0.356904942158691 0.727728098509195
-0.0647583995346603 0.359030333323292 0.736825164209051
-0.0654146319593823 0.359226801398248 0.751739657984898
-0.0618772526661212 0.358167752692398 0.75200239398214
-0.0591999735035697 0.357366207594393 0.768081312804891
-0.0640774950866654 0.358826478742068 0.77736262043361
-0.0617229973371676 0.358121570506956 0.781230716649068
-0.064416872753174 0.358928084323125 0.790389921020265
-0.0651256363937166 0.359140279610664 0.796711214862607
-0.0588805010218084 0.357270561385628 0.806088789672975
-0.0622156206382077 0.35826905598312 0.819605853127698
-0.0657638744941788 0.359331360401917 0.826529157021537
-0.0628362588213258 0.358454867571344 0.832901612387422
-0.0605932992677192 0.357783352527129 0.836560322142474
-0.0611400535171772 0.357947044156525 0.84619031745137
-0.0635205301025936 0.358659730141851 0.861555741145718
-0.0592747902286313 0.357388606819718 0.869268924186211
-0.0663059218931009 0.343887677415256 0.872003847556387
-0.0646746531882255 0.341774492586743 0.872003847556387
-0.0624629853287127 0.333062499817491 0.872003847556387
-0.0736253733479894 -0.331317702362118 0.360793972351209
-0.0811063132917254 -0.333090662628569 0.361412699176409
-0.0749014877600178 -0.331620137639635 0.371107209331173
-0.080854040747158 -0.333030874794259 0.389615901622616
-0.082025254679356 -0.333308448973563 0.403325702065588
-0.0790155181076372 -0.332595150458366 0.409604757849171
-0.0753071255343137 -0.331716272572118 0.421140267807517
-0.0829230866399045 -0.333521232447829 0.441410722536146
-0.0772055617003146 -0.332166196233587 0.442194009226175
-0.0777610936629073 -0.332297855637863 0.461368243320077
-0.0804410364176429 -0.332932994010346 0.465339688437068
-0.0820691584036226 -0.333318854024166 0.474493377200948
-0.0750996778956941 -0.331667108105699 0.495656079975714
-0.0830455311086214 -0.333550251418642 0.506628422370308
-0.0744926814743258 -0.331523251779481 0.516578827755706
-0.0737434415255483 -0.331345684165089 0.519563843480617
-0.0785687865778952 -0.332489276429439 0.53370995307757
-0.0796516907457244 -0.332745921460195 0.548226089991642
-0.0789377733057589 -0.332576725174152 0.557708074393877
-0.0810546861812623 -0.333078427158667 0.559162711104214
-0.0747694825932384 -0.331588852812137 0.586032379233865
-0.07865641124728 -0.332510043212537 0.587932356555628
-0.0804933302912125 -0.3329453875011 0.593798417237679
-0.0816663809989227 -0.333223396990675 0.609113648435722
-0.0792904153811357 -0.332660300285385 0.629764893544736
-0.0733985459975488 -0.331263944962286 0.628541331996321
-0.0769148959186809 -0.332097309317567 0.651766282188158
-0.0828013703619997 -0.333492386056049 0.658115496272405
-0.0751076517165596 -0.331668997877262 0.659861063962695
-0.0759980795449854 -0.331880026594484 0.672685876970903
-0.0814850189850259 -0.333180414738859 0.686202034726898
-0.0795331270033234 -0.332717822209846 0.70614585028722
-0.0758807298544315 -0.331852215070772 0.712984408872329
-0.0833431327523083 -0.333620782113107 0.727609594943521
-0.0832007143132448 -0.333587029371397 0.741087531813488
-0.0728364261600385 -0.331130724251468 0.7487432544434
-0.0765556231047305 -0.332012162741235 0.756629859626892
-0.0737564472027438 -0.331348766471468 0.766322256186481
-0.0793011547726462 -0.332662845488872 0.780176237060844
-0.0739166581404613 -0.331386735981845 0.791835427954147
-0.0790405794871657 -0.332601089929939 0.805891176104507
-0.0721260848327963 -0.330962375493386 0.816785337702693
-0.0773312798643035 -0.332195991060333 0.823409561494858
-0.080584768908739 -0.332967058178436 0.831481949109424
-0.0824532314073118 -0.333409878170874 0.841454674753038
-0.0826727330886641 -0.333461899409166 0.850139931216382
-0.0815300737241777 -0.333191092576527 0.864223983163861
-0.0808973301919101 -0.3390056738589 0.872003847556387
-0.0523457757334606 0.355314143431552 0.350253745852015
-0.0552243930094482 0.356175966732938 0.355986054022091
-0.0490483447820453 0.354326932365897 0.366310519910786
-0.0497397485055416 0.354533930303603 0.372111670995467
-0.0556313181819948 0.356297795222799 0.378342713780854
-0.0512382033902394 0.354982549627359 0.390754830028428
-0.0497997982505176 0.354551908473154 0.398023721922691
-0.051957144303327 0.355197791867579 0.401316965928764
-0.0548522564869627 0.356064553545416 0.41833491523769
-0.0549427529041771 0.356091647081502 0.431475507339021
-0.0556015173400167 0.356288873210056 0.432194641844024
-0.0528680393005969 0.355470502845975 0.444208619452639
-0.050336775840748 0.354712673088667 0.458612916791075
-0.0562251152705024 0.356475570910953 0.460370775479841
-0.0524852503833103 0.355355900459899 0.473787398012673
-0.0528099948375389 0.35545312503365 0.480457447758923
-0.0525406610903318 0.355372489757426 0.485903868296003
-0.0540652798194619 0.355828942220716 0.499720770997987
-0.0515385629583328 0.35507247366024 0.498255529692066
-0.0522561883427347 0.355287322047034 0.516552055214697
-0.048812458077135 0.354256310730824 0.524964194336949
-0.0534727287397038 0.355651539572556 0.536861735834618
-0.0497324993625374 0.354531759997599 0.537710633913929
-0.0559273371953003 0.356386419745916 0.558175755725063
-0.0529072839626984 0.355482252224588 0.557491842788991
-0.0547606684337592 0.356037133186677 0.562419047302932
-0.0495100957783987 0.354465175046303 0.57506691476401
-0.0567693310130349 0.356638502541985 0.586186304026994
-0.0552324289149983 0.356178372586161 0.595721476127445
-0.0560589223904651 0.356425814766662 0.602527106527131
-0.0546726719891996 0.356010788112257 0.616239554444544
-0.0564816490312586 0.356552374025579 0.621458212149582
-0.051464292546249 0.355050237994433 0.631663287434057
-0.0542307150952875 0.35587847154744 0.633998823014078
-0.0536565128033297 0.355706562305094 0.645616201634524
-0.0559928268795076 0.356406026567677 0.655000190481451
-0.0489261648305828 0.354290353161704 0.66333516495866
-0.0509008001253222 0.354881535158331 0.678037170362462
-0.0497718006465221 0.35454352632812 0.679777635721435
-0.0568780702399207 0.356671057755312 0.690694992867741
-0.056151752213194 0.356453606896224 0.692084086334511
-0.0496657155703824 0.354511765735522 0.710826355001028
-0.0572437151814732 0.35678052744178 0.711522808890747
-0.0565094555000571 0.35656069894704 0.719518269445725
-0.0489655208506166 0.354302135879537 0.736335021411479
-0.0509982216473652 0.354910701987299 0.746171042800512
-0.0552266107789322 0.356176630706379 0.747410294864605
-0.0531200434921324 0.355545949862195 0.755760665858023
-0.0503851228011077 0.35472714758562 0.769725901885249
-0.0563034761663519 0.356499031218276 0.775171596279562
-0.0499593459585666 0.35459967513308 0.792454354672297
-0.0545712433714933 0.355980421607166 0.790406896354443
-0.0557952577830116 0.356346876762521 0.811287668595585
-0.0569074156771261 0.356679843425357 0.815440497677565
-0.0492219086326686 0.3543788952899 0.820074171364821
-0.0514178018133045 0.355036319229586 0.825163445613729
-0.0527920916743989 0.355447765042486 0.836627772660566
-0.0488043942238413 0.354253896510384 0.848652250672341
-0.0502966315126848 0.354700654360915 0.854369879243916
-0.0504946167247709 0.354759928746061 0.861151503948128
-0.0556053052679772 0.350649624188153 0.872003847556387
-0.0544245896461659 0.343490576592662 0.872003847556387
-0.0623375619710598 -0.328642525015822 0.356997930875443
-0.0636834510850128 -0.328961496687836 0.360431492978152
-0.0614921284178117 -0.32844215980649 0.376525749235966
-0.0667571295395646 -0.329689949236947 0.379226947344834
-0.0711079171415565 -0.330721072812877 0.395558586544646
-0.0683710997144936 -0.330072455314112 0.39761755669997
-0.071246620296189 -0.330753945043351 0.413274259277668
-0.0657185115425141 -0.329443799895468 0.416050811089086
-0.0695109727936742 -0.330342601805513 0.438233108211747
-0.0704262922161117 -0.330559529755651 0.445606520005114
-0.0695897606887063 -0.330361274299668 0.456057296301692
-0.0666379059776188 -0.329661693611352 0.465472894046871
-0.0615980767522918 -0.328467269243103 0.485545594064495
-0.0648982339916364 -0.329249396583037 0.493929686502352
-0.0620192991854759 -0.328567097692868 0.506200404046272
-0.0698203366333536 -0.330415920105052 0.510992904704861
-0.0712988086199194 -0.33076631351911 0.530148688396585
-0.0699255192880426 -0.330440848077859 0.536122461360117
-0.0632643276808206 -0.328862165701628 0.551411500386989
-0.0682193051783903 -0.330036480465604 0.554271255367767
-0.0673659354153804 -0.329834234398427 0.570235441376895
-0.0637900763572709 -0.328986766556667 0.581681717714975
-0.0622031979711637 -0.328610681151969 0.585936295791879
-0.0721758197476769 -0.330974162518626 0.601536669271101
-0.06501373823286 -0.329276770740808 0.606199031644825
-0.0688369498046005 -0.330182860384343 0.627835005271973
-0.0719687181981884 -0.330925080074291 0.641504658190469
-0.0683575329907065 -0.330069240041379 0.646646705748372
-0.067606809893077 -0.32989132092517 0.654525628685823
-0.0638633822676126 -0.329004139836938 0.674515237482121
-0.0636811714947824 -0.328960956431807 0.68807967939683
-0.0609997429532293 -0.328325465932317 0.690623060599463
-0.0629188403065134 -0.32878028623303 0.707214622763188
-0.069621758542384 -0.330368857694751 0.715290037425591
-0.0682296369122828 -0.330038929055462 0.728987455548175
-0.072195965301984 -0.330978936954406 0.737340263756817
-0.0683671653449918 -0.330071522880374 0.749256883810876
-0.0697098067356757 -0.330389724851741 0.756767116061312
-0.0714364567937836 -0.330798935722314 0.764760671241164
-0.0625041395043418 -0.3286820033902 0.77957579198315
-0.0664576733870373 -0.329618979029464 0.7880093169129
-0.0630569126105912 -0.32881300895382 0.80138450529995
-0.0681040082304986 -0.330009155435729 0.816388607869943
-0.0685534470638126 -0.33011567108746 0.82114201346651
-0.0629917457561957 -0.328797564605328 0.840656547976644
-0.0702309141528144 -0.330513225742283 0.84286425750788
-0.0679189336753235 -0.329965293322796 0.859515964876564
-0.0670794567659344 -0.329766339820143 0.865124825432962
-0.0634517450801361 -0.339975461115702 0.872003847556387
-0.0685673220110997 -0.357284001332841 0.872003847556387
-0.0472673935484789 0.353793737041697 0.341879194414601
-0.0484825173072492 0.354157530442824 0.353780458317681
-0.0480513504422724 0.354028444282561 0.361372881764502
-0.0442799712530961 0.3528993388295 0.366521401656437
-0.0434973871373242 0.352665042581822 0.384362526224661
-0.043393978564129 0.352634083301932 0.386608711067219
-0.0480173869915954 0.354018276034968 0.399023800396566
-0.04217758802433 0.352269910641839 0.407243269611605
-0.0471091938501821 0.353746373959636 0.410137434486738
-0.0421467562859895 0.352260679991157 0.426323136100311
-0.043889593375603 0.352782464400247 0.424511330254714
-0.0411023350721745 0.351947992873617 0.440916988206245
-0.0438884758570236 0.352782129828659 0.444450567643649
-0.0472806816253887 0.353797715331693 0.457094727968509
-0.0420407905206107 0.352228955118762 0.473775292517717
-0.0435872768055098 0.352691954464565 0.476112290987816
-0.0421647581556418 0.35226606953386 0.48690477888295
-0.0443699599955441 0.352926280373883 0.489962052335141
-0.0398176496085326 0.351563373536843 0.508231115834187
-0.0458021115806199 0.353355049289234 0.509483474511356
-0.0436286065420746 0.352704328089329 0.523134431435921
-0.0431909589235288 0.352573301669595 0.529683202161603
-0.0471871598264264 0.353769716032791 0.537377412644496
-0.043399949383468 0.352635870893244 0.545700497333702
-0.0484565204659311 0.354149747302009 0.557021723010372
-0.0401779400231447 0.351671240142511 0.560413056598366
-0.0476205225086244 0.353899459594252 0.572112301234538
-0.0451811169173425 0.353169130975149 0.586153860672499
-0.0417543983969492 0.352143212770322 0.58696561267145
-0.0439027383856317 0.352786399857744 0.601261439366792
-0.0458691946562109 0.353375133153163 0.606381599570972
-0.0403221256899203 0.351714407592519 0.613869019269445
-0.0481295729117742 0.354051863146705 0.624366302881686
-0.0480182846342577 0.354018544778357 0.64016337628208
-0.0477506098715314 0.353938406182082 0.652571556942754
-0.0468222384493479 0.353660462972801 0.655055420152614
-0.0479872502791594 0.35400925346666 0.663162799800177
-0.0486106440659839 0.354195890049406 0.667782646265772
-0.0401459625725937 0.351661666479407 0.674576620288187
-0.0444488403284792 0.352949896194407 0.688419484023478
-0.0438767541848111 0.352778620501342 0.692414411282873
-0.0408166377904205 0.351862458552465 0.696863409056979
-0.0433565249460348 0.352622870140299 0.718486715817614
-0.0436225787827157 0.352702523450861 0.722424729787307
-0.0482860396617684 0.35409870740494 0.732969173456339
-0.0484493122176173 0.354147589239383 0.744125941577163
-0.048131289297973 0.354052377012036 0.750111414007915
-0.046168869551644 0.353464852203305 0.753630390052663
-0.0471721232563377 0.353765214265021 0.771281790607291
-0.0436808186525837 0.35271995976563 0.78125063969731
-0.0457379362271397 0.353335835962244 0.789674023156335
-0.0471655535834966 0.353763247384191 0.795210514200137
-0.0450180993253434 0.353120325473808 0.803742377132328
-0.045298678806842 0.353204327587276 0.808367963903951
-0.0418988874969499 0.352186471064578 0.817719795487936
-0.0450158570892274 0.353119654175353 0.826264060661972
-0.0465985118092253 0.353593481914497 0.835278456096546
-0.0446342737588484 0.353005412727459 0.844422313300907
-0.041721235922722 0.352133284325419 0.85457205311305
-0.0401291026097571 0.351656618809835 0.862811606985213
-0.0461069792683457 0.353446322998773 0.866228473740033
-0.0400733634285926 0.341216801883538 0.872003847556387
-0.0438839566910005 0.325407931032339 0.872003847556387
-0.0527897378911325 -0.326379719425604 0.367205735801946
-0.0586083512301577 -0.327758713286471 0.371469709447184
-0.0517937784321028 -0.326143680029333 0.384557276740138
-0.0509869223265795 -0.325952457559083 0.397496843032259
-0.0514772988030375 -0.326068675309112 0.410982988560077
-0.0512427039631815 -0.32601307703765 0.41101206507939
-0.0540135253413018 -0.326669753370543 0.425129111237526
-0.0565351908187991 -0.327267380504366 0.429941876543984
-0.0565951532610062 -0.327281591422822 0.448058245392399
-0.0564616313780382 -0.327249947138149 0.455678504928904
-0.0584239352048566 -0.327715007243138 0.472840773376571
-0.0513855567316289 -0.326046932714118 0.488190843831257
-0.0559015450159322 -0.327117208354886 0.497726922783283
-0.0602459389199925 -0.328146816643636 0.497567195916274
-0.0522768665158393 -0.326258170452209 0.513099532017404
-0.0513247651787493 -0.326032525298927 0.531577168893582
-0.0527365527334255 -0.326367114703191 0.542735187022767
-0.0526523132826754 -0.326347150206728 0.550473213436535
-0.0571345022888292 -0.327409415520231 0.56203342434558
-0.0567036558642981 -0.327307306213462 0.572841373998303
-0.0555115655173779 -0.327024784386659 0.582396577429803
-0.0519487866783602 -0.326180416517482 0.585137810399948
-0.0501821937872904 -0.325761739315631 0.604954522856357
-0.0607048168931435 -0.328255569343118 0.616437310592587
-0.0584531811683253 -0.327721938448517 0.62705802911838
-0.0556172685050683 -0.327049835676822 0.6353666487901
-0.0536376910770653 -0.326580681780305 0.652553887903079
-0.0610036929585948 -0.328326402071709 0.658864489229629
-0.0503126466005429 -0.325792656240013 0.674904331021683
-0.056213889921703 -0.327191233158122 0.686257908789626
-0.0521069497800062 -0.32621790069687 0.700909018126437
-0.0594760369248531 -0.3279643521864 0.700644991947871
-0.0533967984198203 -0.326523590945064 0.714197722234555
-0.0549845535510196 -0.326899884135711 0.729708198604805
-0.051099755666092 -0.325979198721182 0.743164557324496
-0.0608739917889885 -0.32829566328461 0.741527322729704
-0.0504046020394761 -0.325814449402468 0.760676409791076
-0.0582715621245619 -0.327678895281397 0.770669930819541
-0.0558243818122311 -0.327098920907691 0.776869933869429
-0.051480841711958 -0.32606951496787 0.794052050447229
-0.0550752961974163 -0.326921389869984 0.80523569462325
-0.0527740809631026 -0.326376008780751 0.818571906714761
-0.0585148865903949 -0.327736562447959 0.824501274521801
-0.0557077430562951 -0.327071277873345 0.837798233937262
-0.0518531381170595 -0.326157748096134 0.847900776253903
-0.0509097194593728 -0.325934160711756 0.858015626851276
-0.057603695370424 -0.32752061286939 0.871372844428983
-0.055630538822805 -0.352875919500902 0.872003847556387
-0.0339013487164891 0.349792104389914 0.339404927823699
-0.0394330629559927 0.351448232930509 0.347040076866457
-0.0333016444632907 0.349612560167881 0.35850890547772
-0.0385860126204082 0.351194636273967 0.361016596772901
-0.0384766150510384 0.351161883960839 0.378648702336425
-0.0318287366131115 0.349171589318207 0.377634048444968
-0.031266776783042 0.349003345321328 0.393845965004763
-0.0362719140243984 0.350501823058267 0.401453092946121
-0.0319695590754705 0.349213749865367 0.410625751230671
-0.0368637139178085 0.350679000810292 0.420468968177678
-0.0329319679217035 0.349501883468976 0.434652239957767
-0.0327448012159207 0.349445848014166 0.43973655738322
-0.0349210789527869 0.350097399326514 0.447345181853093
-0.0331631023161059 0.349571082319587 0.457212612363821
-0.0367743828095031 0.35065225615364 0.460597643989945
-0.0330053399996791 0.349523850184385 0.466691050387492
-0.0353752280729926 0.350233366096867 0.483584049128691
-0.0322596753062188 0.349300607166563 0.490862675359016
-0.0397341994723196 0.351538389572322 0.498234499572978
-0.0373164717922919 0.350814551058451 0.506129454635222
-0.0377045100498446 0.350930725033705 0.519155934061678
-0.0323869507926875 0.349338711912494 0.529079794843393
-0.0343216493916428 0.34991793734397 0.535793001403841
-0.0353160657038334 0.350215653596934 0.543090397264862
-0.0379176044959956 0.35099452294134 0.551661570363055
-0.0323355293780748 0.349323316961011 0.557204812162906
-0.0388547766252057 0.351275100976184 0.572237683429713
-0.0364086986937053 0.350542774738875 0.583315651545112
-0.0329422188855424 0.349504952483942 0.57966304258674
-0.0355832614070165 0.350295648768558 0.60013736183335
-0.0321678591813877 0.349273118525929 0.602824488104977
-0.0343200183302186 0.349917449023847 0.612384582072443
-0.0335646098427838 0.349691288831603 0.629290713172791
-0.037827728021031 0.350967615008488 0.633704324666301
-0.0343419558634425 0.349924016856767 0.639244644092873
-0.036201247475085 0.350480666345516 0.656333822136913
-0.037526662861941 0.350877479730171 0.663980634035679
-0.034502222823425 0.349971998852049 0.661208346128339
-0.0353745248860362 0.350233155571171 0.675164173884409
-0.0382875315144641 0.351105274630003 0.690606199019803
-0.0338326001968865 0.349771521912131 0.69347158279169
-0.0385297376882288 0.351177788237849 0.697581663266724
-0.0321413251806865 0.349265174566073 0.710192143645066
-0.03953303550844 0.351478163507219 0.721851563265893
-0.0358850723572107 0.350386007327739 0.730185120711955
-0.0380095851102316 0.351022060828118 0.74113087516083
-0.0376789565288045 0.350923074617637 0.749826278884132
-0.0377774128592199 0.350952551255753 0.761324209385331
-0.0374451097021711 0.350853063697523 0.766269356246278
-0.033010044705449 0.349525258716561 0.778100625575922
-0.0359529571077985 0.350406331203495 0.780763148755715
-0.0368253395476147 0.350667511986583 0.790097097380355
-0.0390597531782982 0.351336468484524 0.808542519293255
-0.0372274448791159 0.350787897474154 0.807430967113133
-0.039332290230858 0.351418062791744 0.823955994607827
-0.0324521812251761 0.349358241117417 0.826645692753427
-0.0343196278967813 0.349917332132784 0.835047862396092
-0.0369849145645695 0.350715286822466 0.846990300897015
-0.0316951136496159 0.349131584214194 0.853550569600934
-0.0322095732697555 0.349285607220988 0.856805969291921
-0.0339006674497097 0.349791900426855 0.869118988262071
-0.0333341478914713 0.337911004569377 0.872003847556387
-0.0360348139519252 0.335579351081479 0.872003847556387
-0.0437846558255371 -0.324245542060393 0.359507380935605
-0.0441104977236335 -0.324322765610216 0.373428021054728
-0.0470934587074924 -0.325029718391622 0.388904671671532
-0.0486035523395509 -0.325387606040553 0.393611821987107
-0.0409674280623645 -0.323577867553818 0.408135010268099
-0.0459312128740586 -0.324754269624753 0.422208678257612
-0.0490076016526149 -0.325483364512502 0.433025208403789
-0.0417208490200624 -0.32375642605475 0.433482425403776
-0.0472960489194199 -0.325077731662523 0.452941297095048
-0.0396699621001113 -0.323270372023117 0.460519082722446
-0.0431222243775266 -0.324088547799591 0.469471209507228
-0.0497987403459257 -0.32567086200333 0.485622450027209
-0.0394032786686922 -0.323207168851966 0.504797506285656
-0.043191868852093 -0.324105053330595 0.508365815163438
-0.0404325559404317 -0.323451104469639 0.51886622599032
-0.0391331291269919 -0.323143144223104 0.527343482021284
-0.039511895894102 -0.323232910807704 0.539048150276235
-0.0399424507002076 -0.323334951001782 0.549346703771058
-0.0389471263127796 -0.323099062115572 0.554728270134358
-0.0418412441644657 -0.323784959341863 0.570656767818917
-0.0393283811434082 -0.323189418363741 0.58586720778308
-0.0479923005897573 -0.325242741214296 0.601169479115867
-0.0453516147266328 -0.324616906607053 0.59848421396147
-0.0476165622741207 -0.325153692363589 0.614480200562398
-0.0395814710066786 -0.323249399900125 0.633869098639795
-0.0460851302039876 -0.324790747569013 0.63567445199373
-0.0424706772358213 -0.323934133086647 0.65279913499045
-0.0425877967218746 -0.323961890052584 0.660548440637204
-0.0395362264569378 -0.323238677077917 0.676330185648104
-0.0470255079253824 -0.325013614260635 0.686800460204261
-0.0390075411337975 -0.323113380246445 0.697813315311724
-0.0473817650653451 -0.325098046131302 0.705005942893548
-0.0392535529998231 -0.32317168431877 0.723267517715244
-0.0446352950964473 -0.324447141009154 0.723579092967742
-0.0412630572594288 -0.323647930784367 0.741670682646183
-0.0472779464137518 -0.325073441423127 0.757147049707415
-0.0447388896600003 -0.324471692609138 0.75885888707661
-0.0456910803163407 -0.324697358930813 0.772493944015253
-0.0494000242817238 -0.325576367495322 0.787482218292668
-0.0462684836985693 -0.324834201795761 0.792449149504685
-0.0426369548415648 -0.323973540379099 0.801702095082998
-0.0443808355922369 -0.324386834871987 0.825786966575998
-0.0468121551742392 -0.324963050300309 0.822625831266087
-0.0437817089766493 -0.324244843666069 0.835484372161395
-0.049114800458713 -0.325508770307128 0.858373669936491
-0.045556950009546 -0.324665570451523 0.855853558745852
-0.0466902841319372 -0.328193933367058 0.872003847556387
-0.0424183101652734 -0.344476862447751 0.872003847556387
-0.0309758283037829 0.348916238854963 0.341264206596927
-0.0232658730975336 0.346607971234667 0.347483723557941
-0.0302363063497194 0.348694834899247 0.355382109559249
-0.0270405053528864 0.347738050616516 0.358333311888606
-0.0272165106548204 0.347790744481601 0.376270029177164
-0.024250202026048 0.346902667446594 0.379534171362595
-0.0241106431786163 0.346860885210507 0.391409061434823
-0.0284911829574988 0.348172365998724 0.395674313048515
-0.0298744265083876 0.348586492438384 0.411708095293864
-0.0270980605340203 0.347755281943733 0.423016548406399
-0.0264209635326231 0.34755256726611 0.431619586011569
-0.0234374442013797 0.346659337554314 0.437666897507652
-0.0282080234537025 0.348087591457692 0.449163693081475
-0.0238831229386004 0.346792768394139 0.452611454809279
-0.0248054423010844 0.347068899689722 0.459610509550382
-0.0296485902968069 0.348518879799823 0.470641827815623
-0.0242882073011133 0.346914045767672 0.475930717111712
-0.025597386876691 0.347305998346205 0.493819480215235
-0.0277712647639125 0.347956831172507 0.499554320200135
-0.0276019241633269 0.347906132638641 0.512137696142352
-0.0235069392558421 0.346680143535632 0.512575401183849
-0.0269266642614398 0.347703967966459 0.523106754303793
-0.0308486060415885 0.348878150043738 0.533786449112867
-0.0261751226623036 0.347478965473943 0.543729281961234
-0.0270668719142286 0.347745944447047 0.543893883991299
-0.0271731594888514 0.347777765665249 0.561175934846547
-0.0258223341735724 0.347373344854424 0.562894480336918
-0.0267407415262497 0.347648304941443 0.580762233738303
-0.0284161849223885 0.348149912491357 0.588530917655952
-0.025286228412547 0.347212841254062 0.596809807015743
-0.0288515680545432 0.348280260951171 0.603874126439322
-0.0282605555688567 0.348103318939525 0.618713858327543
-0.0269256745878018 0.347703671670106 0.62129230905879
-0.024856773248989 0.347084267556564 0.637346802820867
-0.0254369589991337 0.347257968174141 0.6360548338478
-0.0275244238579042 0.347882929981715 0.650425070201909
-0.0220755890587112 0.346251614546169 0.655792245879897
-0.0246929291751173 0.347035214616517 0.663569910007961
-0.0298206309966652 0.348570386710854 0.677227742567475
-0.0297844005784449 0.348559539760514 0.687374397261821
-0.0231052364142393 0.346559878548684 0.690913464920751
-0.028093507017132 0.348053306617448 0.69714063467834
-0.0229102985993169 0.346501516517502 0.706360962734413
-0.0277226353402794 0.347942272109457 0.719118510873718
-0.0252078969335309 0.347189389753784 0.726368548970485
-0.022928956546067 0.346507102481777 0.741063693360748
-0.0242424682616497 0.346900352050789 0.743225242934656
-0.0287997509106384 0.348264747523109 0.752236826528416
-0.0272552531875968 0.347802343528748 0.767948447629939
-0.0297590918315348 0.348551962626867 0.769411846798719
-0.0289238312136698 0.348301895669647 0.773277524399224
-0.0274262277258526 0.34785353124385 0.787453565900549
-0.0230121294528057 0.346532003447136 0.802967894168754
-0.0292886551871183 0.348411119568165 0.801626114714408
-0.0225202405615268 0.346384737844399 0.814772402387852
-0.0285378730213005 0.348186344440826 0.824030358444875
-0.0290501801644498 0.348339723021965 0.831018452624985
-0.0257017954328118 0.347337257008924 0.838835631781532
-0.0251808791524547 0.347181300955917 0.850835217477538
-0.0233597888037351 0.346636088464646 0.860279294936385
-0.0249649813889301 0.347116663768863 0.868757849737514
-0.0237416440414063 0.344960061099238 0.872003847556387
-0.0266524145139486 0.333143938867376 0.872003847556387
-0.0319920068078735 -0.321450719711628 0.371652611230923
-0.0318306289589483 -0.321412473646805 0.375078941766031
-0.0370366969387357 -0.322646296099869 0.383449649535123
-0.0316128398630158 -0.321360858286107 0.398917923729345
-0.0298029430452122 -0.320931918183864 0.410533458764345
-0.0319394096756298 -0.321438254349482 0.419116323388661
-0.0378392325340069 -0.322836494622184 0.435710672846844
-0.0315330429284301 -0.321341946652614 0.439564502796608
-0.0362232943115899 -0.322453522123684 0.460243646342979
-0.031004750802689 -0.321216743007742 0.47060001113502
-0.0307462364785971 -0.321155475890459 0.474128151434045
-0.0296470680910221 -0.320894976288542 0.488548033368522
-0.0309243682775565 -0.32119769259105 0.49807517807818
-0.0357056661484013 -0.322330845805864 0.502998642221503
-0.0319596536449815 -0.32144305210933 0.520374146681505
-0.0313018390471302 -0.32128715202813 0.533176091453357
-0.0328014781084742 -0.321642561975246 0.545180194429937
-0.0352716276955337 -0.322227979997979 0.557007240813691
-0.0380196656736434 -0.322879256733594 0.566810479177534
-0.038355997516288 -0.322958966368725 0.574528154620169
-0.031042843220797 -0.321225770796264 0.588432755442656
-0.0368506307942282 -0.322602198983247 0.599455471400821
-0.0316798000455307 -0.321376727647968 0.607208999736029
-0.0330403221876319 -0.321699167303642 0.61608345932994
-0.0307854828930017 -0.321164777172633 0.632054745817162
-0.0330601075971046 -0.32170385638618 0.640199038450551
-0.0351050144380486 -0.322188493157073 0.649197289614495
-0.0302888333342103 -0.321047072720958 0.660022159449027
-0.0287133776802865 -0.320673694469432 0.676544211533045
-0.0370815226744368 -0.322656919664409 0.686927000035884
-0.0370252539417228 -0.322643584143994 0.693794715245613
-0.0284820045804483 -0.320618859740665 0.702895046999436
-0.0295113993777002 -0.320862823211531 0.72383471833006
-0.0339076526272578 -0.321904722009188 0.732976770420858
-0.0346216266382839 -0.322073931702402 0.746725655421399
-0.0293938067487229 -0.320834954112144 0.74886859264249
-0.0338794370148599 -0.321898034993913 0.762102175529308
-0.0278385443949871 -0.320466361612028 0.774855373081959
-0.0386743754766138 -0.323034420987745 0.781977274927483
-0.034153508402648 -0.321962989088502 0.789951062344137
-0.0341968063597876 -0.321973250574118 0.799390696571663
-0.0317063527511108 -0.321383020559329 0.820195914456081
-0.0338546815939877 -0.321892168033622 0.829731134570069
-0.0377896940214628 -0.322824754143707 0.839256241734034
-0.0291427762007145 -0.320775460627283 0.856581557771696
-0.0363489827173663 -0.322483309897823 0.867930741315543
-0.035212331462696 -0.324731828576671 0.872003847556387
-0.0336064131108109 -0.337247344153781 0.872003847556387
-0.019179517681026 0.345384565697201 0.335473888551082
-0.0146189706274866 0.344019192901521 0.338578730694973
-0.0154092690521142 0.344255798720249 0.352378976732496
-0.0201968131851647 0.345689131704351 0.363787753565892
-0.0187801258657886 0.345264992603679 0.378675374518429
-0.021650915464891 0.346124472392993 0.379244484598177
-0.0137744006130651 0.343766338823227 0.388941546496531
-0.0145718521081207 0.344005086184988 0.396370411055154
-0.0137313093180969 0.343753437809118 0.406293305614552
-0.0168044678195925 0.344673504407598 0.420399085367492
-0.0181586839799847 0.345078940396562 0.422757763062728
-0.0200593242495634 0.345647969174906 0.439737409295653
-0.0160844227859906 0.344457931607009 0.44354580130556
-0.0157339138170347 0.344352993448224 0.448370624597185
-0.0202694025800085 0.345710864093867 0.460280577685898
-0.0181906677589074 0.345088515954303 0.467596609138651
-0.0163476109899033 0.344536726981676 0.484497838796126
-0.0177899850206253 0.344968556373988 0.487468251060004
-0.0139371980351563 0.343815078408351 0.495101901086856
-0.0177749234861093 0.34496404713217 0.510993510580801
-0.0183175311186231 0.345126497314454 0.518411492049132
-0.0212318858743087 0.345999019986331 0.525595353917704
-0.0155727219932005 0.344304734559857 0.53044621014783
-0.0142996601430036 0.343923595192787 0.541739502041503
-0.0134568534223799 0.343671269023394 0.547499667250858
-0.018409256889129 0.345153958904092 0.552030101542366
-0.0180730811111739 0.345053311929859 0.563892439755151
-0.0218052622934982 0.346170681972327 0.576885495562693
-0.0198772495241245 0.345593458197609 0.581079662327257
-0.0205612685777965 0.345798245254215 0.590546268197289
-0.0191844658470246 0.345386047118434 0.601546523941978
-0.0185074376534709 0.345183353041049 0.606180379494207
-0.0197958950531849 0.345569101650001 0.615817383420761
-0.0220262984010191 0.346236857517614 0.625826042688516
-0.0173939500405421 0.344849988276434 0.641053134243165
-0.0214813895875788 0.346073718389509 0.651197760184826
-0.0190959029668251 0.345359532460015 0.655122210906376
-0.0157549361473355 0.344359287280423 0.657063489868528
-0.019121832766761 0.345367295529448 0.674780202332908
-0.0165650558318649 0.344601827345358 0.675220994307507
-0.0156657817049597 0.344332595515422 0.692157512996393
-0.0134788401368386 0.343677851580583 0.69996715969517
-0.0135061763277497 0.343686035706515 0.713792852047686
-0.013417037211264 0.343659348529899 0.714082963121311
-0.0200441353760716 0.345643421809333 0.72730188463043
-0.0185179974413254 0.345186514514201 0.732628702687561
-0.0147708835381809 0.344064673795181 0.742224812690569
-0.0217397128779566 0.346151057267725 0.749808377944241
-0.0138758588310678 0.34379671419029 0.759322897048312
-0.016822040653021 0.344678765502028 0.766888494474513
-0.0175902272208436 0.34490875129746 0.780228239972204
-0.0135340901674649 0.343694392773534 0.792141305618968
-0.0178766491222108 0.344994502560987 0.791531457447648
-0.0153441957515655 0.344236316558734 0.799083148048755
-0.0174020413938456 0.344852410730046 0.807475654307959
-0.0169242452490534 0.344709364325674 0.821836349240661
-0.0216848702620986 0.346134638049842 0.834738633776317
-0.015059291458162 0.344151019648732 0.843957773227425
-0.0169570948728394 0.344719199106927 0.850177131023242
-0.0202174372725766 0.345695306307432 0.858282191510214
-0.0177601174919875 0.344959614396064 0.864938045459617
-0.0171050366887816 0.339844884271059 0.872003847556387
-0.0177660550441722 0.326473330120749 0.872003847556387
-0.0260232518417023 -0.320036142736704 0.370981548739484
-0.0212110195583624 -0.318895658159169 0.373915317299788
-0.0220804591110165 -0.31910171271816 0.392941345629035
-0.0231888338728805 -0.319364394203093 0.396779837365919
-0.0167931407362387 -0.317848634165857 0.418991584302407
-0.0230622484706143 -0.319334393843484 0.424187318810908
-0.025090834300152 -0.319815162583763 0.438522205655213
-0.0177613994716641 -0.318078108573948 0.443630972917558
-0.0188440360075883 -0.318334690176746 0.452676279740594
-0.0181935182343328 -0.318180519421029 0.461987894271575
-0.0189057476145841 -0.318349315641996 0.476025666903997
-0.0184742745713344 -0.318247057828475 0.49311611231193
-0.019562845615793 -0.318505045891948 0.497561739407996
-0.0202940543601789 -0.318678340165131 0.510161076263799
-0.0213809546031183 -0.318935932253667 0.515723388680079
-0.0269516789724956 -0.320256177174298 0.53279229519706
-0.0211430213591426 -0.318879542790471 0.541816512178264
-0.0222357806171491 -0.319138523447957 0.558462134277364
-0.0204458934496561 -0.318714325572654 0.563464215670688
-0.0164952417530651 -0.317778033002828 0.579199223796501
-0.0170361609200644 -0.317906229218499 0.596291245004211
-0.0184816962031808 -0.318248816732901 0.600657273202568
-0.0213880005664775 -0.318937602125792 0.609406697500443
-0.0220428977407938 -0.319092810786389 0.618977021788843
-0.0191384738028589 -0.318404471048653 0.631607030722781
-0.0168778811163354 -0.317868717381069 0.647429786656613
-0.026772947968044 -0.320213818463807 0.659824375430312
-0.0229710326525009 -0.319312775968938 0.668115239185528
-0.024557495283243 -0.319688762840864 0.672025034452425
-0.0190389857543641 -0.318380892680388 0.685412966203321
-0.022845534900676 -0.319283033379212 0.696654255847732
-0.0176771026255593 -0.318058130474959 0.709231762897446
-0.0203706231169302 -0.318696486730187 0.715683316621628
-0.0213233717169875 -0.318922285282845 0.732679140599246
-0.0246629194092369 -0.319713748041644 0.739201942923727
-0.0249726207403401 -0.319787146325635 0.757603219505247
-0.0193352905901111 -0.318451116035272 0.770742623384485
-0.0213025548594014 -0.318917351750207 0.775992220085862
-0.0236595164082122 -0.319475944548308 0.781581528605781
-0.0215189821377472 -0.318968644364233 0.800832144290892
-0.0236175358707938 -0.319465995287204 0.80671894660011
-0.0222640749955448 -0.319145229130536 0.820065564453636
