ply
format ascii 1.0
element vertex 867
property float x
property float y
property float z
end_header
0.157583670398555 0.324987471953675 0.662698116491803
0.159275027916858 0.325210143395272 0.678508702588239
0.16476077713818 0.325932355981397 0.678110245198335
0.164558799881247 0.325905765171067 0.691451492349838
0.160326323064854 0.325348549027208 0.696138042232645
0.157917799177678 0.317326938628824 0.703082431365766
0.160139633189806 0.310676066974221 0.703082431365766
0.162385985415788 0.232147952306488 0.654032362128763
0.167385690592931 0.226017708098132 0.646477682773667
0.168150133242752 0.185083691042353 0.628007419924402
0.174300306307408 0.171312011141587 0.628007419924402
0.172953077160514 0.167564850493707 0.628007419924402
0.169207407981423 0.153834761497871 0.628007419924402
0.17255972840309 0.14244715435041 0.628007419924402
0.168723404090656 0.127036406532645 0.628007419924402
0.170892454763331 0.123650187876143 0.628007419924402
0.172619970024433 0.106434067824825 0.628007419924402
0.177125575632045 0.0998169488119464 0.628007419924402
0.177297822885075 0.0887243792356375 0.628007419924402
0.178958544798951 0.0703071159300193 0.628007419924402
0.175491383763919 0.0626082932776983 0.628007419924402
0.181408966768431 0.0469840082537834 0.628007419924402
0.181538891836586 0.0354481803702597 0.628007419924402
0.180547807558461 0.0177512084838954 0.628007419924402
0.17525114003887 0.0113804407635085 0.628007419924402
0.183750556427266 -0.00219625156291343 0.628007419924402
0.182877999640623 -0.0160280600454417 0.628007419924402
0.181242454052495 -0.0263284294118004 0.628007419924402
0.181664367447152 -0.038457143247511 0.628007419924402
0.179059043387086 -0.058817245141429 0.628007419924402
0.182423579885964 -0.0666286404979966 0.628007419924402
0.184215003858439 -0.0836803251425551 0.628007419924402
0.186469871820506 -0.0956579999811414 0.628007419924402
0.185184596054141 -0.114986126998548 0.628007419924402
0.189275980517759 -0.126299878650225 0.628007419924402
0.185739610268097 -0.127891373648519 0.628007419924402
0.192934109082691 -0.153814056121446 0.628007419924402
0.186331409137913 -0.164662190756681 0.628007419924402
0.187666524560735 -0.1859007687065 0.628007419924402
0.195280401735826 -0.192779211028316 0.628007419924402
0.195100919151905 -0.214074506818101 0.628007419924402
0.19146829250801 -0.224051055488577 0.628007419924402
0.19024975930149 -0.232366242552234 0.628007419924402
0.191256929090646 -0.252233208231189 0.628007419924402
0.193650044627373 -0.267090125073375 0.628007419924402
0.198397627834027 -0.280977566072097 0.630976035660263
0.195811801455382 -0.28442319903958 0.639207685951139
0.199415736369262 -0.286988200861447 0.647265081547814
0.191724110497576 -0.292443523632255 0.659042336490836
0.201430187636717 -0.293110086315972 0.664196768444304
0.19425500400688 -0.294217543217307 0.664628407657605
0.194814352333288 -0.29913507278205 0.677859609031995
0.195830676090343 -0.301185218892828 0.683649084495165
0.194662891381259 -0.30712773033854 0.698994662785407
0.198629537116785 -0.315236673302735 0.703082431365766
0.195914100204219 -0.321763783246043 0.703082431365766
0.170222593761012 0.326651417781158 0.325351061899134
0.170625788963505 0.326704499436581 0.322861210471234
0.165645373522458 0.326048815304744 0.341420635242219
0.168833118685129 0.326468489917082 0.345641372603133
0.171251215897238 0.326786838454465 0.35890928268839
0.169545302169699 0.326562250651566 0.360581636295494
0.165307945359867 0.326004392044383 0.369243162699067
0.17190533360897 0.326872954684931 0.383910171251954
0.166628847246702 0.326178292076853 0.386872412294978
0.172386353279728 0.326936282125975 0.397409672442604
0.166059650643215 0.326103355922386 0.40901884414566
0.168158550641588 0.326379681349358 0.410971028001006
0.173011332076934 0.327011606566776 0.427162187410343
0.168621874161774 0.326440679047981 0.432598810790988
0.172975595920341 0.327016311321045 0.439454510429603
0.17354958915239 0.326940743678448 0.447683759391695
0.171220195481779 0.326782754539295 0.462114170232202
0.172243293847467 0.326917447994414 0.468206822949944
0.170806587490764 0.326728302014255 0.478422892486536
0.173928093757836 0.326890912601793 0.486723080086012
0.173347097782503 0.326967402173033 0.489776962081947
0.16948928296613 0.326554875583504 0.510997341861649
0.173746240609055 0.326914854023023 0.516419150161914
0.165265678826104 0.325998827549649 0.51886918140037
0.169592530840462 0.32656846842403 0.52403319090694
0.170566544594893 0.326696699767486 0.544608747810502
0.166874848823339 0.326210678798827 0.556089566860377
0.165270382860771 0.325999446847561 0.560473177922808
0.165981260350108 0.326093035644511 0.566390764813011
0.167256049118975 0.326260864769829 0.582557735001232
0.17381352445958 0.326905995936055 0.57824876941956
0.167682344050057 0.326316987562215 0.59304573204727
0.166797918041865 0.326200550669305 0.59876966478514
0.171249277243139 0.326786583225812 0.60687239749251
0.170842374514909 0.326733013465365 0.623186201282343
0.172565402891395 0.326959854454543 0.62758579599736
0.165973415807046 0.326092002890824 0.638276098758439
0.165183567995857 0.325988017453768 0.647173712933821
0.173755968187836 0.326913573362982 0.651401021514627
0.167481666327501 0.32629056783883 0.669201875658969
0.172951469951018 0.327010681147179 0.677462207387768
0.172866985586412 0.326999558569572 0.682532320293563
0.166072390549308 0.326105033162842 0.691871555682212
0.170973780323415 0.325028679888025 0.703082431365767
0.165746534769586 0.31648671789571 0.703082431365766
0.180294498307835 0.213903112120564 0.628007419924402
0.179603024057319 0.210944725392491 0.628007419924402
0.1720709203536 0.220273048845729 0.644030686119306
0.174615008934617 0.187025230240789 0.628007419924402
0.181710124543782 0.168038539549117 0.628007419924402
0.174965984824315 0.159149724898827 0.628007419924402
0.183336136526471 0.15152197239157 0.628007419924402
0.17866256897742 0.150206601162069 0.628007419924402
0.181708679670802 0.123163437566333 0.628007419924402
0.185952310127838 0.118779490906485 0.628007419924402
0.185713511150407 0.103931435005461 0.628007419924402
0.182012904165225 0.0965903048530328 0.628007419924402
0.184169868695788 0.0878065268126952 0.628007419924402
0.183754140120022 0.0715883715458104 0.628007419924402
0.186495445175038 0.0556900905321268 0.628007419924402
0.184299527533295 0.0481643632207321 0.628007419924402
0.192310768725938 0.0334106462045642 0.628007419924402
0.186338861796899 0.0276769880780113 0.628007419924402
0.194067887996862 0.0156001971672212 0.628007419924402
0.194918418772508 6.6740665280966e-005 0.628007419924402
0.193479666451507 -0.0154325900975479 0.628007419924402
0.188154663486299 -0.0270268624087555 0.628007419924402
0.189942564227255 -0.025743891964646 0.634158370062734
0.192476581185961 -0.0253742188692389 0.654712772227015
0.196467033605486 -0.0249694307052989 0.660236401536733
0.195693693101737 -0.0407020657050036 0.657906532999979
0.196527577435057 -0.0475114733618177 0.657785425652952
0.197569970845721 -0.0772597726868983 0.653653528473517
0.193757815503561 -0.117641993103217 0.628007419924402
0.19567947591454 -0.129692495601888 0.628007419924402
0.196383451807134 -0.138866217632493 0.628007419924402
0.200651973559523 -0.164959994810875 0.628007419924402
0.203726433133683 -0.180280342477167 0.628007419924402
0.202336540050827 -0.187618697687574 0.628007419924402
0.203004330677132 -0.210082997705511 0.628007419924402
0.199086942029515 -0.223996944472272 0.628007419924402
0.206004499233412 -0.227107704049767 0.628007419924402
0.201101460891638 -0.24497341308154 0.628007419924402
0.211977850340428 -0.267933450906799 0.628007419924402
0.209112319268759 -0.279476363388156 0.630735897108563
0.20835086861733 -0.281803521684814 0.636639266118669
0.204211850490396 -0.286890262029177 0.648679299709891
0.208381879624953 -0.29015872540806 0.658799084381494
0.211429666982485 -0.291190589449208 0.662598155137525
0.204551091376902 -0.296190229044821 0.673451184392453
0.214349736544011 -0.297295733126516 0.679801522152938
0.21219417819719 -0.302048663591969 0.691648880233964
0.205700083820299 -0.304134370042497 0.694911483450802
0.21379294284813 -0.320160908785025 0.703082431365766
0.173525733386536 0.326943884349604 0.324978427255445
0.182478406660249 0.325765242553036 0.328339280808092
0.176925175570871 0.326496339295632 0.333215336242061
0.17831095083017 0.326313898521651 0.343826638435754
0.180383183489838 0.326041083916424 0.350165161945024
0.176994271036289 0.326487242705038 0.365763486573939
0.178178379513249 0.326331351866632 0.371501861679362
0.174605422656099 0.326801740560648 0.373390694169138
0.17827865337125 0.326318150562784 0.384246137005241
0.181581098483508 0.325883375415609 0.393396467128097
0.180821046206089 0.325983438196229 0.412520357589006
0.174054233836021 0.326874305945453 0.411431577912528
0.175535599128948 0.326679280504801 0.426077997458408
0.175660992444766 0.326662772161591 0.433293039444073
0.17625391281359 0.326584712714166 0.441829011400907
0.176529920020667 0.326548375676001 0.457657952298861
0.179449510761152 0.326164004263084 0.456327041606784
0.174515496831106 0.326813579520105 0.465864784931352
0.179907418023575 0.326103719628323 0.478806674659675
0.178143005946725 0.326336008885013 0.482287795036104
0.181336453753096 0.325915583505389 0.498253825291639
0.175766115709023 0.326648932421298 0.501953501721818
0.176187762561107 0.326593421560121 0.517639644844232
0.178784014744732 0.32625161847578 0.519998051337582
0.180468313492934 0.326029876338896 0.537828844991891
0.175460543978201 0.326689161702853 0.546615671601858
0.176581401188017 0.326541598051741 0.546482748430984
0.176084506560989 0.326607015470428 0.558408756078044
0.179611306979844 0.326142703386793 0.572109032613712
0.176847003458378 0.326506630849483 0.570425380875223
0.177949657373835 0.326361463707539 0.585796753195688
0.175168553177447 0.326727603021044 0.591366357832333
0.177951695968084 0.326361195321515 0.606669984656997
0.182525754983621 0.325759009028007 0.608331561339748
0.18205398884629 0.325821118218264 0.627011469448223
0.178486809600759 0.32629074627528 0.627635624227124
0.181261180169868 0.325925493460624 0.632792778760107
0.180589915118193 0.32601386718122 0.647451554755479
0.176717276530792 0.326523709723505 0.662790800085502
0.174384226136205 0.326830861634949 0.666168275979195
0.181673570635123 0.325871201225892 0.676147211308448
0.173530681709469 0.326943232890531 0.68264788656019
0.17497524800111 0.326753052130306 0.694134835751569
0.17775995436737 0.326386438582141 0.701802104248581
0.181492989886481 0.32403478610047 0.703082431365766
0.182572749008922 0.222092655000856 0.628007419924402
0.185571715924894 0.209073404193956 0.628007419924402
0.182484743510443 0.1893861975255 0.628007419924402
0.191406206117337 0.178786386419111 0.628007419924402
0.190630437814481 0.174885671872986 0.628007419924402
0.188728355264088 0.166697478773202 0.628007419924402
0.184963921275286 0.155611033003431 0.628007419924402
0.190441757436308 0.147328194775336 0.628007419924402
0.193522806653848 0.14546305100448 0.640796437921969
0.193774064609589 0.142784826572467 0.650317431077416
0.189872211685543 0.142660881865817 0.650616660069194
0.194387512087416 0.131635565097245 0.660917472077408
0.195025658438777 0.125332175671246 0.662907167904861
0.198910608146687 0.0674868963640978 0.628007419924402
0.198957245482203 0.0529427368890957 0.628007419924402
0.192630100786222 0.0486471733002566 0.628007419924402
0.197179944618425 0.0370072918547038 0.628007419924402
0.195403290143162 0.0215731347020627 0.628007419924402
0.203952651784266 0.0068590924176408 0.628007419924402
0.200669810351193 -0.00630110098282645 0.628007419924402
0.200223903617831 -0.01081788922251 0.628007419924402
0.197031986729684 -0.0247096570704708 0.629651695207165
0.197151584725287 -0.0246922096097948 0.638749310185365
0.200901262652134 -0.024145190758466 0.652360466842558
0.205770996875268 -0.0234347733644973 0.657978295192844
0.199392821289603 -0.0396023811345784 0.660837053772087
0.201192800232386 -0.0479096338874159 0.661283578331566
0.203992711442776 -0.0629365263485776 0.66163720544144
0.208224763951935 -0.0730434309943847 0.662767482721995
0.209946312113538 -0.130368242070675 0.628007419924402
0.214528699600093 -0.148094705756346 0.628007419924402
0.215019463842705 -0.165846721851458 0.628007419924402
0.208519688358967 -0.173819615288942 0.628007419924402
0.21316331504263 -0.201284517689539 0.628007419924402
0.218009334713443 -0.202143156875115 0.628007419924402
0.216609383890801 -0.225498387335252 0.628007419924402
0.219876034143757 -0.235966298678333 0.628007419924402
0.213576840233892 -0.253814432994044 0.628007419924402
0.212921189676904 -0.257608875395746 0.628007419924402
0.221652907088259 -0.278198928089381 0.631726187309692
0.220217253784353 -0.280127314943337 0.636337147146009
0.214348954713349 -0.283339651085762 0.642804760970203
0.217792101953671 -0.287839804806693 0.65593597879798
0.214642733141754 -0.290244641864945 0.661211883451081
0.219123503009203 -0.295398952845476 0.676439352160852
0.217644590551674 -0.29955433194622 0.686938797814065
0.219836972497593 -0.301466516008384 0.692772991550057
0.223914179100171 -0.304379270470044 0.70191742442728
0.221227311318318 -0.306058663396826 0.703082431365766
0.188686861208548 0.324947884005594 0.307360528222139
0.189187690772616 0.324881948542619 0.321587196978205
0.185843252746561 0.325322252161775 0.335445307107488
0.185647613186551 0.325348008598478 0.340183592025237
0.191218241689247 0.324614621442967 0.356976376420262
0.185193888942346 0.325407742528443 0.366007176655449
0.190789968171536 0.324671004721223 0.364941725005696
0.189909698210873 0.324786894460096 0.383023779368374
0.182580605367297 0.325751787838002 0.391482967511099
0.183449162140637 0.325637440169496 0.401224374858023
0.191187155613915 0.324618714002424 0.401467188789225
0.191999611368967 0.324511752173092 0.415502496601475
0.185387363714417 0.32538227109148 0.425440164602752
0.184795261971463 0.325460222764766 0.437402505733926
0.185486789518563 0.325369181436039 0.438142791432559
0.184104622861363 0.325551147128542 0.448918910995117
0.187919794495257 0.325048870254215 0.455910453167324
0.184584912470303 0.32548791580196 0.46933525887758
0.185852456695002 0.325321040438976 0.473611577659641
0.184475823803273 0.325502277597433 0.491590285501255
0.184025467146422 0.325561568176112 0.500716348412663
0.189147454178336 0.324887245790751 0.499738610745372
0.182996946885784 0.325696975437245 0.510335944099049
0.191088268775563 0.324631732701672 0.519598989177761
0.186882583785316 0.325185421634703 0.524448117533169
0.18394000946629 0.32557281889314 0.538694592447141
0.188849778390112 0.324926435551742 0.546657303962815
0.18361311933815 0.325615854794946 0.557859908457796
0.189702603430911 0.324814159005115 0.566998072761383
0.18330665894519 0.325656201071091 0.578506253615082
0.188764889477105 0.324937611389156 0.582014942347442
0.183514687295157 0.325628813619249 0.584879935807978
0.183950200146747 0.325571477264605 0.607355116787393
0.189376630864864 0.32485707410758 0.61673227634592
0.191786580045333 0.324539798278913 0.613868589125508
0.187299141411053 0.325130580782886 0.627086845772015
0.186464113978276 0.325240514229966 0.636411145152829
0.184416409003302 0.325510099704243 0.644664929679226
0.189468280532788 0.324845008199895 0.656174781277032
0.185061265181985 0.325425202777734 0.66520485875521
0.189841708165179 0.324795845519423 0.673115254846249
0.18340542223457 0.325643198637374 0.687175090827111
0.183379397353467 0.325646624877971 0.686814840213258
0.185513912978223 0.325365610564832 0.700112688863047
0.185150381126657 0.31366055611157 0.703082431365766
0.196432123482605 0.221018948494416 0.628007419924402
0.196272250422666 0.208886447143562 0.628007419924402
0.191500324990164 0.203989913025641 0.628007419924402
0.199115157891475 0.184309145569061 0.628007419924402
0.193801589196194 0.172752425939692 0.628007419924402
0.196057818921078 0.15696669846068 0.628007419924402
0.201763175916944 0.150316412445912 0.628007419924402
0.195832131730834 0.14547270501361 0.637131463874299
0.195202904359668 0.145646502260643 0.639402987288485
0.196082215225798 0.143688543569293 0.648135665247132
0.204816136641763 0.138856988000672 0.655837996198234
0.197484199527488 0.133249209909795 0.660249078511197
0.197253598253108 0.128552850319187 0.662194374347407
0.200350786618412 0.117223454240997 0.662932133636741
0.201709050238034 0.0581964131080204 0.628007419924402
0.206996698462554 0.0433562629143633 0.628007419924402
0.209099261983288 0.0308194969630756 0.628007419924402
0.207728436421457 0.0159500676825041 0.628007419924402
0.210859621685995 0.0117792958781137 0.628007419924402
0.207269226392831 -0.00627225027818807 0.628007419924402
0.206270337435632 -0.0164751839995859 0.628007419924402
0.211851921514555 -0.0225476623976107 0.628555663740478
0.214742061164138 -0.0221260366201067 0.635605877304829
0.215379610535107 -0.0220330282254194 0.651070457758705
0.207947902531555 -0.0231171971740119 0.655161156766931
0.209750806887721 -0.0278317654785022 0.664639637991841
0.214042875949801 -0.0474211327604036 0.664766745872832
0.209531400403176 -0.0616942472610511 0.663967503596022
0.214224688091509 -0.0635811978571104 0.664543053583387
0.216884065688557 -0.0755602685379978 0.664661839627109
0.216913926620279 -0.154713703912054 0.628007419924402
0.216939134625115 -0.16687399704005 0.628007419924402
0.218694720890242 -0.172191199017686 0.628007419924402
0.227875134266203 -0.190233616247578 0.628007419924402
0.223182155527766 -0.204680279692978 0.628007419924402
0.230802371613362 -0.229425687758429 0.628007419924402
0.221756911036523 -0.224854230847196 0.628007419924402
0.231623480126852 -0.247267534792521 0.628007419924402
0.228055329196024 -0.258968130320219 0.628007419924402
0.231504773641538 -0.276539249676548 0.630764815578425
0.232502848169447 -0.279583472062789 0.639183140961908
0.224925234382119 -0.282822164446631 0.645124071383363
0.228476742076057 -0.287129416189446 0.657781738922625
0.230971705064631 -0.291577620681368 0.670444326573128
0.230008575265104 -0.292472728801307 0.672481055784528
0.230662393355552 -0.294976275085915 0.679345945182663
0.236475593867758 -0.298849929909936 0.691643513007012
0.228034570651642 -0.302639915576977 0.69874454870395
0.231280369342324 -0.315576375617794 0.703082431365766
0.199481536685647 0.323526738018388 0.311204685399697
0.196777502969434 0.323882730810689 0.324681900269486
0.197374894243131 0.323804082757469 0.328409161200879
0.191856063564579 0.324530650600063 0.339190931952584
0.192222242587443 0.324482442217139 0.351339413628388
0.191816947584868 0.324535800316488 0.355708055740978
0.194296725358484 0.324209331379129 0.365880956860149
0.198173196781135 0.323698984234511 0.378196067985494
0.19836833825169 0.32367329337253 0.379706605882144
0.19866030890942 0.323634854706217 0.393678051233915
0.196732208400084 0.323888693953871 0.403709214720135
0.200291071080563 0.323420160793415 0.411449525646499
0.196530659111501 0.3239152284211 0.426722077348201
0.200562265919878 0.323384457315487 0.424897139538157
0.195573002746237 0.324041306273417 0.439308428077064
0.196099707809338 0.323971964236368 0.443998284444321
0.196568614933064 0.323910231442393 0.455289224593118
0.194372102735408 0.324199407759196 0.468518586987202
0.195118457339752 0.324101148311448 0.477155790801175
0.193540444852921 0.324308897596563 0.491624003217449
0.200159193815554 0.323437522764729 0.499221981123906
0.199144117564895 0.323571160088369 0.502661374565291
0.192646173573166 0.324426630644064 0.509231343387129
0.194185292588726 0.324224001781581 0.517553043993849
0.200780087666359 0.323355780538533 0.524202576718621
0.197038615306102 0.323848354719416 0.531815978322759
0.201104175872781 0.32331311351672 0.540702408170092
0.195623404715589 0.324034670728269 0.552334895694446
0.195952087610875 0.32399139880419 0.559426190263207
0.193251915539708 0.324346883201275 0.56915580657847
0.196986214058518 0.323855253474537 0.582813545007603
0.196337382183141 0.323940673811444 0.593827606916192
0.194240344671591 0.324216754037374 0.600482340401242
0.193169129545475 0.324357782184181 0.603186314799377
0.199902774110313 0.323471281059354 0.616129141467247
0.193635893553116 0.324296331536791 0.620442521777439
0.200680915195964 0.323368836841953 0.631042440421027
0.198501473729563 0.32365576575435 0.642675743858907
0.195110671739885 0.324102173305116 0.657834552398916
0.197785565314428 0.323750016885247 0.664466926753672
0.195082733727326 0.324105851414247 0.673246667300211
0.197260148150782 0.323819189367116 0.675565325345271
0.194346944293271 0.324202719930938 0.692561809828723
0.200895552443027 0.323340579312302 0.691977632688311
0.19586236014231 0.323286374571442 0.703082431365767
0.204486277867614 0.212568099412257 0.628007419924402
0.202087471864912 0.209933613602807 0.628007419924402
0.203028304920429 0.198269780966142 0.628007419924402
0.20328169644687 0.190117818060341 0.628007419924402
0.205876257674948 0.176185554198049 0.628007419924402
0.209639969276792 0.165143508908163 0.628007419924402
0.207998495345085 0.156021976948521 0.628007419924402
0.212820697624535 0.143882651120116 0.630187524151333
0.206904309849747 0.145649943572318 0.638477724385538
0.208010890595248 0.14332068633627 0.649023751168113
0.20577131645903 0.139205396392306 0.655383941542144
0.206825783466039 0.137496287167199 0.657059693276906
0.206812919286231 0.125115756513595 0.662935660027491
0.216166773683348 0.114663232574985 0.662546491722516
0.212958333082664 0.0616801399282657 0.628007419924402
0.218633029614073 0.0487486861303747 0.628007419924402
0.21401801877546 0.026499165699201 0.628007419924402
0.218524886986868 0.0271108017821944 0.628007419924402
0.214688223648295 0.00376011597772742 0.628007419924402
0.221310534965352 0.00537908399809567 0.628007419924402
0.219168970079762 -0.02082212043357 0.628007419924402
0.223220317318089 -0.0208891928076295 0.632762488434473
0.216799646556772 -0.0218258673735884 0.646996026377611
0.221064878809097 -0.0212036372800084 0.652515925252501
0.224743973139683 -0.034449650154545 0.661184353525356
0.224539889461215 -0.0395786547415508 0.661724885403586
0.223681416066076 -0.0442028035342042 0.662353249911155
0.222983775252863 -0.0625144428577269 0.66373412702782
0.220028940308864 -0.0640952808063052 0.664303809824705
0.233303827247234 -0.131421497371196 0.628007419924402
0.234587127251709 -0.14414909195893 0.628007419924402
0.228116913519344 -0.157404881715786 0.628007419924402
0.234525043168076 -0.188075634064044 0.628007419924402
0.238231176379045 -0.185385881388903 0.628007419924402
0.236756739952501 -0.205345274499772 0.628007419924402
0.238259480471725 -0.213218123693985 0.628007419924402
0.240912098108421 -0.23070524982964 0.628007419924402
0.236511008123382 -0.249854240634072 0.628007419924402
0.23480779551672 -0.269532049637611 0.628007419924402
0.242753193734734 -0.275827011847107 0.632802433096403
0.242452383892234 -0.278672007800145 0.64023931335714
0.242329345763353 -0.282488632100126 0.650313947238906
0.240705334219172 -0.285995102974964 0.659042547982856
0.24477618489285 -0.286972019787882 0.663053007553332
0.243527420365221 -0.293271615748156 0.679316927126332
0.238895046606995 -0.295827229839951 0.684474960452848
0.244722375522403 -0.297266352179538 0.690323702780299
0.240063750288557 -0.302178872582123 0.701720549694518
0.246392878180435 -0.30140709021255 0.701883483659627
0.203044129058627 0.3230577138346 0.315350223337067
0.202561314028762 0.323121277639154 0.317239240280014
0.201156299308577 0.323306251336214 0.328082785145536
0.201810757596006 0.323220090268107 0.342948101206574
0.205850687112743 0.322688223457152 0.351716392154343
0.205641259597131 0.322715795112646 0.357940478643995
0.205813231403211 0.32269315459486 0.37175252072773
0.20236211031938 0.323147503305024 0.374558481915107
0.209150073388026 0.322253851013505 0.391378679963933
0.201991868890809 0.323196246513805 0.398113751419135
0.201103400713408 0.323313215568387 0.402940329912841
0.207197032986449 0.322510973660262 0.409693382576026
0.203175927901969 0.323040362187695 0.420664573603997
0.204722316202389 0.322836776305705 0.427865188653925
0.208511964418642 0.322337859653057 0.438944043327059
0.201761228036947 0.323226610958262 0.445897249395124
0.207731198632983 0.322440649418771 0.454432268738652
0.206962656962934 0.322541829849132 0.470459281022863
0.202130105986542 0.323178047254893 0.474569068406444
0.20179288456204 0.323222443297668 0.480054856162677
0.206378231992658 0.322618770856122 0.495271970849579
0.20240766542419 0.323141505861698 0.500905289709231
0.209958150509113 0.32214746564227 0.511456037480194
0.203233157585112 0.323032827756973 0.521904679674081
0.206105192487308 0.322654717188941 0.529291386426949
0.209434533040972 0.322216401189732 0.533649739223219
0.20858766989068 0.322327892838582 0.542306106491881
0.206423543303019 0.322612805508943 0.556596510541756
0.201850638364304 0.323214839865355 0.56104377037824
0.202067877688079 0.323186239765806 0.570787519875644
0.202181300691312 0.323171307344146 0.582543121612046
0.205673154299535 0.322711596095414 0.596265910964122
0.206068723794893 0.322659518383381 0.600915231682499
0.200745124362324 0.323360383544834 0.61296577162964
0.205855072062793 0.322687646167526 0.614208707780243
0.209188593309402 0.322248779769649 0.627588487528003
0.201034358673199 0.323322305125419 0.634878276771013
0.209407729976511 0.322219929880111 0.642842618554829
0.202260555029081 0.323160873312635 0.654656916972867
0.209565520936905 0.322199156306078 0.659687512497382
0.206796443865382 0.322563712218557 0.672317453839181
0.209728110720385 0.322177750955001 0.675061881610908
0.203999240856326 0.322931970980958 0.689072834737806
0.203024297185791 0.323060324750191 0.697127286504228
0.202578266397077 0.317645719434326 0.703082431365766
0.202404425548089 0.311745953667519 0.703082431365766
0.214578124747471 0.213243805546105 0.628007419924402
0.218230272619151 0.20194358232214 0.628007419924402
0.218689373513582 0.1887042017425 0.628007419924402
0.218446541530596 0.175997934719961 0.628007419924402
0.219419572528214 0.159950478520767 0.628007419924402
0.213461738469366 0.156533019477905 0.628007419924402
0.220458391393301 0.147003716636374 0.628007419924402
0.215845124045373 0.145572828424293 0.63996259563394
0.220309209075353 0.142371515159714 0.651257775231026
0.217962372406688 0.138295817729758 0.656446191898541
0.215450061585584 0.132028581140534 0.660754679502047
0.219893370979651 0.128553224667505 0.662194219287257
0.222312315009087 0.0632419545302375 0.628007419924402
0.227651729685289 0.055027312176087 0.628007419924402
0.223948328153822 0.0451388387718535 0.628007419924402
0.226917306268709 0.0303321981681087 0.628007419924402
0.228655606141222 0.0202444022824711 0.628007419924402
0.23252222936395 0.00722467524633464 0.628007419924402
0.232210849429606 0.000234677818538313 0.628007419924402
0.227718783533839 -0.014244176052266 0.628007419924402
0.23101427833599 -0.0197521768594628 0.633936421415473
0.237434694946834 -0.0392874440409815 0.628007419924402
0.23455027025428 -0.0324607562183746 0.649059838445356
0.235796353827312 -0.037484902450733 0.647833984891543
0.229911907977015 -0.0432512689844543 0.658235334406395
0.236645182537563 -0.0566259377760209 0.652476974446176
0.236717211631012 -0.0671504971903742 0.654390094694951
0.243255692392899 -0.13183273999195 0.628007419924402
0.244376857430196 -0.139765769084042 0.628007419924402
0.242121698085822 -0.148400510888419 0.628007419924402
0.24031635919588 -0.153563498440584 0.628007419924402
0.24191537196597 -0.173234835420878 0.628007419924402
0.240601672877589 -0.202184465206117 0.628007419924402
0.25083608923278 -0.209822582529683 0.628007419924402
0.251658437241961 -0.225569328422938 0.628007419924402
0.246954283369717 -0.237765830574705 0.628007419924402
0.252700420722848 -0.240348143917144 0.628007419924402
0.247126817208763 -0.263125089306899 0.628007419924402
0.247812123919112 -0.273508217006252 0.629459960606793
0.246804166091867 -0.27903070708039 0.642708971571185
0.249220065777818 -0.281701792268322 0.651140904402837
0.249799791766323 -0.284512313314417 0.658676825702376
0.249007237742522 -0.288771017120309 0.669298649304506
0.253465775586605 -0.289159086351119 0.673906692293548
0.251954059013592 -0.292012959205342 0.679409702859798
0.249343658223868 -0.297781727148099 0.693302751880776
0.257428091011931 -0.306426852007964 0.703082431365766
0.255486904355561 -0.307409280487604 0.703082431365766
0.216122500738403 0.321335913538582 0.312648963018258
0.214746132298781 0.321517115881258 0.318083611700249
0.210170822155174 0.322119466888901 0.331014320976052
0.212900840168134 0.321760053199036 0.337351260034746
0.212044925557846 0.321872736495202 0.346868700860588
0.210415614779306 0.322087239328543 0.358050656526547
0.215473813543719 0.321421314827914 0.365716607429385
0.215096568867847 0.321470980031694 0.371983902886759
0.21060388404347 0.322062453209697 0.387981270292271
0.211788793342611 0.32190645694105 0.388948736594822
0.216460618543256 0.321291399485094 0.397662509160136
0.210795743244016 0.32203719446676 0.415544189098466
0.217673189837307 0.321131761445729 0.416508731988811
0.21543761528107 0.3214260804196 0.42333932453615
0.218140295296534 0.321070265845385 0.44362632424824
0.210689498434395 0.322051181861302 0.448193670285926
0.215592710430318 0.321405661755838 0.453877634032036
0.212268659117137 0.321843281413327 0.461920496464199
0.218576624730504 0.321012821985632 0.475032159439383
0.216660569976035 0.321265075379573 0.483184056963539
0.212835481149269 0.32176865787711 0.489101348907759
0.215010980941042 0.321482247896022 0.506344902219278
0.211503866435272 0.321943968280031 0.512219028899464
0.21180580940478 0.321904216733967 0.512025929721103
0.213989116533336 0.321616778897492 0.526280869637846
0.210580022852742 0.322065594595052 0.535981316426237
0.213479940825385 0.321683813151154 0.547081055596507
0.211158710276696 0.321989408950366 0.55168694274382
0.216356188267473 0.321305147991724 0.566180678983619
0.213762272947634 0.321646643422111 0.576452059063013
0.215652637200882 0.321397772246821 0.587206251808436
0.215099870759634 0.321470545329394 0.591944615891141
0.210808693070933 0.322035489589702 0.595433897693914
0.216402797144343 0.321299011816674 0.60659483958037
0.216965623616263 0.321224914305938 0.616600701538186
0.217461045909384 0.321159690723688 0.622467074116147
0.214446699151379 0.321556537002974 0.639317074875458
0.215130125735888 0.321466562186206 0.642774603208098
0.21587665738992 0.321368279429425 0.650687822529189
0.213235184662672 0.321716035911276 0.662536751554404
0.216681981248086 0.32126225653213 0.669860013161575
0.212679136308672 0.321789241065859 0.678001108045032
0.213068721890093 0.321737951151041 0.68062542521176
0.214018189362224 0.321612951386957 0.696177200224333
0.210456418137122 0.321649546442895 0.703082431365766
0.217914640859856 0.315858432001265 0.703082431365766
0.224964720434448 0.203295840174652 0.628007419924402
0.223848971399917 0.202293672195841 0.628007419924402
0.225357676812485 0.18294947901937 0.628007419924402
0.224292310427821 0.184486958277853 0.628007419924402
0.230331751322375 0.163777477656162 0.628007419924402
0.229254636582726 0.15299515862221 0.628007419924402
0.227347762754491 0.144926173228042 0.628007419924402
0.232898076813878 0.145411929554005 0.636669828427042
0.230329917041598 0.14142418914079 0.652492354535241
0.226652604565914 0.139068617853096 0.655562194804903
0.227315348284739 0.133449446119789 0.660166137957339
0.225494318029323 0.125884108276984 0.662834504598815
0.230034359672251 0.116575859670114 0.66284687619406
0.237725696394362 0.054326843384079 0.628007419924402
0.239514810210394 0.0498864189205412 0.628007419924402
0.234297572917836 0.0329335250423104 0.628007419924402
0.241807542083781 0.0306643336814996 0.628007419924402
0.235440882072577 0.0122595968985648 0.628007419924402
0.243110562164105 -0.00227233187167311 0.628007419924402
0.240275299784095 -0.016756504843773 0.628007419924402
0.24205324511799 -0.0301210759929089 0.628007419924402
0.242695384802663 -0.0388338366137919 0.628007419924402
0.240082537359547 -0.0510144804048196 0.628007419924402
0.245706670047645 -0.0640347916493721 0.628007419924402
0.251277686486436 -0.0848051130188257 0.628007419924402
0.24592341885697 -0.0903717411443423 0.628007419924402
0.24937009883717 -0.112314076486987 0.628007419924402
0.249149681147666 -0.118606389730748 0.628007419924402
0.249635801623964 -0.123961965702142 0.628007419924402
0.246977583127298 -0.1384596043626 0.628007419924402
0.249269059201061 -0.165611353273252 0.628007419924402
0.249523694878301 -0.179110800554654 0.628007419924402
0.25671957568742 -0.186158623955116 0.628007419924402
0.261140599870296 -0.205472423312767 0.628007419924402
0.253904444603158 -0.221664992097186 0.628007419924402
0.253008979562861 -0.231530561670714 0.628007419924402
0.264944407149518 -0.247415109945866 0.628007419924402
0.260257558768444 -0.262029553049329 0.628007419924402
0.266402030353258 -0.269078831696402 0.63753972250201
0.258808624441525 -0.273105951901642 0.639718073685322
0.265414418037122 -0.27550320927472 0.652399103270921
0.257219012047581 -0.282177261796694 0.66050010489483
0.25860986993762 -0.284479674601128 0.667610828135846
0.264855002893682 -0.285390630907855 0.676251263940336
0.266633408127272 -0.291289534773812 0.692642823093419
0.257968411344346 -0.294605235612288 0.691967308161628
0.268458833420403 -0.294713337451231 0.702968335017062
0.218708563227013 0.320995451953039 0.315504203486551
0.21908784880344 0.320945518059603 0.324889045073078
0.218926699758525 0.32096673373385 0.33328205356331
0.219025198949102 0.3209537660694 0.336434852303773
0.225397498755805 0.320114836884473 0.346333460459663
0.224718653104906 0.32020420860989 0.354927232569718
0.2227476351422 0.320463698047469 0.365150484099423
0.224996389601189 0.320167643906483 0.380552493382627
0.225981755295933 0.320037918051732 0.378890722721274
0.223729425445045 0.320334442901992 0.384873198186661
0.221550101969556 0.320621356280591 0.39624865546051
0.218877259556425 0.320973242659938 0.414872522961618
0.220319032304948 0.320783429676641 0.420437463399553
0.22722186803173 0.319874654112775 0.431391306711491
0.218992430325756 0.320958080140507 0.432451337151494
0.223795357624254 0.320325762765928 0.441895489979178
0.227311936723058 0.319862796344607 0.453830630716866
0.227381678695077 0.319853614639804 0.463335309915866
0.220006617859525 0.320824559818663 0.472270889740435
0.222964702839206 0.320435120543013 0.486342796529966
0.21909589934635 0.320944458185522 0.482883334746812
0.225995315722679 0.320036132787683 0.492400505431559
0.226165800155944 0.320013688086244 0.508903228473305
0.224975953291086 0.320170334397749 0.51502028423563
0.227884370228615 0.319787434043898 0.527062051508088
0.226862535601496 0.319921961124679 0.541236375236098
0.220798985482619 0.320720242642076 0.542140611100813
0.220567308709319 0.320750743467914 0.554065008925188
0.21925205000359 0.320923900561497 0.55764735924832
0.223268317008379 0.320395148979338 0.578962356146188
0.222592169767351 0.320484165452357 0.581381057058853
0.225869015813063 0.320052760486229 0.582668546692672
0.22253962444924 0.320491083174723 0.589729560097554
0.223528088762818 0.320360949379064 0.601845587028314
0.22736866145442 0.319855328392049 0.609921447874769
0.2230318566954 0.320426279570122 0.619940631839004
0.224540841297364 0.320227617978453 0.63543472515308
0.221376691347939 0.320644186222035 0.639210013887579
0.221123871401924 0.320677470599369 0.649937962784303
0.222237960346636 0.320530798007262 0.661166979500491
0.222809382779621 0.320455568816783 0.670797666232616
0.219272264379493 0.320921239288421 0.675430462628661
0.22514240099461 0.320148421141862 0.680804862735583
0.226253157906303 0.320002187220225 0.70071352452622
0.222311387939469 0.316497172446037 0.703082431365766
0.220693666788201 0.311325401608354 0.703082431365766
0.236077400284415 0.212222132921002 0.628007419924402
0.234261888054101 0.192590627122335 0.628007419924402
0.23432344893331 0.186522134196755 0.628007419924402
0.231782510812991 0.180974638927939 0.628007419924402
0.239105713951866 0.16442968684233 0.628007419924402
0.237056090631611 0.157203396722806 0.628007419924402
0.235949424929371 0.143145204800215 0.628007419924402
0.236134721502764 0.145463705874053 0.640791463693716
0.240616747139345 0.141498513133077 0.652395493622681
0.23453511943976 0.142878928113772 0.650090249860156
0.24288741008728 0.133461529245014 0.660161132962995
0.236265044638077 0.122484729617984 0.663282041289518
0.237754214108664 0.118221231370133 0.663063493487827
0.24165261032599 0.0673100018307827 0.628007419924402
0.242784108208363 0.0482084896045738 0.628007419924402
0.242769393475321 0.0354854283347264 0.628007419924402
0.252638710992312 0.0151369836412714 0.628007419924402
0.249845465405327 0.0101731287982691 0.628007419924402
0.249733340064502 -0.00318405325749207 0.628007419924402
0.247238891714603 -0.0136390622465045 0.628007419924402
0.253920820106683 -0.0268724855483249 0.628007419924402
0.257468803516897 -0.0495704202795226 0.628007419924402
0.257155256127484 -0.0523413101656088 0.628007419924402
0.252799378092395 -0.0732250348509805 0.628007419924402
0.253703302118163 -0.0772844272165581 0.628007419924402
0.260711803232609 -0.0957422551742033 0.628007419924402
0.260711349821203 -0.111031670194773 0.628007419924402
0.257284540316024 -0.112510470790416 0.628007419924402
0.263583384459662 -0.135578107790477 0.628007419924402
0.267130711084012 -0.142952570468592 0.628007419924402
0.262577414564187 -0.166182902029487 0.628007419924402
0.266639531318124 -0.174788434128189 0.628007419924402
0.263784382280507 -0.192655627210213 0.628007419924402
0.272035864618627 -0.215122282597301 0.628007419924402
0.267436008677214 -0.226175525356634 0.628007419924402
0.270113442105648 -0.242057425923527 0.628007419924402
0.268396767282493 -0.239453427821379 0.628007419924402
0.268525064629011 -0.265988248205208 0.632077484783397
0.273803825452746 -0.265638603673748 0.636615091691371
0.271738380369842 -0.271042770643398 0.647851422935947
0.270760569066771 -0.275711227667265 0.658383240950169
0.275215963646145 -0.275677905348885 0.662859764961146
0.272847547640472 -0.279085232294857 0.668853364401409
0.271352901155872 -0.284605933482407 0.680961617476475
0.274544407229015 -0.285649961495543 0.686806250468329
0.279382147774192 -0.289967901528106 0.702422774310019
0.277108063729414 -0.292962829703404 0.703082431365766
0.23105489716217 0.319370026254427 0.314160852170509
0.233802239656016 0.319008331753384 0.313885299421535
0.23576286939913 0.318750209950859 0.324119685028208
0.234592143683962 0.318904338915251 0.338403219803681
0.230161038465648 0.319487704984314 0.3478756153892
0.236255475874027 0.318685357078111 0.348845836055849
0.229172436455818 0.319617856908029 0.367412057430206
0.230033017868472 0.319504559215676 0.372214558545052
0.230384729791151 0.319458255462623 0.383664210623058
0.234233115787705 0.318951605834497 0.393080173473395
0.23401547404153 0.31898025891396 0.399497897068213
0.232347492504714 0.319199852849211 0.413534195028026
0.234317964270188 0.318940435319861 0.412330808031205
0.231692194509614 0.31928612446693 0.424489990013743
0.235623961937945 0.318768497465058 0.438798744432722
0.232051469089542 0.319238825071164 0.447896073112623
0.228340495874276 0.319727383963433 0.454543638523702
0.235904103617213 0.318731616113304 0.466131843614246
0.228874313945743 0.319657105481067 0.467613220313802
0.235682090381602 0.31876084471027 0.47406583729961
0.228934952873665 0.319649122214755 0.486861594279208
0.229699365317856 0.31954848540729 0.502922783443242
0.230819561815196 0.319401008740627 0.504400965802226
0.229906394629256 0.319521229481371 0.518762719672692
0.233299089359125 0.319074572746632 0.520219989771028
0.2293704597535 0.319591786646308 0.539636126094587
0.234573669366197 0.318906771105326 0.542019875046985
0.231320762825183 0.319335024375869 0.550658512634999
0.23616051474784 0.318697858947547 0.559453661001804
0.229745595705954 0.319542399061233 0.57073441065356
0.233351921722896 0.319067617233988 0.571094127806736
0.236947737885098 0.318594219055369 0.583072975683735
0.234352926647318 0.318935832435591 0.593378334401565
0.234547930497792 0.318910159691636 0.608153148817577
0.236751411865119 0.318620065866241 0.608650116802792
0.228751973563851 0.319673211897899 0.617038142554107
0.235893171776617 0.318733055317422 0.630316175986411
0.23284776970349 0.319133990106507 0.639302404641289
0.233191198929504 0.319088776791157 0.65044711169714
0.22919342724974 0.319615093417582 0.655790091596601
0.230646285668773 0.319423820978075 0.669377125225918
0.232672190946883 0.319157105488337 0.676943700428191
0.229299669546846 0.319601106353819 0.684470066553956
0.235448450198526 0.318791604023908 0.695432066214925
0.229286343821886 0.318056980811343 0.703082431365766
0.235994984485236 0.308928924726489 0.703082431365766
0.238749714265656 0.203166319891936 0.628007419924402
0.243949134704616 0.201362311395385 0.628007419924402
0.245496913335596 0.183218183290542 0.628007419924402
0.247727780800328 0.183046771248449 0.628007419924402
0.243557868300162 0.161456292514676 0.628007419924402
0.249073655939773 0.149019620040225 0.628007419924402
0.24802091506008 0.140946538639925 0.628007419924402
0.250817365509291 0.123296943451742 0.628007419924402
0.251133058249201 0.111032457340354 0.628007419924402
0.248069912078791 0.0998686957037873 0.628007419924402
0.253022583482965 0.0925981940607261 0.628007419924402
0.248353424588006 0.0854269524880034 0.628007419924402
0.257449379104256 0.0659119727991855 0.628007419924402
0.252843216453341 0.0636964092849084 0.628007419924402
0.25277385206861 0.0421884503567485 0.628007419924402
0.253066699969675 0.0243733647833985 0.628007419924402
0.260830960512503 0.0249839911596118 0.628007419924402
0.255217719322037 0.0131715903852566 0.628007419924402
0.262393784342186 -0.00538708144140272 0.628007419924402
0.263758055520232 -0.0168655871613335 0.628007419924402
0.261522947925209 -0.0370487012145237 0.628007419924402
0.260184839004962 -0.0396631946383934 0.628007419924402
0.264386675165001 -0.0550132068425197 0.628007419924402
0.26611637251668 -0.0739170008383967 0.628007419924402
0.269711660895202 -0.0754905198551702 0.628007419924402
0.271763647725121 -0.0936113364284111 0.628007419924402
0.273318336992704 -0.108144628775642 0.628007419924402
0.265889506337024 -0.123156757266969 0.628007419924402
0.271207618596258 -0.13377828965234 0.628007419924402
0.269408909445895 -0.154743546326055 0.628007419924402
0.273309595527374 -0.141747057966059 0.641705926105857
0.277698380788238 -0.167860629177914 0.628007419924402
0.274867035787769 -0.187132787903307 0.628007419924402
0.274145268010838 -0.19848351629913 0.628007419924402
0.27780657994116 -0.228823132989176 0.628007419924402
0.282578639930578 -0.22666808966862 0.628007419924402
0.281864923257723 -0.255296383278693 0.628007419924402
0.279202810378215 -0.261803232747568 0.632665041685838
0.278798399069271 -0.263612338283503 0.636720213230373
0.288287294932351 -0.266126604740716 0.65264032795056
0.281079542865318 -0.268738404328858 0.651717068222415
0.282123247238256 -0.272092395882933 0.661070257327483
0.287165758305811 -0.274983971503318 0.673372806109268
0.287433513087387 -0.280577528278551 0.687464352220134
0.289484576567369 -0.280190876398278 0.688607903768596
0.288305011070283 -0.288368398173678 0.703082431365766
0.285068968723378 -0.300827902149668 0.703082431365766
0.241081237243825 0.318050033541017 0.306212821236355
0.245039985677302 0.317528854422429 0.318831216436514
0.245355686341091 0.317487291641551 0.329851621168398
0.24050777557353 0.318125531202182 0.335366610512071
0.241636905298485 0.317976878453791 0.350302545779533
0.245643794243703 0.317449361516598 0.35675312515903
0.245193406593438 0.317508656175638 0.36198544111486
0.240503481981971 0.318126096464234 0.366396580159073
0.241721984701735 0.31796567753786 0.377054432115076
0.24311591322408 0.317782163366435 0.382851183566929
0.239141669078216 0.31830538253426 0.402901838558541
0.240846042349157 0.31808099753632 0.408033774735892
0.245975775365099 0.317405655372815 0.412955883030372
0.245509675448646 0.317467018590941 0.427578009092565
0.239325662463297 0.318281159345575 0.439578234815703
0.242988210616667 0.317798975733649 0.441937449944671
0.238398265658657 0.31840325345116 0.448832096544758
0.243185869349449 0.317772953467809 0.459504587083542
0.236890150766471 0.318601800543365 0.473646481467171
0.242775423201957 0.317826989728251 0.474728191155278
0.244229046579609 0.317635616580032 0.486174043167679
0.245060273359578 0.317526183498387 0.495935318764768
0.241684019590825 0.317970675739533 0.506374464267583
0.236603010444455 0.318639603283917 0.51761103541883
0.238593120637333 0.31837760030655 0.530770957896719
0.244781086504976 0.317562939145089 0.53223417846452
0.238832251848526 0.318346118085345 0.544795921470324
0.239629501759459 0.318241158143369 0.547931856052154
0.245009811422401 0.31753282693845 0.562210260396507
0.243881049719395 0.317681431235832 0.566654542132341
0.237236054040786 0.318556261513378 0.579233245511864
0.24030172564546 0.31815265818984 0.581164065400315
0.245132647406725 0.31751665527432 0.587761022052725
0.239990870699863 0.318193583019815 0.602504359537138
0.24106670638001 0.31805194656553 0.611222320496677
0.245631630857985 0.317450962856707 0.621366881617942
0.245674377442293 0.317445335162119 0.632780066209764
0.24357489531068 0.317721737228387 0.645432796874633
0.241111606411956 0.318046035364183 0.649386985696586
0.245487752330714 0.317469904824171 0.661729333883006
0.237994856260346 0.318456363305998 0.670930912541655
0.246321637798648 0.317360121719616 0.671580030845673
0.244170749768297 0.317643291500843 0.680317178036245
0.238531773689204 0.31838567678549 0.697831467264227
0.238482940981722 0.318392105733395 0.698702412040123
0.242705193014029 0.307680952413641 0.703082431365766
0.247726359422853 0.209167702371611 0.628007419924402
0.255303367036199 0.199327240487153 0.628007419924402
0.249836326234382 0.182114520757416 0.628007419924402
0.252444600738624 0.179609350510405 0.628007419924402
0.259466545807945 0.159706621516485 0.628007419924402
0.256122198742734 0.155195737819976 0.628007419924402
0.255597690800426 0.145889435374971 0.628007419924402
0.254868654094233 0.133606596417341 0.628007419924402
0.258804505336852 0.113065966754312 0.628007419924402
0.265188046134974 0.104607531475 0.628007419924402
0.259318884054599 0.0987754954196562 0.628007419924402
0.266668597598817 0.0759049129584336 0.628007419924402
0.266958522922786 0.0755343715499459 0.628007419924402
0.264310609892171 0.0580824031056907 0.628007419924402
0.26794861237537 0.051979387927571 0.628007419924402
0.264257602558483 0.0426317615298758 0.628007419924402
