ply
format ascii 1.0
element vertex 851
property float x
property float y
property float z
end_header
0.00411452002115015 -0.238722935470598 0.570741374643938
-0.000968776999983737 -0.241863463946234 0.583108295784049
-0.0043393663291255 -0.243945858841482 0.584323979465317
0.00339344595483199 -0.239168424614533 0.601301177025291
0.00252791079390932 -0.239703163743142 0.616259351478359
-0.00393528672409421 -0.243696213089769 0.618663650019883
-0.00166624950752254 -0.242294371733403 0.637300089288413
0.00467405620477224 -0.238377246578033 0.654579523099303
0.00324753241275805 -0.239258571940562 0.653447146850346
-0.000292147286841503 -0.241445433114522 0.667750590266416
-0.00447283401204548 -0.244028316950273 0.672480631566674
-0.00296326608769518 -0.243095685818821 0.681168212436533
-0.0016995856062504 -0.244005318971174 0.698235940364886
-0.00147230932719973 -0.248046416196007 0.707463321884095
-0.00268427833655224 -0.249824188958606 0.70957768335582
0.000152116028813814 -0.25454988955109 0.717057924085627
-0.000475157445058851 -0.268222517508411 0.726823950717986
0.00237740798380041 -0.27214493018152 0.728904406969962
-0.000386550561179929 -0.28950506716263 0.732474830159417
0.00717765117798125 0.341019477465737 0.333103329254135
0.00483789630861226 0.342278867244406 0.344120199702778
0.00936187173700323 0.339843805141082 0.343857591043178
0.00768329672249413 0.340747310137985 0.358682649699267
0.00845521458074458 0.340331819834543 0.365088721871383
0.0103957607820161 0.33928730697428 0.378296758273609
0.0133736026702676 0.337684462297833 0.385768788609113
0.0105456558199405 0.339206624898945 0.387080222631892
0.00769870516533945 0.340739016433513 0.402663600758652
0.0104583889488295 0.339253596915943 0.405526301888831
0.0100907713613021 0.339451469709479 0.418011585078276
0.00873293053221811 0.340182337239064 0.428293371473846
0.00495357983471949 0.342216599759787 0.440362873784366
0.00714651990102327 0.341036234098028 0.444105780494013
0.0047511070330352 0.342325582192195 0.45435999926894
0.00699293667434823 0.341118901367314 0.466318628390122
0.0115602625231575 0.33866050559041 0.475074906283639
0.0105850239063685 0.339185434745096 0.487058061159946
0.00995364070396635 0.339525281265746 0.493602440613346
0.0111802433398928 0.338865053631476 0.499947790470381
0.00454126692190308 0.34243853013156 0.503941914799361
0.0108432119238129 0.339046463199657 0.515449852638324
0.0056665186100933 0.341832855369177 0.520044251984452
0.00630974721060991 0.341486632978343 0.543802865423011
0.0124552330779273 0.338178781293715 0.544657150263028
0.00714485425040118 0.341037130646378 0.554497817284255
0.0109731406684196 0.338976528124382 0.558915032908242
0.00867128886814141 0.340215516305253 0.570616314847661
0.00675046756973241 0.341249412095593 0.573946400658797
0.00569949451279497 0.341815105853898 0.58762687830837
0.00834198576800752 0.340392766052148 0.598994289395327
0.0102118875673545 0.339386278046057 0.606548041987772
0.00450371753455737 0.342458741357632 0.618062212084487
0.0133744138364116 0.33768402568186 0.619478100311106
0.0117106206608984 0.33857957424829 0.626698891569799
0.0115190799139249 0.338682672424127 0.641174109571179
0.00541361909469355 0.341968980340598 0.652452020245312
0.00536616567610683 0.341994522482262 0.663256770001452
0.0123869675090658 0.33821552572399 0.670320871965894
0.00642011018549208 0.341427229318443 0.677430323177796
0.00747850871123825 0.340857538748489 0.683674581259412
0.0127554241011943 0.337752764929153 0.689077523731154
0.0093382807503044 0.335753594964196 0.704123950987736
0.00741088247183831 0.333266588507954 0.710974781739405
0.00623156535653494 0.33470244003677 0.709915930692993
0.00670080005251744 0.324546086328843 0.720719133541152
0.00865518637545459 0.321854027373467 0.721827785205963
0.00560972088324816 0.314170713029985 0.727605054437552
0.00940395977541798 0.311631407296854 0.727786418709351
0.01278229500579 0.302555585297552 0.730434620859384
0.00555734695274349 0.292085537818216 0.732872620124497
0.0115541160970291 0.270606986641595 0.730625371575
0.0113726276313572 -0.234238780101688 0.319388446843177
0.00842188626423851 -0.236061787344654 0.325504074353497
0.0127623621319555 -0.233380183652464 0.337572189013983
0.00659619943072879 -0.237189720940584 0.346523017728102
0.00710196255645558 -0.236877253758031 0.352556500682141
0.0107905778874177 -0.234598378171107 0.373479583965915
0.0140436433877885 -0.232588591059603 0.382144525353506
0.00654996697685694 -0.237218283965187 0.395650838671801
0.00657043443201287 -0.237205638899304 0.401586990779143
0.0129789997769699 -0.233246342035451 0.418900638544135
0.0138283034372869 -0.232721630943694 0.415990837927142
0.0154885555364458 -0.23169590512589 0.435821959131938
0.00872663600671557 -0.235873508902491 0.440621255539175
0.00992917094529774 -0.23513056683126 0.449196928156461
0.0115237386153563 -0.234145421726945 0.463373535027842
0.00611409410610964 -0.237487572019112 0.481589687401827
0.0127374086341617 -0.233395600255126 0.486836480567458
0.00832931803442385 -0.23611897722761 0.490848907833482
0.00962739169934331 -0.235317010061182 0.505082029132505
0.00941172242591255 -0.235450253405356 0.522387076391043
0.00737217133181749 -0.236710315184531 0.534311224941922
0.0104772950835017 -0.234791928452062 0.543821019427112
0.00809853535358553 -0.236261557835795 0.555347960062471
0.0116609511105269 -0.234060650023363 0.565095658094417
0.0106576488909363 -0.234680503472255 0.570472161384111
0.00821113868187122 -0.236191990002661 0.587510367895784
0.0134981753645724 -0.23292558845565 0.595317385662456
0.0146413123976492 -0.232219343200061 0.607788153403543
0.0148040517771269 -0.232118800648006 0.615335196338339
0.00797755886288658 -0.236336298719978 0.621976638974032
0.00783903432602678 -0.236421881020357 0.643520137413377
0.00865501584469048 -0.235917756790689 0.641877184312187
0.0126153079140679 -0.233471035703173 0.666033962007845
0.00602145612409727 -0.237544804995903 0.675155636088769
0.013562571806858 -0.232885803477537 0.686127906055105
0.00939938216796422 -0.235765229646797 0.689295062435957
0.00683432241798962 -0.238591676026449 0.697322579760945
0.0125399578886682 -0.240397137756437 0.709533884574037
0.0152887975630806 -0.242815916340299 0.714415462270109
0.0157598754727574 -0.251810429651817 0.722656067067749
0.009774321494245 -0.266466490831936 0.72851360371492
0.0158808198296443 -0.28046797795503 0.732588350137734
0.01484248278426 -0.284881695543611 0.73301103166506
0.00932715147295031 -0.300314196655838 0.731898778950068
0.0196162742931364 0.334324299685775 0.325396291673549
0.0163138903272704 0.336101831454724 0.340165646319211
0.0192057590280349 0.334545262460819 0.343278800865557
0.0186030677319503 0.334869665357857 0.35447593514563
0.0188077819014389 0.334759476493212 0.368443599759633
0.0182381380119935 0.335066091387465 0.374003049455852
0.0200943872315873 0.334066951979989 0.37957236724256
0.0196671721692805 0.334296903540217 0.393756508329901
0.0220807506333508 0.332997777684145 0.388497283392161
0.0160472786866687 0.336245337075524 0.405444529923607
0.0156482607497127 0.336460111331531 0.418992882377044
0.0150425342390264 0.336786147954519 0.424610134108242
0.0138128685138403 0.337448024318472 0.437451489421634
0.0159896248800876 0.336276369648919 0.443261438823262
0.0204299880910395 0.333886312419136 0.452256852499887
0.0149398028508238 0.336841443858353 0.461801665514384
0.0191472796057033 0.334576739427791 0.466176153525867
0.0175128482884928 0.335456483764167 0.480707177987
0.0190528831523429 0.334627548993384 0.485779449377795
0.0184104296551054 0.334973354179338 0.495524068549745
0.0160511385096286 0.336243259498233 0.504048493892186
0.0166470816686152 0.335922488834211 0.516762838048156
0.0177128089663303 0.335348853500372 0.518743647302791
0.0211617855701581 0.333492417196468 0.531784673673087
0.0198623414521191 0.334191852279021 0.53898052571433
0.0150690312574462 0.336771885745003 0.550675864601415
0.0173602398930562 0.335538626323572 0.557807544615343
0.0136996519750925 0.337508963929516 0.574915423992737
0.0133001189954524 0.337724015410928 0.572126966427523
0.0200440821154046 0.334094029068262 0.581358318689261
0.019641644541756 0.334310643968157 0.598579055944535
0.0204117661553862 0.333896120506218 0.597899145557658
0.0183440221204362 0.335009098509432 0.609685099043244
0.020928115804905 0.333618191617454 0.612439230481636
0.019510639805004 0.334381158203892 0.622956763323009
0.0148193872497628 0.336906258416131 0.638763824404487
0.0145489426166765 0.337051827172526 0.647999457572956
0.0170525890072923 0.335704221611353 0.653632093375022
0.0184535016759246 0.334950170356334 0.662029044761216
0.0196653142631837 0.334297903571451 0.668388089098496
0.0188774162610707 0.334721995301523 0.680990123224728
0.0218525868710488 0.333009554866126 0.688051046240171
0.0137748217616274 0.335477347782639 0.699632734671998
0.0181000964574382 0.329791726600098 0.706773395026452
0.019224643946372 0.326779676100338 0.711121814839853
0.0209661557804816 0.321400316001953 0.716221475095024
0.0175666608849682 0.320789878961308 0.719023017482046
0.0151362849825983 0.313940926068638 0.724818672673402
0.0204950972882905 0.301009219529971 0.729484027443822
0.015431078777861 0.298975256796277 0.731220827195173
0.0181754736958803 0.288941652814927 0.732449543854036
0.0166973169322493 0.278215227409708 0.732471387431723
0.0224149435309585 0.268462415836837 0.731697206631932
0.0188210030426696 -0.229637074755887 0.327608497259997
0.0211905346055607 -0.22817314665642 0.342427013219823
0.0223869160177684 -0.227434006315586 0.355324588693676
0.0175364568348977 -0.230430684479459 0.357720355391119
0.0174771689589102 -0.230467313317401 0.372850308721052
0.0234811308710076 -0.226757985833058 0.38703399764977
0.0162385024933339 -0.231232577926333 0.396862315363113
0.019366661442057 -0.22929995974291 0.404931847331879
0.0161691526714641 -0.231275423168201 0.414968951274528
0.0225377867841825 -0.22734079635046 0.429796917602779
0.0206769782434418 -0.228490428604017 0.437411314505844
0.0254454759207097 -0.225544387347879 0.445455230711717
0.0231899567928092 -0.226937877049358 0.465017856655606
0.0258957913026745 -0.22526617651853 0.475008155943312
0.019414935382361 -0.22927013546085 0.489009136870372
0.0267504576672103 -0.224738152276816 0.50050967056148
0.0268849922609953 -0.224655035016309 0.507072131848339
0.0194547075320766 -0.229245563698034 0.509490029579605
0.0199043440823782 -0.228967772259912 0.525534489454507
0.0218252964108996 -0.227780982374729 0.536613184889688
0.0215900555261504 -0.227926317320556 0.551667361119056
0.0226329371296479 -0.227282011202129 0.56013753655484
0.0264088476990764 -0.224949203456399 0.568984234683882
0.0187607212876 -0.229674317625538 0.579195102864769
0.0255424884049178 -0.225484451745478 0.592528378955453
0.0182528463479289 -0.22998808951482 0.59758662139685
0.0236565395484656 -0.226649616020289 0.616232934739024
0.0237457089262268 -0.226594525993315 0.622846202059198
0.0269421730507467 -0.224619707964254 0.630001840079904
0.0211059066949391 -0.228225430904622 0.647183846819321
0.026567472208718 -0.224851203125632 0.661851886175134
0.0164134264345624 -0.231124507590049 0.665196476155343
0.0243682356593768 -0.226209920701872 0.682154896478064
0.0200652312160181 -0.228868374049959 0.683319999950077
0.017633075723703 -0.231825555438642 0.696711605062292
0.0265292534025929 -0.230322682251227 0.706592107685165
0.0216615487292611 -0.237725387977074 0.71313616669185
0.0217690930672535 -0.243075632388161 0.719144312935685
0.0167094313925663 -0.254187109698074 0.724591363487959
0.0253199513933365 -0.257588927119507 0.728769808067772
0.018167574464594 -0.272657547060502 0.731871486773121
0.0201587171932162 -0.278932283968261 0.732712418544869
0.0263384771880077 0.330706025939762 0.321911443609634
0.0309790853796294 0.328208185418154 0.337006557518889
0.02904426913187 0.329249614089991 0.342684248730805
0.0263370390025744 0.330706800053349 0.344838612162438
0.0292474276133958 0.32914026258551 0.359215518543636
0.025447706846672 0.331185489441561 0.373890060685433
0.0307608544333805 0.328325649784482 0.376776590317207
0.0269080481422691 0.330399450303393 0.388639880555342
0.0280374560412234 0.329791538430866 0.396683187504523
0.0245966696750808 0.331643566280806 0.39820361973703
0.0273637709573207 0.330154154241529 0.40731207089096
0.0229610992353465 0.332523923758021 0.422698128278688
0.0305992680034348 0.328412624835121 0.422886112538606
0.0254421469449967 0.33118848209837 0.444866230988571
0.0250080942486374 0.33142211406399 0.450271801677305
0.0292469063064789 0.329140543182683 0.454318790480915
0.0259400857743721 0.330920462965115 0.461844038396423
0.0222555313849471 0.33290370069559 0.475764918623897
0.0279764491853144 0.329824375807023 0.480448116242774
0.0303141292428776 0.328566102810634 0.487799427848382
0.0308720828669676 0.328265780285249 0.501013977955425
0.0226951915294551 0.332667050480932 0.514279032529673
0.0241854488633289 0.331864908821377 0.513470845477915
0.022808562406876 0.332606027795995 0.524187223126868
0.0251531251693221 0.331344050134519 0.538498272151551
0.0245706472435173 0.331657573040557 0.539704861127329
0.0274085164553553 0.330130069657454 0.55445508936504
0.0254674514847997 0.331174861748991 0.56331542669518
0.0235291675461617 0.332218156930225 0.570882184464126
0.02663736685556 0.330545146440292 0.575495541808285
0.0305744081937482 0.328426005805337 0.58859576410482
0.0238396730538188 0.332051025121811 0.599203668072401
0.0264592010898205 0.3306410454369 0.607383387929635
0.0247655188306616 0.331552682016195 0.617322866445378
0.0285550348709696 0.329512947927061 0.618509430239954
0.0233359460769467 0.332322159766819 0.634100944795044
0.0284295572712986 0.329580487141765 0.638680968899362
0.0296964499254271 0.328898573117279 0.648507433116339
0.0246950046469396 0.331590636779488 0.660125318798224
0.0240972226731041 0.331912397198742 0.670868079145254
0.0228581734801278 0.33257932428129 0.677859126665414
0.0234548861667967 0.331727067603004 0.690861684337481
0.0285896430463811 0.329323759782918 0.688449360749218
0.0284299116510222 0.325776057585912 0.703488749335675
0.0234710614555041 0.327308928613501 0.705905326911255
0.0286483930663583 0.319458331639398 0.713703738651813
0.0304221695121194 0.31466149113525 0.718114693233218
0.0290894841608787 0.308945431967646 0.72311867228249
0.0308382010031863 0.301670205846307 0.72721136682477
0.0237687099506717 0.299045361253716 0.729557668225849
0.022992912069563 0.285655405336249 0.732529942679027
0.0265767321166285 0.27994449314041 0.732968558048483
0.0263923456299692 0.272549424611263 0.732419500846922
0.0343521664250089 -0.220041715551183 0.343784918616686
0.0364929684864801 -0.218719099578361 0.35119320590655
0.0332880255822262 -0.220699155910256 0.354458691169644
0.0284151166377822 -0.223709703835269 0.363452349577774
0.031985257567287 -0.221504023308532 0.384638641897447
0.0372041026773392 -0.218279751421623 0.398055309688416
0.0294894371746677 -0.223045974325854 0.397504789384259
0.0273097522886038 -0.224392612624607 0.415057757397573
0.0292513871530039 -0.223193044793811 0.420731576568826
0.0303021322861309 -0.222543880482243 0.431888486058779
0.0310783918895904 -0.22206429697984 0.434259240921106
0.0285707125473074 -0.223613574613915 0.450179305745842
0.0281898583423854 -0.223848871404688 0.457952601589539
0.0325497605458983 -0.221155265863995 0.47388366030334
0.0282696651277312 -0.223799565711772 0.48511427102319
0.0356824760871522 -0.219219832557133 0.497928756833538
0.0297942459369491 -0.222857659420472 0.513790333230357
0.0359284280814168 -0.219067880145457 0.528185769992019
0.0346191052823534 -0.219876797176503 0.524503653281648
0.0373712069038683 -0.218176512209035 0.545139530630022
0.0289417760315609 -0.223384326660526 0.553862024816546
0.0353036075514414 -0.219453902575072 0.556317538745981
0.0372243895591057 -0.218267217916379 0.570947907436302
0.0345168217661754 -0.219939989292527 0.58459589103161
0.0363105903720189 -0.218831775201961 0.596292287174471
0.0347561356490777 -0.219792137994296 0.61282977924656
0.033511140721529 -0.220561312411162 0.616183244042408
0.0373393085059951 -0.218196219463289 0.626267455036991
0.026995381646797 -0.224586834986274 0.633723328510055
0.0338405662950627 -0.220357788912538 0.644187824176336
0.0273372448178955 -0.224375627374533 0.661491279470626
0.028324031922513 -0.223765977183218 0.66308472495615
0.0339923762528423 -0.220263998702501 0.684406241078235
0.0339782620738383 -0.220443683870103 0.688413341393502
0.0350599268098488 -0.222957897436353 0.702288556261337
0.0269565303994757 -0.2276017674165 0.701543669647964
0.0361094394340257 -0.22971499812525 0.714151864001407
0.0275420036174538 -0.23786030638873 0.717315537841891
0.0275957811691219 -0.242343391499942 0.721248898509354
0.0330293025234891 -0.253116550419102 0.728872243863584
0.0357237335772384 -0.270353280932267 0.732828645962589
0.0339401371070836 -0.292108188169994 0.730142303543663
0.032613891413429 0.327328239387897 0.320604259565257
0.0378296195492133 0.324520836446451 0.327261924137138
0.0351370392443725 0.325970137037106 0.339401577795883
0.038446969741977 0.324188543293521 0.336008549665117
0.0374472831451904 0.324726631748149 0.350775678891919
0.0311928376430646 0.328093131734854 0.358648032316376
0.0340703603977827 0.326544284548927 0.375366751384201
0.0372559101546266 0.324829639627899 0.382618360284393
0.0321981096092089 0.327552036915256 0.387360491252395
0.034050155978849 0.326555159721802 0.397306044551289
0.0391446774599289 0.323812997128411 0.4088924005676
0.0369641196622894 0.324986697945577 0.411999038045561
0.033646569662194 0.326772392940828 0.425858974431125
0.034908781979109 0.326092998141294 0.43627057590875
0.036250812170394 0.32537064080049 0.439183203938303
0.032915332992998 0.327165986303548 0.455974325230838
0.0357482273706803 0.325641160660481 0.458167074209082
0.0357201844512852 0.325656254962245 0.46826718151012
0.0393465830717448 0.323704319990004 0.472477618307172
0.0339776123531496 0.326594206846742 0.485049384331123
0.0375508435592188 0.32467088961524 0.500971552066835
0.033130775721604 0.32705002271529 0.505178171141686
0.0347034018765816 0.326203545449156 0.516697516926613
0.0393427163821723 0.323706401263299 0.518931104201873
0.036711251359932 0.325122806116355 0.53082880525766
0.0398342336768561 0.323441838566981 0.535455444825799
0.039920314989141 0.323395504685494 0.551489298038811
0.0360064957464473 0.325502145861601 0.557671149218878
0.0317215203684396 0.327808564479877 0.567735782078251
0.0368200910655579 0.325064222367017 0.579125030976318
0.0377395167378025 0.324569334928581 0.584806202492853
0.0359871596589369 0.325512553648881 0.598531101439295
0.0393150706787923 0.323721281760703 0.598925472067123
0.0337316842953267 0.326726579381303 0.617138320669615
0.0336705168318765 0.326759503205617 0.625281105856583
0.0369283259303018 0.325005964177607 0.626172811580447
0.035455965405123 0.325798472751989 0.635101713692773
0.0319902589569256 0.327663914014178 0.651579457240023
0.031281677370962 0.328045313116452 0.661645736952351
0.0393051981699258 0.323726595709151 0.662258176497434
0.0319837188894393 0.32766743425224 0.672834955046134
0.0394043573642967 0.323673222564175 0.684386273369928
0.0314486161807465 0.327955457109116 0.686228530867112
0.0346144712021852 0.323466587934838 0.701320688890857
0.0370368537326292 0.320920236278554 0.703963175199731
0.0369741259086559 0.316541821688361 0.711907167287562
0.0381573151009952 0.313142266232682 0.715078908601185
0.0394031778446032 0.30661843849503 0.720939065788263
0.0343488583565697 0.301153818125004 0.726471955584675
0.0379532001753577 0.297363875094948 0.727385287964875
0.0400614708207879 0.288210235516691 0.730311336409886
0.0335089266554214 0.275250160937471 0.733080247889352
0.0356447708474071 0.265504872654043 0.732180080288973
0.0354740730776413 0.248954476742532 0.727422522130459
0.0379048249955481 -0.217846835858219 0.343856675206602
0.041319006999162 -0.215737508829173 0.367980748656779
0.0455451862815432 -0.211947950501338 0.375086408063923
0.0445759210819374 -0.212976809164831 0.382187626689945
0.0399275259873127 -0.216597184296267 0.394296811113213
0.0426770916583493 -0.214898466072716 0.412878533722009
0.0416299733144212 -0.215545389705704 0.418428858233763
0.0480801826106407 -0.209257094648705 0.430471856829027
0.0443485051559672 -0.213218207335059 0.448497220817397
0.0472558347934981 -0.21013212595463 0.450193159436235
0.0448831627054376 -0.212650677362872 0.457679166116601
0.0434169851535862 -0.21420700010824 0.475527043253754
0.0469705853425192 -0.210434913436338 0.486435075211349
0.0396406659247576 -0.216774410256354 0.49460406244882
0.0421078276541746 -0.215250164942137 0.504979332968094
0.0377255756273683 -0.217957578500774 0.510748211917779
0.0385684417301339 -0.217436844617651 0.524021188695468
0.0402374946970976 -0.216405681506721 0.527534382462581
0.0461539816987296 -0.211301724432847 0.549775694547187
0.0449394204396557 -0.212590960726741 0.563864955515556
0.039406116523398 -0.21691931799455 0.560211526401787
0.0430768188989438 -0.214568080850908 0.577726944990182
0.0445723853375269 -0.212980562297895 0.58888718516209
0.0446463377961676 -0.212902063010197 0.592706598109331
0.0480158490748949 -0.209325383611965 0.619586974658884
0.0460532787318531 -0.211408618933911 0.617637557070583
0.0456509090297681 -0.211835727587028 0.630082629903108
0.0448292281016986 -0.212707928035176 0.645757710984716
0.0454449039491389 -0.212054398506004 0.661873648921332
0.038374854460856 -0.217556445406108 0.661584700750433
0.0475115596398287 -0.209860678342846 0.675935473936796
0.0407971417701683 -0.216093921757104 0.687527867104794
0.0480052002785257 -0.211050967611447 0.696240885332011
0.0479650503034096 -0.218543086263623 0.710410867020321
0.0477590880782965 -0.22122660702023 0.712719804572103
0.0413313098126561 -0.228597504479347 0.71649075896302
0.0450660911711217 -0.234921380242673 0.723450685169363
0.0460213541966509 -0.244405999534231 0.728631144003258
0.0400361950474957 -0.258870576313418 0.731840533062374
0.0482733148481573 -0.272016315987543 0.732373475077552
0.0471696428301108 0.31949350217033 0.310303690960741
0.0427618024979153 0.321866053728208 0.316311629444242
0.0486303618826681 0.318707259701778 0.332860657860262
0.0427008524109097 0.321898860548097 0.336758237521169
0.0403997885080648 0.323137424637544 0.347531828394415
0.0407121669421185 0.322969284713113 0.359614444055004
0.0443446900960948 0.321014053166941 0.369110780136456
0.0445921088529231 0.320880878252988 0.373962806368627
0.0463906299382252 0.319912811426327 0.383812710255665
0.0448624578771206 0.320735360958759 0.38815642793253
0.0419625918484482 0.322296234571561 0.404138342011844
0.0465740328255912 0.319814093511579 0.409699747404936
0.0488542041717874 0.318586774990049 0.415195310659529
0.0413936137155871 0.322602491117574 0.430361870963372
0.046260021928254 0.319983112121038 0.434545845538686
0.04005569807189 0.323322633773736 0.453813078100365
0.0415120977478852 0.322538716240486 0.454693387728115
0.0468061429385313 0.319689158584596 0.456179802333782
0.0480432098487387 0.319023298479915 0.472530066802308
0.0410396652636494 0.322793006401198 0.487632534489863
0.0469643809148061 0.319603985863074 0.490243322838022
0.04172277707427 0.322425316587514 0.501456091095406
0.0455892970417171 0.320344134584315 0.509099054355548
0.0440655310752135 0.321164312504841 0.516605622739629
0.0409030890030834 0.322866519549441 0.530366476231329
0.0411592058981115 0.322728662800443 0.539182814747684
0.0487111420595342 0.318663779194312 0.541573366095676
0.0479353100601127 0.31908137631221 0.550655967462456
0.0477597414625895 0.319175877364466 0.552586515241768
0.0480823883831607 0.319002210353787 0.575482461542193
0.041163106786411 0.32272656311944 0.574955258162852
0.0420909094991065 0.322227166679117 0.587651852657147
0.0489054479098611 0.318559192681836 0.594854773917871
0.0485562990507941 0.318747124550297 0.611396487861985
0.0491098556592134 0.318449168750019 0.613369334636575
0.0428995699760687 0.321791899398586 0.624236952977242
0.0463592536740466 0.319929699924741 0.635519003048142
0.0466395715929505 0.319778816801698 0.64124565090384
0.0415614023849193 0.322512177667264 0.659552827167495
0.0414104771440716 0.322593414256684 0.662228534880716
0.0427824026353054 0.321854965557047 0.668863824916936
0.0434756190765679 0.321481836853711 0.677852507483159
0.044421204456944 0.320705498174229 0.689097157531628
0.0425012394442963 0.320371046613988 0.698250214588118
0.0455216167381153 0.316788317173418 0.703037890730639
0.0479762037963416 0.313404974909007 0.70742359899384
0.0410382218916094 0.310354205341051 0.716499509661138
0.0493235133496064 0.305324986229564 0.717153446926422
0.0466701222226723 0.300501803775202 0.722429675101988
0.0436351746675021 0.29727674917831 0.725713954787854
0.0490702661467706 0.284340924276651 0.729953833856637
0.0485398260278583 0.274231348483743 0.732260091418549
0.0489192600328061 0.273027344826358 0.732376042468566
0.0424297810613412 0.251460269790874 0.729703034141762
0.0516426734554372 -0.205475570695539 0.366530572285561
0.056473567740364 -0.200347657881292 0.373897257043674
0.0533813913467058 -0.203629950976056 0.391585845414394
0.0559238505459833 -0.200931173412583 0.397055944998596
0.049397390924976 -0.207858900236713 0.399713538227864
0.0559202383872456 -0.200935007658166 0.421222356489187
0.0516834973474353 -0.205432236822645 0.42882379899924
0.0566378461632339 -0.200173279105841 0.444662046267865
0.052969095975135 -0.204067595559944 0.450572623935275
0.0501154784950839 -0.207096662391021 0.452845749918232
0.0499844554569771 -0.207235741136372 0.467696683773179
0.0533343928115412 -0.203679839128541 0.471839543345533
0.0488394723333708 -0.208451121412847 0.485235358023554
0.0535566848038853 -0.203443879927445 0.498249130079593
0.0546593216561628 -0.202273449503849 0.51844368379376
0.0497154166153782 -0.207521321329602 0.520308220670743
0.0563511241322535 -0.200477629706387 0.532163044227256
0.0558187818194034 -0.201042702093946 0.541973875828093
0.0567509775399805 -0.200053192057295 0.56331244455111
0.0579532955813663 -0.198776951732505 0.567546390445614
0.0548827900549879 -0.202036241567114 0.576948824204455
0.0549987909941262 -0.201913108526482 0.587415459878552
0.0547050456186127 -0.202224914288807 0.599016774541964
0.0565008452807231 -0.200318703232215 0.6033341020488
0.0496102019258025 -0.207633004948224 0.620915648100828
0.0495982047755482 -0.207645739720897 0.621806217779451
0.0554118577398026 -0.201474645141991 0.636543164734707
0.0530477202108874 -0.203984137259628 0.64589844019078
0.0579629954107913 -0.198766655527151 0.661733810526802
0.0581976447410721 -0.198517579220233 0.673773054849751
0.0536061458424561 -0.203391377869124 0.681361128360861
0.0487142884944332 -0.209410742389742 0.691616073547418
0.0549621712845693 -0.204860517403871 0.700215100399733
0.0530724681874726 -0.212020484644678 0.708751249468844
0.0512875213366548 -0.219134940200253 0.71409304222436
0.054343423227231 -0.226164088484091 0.721809673867548
0.0561918807469265 -0.23053901394219 0.725145485977322
0.0584470175957514 -0.239331340879497 0.729548488453952
0.0522512522183714 -0.253161407152835 0.732046422084928
0.0516494531525402 -0.285227666504788 0.728710794148298
0.0544777806769235 0.315559844749256 0.302307775028099
0.049714462550966 0.318123734769923 0.320837093340136
0.055810437892499 0.314842532479608 0.324237343827096
0.0527400593996373 0.316495185644766 0.339265904725068
0.0582040578968844 0.313554149407087 0.346004672061642
0.0537466572669463 0.315953377149392 0.352325059910118
0.0573833140097662 0.313995920669485 0.356770986382552
0.0501539383122363 0.317887183800862 0.37378574975153
0.0497536944138456 0.318102617939372 0.378707432101178
0.0571152069401833 0.31414023121562 0.386163643253253
0.0533994698207276 0.316140253273371 0.393915371812165
0.0538206850157606 0.315913531184579 0.410206592528271
0.0540990636840058 0.315763691877061 0.419108198100012
0.050591953206962 0.317651419153657 0.422605170515339
0.0578615026588555 0.313738532211906 0.429292806300807
0.0490601595243902 0.318475918049723 0.44836210081106
0.0531542631993752 0.316272237489596 0.456017462785338
0.0525338293414794 0.31660619044732 0.456788633514712
0.0550456780578156 0.315254169925712 0.46342551537808
0.0563400255930016 0.314557478115301 0.470330530704142
0.0504033563058264 0.317752932783434 0.487757011976924
0.0523348904185718 0.316713270744222 0.496041856376693
0.0530790920575121 0.316312698893888 0.509254021220302
0.0506094373708955 0.317642008177475 0.518349356413483
0.0513438618923895 0.317246698930475 0.521017919928965
0.0567514900188669 0.314336004447693 0.525396588330674
0.0508614502883859 0.317506360423714 0.538809885283769
0.0517177489658771 0.317045451541319 0.550031484840283
0.054780014426346 0.315397165273822 0.551577671300765
0.0521588537139711 0.316808023758458 0.571150526966443
0.0577740629201565 0.313785597276118 0.568343875301316
0.0494842691080885 0.318247638035549 0.579155814781535
0.0546856237825937 0.315447971712351 0.587659995248297
0.0548443690744957 0.315362525924568 0.602789320489545
0.0520347759514827 0.316874809500795 0.60725099816108
0.053510777279533 0.316080341238249 0.620265148033756
0.0559269285327178 0.314779830560051 0.632096292710809
0.0578969527539007 0.313719450944917 0.630213134531994
0.057147046392311 0.314123093402984 0.638894610770516
0.0507522932189271 0.317565114996403 0.659183449411222
0.0534365746994229 0.316120281307257 0.669374573268246
0.0525223576476156 0.316612365168521 0.677891903137844
0.0525461980002069 0.316599532928372 0.677838158525833
0.0514498026437893 0.31619333609651 0.693974970103967
0.0533401557151399 0.314498242446441 0.698509037611117
0.0540794584631569 0.313550463388166 0.700127476400191
0.0542208813869674 0.30858255967282 0.710387218651858
0.0570900891019223 0.302492765213612 0.715605638864496
0.0558526138508737 0.298085102329087 0.720722289616809
0.0582895286625795 0.289346001285402 0.725742978886369
0.0579777495472597 0.285295072410325 0.727856166981051
0.0585347020217656 0.275048476990065 0.73148572246148
0.0565985897892458 0.265156365189855 0.732809511917826
0.0578467268263526 0.249555099573727 0.732001845263407
0.0587373503939769 0.243268800016052 0.73129140278598
0.063901989178001 -0.192462513799681 0.385305307802283
0.0680197826197229 -0.188091545504616 0.392774108746451
0.0636244625311929 -0.192757103655001 0.405980131579459
0.0633899583444575 -0.193006025894494 0.41486557639027
0.0617215142862213 -0.194777051125324 0.429939576536226
0.064747232802665 -0.191565301946464 0.439419653944987
0.0621549227222896 -0.194316995379527 0.445583991871557
0.0660167545301887 -0.190217726042175 0.453067437118115
0.067747994883157 -0.188380043603496 0.471346803535622
0.0639803501003108 -0.192379335002144 0.474135528801867
0.06649140961103 -0.189713887678544 0.48586410184821
0.0605294099917856 -0.196042449729973 0.500294366823261
0.0614102259460771 -0.195107478448757 0.508408176268914
0.0683493659170989 -0.187741698392612 0.527257283342879
0.0688844170494327 -0.187173750638854 0.531176688021071
0.0605193514317986 -0.19605312672177 0.538755809341008
0.0604278863182569 -0.196150215397308 0.553582483503018
0.0653211783980285 -0.190956068376123 0.570148886628503
0.0604533354677657 -0.196123201554284 0.567125402559447
0.0604078705552702 -0.196171461792168 0.582071814078376
0.0667208191892524 -0.189470373280071 0.605206187007062
0.0636569012578099 -0.192722670493749 0.608664114733207
0.0639493203599437 -0.192412272548251 0.614588427491724
0.0656291745007822 -0.19062913570716 0.623031005334551
0.0644102624122725 -0.191922990333127 0.641153488313824
0.060795396583107 -0.195760109448939 0.652155802436711
0.0624213848721331 -0.194034150301142 0.657207868021465
0.0684126020237441 -0.187674574331835 0.678292858076873
0.0679609426450493 -0.188154003145442 0.678461312345752
0.0646807253265004 -0.193413115917902 0.69656883834981
0.0661413533215051 -0.194731538467284 0.703092792173408
0.0685526400763666 -0.195207477824351 0.708120131655525
0.0653910705339196 -0.205883255789102 0.715629884881453
0.0630384777549218 -0.210980341132972 0.717954240957165
0.0666098021596055 -0.217578535037827 0.724144257302779
0.0646787734062217 -0.231080797057126 0.728708069058958
0.060060575234044 -0.238372817884154 0.729562009999858
0.0654123327884876 -0.246068627329262 0.732162766003281
0.0705678735511508 -0.269238656186284 0.730227065173254
0.0648258874511445 0.30998990232894 0.294518591555268
0.0655875942720101 0.309579908189341 0.307483486351861
0.0583260332190156 0.313488495318297 0.321242593353973
0.0649866231479833 0.309903385191476 0.328132457758447
0.063072489479993 0.310933681316952 0.338548374824768
0.0651860078152149 0.309796064969506 0.343342732177577
0.0583720667068167 0.313463717464526 0.355589187893216
0.064229577365079 0.310310870494085 0.367146257595606
0.0660667842594037 0.309321980754264 0.369013820013847
0.0666087994166686 0.309030237222545 0.382586155824276
0.0635595132665522 0.310671537283493 0.386277418252188
0.0582246668543555 0.313543056488454 0.401594385420922
0.0626292428525887 0.311172261981657 0.410636292681714
0.0640443974977081 0.310410544881019 0.415216031214394
0.0595966877158985 0.312804556455065 0.432758852770939
0.0612625811385645 0.311907877415596 0.43593457715986
0.0631298598809782 0.310902801288644 0.448302437507686
0.066619027610865 0.309024731823927 0.454842098838276
0.0658142699116578 0.309457898406443 0.467958147375351
0.0641444032879362 0.310356716049773 0.471225077520624
0.0623276734500754 0.31133458386762 0.482902167888822
0.0581932267945221 0.313559979325334 0.497264879315066
0.0581402070784658 0.313588517566389 0.501039540404993
0.064538466085251 0.310144608933088 0.506447395881882
0.0582129197654387 0.31354937944301 0.513506124374682
0.0598647542003294 0.312660267754178 0.521276447096104
0.0638940971249758 0.310491445130711 0.532313358515438
0.0652689623792345 0.309751414082617 0.537896834975836
0.0620257671738437 0.311497087078268 0.558610132354141
0.0591710513666782 0.313033658261693 0.566530765044494
0.0628107367493418 0.311074571594748 0.572933138678556
0.0666846123812559 0.308989430352586 0.580256626264526
0.0619465083328682 0.311539748715818 0.589932765156052
0.0586930657627698 0.313290937428752 0.594954746418152
0.0597084838917773 0.312744381364487 0.608042946200783
0.0610003097961762 0.312049046839867 0.615895314515613
0.0595805795388625 0.312813226796467 0.626709358664462
0.0596876671010218 0.312755586150871 0.63483870418245
0.0668171988915437 0.308918064715941 0.6410784915858
0.0656381217229629 0.309552711427788 0.653026515479725
0.0632968203838245 0.310812933604863 0.66602058291262
0.0646427082688571 0.310088499832831 0.665566286474473
0.0613709049100581 0.311849571371492 0.680780928464791
0.0645974583567732 0.310112855921373 0.685769662827983
0.0665717949425953 0.308182965621333 0.693110777901393
0.065498973497436 0.305406558527495 0.704375212567224
0.0643833550030507 0.303030083513452 0.710481878660873
0.0646334028450962 0.298414212042083 0.715626660590066
0.0673050930487986 0.295563230233596 0.717248784418399
0.0588305199180307 0.28994796493714 0.725139234580271
0.059072101888978 0.285979061444192 0.727391642228113
0.0605613891666547 0.270494884889 0.731942981985769
0.0679049768606202 0.262338111489935 0.732121474352322
0.063826504895893 0.252934386951464 0.73286588274227
0.0617469357569843 0.246586591836893 0.732069508870139
0.0601196309800978 0.228318113238446 0.727174632717962
0.0657172713747339 0.215033825721274 0.722855985896885
0.0709648831593544 -0.184965370948584 0.413011553065549
0.0717213771935832 -0.184162365288923 0.427414340603416
0.0720121421772099 -0.183853723162323 0.436482343960607
0.0788724085391633 -0.176571666112065 0.448269844736573
0.0792307875334228 -0.176191252853436 0.462766023120826
0.0695266278819671 -0.186492054670494 0.464091728413117
0.078713615896864 -0.176740221823954 0.481695613431675
0.0793870818510408 -0.176025349071064 0.494073022184174
0.0693971015050318 -0.186629544735252 0.489654050947728
0.0787909203979069 -0.176658164399775 0.511206533983252
0.0708630176402132 -0.185073499479271 0.516854712431194
0.0727127451038677 -0.183110044970788 0.525959776443556
0.0791601043621125 -0.176266281847766 0.539009230218335
0.0773707119890436 -0.178165691675095 0.558813229747777
0.0753142650907864 -0.180348575377248 0.56205917629689
0.0772864188851026 -0.178255167383392 0.574168235782718
0.072904208556239 -0.182906809744977 0.579824273298641
0.0714590562713247 -0.184440814524065 0.589972019137323
0.0749864169482487 -0.180696580651652 0.609362334130595
0.0705546775674046 -0.185400797266646 0.607298503330965
0.0701981390980771 -0.185779256839098 0.622826539477031
0.078040846165944 -0.177454355547597 0.630628875989617
0.0794148286507598 -0.175995896311091 0.646750438257653
0.071454726319778 -0.18444541069461 0.654489693503227
0.0784157777709489 -0.177056371971808 0.670656612638095
0.0747480947118745 -0.180949555686447 0.673654848277042
0.0781672200223582 -0.177320211830208 0.687129033429568
0.0758330733725415 -0.183533318498371 0.701584625600643
0.0715763801623012 -0.191745534218811 0.707702283321267
0.073658050055011 -0.192947601221921 0.711910344079187
0.0701648414258712 -0.197366547028133 0.712545970879206
0.0737015845218456 -0.203648725949497 0.720774245123813
0.0704835396287194 -0.221156453982218 0.727638873863855
0.0773214564433228 -0.218805835390124 0.729033439123272
0.0770664828159298 -0.244243164784982 0.73303490944137
0.0783821337499376 -0.259513372507441 0.73169011034643
0.0683160852995614 0.308111278395563 0.306170859773913
0.0711849038898141 0.30656711628836 0.305549239977348
0.0722850487035137 0.30597495548059 0.311955513862665
0.0706211031272841 0.306870586077795 0.327304925293575
0.0761390546634574 0.303900509231357 0.332780100314489
0.0727165696006248 0.305742686274008 0.342483420079347
0.0744090026464416 0.304831722092722 0.352352994779528
0.0729886312487986 0.305596247147686 0.362901109408403
0.0720668351002741 0.30609241051192 0.371996054820195
0.0714759782538808 0.306410443431841 0.377544222470182
0.0699072685727853 0.30725481262792 0.383956217816657
0.0753786840586545 0.304309784143112 0.398648711317266
0.0720201819756547 0.306117521889637 0.407171835131589
0.076510374736048 0.303700643548778 0.411650042522909
0.0686907717006018 0.307909600762639 0.422488259418166
0.0723113397188931 0.305960804153683 0.436139252324967
0.0729915999115647 0.305594649243738 0.437753850678478
0.0729019734055355 0.305642891351092 0.447941731915099
0.0699148425588855 0.307250735875777 0.460991347831058
0.0697455616356187 0.307341852542432 0.471332049148159
0.0731120326510793 0.305529825461064 0.482727523879671
0.0739968017729046 0.305053592158551 0.48815816888306
0.0747751226586739 0.30463465537979 0.488164769709962
0.0678290986735453 0.308373402427094 0.505202516256759
0.0747299883961733 0.304658949219118 0.51161866205159
0.0764446101622528 0.303736041800586 0.517338326411981
0.0751320434206852 0.30444254022903 0.526493534223777
0.0678381921633459 0.308368507791225 0.544980333986574
0.0676396828596093 0.308475356842538 0.54843843802703
0.0728488764104077 0.305671471188158 0.557701808971913
0.0676443626828971 0.308472837894211 0.56349915274774
0.0706896400783161 0.306833695574127 0.577794359071247
0.0743210818610436 0.304879046083757 0.581261646714493
0.0674884520195154 0.308556757922937 0.596750698635429
0.0753999650302128 0.304298329508094 0.605175710793408
0.0732744750291823 0.305442389690213 0.606457255242542
0.0684528362090032 0.308037671241314 0.626108824428769
0.0681766801413984 0.308186314218154 0.63039579915904
0.069973798206376 0.30721900257721 0.638931575564666
0.0687435960240584 0.307881167693048 0.650559630600343
0.0686908090547322 0.307909580656511 0.658281077125294
0.0750109827155103 0.304507702018708 0.669459546743691
0.0758106471086667 0.304077276944572 0.673540414080054
0.0674760004366878 0.308563460076375 0.685454384317286
0.0719506814698146 0.305100038266544 0.694366772868221
0.0745300288939554 0.303917144060316 0.692991974112097
0.0729360070085066 0.300501026308216 0.706294615230218
0.0744606710388852 0.298186988754031 0.709470685839458
0.0676807879949306 0.295440733993845 0.717157256161214
0.0704114282241949 0.285840934414146 0.723701806215141
0.0743256236717201 0.275926764872968 0.727387633984532
0.0726020515862947 0.268935160005927 0.72998626887894
0.0765071724508148 0.266415870922798 0.729636488292935
0.0735868081557988 0.25628879321453 0.732188255573203
0.073490140409771 0.245012931175997 0.732979242210051
0.072137131947209 0.239605135355483 0.732338604963944
0.0702239346539936 0.220983365667898 0.727833478869162
0.079452546067948 -0.175955859908819 0.415684135784322
0.0805623651503161 -0.174777805669105 0.432206285376526
0.0826803888432856 -0.172529559237809 0.443736537121716
0.0854377584387827 -0.169602657913041 0.449094156049695
0.0817083079530733 -0.173561406709395 0.464846773363585
0.081441453989825 -0.173844667691103 0.463850598936082
0.0801678742988142 -0.175196551055199 0.474314821399956
0.0855854933055105 -0.169445839843441 0.491963752837352
0.0825482019699041 -0.172669873374676 0.495557014566691
0.0846562006073338 -0.170432268370772 0.514662116263165
0.0853098568062921 -0.169738423338971 0.5340606563172
0.0841917092587902 -0.170925318103972 0.540707378807122
0.0898021088502801 -0.164969973552548 0.552490934225644
0.0886925448688352 -0.166147757006934 0.555261267558292
0.0856011261715904 -0.169429245819734 0.573580297832588
0.0796719252513854 -0.175722992605256 0.570507556203919
0.0858539572225774 -0.169160869922906 0.596425635195223
0.0843050971531621 -0.170804958766293 0.60588883118396
0.0848905235069054 -0.170183538564546 0.608299613153967
0.0794843514745989 -0.175922099006033 0.625313582402733
0.0853258768759286 -0.169721418305217 0.629179791135937
0.081885852050275 -0.173372946644356 0.643142863786695
0.0882886229429101 -0.166576513319481 0.655309539061793
0.0844700400394339 -0.170629874674146 0.66639634977445
0.0863229935701518 -0.168662995749882 0.670822524378934
0.0890450924388306 -0.165919358689552 0.688067945341948
0.0813278749970829 -0.174874107278812 0.692044074494927
0.0826875329520074 -0.17671530075153 0.702342955717808
0.0845308747540206 -0.178735972825458 0.708930211420957
0.0849688396708224 -0.185076188979251 0.715607002013259
0.0892244954439867 -0.192702563200974 0.723685838756214
0.0876012635196438 -0.194895663573783 0.72393328194479
0.0822073403363275 -0.215834138306765 0.729662731005832
0.0882508552017793 -0.218133161433994 0.731748993106114
0.0880404110593284 -0.238557535716678 0.732683767841685
0.0830175712978294 -0.255344468434033 0.731649174311243
0.0790606188075943 0.302327956452849 0.294095907450243
0.0815033937976386 0.301013115358029 0.297493608784266
0.0819957216427187 0.300748116377168 0.306782828104837
0.080683749369234 0.301454294828917 0.315765670833805
0.0823288517296938 0.300568806727257 0.323180142313609
0.0817675280081713 0.300870943231668 0.334927834824923
0.085001718067775 0.298649588698876 0.34183558764381
0.0769789450824241 0.303448432211368 0.355153223471613
0.079001886857982 0.302359569344435 0.36642187869312
0.0763227165831912 0.303801651890585 0.382773391383433
0.0764446818316435 0.303736003224024 0.378853074330751
0.0852027422459693 0.298460208226012 0.389316270180815
0.0780530137086073 0.302870307097873 0.40430199973848
0.0849343575126369 0.298713047601677 0.405725096511603
0.0787582580892432 0.302490704270216 0.421829940875621
0.0818244658183114 0.300840296048474 0.426304693987232
0.085289346692292 0.298378620075054 0.430922119485657
0.0819373950492293 0.300779511082924 0.445702162768332
0.080905162063145 0.301335117864172 0.453885992101182
0.0831106640840135 0.300147990640598 0.461699434612622
0.0852231480025096 0.298440984409964 0.47497534030225
0.0816023697737061 0.300959840831613 0.48341274879359
0.0853395106813011 0.298331361680344 0.48186314302931
0.0847685703123091 0.298869232089906 0.497366307731976
0.0810199436124487 0.301273335875014 0.51369370024139
0.0783734632360009 0.302697822849774 0.523143105406743
0.0794130293243826 0.30213826897381 0.526283753533173
0.081921453603389 0.300788091680067 0.533697351926756
0.0834528716699276 0.299963794962014 0.542352353568531
0.076825595977072 0.303530973463179 0.553030275552467
0.0797707884979334 0.301945702542047 0.562600944781595
0.0852792222750895 0.298388158066625 0.573134580028366
0.080889089063813 0.301343769270922 0.582960926498849
0.0781024937620019 0.302843674105542 0.585910052186398
0.0800397519478208 0.301800931043093 0.599432087341359
0.0845563961360032 0.299069116731641 0.598910582345361
0.0802162376485087 0.301705936353505 0.613918928573582
0.0818893104514888 0.300805392961277 0.628172642040877
0.081591027068025 0.300965946124003 0.630140457479129
0.0783132813315944 0.302730216189889 0.643538323361923
0.0835076486398187 0.299934310866526 0.646548166459028
0.079428466364606 0.302129959876595 0.661798290472427
0.0839628464583556 0.299628286875409 0.668802303253205
0.0779324786136011 0.302935185974121 0.680829223789619
0.0776114117668252 0.302749788837662 0.689705023632677
0.0772547943046628 0.301929875750636 0.696475803433516
0.0785114517174082 0.300739424769937 0.699405104834277
0.0809128774435723 0.296869304542931 0.704886935225887
0.0780026537706867 0.291459471444478 0.715298980700387
0.0854054275177272 0.283782344283139 0.715966259492833
0.0794401490902236 0.278474417536056 0.723610937423477
0.0806095396558992 0.276018322797074 0.724367748984021
0.0856462523796324 0.259316920263523 0.72918079485286
0.0783717298708856 0.255427916835777 0.731838632171046
0.0805184185637312 0.251482993840979 0.732022947144485
0.0803044511616566 0.229869364348564 0.732142886974631
0.0829430406456919 0.225232677670653 0.731936679901354
0.0872665950714154 0.207618128365286 0.728644944334428
0.0908169561613602 -0.163892730246432 0.431054201041927
0.0897721250864584 -0.165001800812192 0.44963667213344
0.0929616694558723 -0.161252105703038 0.454311113347402
0.0987933013749248 -0.150417819598714 0.47889491100502
0.0942740597577031 -0.158813883914018 0.47910491672414
0.0948950768207375 -0.157660128562176 0.490495182680665
0.0929096045321091 -0.161348834421153 0.506918302664399
0.0944551104737171 -0.158477519190744 0.510940945735727
0.0901085670817346 -0.164644673308034 0.517160072269364
0.0926524472693087 -0.16182659354547 0.532640153613985
0.0904821316439112 -0.164248140825154 0.543985274150151
0.0986015875029337 -0.150773994845737 0.565453117421227
0.093005320681312 -0.161171008358112 0.567814284354417
0.0985057236200919 -0.150952095375434 0.580467146890271
0.0941124572513418 -0.159114116818529 0.589712879281724
0.0947658585091989 -0.157900196552844 0.603971531344308
0.0922122757814552 -0.16241162200066 0.605630559396161
0.092536396686704 -0.162042197896355 0.615693879050783
0.093681048617006 -0.159915608517105 0.631971837987921
0.0898168249862566 -0.164954352622385 0.637382855165092
