ply
format ascii 1.0
element vertex 849
property float x
property float y
property float z
end_header
0.272103446460512 -0.0101329770333453 0.332655673607247
0.276001647089287 -0.00505274306550015 0.343573457835326
0.270944340448453 -0.0116435533980726 0.347642150237737
0.272106017662612 -0.0101296261775298 0.34990709021689
0.272654086545052 -0.00941536890386954 0.36887223505636
0.275403379067235 -0.00583242113159812 0.374728080504884
0.272101646161207 -0.0101353232290784 0.385125926188082
0.275347301293622 -0.00590550310902172 0.395294810889863
0.272615280716837 -0.00946594164381346 0.403866760864905
0.273207252168245 -0.00869446942833979 0.406722520108717
0.273038182210821 -0.00891480568664199 0.423243129848368
0.275420222800369 -0.00581046995120385 0.42892501566903
0.273765321311077 -0.00796717956160207 0.435590560257355
0.275427697972317 -0.00580072811745515 0.452475349888988
0.271553497840298 -0.0108496840289668 0.458298270143209
0.271853555913423 -0.0104586407347448 0.477079345336543
0.274345086141269 -0.00721161532461452 0.479564407582925
0.27395981441625 -0.00771371121209778 0.485801637149882
0.276427888488861 -0.00449725445861981 0.495983309664004
0.275122875226086 -0.00619798085456245 0.510066510564383
0.272199688039842 -0.0100075525652401 0.517008991688362
0.273425980654229 -0.00840941691564305 0.519374539053423
0.271643392853946 -0.0107325305662896 0.535143682959551
0.273005548650899 -0.00895733456993741 0.544826454702939
0.273805327595873 -0.00791504235618232 0.553350265741805
0.274013980923431 -0.0076431200455809 0.55953518555269
0.271460924918586 -0.0109703274093796 0.577161938348523
0.274100964438382 -0.00752976092187891 0.58057019097793
0.274911361496885 -0.00647363091316109 0.587794431593303
0.27082586229293 -0.0117979571364785 0.604661782593376
0.275238075399782 -0.00604784906524579 0.609266140300779
0.269705074816408 -0.0132585958134432 0.617481054319802
0.272448194882984 -0.00968369214193254 0.627927042822746
0.2721024161085 -0.0101343198142301 0.641926079231368
0.273168006806621 -0.00874561497937547 0.64324481648654
0.26970668660654 -0.0132564952876482 0.657203289591526
0.274039856885961 -0.00760939783466589 0.661644002288382
0.271621864875141 -0.0107605863744926 0.673712743366895
0.269304718129069 -0.01378035080657 0.685550044420929
0.271865748927905 -0.0104427504888998 0.699085447494261
0.272566138658713 -0.00952998482083336 0.698002142330306
0.275523098809205 -0.00567639932623191 0.706217979606361
0.275149286340621 -0.00616356121997468 0.722992485134143
0.273448664977821 -0.00837985412957278 0.726470040325603
0.272827868706874 -0.00918889158123552 0.737371074440281
0.272986239096355 -0.00898249927135595 0.745925101904987
0.273418752440522 -0.00841883690714508 0.759616436520988
0.274502112982704 -0.00700697396063943 0.760948308839531
0.273721773472298 -0.00802393221003188 0.777986015535013
0.274580558223034 -0.006904742133062 0.784865108526764
0.274371215883006 -0.00717756238219693 0.799482948397921
0.273387218390791 -0.00845993288086386 0.807654157091732
0.276609613252211 -0.00426042613614869 0.810171532675529
0.273741704135418 -0.00669672246966864 0.818667967489065
0.267166442036416 -0.00958417330814187 0.834600721419629
0.270964721553096 -0.00131256680680463 0.836338308324686
0.262300633793947 0.000519994216472881 0.843203623516347
-0.106762258663726 0.431528821863657 0.426176419198456
-0.11181339650181 0.429436572065706 0.436224928902574
-0.10839197567108 0.430853770976381 0.438859197153128
-0.114670980885723 0.428252921858263 0.449031858410233
-0.113349371571434 0.4288003503604 0.466927034545235
-0.110191325630676 0.430108455819659 0.471764422594689
-0.111552737548776 0.429544540539207 0.483169773614532
-0.111728909753379 0.429471567622747 0.50662577737949
-0.110672399933776 0.429909188318807 0.498793300758636
-0.113651653979466 0.428675140887328 0.516528204708346
-0.113283430046058 0.428827664234535 0.531698119093643
-0.10620381503236 0.431760136789589 0.543832541214022
-0.10818024136241 0.430941474198652 0.550943401456437
-0.115432990485582 0.427937287147344 0.568583216269972
-0.114993975677334 0.428119133035003 0.572455837295312
-0.114747806641827 0.428221099588146 0.588255440169485
-0.114685568294114 0.428246879555868 0.596107538414898
-0.11804038634899 0.426857268418245 0.610194303583604
-0.112423133312977 0.429184010809043 0.616841460937922
-0.109857338509167 0.430246797815048 0.634898801539062
-0.109153815526582 0.430538206575875 0.642571325309821
-0.106459114399639 0.431654388329198 0.660302043066292
-0.106673299669141 0.431565669885709 0.669153157145012
-0.107426860254464 0.431253534871198 0.682864910248368
-0.106070156128553 0.431815500120278 0.693383742894393
-0.106839568574976 0.431496799049911 0.701335506885564
-0.104301184856227 0.432548232012723 0.708454172901264
-0.109860062234511 0.430245669611069 0.726684885558561
-0.110789704872933 0.429860599022075 0.727336203509803
-0.113243429842777 0.428844232861232 0.746271385672076
-0.113211224593136 0.428857572712413 0.757300862550557
-0.112079291982621 0.429326434551381 0.768498437009923
-0.107710858887221 0.431135898785815 0.787903772097885
-0.110695489263376 0.429899624405341 0.787126704110407
-0.106542897443825 0.431619684255999 0.800961740366492
-0.109376837355297 0.430758708818137 0.8155142660977
-0.117405253378473 0.428512563523799 0.821765366087986
-0.11327456715366 0.431581128600674 0.829627959900583
-0.113567519591112 0.439557165480377 0.839559495775054
-0.120304534156079 0.442836978091918 0.844378796267446
0.265007054042153 -0.019381175688587 0.190573098561565
0.267228818733916 -0.0164857155698011 0.197507604701674
0.266920299244477 -0.0168877859964518 0.208471433579085
0.26712289865129 -0.0166237533089706 0.228864427152002
0.267952365565606 -0.0155427709803022 0.227853531292303
0.26565116257693 -0.018541757103203 0.240821799137203
0.265118989069274 -0.0192352991211345 0.247300655505652
0.26762843387244 -0.0159649269819045 0.26297578536293
0.26942555818841 -0.0136228689751819 0.267675915271635
0.265936067576063 -0.0181704616794839 0.277268555292883
0.266380300365165 -0.0175915262372777 0.284895416512958
0.266014794041772 -0.0180678633518564 0.297519266160979
0.267735467510205 -0.0158254380294211 0.310228834950722
0.267593815089995 -0.0160100430575622 0.313113420232341
0.267065309145682 -0.0166988054138883 0.31436040279312
0.266027052602083 -0.0180518876850247 0.324044851883751
0.270087565248009 -0.0127601245781113 0.341788368443794
0.267891949770055 -0.0156215063779846 0.356537562234445
0.266128540981686 -0.0179196254536784 0.359380137574808
0.268386504931456 -0.0149769895433771 0.370863071623851
0.265498428254399 -0.0187408043476286 0.380344494467345
0.268662435502521 -0.0146173898220229 0.384910846537375
0.264217468096122 -0.0204101841274946 0.402518497637381
0.269482465602807 -0.0135487057888365 0.404987091233478
0.265040285285149 -0.0193378678895447 0.420146223842707
0.266119943886472 -0.0179308294062931 0.419880924376488
0.26829782666753 -0.0150925573069455 0.43313031587794
0.267996599813087 -0.0154851237866377 0.447455901238092
0.267520105578089 -0.0161061031636986 0.446416518129085
0.27101521733911 -0.01155118483582 0.462497050050048
0.269918415063109 -0.0129805653908957 0.474599870581019
0.26784943829721 -0.0156769084080335 0.473021628569677
0.270705459261689 -0.0119548694217572 0.492351226941337
0.264047856527016 -0.0206312262278809 0.495737249599253
0.266840712059389 -0.0169915060354111 0.503781750977518
0.269636872427714 -0.0133474788968771 0.518294471367877
0.267537819202603 -0.0160830183187873 0.524968041891459
0.267218107306814 -0.0164996749733784 0.529829416567361
0.269738104597368 -0.0132155505648382 0.543080201355625
0.268318418941146 -0.0150657209334843 0.558916646099557
0.267113283630526 -0.0166362838479918 0.565436816412806
0.266546607682476 -0.0173747903216677 0.571607130123646
0.269642999398298 -0.0133394940733542 0.586585384918562
0.269706728329163 -0.0132564409136678 0.594562330384265
0.267687554591995 -0.0158878793601196 0.601645265902702
0.268493761714149 -0.0148372097827625 0.616073605506339
0.270207595620188 -0.0126036979515772 0.614618256617665
0.267899971612035 -0.0156110521099795 0.625124282873998
0.268032984306769 -0.0154377065912918 0.636623891026048
0.26598923308671 -0.0181011750370479 0.654819956783225
0.266021657151678 -0.0180589191728918 0.656355989074131
0.269120751605733 -0.0140201006475357 0.666449337300098
0.266047372862152 -0.0180254058065215 0.673931190988684
0.269490511092913 -0.0135382207019932 0.682521290759238
0.263890085717 -0.0208368371505868 0.695178968680734
0.265900126878888 -0.0182173005079601 0.706268361790146
0.266169833545697 -0.0178658119365489 0.71825098660076
0.267670991577107 -0.0159094647013727 0.71913422962461
0.269329929148186 -0.0137474951667827 0.734441341539916
0.271066727634167 -0.0114840553123393 0.741441397856872
0.268315309322535 -0.0150697734673582 0.746516542436515
0.267577654660133 -0.0160311037397958 0.759088857826486
0.269918811445968 -0.0129800488146948 0.769194614843812
0.267112097978564 -0.0166378290197121 0.778405842138511
0.267187160805933 -0.0165400052385284 0.789943886617105
0.268371237272304 -0.0149968867441676 0.793398233283167
0.267987801979569 -0.015496589346504 0.808128243370056
0.267546158521804 -0.0150666394630763 0.817539418949251
0.26745540232766 -0.0152495297557097 0.817292836208721
0.267400236975204 -0.011602344469578 0.831485629424129
0.260670979393805 -0.00689628858187234 0.840435030630495
0.260232494756925 -0.0066576304739391 0.840858810321782
-0.128321062315465 0.422598873002567 0.417887356597497
-0.12138074753511 0.425473645511728 0.428368985700897
-0.125764944037044 0.423657651860519 0.430276603380042
-0.125742721284795 0.423666856825894 0.45262769321022
-0.121924670056633 0.425248345426434 0.459115853245971
-0.127592551220457 0.422900632178459 0.466652109102706
-0.118654610965803 0.426602848251617 0.482037996714069
-0.121778011410798 0.425309093426578 0.493380224750757
-0.115213771514345 0.42802809061836 0.503616472368916
-0.117659705541854 0.427014951571495 0.520067100049651
-0.119011822926045 0.426454886213043 0.522236054554961
-0.119795791288394 0.426130155884886 0.545886461387311
-0.121272403667719 0.425518523011002 0.549033479445891
-0.12112610030999 0.425579123845994 0.561238022314276
-0.12197420431234 0.425227827665918 0.575262544890977
-0.123079558145245 0.424769975117107 0.583780185985319
-0.120985805221218 0.425637235974498 0.597496533485466
-0.11726642029267 0.427177855655589 0.603038654990232
-0.125175946517784 0.423901622621201 0.616403279254318
-0.122246054692118 0.425115223551678 0.637989456799602
-0.121613756272369 0.425377130132605 0.635289937016162
-0.12070201775445 0.425754784592065 0.652360093310638
-0.123073907691826 0.424772315611547 0.663256399279185
-0.124951263417661 0.423994689408508 0.668761715277485
-0.11778948505536 0.426961195136883 0.687098317984959
-0.121738472660199 0.425325470913316 0.690709177732819
-0.121059198344725 0.425606835547357 0.715694495640859
-0.121781968483273 0.425307454353492 0.726958388813387
-0.121284333114515 0.425513581672348 0.737776695084035
-0.1178175619664 0.426949565299541 0.744845966764986
-0.118873670917917 0.426512110648479 0.755227246036511
-0.124425910831109 0.424212297574886 0.766287286432318
-0.118387818823475 0.426713357175305 0.782253119960367
-0.123839255971295 0.424455297974253 0.78464436775782
-0.121006627716686 0.425628611014473 0.800491575624104
-0.123551533988604 0.424574476321676 0.804640784272004
-0.123110233210981 0.426534993129829 0.823998095084468
-0.12743612272087 0.425099478327035 0.826061810865575
-0.129612760726037 0.433524153481555 0.840046274161039
-0.131043568863379 0.43514094867521 0.841800371466353
-0.137797857123028 0.440932374353681 0.845348651072197
0.260009023640045 -0.0258947357228471 0.192984018638068
0.260677341100357 -0.0250237674514552 0.206681100416916
0.261438129167704 -0.0240322891387346 0.211242810437333
0.263141907140822 -0.0218118824544789 0.212768176060027
0.262546815646093 -0.0225874207895715 0.228860419744751
0.262448247540829 -0.0227158772453048 0.237349594015097
0.260248747951446 -0.0255823209177423 0.252457763773624
0.26268297763431 -0.0224099710317107 0.259938602806162
0.261779542204772 -0.0235873510062081 0.260755806594405
0.260181815573028 -0.0256695488915611 0.275832307206696
0.263222586962202 -0.0217067384641799 0.286812930773537
0.260580210412397 -0.0251503506284873 0.293005965958231
0.261260483407672 -0.0242638016005851 0.309789505859493
0.263412336039123 -0.0214594526526634 0.314386582772087
0.258940347040098 -0.0272874621832593 0.317909209288116
0.261807498822287 -0.0235509172329238 0.32985938263325
0.261713642147135 -0.0236732336333918 0.336071202794405
0.259804340369636 -0.0261614841542406 0.349732612106406
0.262741665373633 -0.0223334876807497 0.359079020154833
0.263627402265318 -0.0211791728898441 0.370159165546196
0.261272105395016 -0.0242486555317955 0.382030389280333
0.261770212836182 -0.0235995092760667 0.395957555012789
0.258815184998837 -0.0274505765311478 0.399302042799807
0.260367340902591 -0.0254277675747702 0.410363444603635
0.261471816840941 -0.0239883865082198 0.415726645127755
0.260707644675306 -0.0249842750636943 0.428832633721792
0.263107028253269 -0.0218573375057145 0.432807854426203
0.263524173677708 -0.0213137030044204 0.445757399417263
0.261711403415753 -0.0236761512049327 0.45641841042733
0.263810306665051 -0.0209408072353083 0.456098431454067
0.264340592257864 -0.0202497255959027 0.472456787593517
0.259603845950055 -0.0264227735689506 0.481721751810405
0.265379828019064 -0.0188953671835417 0.490715364138128
0.259817111739813 -0.0261448401805796 0.503451702510552
0.258743270389128 -0.0275442974751989 0.503912587602232
0.258664158174418 -0.0276473985207096 0.52008397961776
0.264619680274161 -0.0198860110118078 0.531065996637831
0.262296843797505 -0.0229131904451476 0.529229922416011
0.262615957819704 -0.0224973129545883 0.5443732314445
0.263500716229239 -0.0213442733464474 0.552723726850259
0.259572238699167 -0.0264639649402742 0.570483743102152
0.260485966441608 -0.0252731717624564 0.578305863723638
0.260740281781638 -0.0249417415586251 0.584299989030895
0.25937829572301 -0.0267167163476858 0.590376208652748
0.26145088182387 -0.0240156695536481 0.603767016069899
0.260327852488374 -0.0254792298781107 0.612911256502611
0.264623989408901 -0.0198803952380801 0.621795981538183
0.260158750287354 -0.0256996081570828 0.625582743927456
0.261486341041216 -0.023969458201902 0.642998082014219
0.259700312628585 -0.0262970557458564 0.645033672986029
0.260846764209368 -0.0248029709570466 0.658607911042033
0.259900130668536 -0.0260366478062415 0.671641399614371
0.261746973460291 -0.0236297954203777 0.680476952816053
0.26147121808307 -0.0239891668246692 0.691198286812317
0.26333143691664 -0.0215648824417238 0.694454233624662
0.263204394043988 -0.0217304479368021 0.707369569622456
0.260293875775131 -0.0255235091928947 0.720257632818475
0.263395874755084 -0.0214809054156922 0.726192446690412
0.2621962556301 -0.0230442794971172 0.734225703956676
0.262596319626439 -0.0225229059463275 0.739786305188917
0.258720665698397 -0.0275737564817043 0.754442003079472
0.260920978914079 -0.0247062524708284 0.760990923300271
0.263786700863036 -0.0209715709154406 0.772426028032088
0.261830466975058 -0.023520984553465 0.785269336158904
0.262401836956055 -0.0227763606969503 0.786079916003568
0.260053721433233 -0.0258364844246541 0.80182714368869
0.263172390647231 -0.0217721555754741 0.811159562818245
0.263373360230244 -0.0197386220665884 0.820463072918722
0.258536279765339 -0.0247475333585429 0.825404666470299
0.255317481549262 -0.0214549417037114 0.836468829199081
0.253848003039125 -0.0156565653294178 0.840503872605198
0.252311214020699 -0.0114001105729342 0.843778196403194
-0.1334999369983 0.420453712871107 0.416888641480954
-0.128672133303802 0.422453454637842 0.420949323659891
-0.13262161829206 0.420817524391317 0.433632095705506
-0.131415379407691 0.421317164896685 0.454555285129322
-0.126476290374229 0.423363002560113 0.456658882522615
-0.137473020155073 0.418808007943135 0.470222331738463
-0.128750784972739 0.422420876049866 0.486980721520549
-0.127909226790865 0.422769460862324 0.496146467827593
-0.128841370353986 0.4223833543564 0.503097153026136
-0.133523811855254 0.420443823581557 0.516786189750348
-0.137978776522062 0.418598516796671 0.517285641815671
-0.131275954077787 0.421374916759269 0.53594649955779
-0.13442651212626 0.420069912886548 0.543973888099053
-0.127164332714105 0.42307800609145 0.559799003844406
-0.132759626039404 0.420760359710654 0.570643261923571
-0.137223299744906 0.418911445523828 0.580791722779825
-0.134608093593024 0.419994699380338 0.582925994708775
-0.137613843788765 0.418749676884157 0.604458062427581
-0.133887991660342 0.420292975367147 0.613567280171644
-0.127504107294115 0.42293726685226 0.625434320764538
-0.132097782338081 0.421034504347914 0.640211682616616
-0.132633135225705 0.420812753921204 0.643064790996475
-0.138430106631189 0.418411569744364 0.654650154447745
-0.134253766227592 0.42014146658062 0.670810122076261
-0.127223181902236 0.423053629959591 0.682939773284031
-0.132344136610527 0.420932461067118 0.68687282887458
-0.134800694122225 0.419914921629024 0.708090002659616
-0.130377829469091 0.421746932152892 0.718890041091089
-0.134647766665854 0.419978266255511 0.721573768531536
-0.133486629821111 0.420459224884375 0.74701499927413
-0.137606035868547 0.418752911030606 0.754118696929457
-0.13645973636959 0.419227723829615 0.759288815204763
-0.133443756852194 0.42047698344956 0.773192882287014
-0.138266091817655 0.41847950690456 0.785043360148239
-0.131413237845635 0.421318051960733 0.795284191033401
-0.138399828663624 0.418424111289171 0.805164484257482
-0.130130011724795 0.422167455730555 0.815543184854747
-0.134778120436137 0.42205696467156 0.826053942201675
-0.132618778335895 0.425201463828416 0.834427367805248
-0.142887362088059 0.433875550202088 0.844690551362796
0.256619852454466 -0.0303115896047955 0.187325049885747
0.255096467166295 -0.0322969039649529 0.199257763403021
0.258872946155637 -0.0273753007260416 0.213233269670034
0.257892413820978 -0.02865315534346 0.220796259508362
0.256583480883027 -0.0303589899595454 0.23122026991572
0.255250125222293 -0.0320966528876346 0.241430155154657
0.252582207729057 -0.0355735506574678 0.24888584184386
0.256679549573599 -0.0302337908044558 0.254180333028012
0.256879860457067 -0.0299727405786645 0.269856691687292
0.253950047227137 -0.0337909475175958 0.279748118940035
0.258066163398741 -0.0284267204851985 0.288912887185841
0.254848109084398 -0.0326205705188325 0.298945163771589
0.258449378672133 -0.0279273046176534 0.305459286958649
0.2567827226351 -0.0300993330529149 0.314840893596742
0.255489816180503 -0.0317842815492546 0.322538971722488
0.258651442901347 -0.027663969387199 0.332738207574297
0.257539743983583 -0.0291127636237887 0.347459433859878
0.25499054808053 -0.0324349404049903 0.360562984339374
0.253277662606018 -0.0346672162161459 0.362989207202165
0.25497434622066 -0.0324560550798605 0.37516485482752
0.256509916150121 -0.0304548613860141 0.375532622241644
0.257857199261569 -0.0286990478507752 0.388680902799371
0.256148284683626 -0.030926148688769 0.395555891805684
0.255052147394688 -0.0323546626158303 0.4107046034701
0.254314212676468 -0.0333163578641136 0.416740771936979
0.257097117561606 -0.0296896056075995 0.429189436482629
0.256346806061917 -0.0306674305915291 0.438690349097617
0.254956382834415 -0.0324794654205956 0.445554609876818
0.256494634547457 -0.030474776758344 0.446713874727482
0.255295737831498 -0.0320372093779981 0.469796122605426
0.255385251356676 -0.0319205530807734 0.479603195551913
0.255711204836876 -0.0314957622350102 0.485635682659457
0.257276842422355 -0.0294553836089406 0.491659837039951
0.254295421235988 -0.0333408473461399 0.500294452897858
0.257394703719255 -0.0293017837763446 0.507051603104927
0.255440485154876 -0.0318485709935209 0.523337497524111
0.257808209692461 -0.0287628923002407 0.526519097990168
0.255222044592339 -0.032133248277077 0.546358379750767
0.256518526989494 -0.0304436395216616 0.549951137975893
0.257074356242455 -0.029719268736236 0.561749412592662
0.257328651020951 -0.0293878653287195 0.571901006289087
0.253060609600361 -0.0349500852003687 0.574796366835366
0.255308881294625 -0.0320200804833632 0.591389966512819
0.25790702196143 -0.0286341176441726 0.590373465750908
0.257889886775093 -0.0286564486537762 0.604459164638896
0.258200427531341 -0.0282517440609323 0.612806140863383
0.257722367363286 -0.0288747642016851 0.622051188549567
0.255917454002611 -0.0312269730890985 0.634540837109946
0.257473548862772 -0.0291990307847878 0.634433209508771
0.255581427332491 -0.0316648915715493 0.654682770053475
0.256801221010526 -0.0300752255007024 0.663560343102275
0.253378787973125 -0.0345354270718931 0.66899153204711
0.25283911321236 -0.0352387449132046 0.67549045786333
0.256926578510486 -0.0299118564260795 0.690528600032958
0.256662356183856 -0.030256197666214 0.70365835483198
0.256015100870302 -0.0310997172135438 0.699924999018777
0.258217046244755 -0.0282300861319467 0.719508846750194
0.256864934463072 -0.029992192512753 0.722094677087869
0.25655076712129 -0.0304016233638817 0.731198860270787
0.256978299936956 -0.029844451750784 0.74492494986531
0.255103895121918 -0.0322872236647164 0.758357094765983
0.254264787795176 -0.0333807696234648 0.764563645362574
0.257465927204196 -0.029208963523627 0.770612170653752
0.252950356856382 -0.0350937693737488 0.782835957418894
0.254602159843572 -0.0329410978099067 0.789774840729241
0.253722028911611 -0.0340881067718613 0.801610765751358
0.254108216294838 -0.0335848175753685 0.804984022440634
0.254416376283272 -0.0320122667468063 0.818170765804493
0.256288856475323 -0.0291053182646065 0.819951734193142
0.251351287500564 -0.0260772114664691 0.836754752759145
0.247878156916999 -0.0237752183622123 0.840326745622524
0.250440170336562 -0.0185804187047402 0.841297611365804
-0.144003049994839 0.415388293137416 0.415676456301894
-0.143768963580081 0.415567913960979 0.419629298888697
-0.142720986505932 0.416372055052757 0.43587499016712
-0.140788885790301 0.417434531426017 0.447005081661905
-0.140472405592749 0.417565621816065 0.456181431338614
-0.145448805660554 0.414278925797089 0.458772908262081
-0.139770518392228 0.417856353013778 0.48214718246732
-0.14307150642363 0.416103091660083 0.489634001463738
-0.140184058498339 0.417685059093241 0.494605607445284
-0.14003141674534 0.417748285377517 0.505579014831399
-0.14260622405846 0.416460115375909 0.52011143974004
-0.141682170063317 0.417064520965079 0.531021672206544
-0.142582622355211 0.416478225599775 0.548099795767615
-0.145351488054816 0.414353600222379 0.56023468905172
-0.14053679248741 0.417538951891058 0.564952777418307
-0.144742117928341 0.41482118636609 0.573258498050935
-0.145211981267631 0.414460647545192 0.592467467770732
-0.147785437574129 0.412485965068831 0.60568366291229
-0.146137151243387 0.413750739654326 0.61437492051705
-0.144621297319361 0.414913895280065 0.614610166746529
-0.145232333406748 0.414445030799584 0.64084129504778
-0.145515150863664 0.414228017332221 0.64820253649532
-0.145745562970317 0.414051215904428 0.65154579876124
-0.140173420663127 0.417689465428859 0.673193824245849
-0.144741184711546 0.414821902448523 0.677696243515202
-0.144246176586893 0.415201735541838 0.682242930848728
-0.142400964024615 0.416617616939432 0.697155730857121
-0.143792188886105 0.415550092556863 0.719177070963811
-0.138972946813236 0.418186717978759 0.727603337215948
-0.14170666029958 0.417054376777074 0.743609962867096
-0.140810625847021 0.417425526399677 0.7541056947767
-0.142075524344675 0.416867335588808 0.765766211821254
-0.143373416018695 0.415871428279861 0.771942461980211
-0.144753204450901 0.414812679378127 0.785976170273253
-0.14190442339144 0.416972460622288 0.791220608978114
-0.141648013080687 0.417078669250534 0.799366285531138
-0.145173548731129 0.41596744801442 0.821049408111435
-0.147784289624367 0.414488979878573 0.823659559065346
-0.144043382164866 0.420622810495573 0.834549289772246
-0.154870642397131 0.425538764418082 0.843552909679911
0.24721879024665 -0.0425632924056808 0.197887703878604
0.251299487302912 -0.037245224463082 0.205022215738824
0.252288592099404 -0.0359561979958931 0.215793300711514
0.250791067774575 -0.0379078096924571 0.221534232878912
0.250526931903662 -0.0382520382613097 0.226551813824642
0.251126202514929 -0.0374710535955081 0.239868567024014
0.248710748910851 -0.0406189340192628 0.250199403089314
0.248238795125315 -0.0412339961673811 0.259013036516685
0.252101387247978 -0.0362001681081912 0.269186675197956
0.248212083185937 -0.0412688078445372 0.27394963389102
0.250822165995627 -0.0378672817017322 0.291969159925422
0.250074218342959 -0.0388420260602464 0.297344622270937
0.249400800548746 -0.0397196412161873 0.303978987738279
0.249215325212225 -0.0399613573807783 0.320043136027674
0.250606633024567 -0.0381481697383022 0.32370182039898
0.252429981930044 -0.0357719351811419 0.333652764604052
0.248540398332152 -0.0408409392157021 0.344410083526669
0.2476851759448 -0.0419554867303217 0.356534657235349
0.250809381197862 -0.0378839431745667 0.362559434585682
0.250729539925522 -0.0379879943464795 0.375225256903474
0.249599775349785 -0.0394603322069177 0.376678898121138
0.24678645561309 -0.0431267218696924 0.393773019958482
0.247226336019768 -0.0425534585626941 0.401382341162296
0.247731065926794 -0.0418956817414277 0.411635179956773
0.249944171158006 -0.0390115068513444 0.413410944363708
0.248618879530435 -0.0407386605268084 0.429552711167314
0.249069805672895 -0.0401510021366768 0.436329598918069
0.247897329151772 -0.0416790032880651 0.449953024004228
0.249997197852719 -0.0389424011173552 0.455696154487941
0.249088435363423 -0.0401267234512927 0.464543698510261
0.247237849775675 -0.0425384535438603 0.475974435470186
0.249860986529555 -0.039119915169771 0.476705229905136
0.249239736987963 -0.0399295433352402 0.492269300743425
0.249726566563671 -0.0392950946799278 0.501640829680657
0.250136659733384 -0.0387606508559291 0.511849849457789
0.250141996197433 -0.0387536962405794 0.517868085472897
0.249487120070785 -0.0396071474248949 0.531890313751708
0.248922731974415 -0.0403426723122131 0.54374678243945
0.249151939611176 -0.0400439631043372 0.552284052720975
0.249170976010338 -0.0400191543859428 0.556565483282011
0.25310799211045 -0.0348883351109919 0.564149536625658
0.25156609519897 -0.0368977742883389 0.579662127891924
0.24948924484481 -0.039604378365474 0.584261477274126
0.247918730930174 -0.0416511119474278 0.593015023262217
0.24795060216774 -0.0416095765419675 0.602022710903458
0.248012815110794 -0.0415284990560602 0.615271145867463
0.252291472045896 -0.0359524447765533 0.620387395055674
0.252772496598356 -0.0353255613748274 0.635093719024498
0.248752662183487 -0.0405643115789055 0.642880539569211
0.251802132298404 -0.0365901647514232 0.644292605328377
0.247348013289504 -0.0423948856574766 0.666744303806114
0.249640137526036 -0.0394077311947252 0.669194035688067
0.251554227984812 -0.0369132399429351 0.674964288952106
0.249349780838949 -0.0397861313965099 0.683283574514566
0.250058805145925 -0.0388621129296967 0.694240548616768
0.251672888417782 -0.0367585986559356 0.703485723944834
0.251154442553166 -0.0374342504611475 0.719261657986763
0.248373454859284 -0.0410585041853741 0.730254274236198
0.252674405693766 -0.0354533959305347 0.736843953680476
0.253203220943833 -0.0347642304791014 0.74766010520916
0.249993222093104 -0.0389475824281623 0.748392046699592
0.251846366713603 -0.0365325173391835 0.760982066656792
0.251058579611491 -0.0375591814790536 0.771499804934892
0.247483097654793 -0.0422188402851581 0.781519527725033
0.248361979412369 -0.0410734592789578 0.795254581770809
0.249953757372138 -0.0389990138538584 0.803679260970727
0.248200241091185 -0.041284240762886 0.807264771770557
0.251554624317269 -0.0358359795320822 0.817811259443335
0.248209472445301 -0.0387423399424414 0.823356698754031
0.247627732195773 -0.0332210060235175 0.835556202733695
0.246160787017122 -0.0354609778543093 0.835384509092197
0.241060347862473 -0.027669145563063 0.842937743105529
0.233550933765479 -0.0225692261885613 0.845348651072197
-0.14756961669534 0.412651570253695 0.421982821548981
-0.148301151123603 0.412090244144254 0.427107130207879
-0.154414698247381 0.407399154443898 0.437194705235696
-0.155296313077536 0.406722667591716 0.455730336344245
-0.151120895780994 0.409926577969427 0.463696035841713
-0.14939864811623 0.411248105082585 0.474873186895571
-0.150378502518475 0.410496236355452 0.488873613733903
-0.154389563881126 0.407418440721451 0.498560725369027
-0.149213511086724 0.411390165721798 0.500457566546533
-0.157092278797367 0.405344574625405 0.517876476519375
-0.154779746504513 0.407119043064284 0.536501564300802
-0.156542482866647 0.405766447880928 0.544881771671169
-0.148343888897267 0.412057450297114 0.554783918626074
-0.154198781994314 0.407564832812018 0.563216226771701
-0.15478422861349 0.407115603821104 0.574958376423877
-0.151439661519025 0.409681980415793 0.579063411097726
-0.146775839072192 0.41326065724639 0.602093198599227
-0.1532411908532 0.408299618338045 0.606102739224602
-0.153259540586334 0.408285538092589 0.61755566582253
-0.149456433119811 0.411203765089836 0.633819543375515
-0.149999859930422 0.410786779032063 0.649351064304894
-0.15157577532316 0.409577536620444 0.650404994353173
-0.15139021576571 0.409719921476753 0.666497174248528
-0.14745422976811 0.41274010975702 0.679829368277504
-0.153744424192781 0.407913473815334 0.691032807936811
-0.150474666657303 0.410422447016453 0.703293403000301
-0.148225579307673 0.412148232438147 0.707830488446826
-0.154983592501178 0.406962626529653 0.72115656059487
-0.154777220724274 0.407120981163628 0.740026926822502
-0.157188988843698 0.405270366396846 0.74062694504291
-0.147117664193784 0.412998365605424 0.75723331672861
-0.152606789286193 0.408786411781625 0.769881578796991
-0.148425633687086 0.41199472531376 0.77756965170775
-0.151147416939457 0.409906227568786 0.791029173653525
-0.15656359771812 0.405750245885545 0.80811930175336
-0.151532665829375 0.409610615698463 0.812104809065462
-0.157002938897304 0.407985206835499 0.826494116750515
-0.156289836001044 0.413297191107234 0.835949727199011
-0.156277160941455 0.417787982280337 0.839004655580213
-0.163499661270724 0.419421918962799 0.843896803029231
0.245371308871523 -0.0449709770095968 0.194356343366691
0.245742413412733 -0.0444873441555154 0.201121901322243
0.247559376113185 -0.0421194322627813 0.213472981278399
0.24735904469594 -0.0423805092487117 0.223409242505012
0.244343496226694 -0.0463104485268657 0.23254193993533
0.245001451485359 -0.045452984539578 0.246356708432428
0.241126168135751 -0.0505033521277377 0.249518104442174
0.24602417025691 -0.0441201514872135 0.264331498434556
0.241525190109868 -0.0499833365667472 0.270605319269155
0.244320782325579 -0.046340049859114 0.282906525039614
0.243564279078551 -0.0473259440852789 0.295365057999115
0.245313105486335 -0.0450468291379597 0.299729484427295
0.244843466908025 -0.0456588740492783 0.306164877617791
0.243896400949059 -0.0468931144367566 0.319312232316585
0.242039541822067 -0.0493130203648437 0.325736628124788
0.244188868677272 -0.0465119630726118 0.341013629675893
0.246428987141087 -0.0435925838524 0.348534389459524
0.246070249613954 -0.0440600996999481 0.349551224025498
0.247236437179425 -0.0425402944751351 0.367050719039703
0.243579034929809 -0.0473067138855206 0.37294287693132
0.244082333976183 -0.0466508017981594 0.388867593070543
0.245327189934433 -0.0450284739278351 0.392101561861217
0.246886153831011 -0.042996792622471 0.399705331211221
0.244767629152234 -0.0457577077368446 0.405833788415756
0.243754292701025 -0.0470783135112844 0.419136937190517
0.242467170876013 -0.0487557233315771 0.424479070714267
0.243927911778938 -0.0468520487237397 0.43917646353703
0.244285593530478 -0.0463859087897301 0.447827030002428
0.243001814719495 -0.048058961909319 0.457047638047127
0.246922983481082 -0.0429487952880263 0.469452989536385
0.243831638572797 -0.0469775144087073 0.475779882537521
0.244791733905559 -0.0457262938107045 0.484804457507411
0.242313818361356 -0.0489555762196688 0.493222856980871
0.247419157904789 -0.0423021681896963 0.502280852956873
0.243168238534835 -0.0478420741705224 0.514069090715776
0.244527602619213 -0.0460705164048325 0.526344301355585
0.240472450459023 -0.0513552935907236 0.531916013718853
0.244689030221981 -0.0458601398570284 0.536561857035525
0.244544203673881 -0.0460488814891726 0.556569918748508
0.242156921617868 -0.0491600480366983 0.562283165678528
0.245652666978347 -0.0446043039859289 0.571130004973262
0.247660183407992 -0.041988057638421 0.580903481162016
0.245229856278261 -0.0451553216181906 0.593593317805531
0.246478459040644 -0.0435281108176534 0.597267345555977
0.245169718734857 -0.045233694390615 0.601556474540529
0.242657115321969 -0.0485081829101768 0.61165790141638
0.247531502637852 -0.0421557576830629 0.623367800957632
0.24397698745929 -0.0467880920519151 0.635963747780051
0.244115767833225 -0.0466072299473505 0.644353397804964
0.245024684573662 -0.0454227065894128 0.657345178313076
0.243053947129379 -0.0479910216300101 0.66573560565854
0.241900515211464 -0.0494942033712821 0.678353485458121
0.244170411409967 -0.0465360170516779 0.685225132698582
0.24465451979256 -0.0459051147242776 0.68259058291242
0.244878788429549 -0.0456128421462199 0.698564850532053
0.245102964695474 -0.0453206899484783 0.714081782489368
0.242835513101388 -0.0482756903975805 0.713380769353448
0.240246314404703 -0.0516499998344274 0.724948628687196
0.241619341396743 -0.0498606362208053 0.735914502909879
0.244223420345318 -0.0464669344621406 0.74089421893588
0.246612497862168 -0.0433534280244968 0.752324088793766
0.246300825450842 -0.0437596074189524 0.760088685240019
0.244457981027358 -0.0461612490298348 0.772590084771485
0.243347392836902 -0.0476085957384157 0.783877306789346
0.24339730702392 -0.0475435463034287 0.798375427709507
0.246181480000166 -0.043915141438406 0.800757478828629
0.242853105513703 -0.0482527635194822 0.806289127874859
0.245778295970704 -0.0424474225000183 0.821308492806698
0.243931612461474 -0.0431596079317834 0.827774910121476
0.23801446078366 -0.04471246082188 0.836098574477271
0.232813658571256 -0.0409573467043311 0.841608547537445
0.230230298362256 -0.0355810481648972 0.845348651072197
-0.159522659145555 0.403479678193188 0.411423137565964
-0.161741091020635 0.401777415544445 0.413372728369149
-0.160429955992343 0.402783484836538 0.436073929235084
-0.164817406911371 0.399416875337935 0.440109660540709
-0.156123879960188 0.4060876531883 0.452379024467121
-0.164152652863324 0.39992695905937 0.462456041322351
-0.158834433935447 0.40400777197071 0.465881934392099
-0.166715848095528 0.397960150182241 0.48721619160906
-0.164729407131163 0.399484399944225 0.488346101996099
-0.157564308551126 0.404982373456217 0.509835244147369
-0.156680592889399 0.40566047233316 0.52406111455082
-0.161159388007264 0.402223771965594 0.533027050836601
-0.162820577257606 0.400949096621666 0.546181918316523
-0.161397218210662 0.402041278431969 0.562479800421798
-0.165512434861336 0.398883561634527 0.570682911372498
-0.159590465477279 0.403427648564899 0.575372986335447
-0.163302218412962 0.400579520364639 0.58584349804429
-0.164224736090835 0.39987164765352 0.591632493797228
-0.163777451463626 0.400214861219285 0.614249662829049
-0.160525791581002 0.402709947602951 0.628649539785134
-0.161314080136923 0.402105072519678 0.627543137414939
-0.161646552967599 0.401849957143931 0.642634763578128
-0.157467608476325 0.405056574033351 0.654915630609023
-0.165311448262216 0.399037784076253 0.667810670545133
-0.160075162173663 0.40305572770878 0.685862113865842
-0.16451924539229 0.399645662718302 0.68918170760763
-0.160240965256995 0.402928502528249 0.698929049557515
-0.159402958812336 0.403571527489336 0.713431724976358
-0.163268567131268 0.400605341901263 0.721687431143775
-0.16082914022071 0.402477180004937 0.741634163040658
-0.162137506250998 0.401473235439741 0.749695501091896
-0.163707700520045 0.400268383000732 0.762203407922789
-0.160911531655776 0.402413958833232 0.769413245925079
-0.162103298664566 0.401499483844004 0.77736511672449
-0.16153229745644 0.401937628481168 0.796860152097916
-0.163502239026205 0.400426039149946 0.799729407661043
-0.159217549470878 0.40371379708086 0.810777755127267
-0.160834969084843 0.404318661665569 0.822882817502743
-0.166815487287149 0.406913361514499 0.837103770233726
-0.175149305929032 0.409682692496435 0.843351314535325
-0.181540073440545 0.416623679450745 0.845348651072197
0.236458232498968 -0.056586724288382 0.200695228335893
0.237663620523731 -0.0550158320303919 0.200201751719912
0.238699143201675 -0.0536663126023427 0.212956570245052
0.238691741487473 -0.0536759587040942 0.215164612729371
0.241427444808471 -0.0501107207236024 0.232021653049529
0.2391346204863 -0.0530987875557238 0.24280073367661
0.238496230239699 -0.0539307539228677 0.243761084302158
0.237871080624366 -0.0547454647633931 0.258755166362915
0.23652564209267 -0.0564988743954972 0.274619819951998
0.238034065125258 -0.05453305922645 0.288356504004395
0.23684193803817 -0.0560866694939943 0.294140571385092
0.238281730524082 -0.0542102953947276 0.291684895829785
0.239982864601118 -0.0519933343029301 0.308792925606289
0.2400457195498 -0.0519114201389979 0.319311179321416
0.236668856328983 -0.0563122339689821 0.332463634997408
0.240001809688368 -0.0519686445845348 0.331006486980076
0.239577630782006 -0.0525214452979301 0.350293657712023
0.24217930258982 -0.0491308805861817 0.358646337059417
0.236343596293117 -0.0567361211004943 0.361868393985715
0.241853826729688 -0.0495550489853521 0.372501152844813
0.239364046700965 -0.052799793491577 0.387230710375821
0.237742767467754 -0.0549126857247584 0.391522243474142
0.237826552361076 -0.0548034951259208 0.411731851809345
0.240578971754681 -0.0512164723354746 0.415039766126835
0.237250486765332 -0.0555542384267145 0.421571911853256
0.236045899256868 -0.057124087431553 0.429151408553788
0.238576306335075 -0.0538263967236175 0.439606287826292
0.236599779195302 -0.0564022570422784 0.451557152531018
0.240826875803883 -0.0508933974885247 0.455484039075683
0.239020437592459 -0.0532475936001221 0.469435175486494
0.237029197515731 -0.055842628191532 0.473087246652258
0.238304979818289 -0.0541799963246167 0.492416054061892
0.23895660286042 -0.0533307846425834 0.491221788535166
0.235896026256013 -0.0573194057289706 0.501164771607716
0.236545757088418 -0.0564726600226642 0.515242123501312
0.239204799300391 -0.0530073287445638 0.518374670604234
0.242105705376041 -0.0492267943425475 0.52851454067241
0.241224701844195 -0.0503749404988126 0.538728482538929
0.238040847919347 -0.0545242197170952 0.556801428721172
0.23858866108861 -0.0538102956953347 0.564810031655249
0.237518421133774 -0.0552050595595058 0.572777851606578
0.239415339684818 -0.0527329471735711 0.584326954278223
0.237792305126463 -0.0548481269910185 0.587662113519084
0.238299966251179 -0.0541865301324832 0.594093542273881
0.237760922917051 -0.0548890250825781 0.610786712693142
0.239958772672067 -0.052024731516149 0.620124028732126
0.241700316127756 -0.049755107896791 0.62245866685903
0.238371363579143 -0.0540934833231268 0.631808339581988
0.239671437500768 -0.0523991940018962 0.644049302848602
0.234429806198194 -0.0592302209104888 0.652750117179758
0.236150869975452 -0.056987286927688 0.667800810498482
0.236507788355476 -0.0565221418388085 0.670586577999539
0.238457628298515 -0.053981060952061 0.686391646109007
0.24146662153524 -0.050059664619253 0.691913636650925
0.240034617798898 -0.0519258882224568 0.702461284975852
0.238129111832595 -0.0544091919458443 0.70741533154714
0.241331753335803 -0.0502354282787493 0.71784449712424
0.238549371643461 -0.0538614986971369 0.727288755332205
0.239091454510572 -0.0531550425505364 0.73770457537086
0.237442721159693 -0.0553037136864512 0.746713075100405
0.238078710643085 -0.0544748760548348 0.748462327626599
0.238542578360726 -0.0538703518755626 0.764834751554607
0.238722610228957 -0.0536357297769641 0.774900495597225
0.239116863047695 -0.0531219295002702 0.782482730594384
0.236066100302593 -0.0570977609162062 0.792469118839453
0.238074481011728 -0.0544803882177369 0.806567430284398
0.235887408017724 -0.0566191422781615 0.816417391803335
0.237847563120894 -0.0529635613322645 0.820619259776463
0.236920487278856 -0.0526142310044972 0.826563083840115
0.236276420598 -0.045933456557489 0.836644742969785
0.230761337100314 -0.0461191350035907 0.840307472490329
0.229627084160531 -0.0390173328094439 0.844795825081067
-0.171058553281493 0.394627875292213 0.40456297863399
-0.170545286203323 0.395021718973334 0.416932073880421
-0.169931764376207 0.395492490828995 0.432238888463379
-0.164490629364531 0.39966762056869 0.439353340230266
-0.174729223760337 0.391811270769819 0.452172328720556
-0.167932255381481 0.397026768043354 0.464566979800781
-0.171400919869019 0.394365168169822 0.469964841439692
-0.170709744358506 0.394895525792469 0.482906113755597
-0.165808383185264 0.398656472498531 0.500662976851181
-0.170629558104614 0.394957054869145 0.513599474804855
-0.174765029832136 0.391783795804594 0.51765828703456
-0.171776070148478 0.394077305235846 0.52031839004594
-0.171029531089712 0.394650144803217 0.542738218352466
-0.168188983232678 0.396829773834566 0.547287670063227
-0.1758455395385 0.390954691546128 0.558244735294483
-0.167746254927891 0.397169491211171 0.577979917070197
-0.171600605696052 0.394211943845623 0.586890033078891
-0.171484609686676 0.394300950714115 0.604249750845177
-0.167251289123239 0.397549291831207 0.613829706259818
-0.170115980364351 0.395351136929674 0.619644564645066
-0.1710295988786 0.394650092786975 0.622498296431837
-0.168636490229398 0.396486389638673 0.649122515469941
-0.171283478880948 0.394455283809464 0.646312613875311
-0.171239232922901 0.394489234927183 0.670195842420507
-0.166843380140783 0.397862291402084 0.672236129083294
-0.16814919248078 0.396860306352369 0.683271619511201
-0.17004245285432 0.39540755657248 0.702806504469068
-0.174589561985223 0.391918437019053 0.713181697935634
-0.172312349896784 0.393665803311864 0.722178557586012
-0.169749347731284 0.3956324640437 0.728274651510305
-0.174984452755299 0.391615426673871 0.741634568935391
-0.169404854361242 0.395896803103714 0.757818049338068
-0.170010658033377 0.395431953596668 0.766917892680962
-0.168546942069034 0.396555102358844 0.781936846781605
-0.171682137942237 0.394149381952735 0.784746227025615
-0.169121525066076 0.39611420931838 0.802735361750047
-0.172250447629211 0.39371330259239 0.811830060182628
-0.171650279153928 0.396213544479298 0.823846471122397
-0.176605260001166 0.399655327537081 0.83727687997933
-0.18077696876191 0.402202539823328 0.841195719262694
-0.180996844418192 0.407566432615959 0.844967528922751
-0.185571627807801 0.414756466360526 0.845348651072197
0.234938938149619 -0.0585667072332677 0.191249100210624
0.231590296237671 -0.0623797262074401 0.206536485102666
0.232861062200993 -0.0612746478911335 0.210827011263444
0.229111390296969 -0.0642818576364014 0.223978136851399
0.23117772234677 -0.0626963052884631 0.2395505816876
0.231225393646006 -0.0626597258140077 0.239770422895094
0.23160374799532 -0.0623694043107593 0.25035545018264
0.2300667338575 -0.0635487967396144 0.264750202813163
0.232865024216817 -0.0612694844915855 0.271083864457668
0.232139591507467 -0.0619582371225558 0.286076220762636
0.230114963957454 -0.0635117884822864 0.290817932349862
0.235048663095239 -0.0584237109001027 0.300390380785717
0.234764932237012 -0.0587934761536019 0.310308823221349
0.232133463280374 -0.0619629394765927 0.315647120614549
0.233344634843768 -0.0606444437534584 0.327272370706401
0.232603731721197 -0.0616020898103546 0.344973922994942
0.233883927260868 -0.0599416241921122 0.342049718037255
0.23226047874011 -0.061865477086447 0.359494138036332
0.230148700499398 -0.0634859015231718 0.365239916477837
0.229790919763987 -0.0637604363372313 0.37581228922085
0.22878203146771 -0.0645345835548218 0.387118449466699
0.23427096355219 -0.0594372286770511 0.396835598516193
0.23098468361736 -0.0628444291152647 0.407666148943861
0.228126302818358 -0.0650377418442601 0.41199028172011
0.230172478781239 -0.0634676558057873 0.418184314688655
0.234265081500327 -0.0594448943162837 0.42830676707651
0.233585993418624 -0.0603298991347521 0.446874545464916
0.230035790134695 -0.0635725406932307 0.448044312951066
0.230665374782445 -0.0630894434017951 0.460879861102189
0.233587859346378 -0.060327467410359 0.471481178317223
0.234702875686451 -0.0588743498248448 0.484138352259799
0.233067513524479 -0.0610055952881113 0.488174093758405
0.231800703733356 -0.0622182748575271 0.492246267920226
0.232626655164149 -0.0615801330891218 0.502917472633187
0.230533507496382 -0.0631906287292222 0.51640173067412
0.232107962661432 -0.0619825067897164 0.520005119439884
0.229122844096406 -0.0642730688269782 0.532350019656444
0.231175298759303 -0.0626981649725345 0.53459011864313
0.232423974423803 -0.061740022435931 0.547983368256716
0.229777783603817 -0.0637705160674479 0.556830455419031
0.230724829502573 -0.0630438221904782 0.575222795745293
0.232672597021879 -0.0615202604944516 0.583964672320097
0.233371135130512 -0.0606099079073853 0.597989574867754
0.235858231247332 -0.0573686611432519 0.597752386126797
0.234749738247904 -0.0588132773457219 0.60722246856688
0.231987081490954 -0.0620752621741642 0.6203051182561
0.233451719941444 -0.0605048877371136 0.620453665876013
0.233173531376297 -0.0608674301336477 0.634812937622538
0.23137259018398 -0.0625467779378828 0.646152688938405
0.230353907118807 -0.0633284409459875 0.659005480845743
0.231569902004195 -0.0623953752531851 0.660457266558386
0.231099982522019 -0.062755957154036 0.673502076954496
0.236487972734819 -0.0565479660584271 0.684628329346087
0.232646602930028 -0.0615541366544961 0.693261405778825
0.23118304778741 -0.0626922189341369 0.698807661671673
0.22881476023941 -0.064509469885012 0.705666799143964
0.234365866977037 -0.0593135481258216 0.713098910533597
0.235873725048997 -0.0573484692277985 0.724970727951212
0.231682759557039 -0.0623087766070902 0.740256823006771
0.23372010482456 -0.0601551217477503 0.753048040782081
0.232962949363741 -0.0611418659554737 0.757360274064633
0.231394668522254 -0.0625298366330758 0.762536675825657
0.233610746715085 -0.0602976400107437 0.778983133990049
0.234014158958271 -0.0597719029397088 0.784786796908042
0.231198822966345 -0.0626801142136001 0.791023343013795
0.231879355314793 -0.0621579233764437 0.80669793159063
0.230682837685767 -0.062919046438428 0.814482983314847
0.229707647881517 -0.0622758522741496 0.82140336731129
0.227571833648766 -0.0625937962864399 0.827972830594631
0.225336371850455 -0.0548480752760272 0.839354054757611
0.2211315477081 -0.0520634326485007 0.843452083228178
0.221063313709903 -0.0417039876594568 0.845348651072197
-0.179715358221245 0.387985275232272 0.411386524206715
-0.181485001665897 0.386627380058091 0.414211720189754
-0.182065704873177 0.386181790815139 0.425111441427813
