ply
format ascii 1.0
element vertex 851
property float x
property float y
property float z
end_header
0.0132255106935147 -0.297713762365253 0.377279794013882
0.0125699201960467 -0.298896922060185 0.394998172750281
0.00671325556342063 -0.301688501429626 0.402105492497076
0.0129563989502675 -0.299407277378388 0.408029154412874
0.00560204489943919 -0.303458068537654 0.427553428122336
0.0131937642265007 -0.300595173480867 0.433028641115957
0.0137800281616557 -0.301119907683234 0.447947537015116
0.0140917323323885 -0.301436995863178 0.456620090982409
0.0145562434755526 -0.301628663798253 0.464085144654555
0.00727478506625649 -0.305335904174215 0.47751887872123
0.00908106546480169 -0.304820665895507 0.482046554739542
0.0163193490857685 -0.302566881791637 0.496515272377323
0.0102142489540706 -0.305496628977564 0.504307969596981
0.0119388895881867 -0.305556743786092 0.519361203973285
0.0184925625144907 -0.303124367286237 0.524847022653562
0.0122253872157692 -0.306246008771566 0.535064623693283
0.0126976793721242 -0.306607734659269 0.545897645759921
0.0212198291433494 -0.303483330419406 0.553780797627172
0.0158496548639805 -0.306485826113455 0.568904242831333
0.0234494468105652 -0.303844382318339 0.578748675912289
0.0193702287652655 -0.305858078829719 0.585046654156126
0.0208188468366273 -0.305766556372039 0.59493038180859
0.0158380317328908 -0.308429310730781 0.606585128573282
0.0191766763606576 -0.307659984200268 0.618511056004359
0.0158018263036563 -0.3097855544846 0.632654222250641
0.0177099855375751 -0.309413270350089 0.640780631592489
0.0240836875565812 -0.307214094132606 0.649350120354486
0.0213430309927729 -0.308849747418822 0.659076828103111
0.0209651384464031 -0.309379526247109 0.666331498807197
0.0165651016493153 -0.311836469761313 0.678661767659506
0.0164217687384358 -0.312471123965954 0.689843247846468
0.0190743157661467 -0.311620085265372 0.69465731414763
0.0234370413049599 -0.310825642612381 0.714339790249546
0.0249589041197058 -0.310886809304302 0.727780936621954
0.0209898538472616 -0.313129863171122 0.73942375373683
0.0270462803009649 -0.310773881641565 0.742391165706496
0.0190114240028012 -0.314755022354068 0.755083062813501
0.023597638084385 -0.313262404396825 0.762994754000198
0.030475685871827 -0.321066542522268 0.775645644410666
0.0317293299589318 -0.325332440878619 0.775645644410666
0.0499062491394838 -0.339105150493049 0.775645644410666
-0.416950990029978 0.203035651681914 0.431673847260698
-0.417782616427459 0.201906531699222 0.431146790631192
-0.415876189458406 0.205962326893019 0.449419033196746
-0.422506347059277 0.198182508289912 0.459428773399086
-0.421188924187003 0.200664840297774 0.468329847365337
-0.422361398091394 0.199448532536882 0.471954430090001
-0.421135169870954 0.202099606203755 0.484199819300726
-0.418099904046425 0.206877840571034 0.493765663776357
-0.423500560554187 0.200427528351106 0.500602941642622
-0.42188901380467 0.20386029132917 0.516098959592231
-0.420868280754874 0.204747041117593 0.510941636794303
-0.423009932834635 0.203396508833699 0.527693201739757
-0.423645707862724 0.203501390544308 0.538547994000993
-0.4255014002182 0.201891392699119 0.547948576672404
-0.425895072707625 0.202068783945504 0.555977514850149
-0.425857938463319 0.202917317994706 0.565282185946516
-0.423530894341373 0.207075323310145 0.578368575559988
-0.42595858187592 0.204151309790886 0.581157285345009
-0.426378380080709 0.204225614322117 0.588383382061475
-0.427962370778028 0.203461783503807 0.603506251169483
-0.423986669573084 0.209059485181408 0.608349265580388
-0.427415938703259 0.205619069299874 0.620311757563912
-0.42415192550923 0.210343396435702 0.625784068739034
-0.422550305106256 0.213147307088908 0.634117717522476
-0.423774660593994 0.212427215828507 0.644298969472613
-0.427730218789075 0.20827884428183 0.656004669454502
-0.426692351811693 0.210423915499409 0.665220460171762
-0.427300324298667 0.209921425866017 0.668590901793382
-0.427761717351833 0.210090853538662 0.67755353532148
-0.427155347710577 0.2122757272371 0.693771504888766
-0.426342075329675 0.21384183325733 0.699658342278089
-0.430392877102729 0.209536097193811 0.710977492919999
-0.428089677499072 0.213155854060381 0.718166057674607
-0.42849735789605 0.213239784453022 0.725320446825343
-0.430810403073611 0.211303344397345 0.737856058170609
-0.426534230435554 0.217519760537903 0.745340352282398
-0.431141924572435 0.211789456901706 0.748533160798188
-0.429207257949223 0.215379150653193 0.760957228761767
-0.428277865676647 0.217512305805048 0.77167837930714
-0.423121134039466 0.211876377444123 0.775645644410666
-0.422484770717095 0.202059675266511 0.775645644410666
-0.418955734811857 0.198608101055195 0.775645644410666
-0.412124360179622 0.191845724995922 0.775645644410666
0.0148418941255169 -0.289760845924859 0.235716501944461
0.020530992801285 -0.288020719988198 0.247696667562025
0.0153915931855156 -0.290067605939364 0.246104373015712
0.0133218345464854 -0.291958558197759 0.266194484659639
0.0154053135755662 -0.291742756232045 0.278773826059659
0.0222990636145852 -0.289129026760164 0.283472693174597
0.0213465901486839 -0.290339091403328 0.299323849962168
0.0182903290248911 -0.292183381396582 0.310564833251732
0.0175291085837613 -0.293077430206691 0.321813509372066
0.0157551825678348 -0.294424048752331 0.333705403112867
0.0162252737648522 -0.294472737131549 0.338436364463088
0.0219104002902545 -0.292574159057703 0.347304802224399
0.0226108509991004 -0.2929984722159 0.361191168549389
0.0185848198834706 -0.29480618168937 0.363913687644128
0.0223917082125043 -0.29396696061698 0.378250870274295
0.0186892621470827 -0.29561575757563 0.380489825814114
0.0279746866759241 -0.29240600364849 0.392859089010416
0.0213897174608872 -0.296051392636554 0.41069797791917
0.0225397224843243 -0.295609072985294 0.411359362303283
0.026947009711258 -0.294553000905682 0.426315447685102
0.0276941425337906 -0.294670441511474 0.434613128286598
0.0182156501649727 -0.299590431739873 0.453930445859686
0.0205779134973975 -0.29904618488899 0.462370430613259
0.0188829048496023 -0.300097187566988 0.469151949791112
0.0244452295573547 -0.298331667601687 0.479617907747567
0.0280029155943684 -0.297204385275949 0.486349910088083
0.0281080918789698 -0.298169293418356 0.50595106699084
0.0232333245672983 -0.300571547438358 0.513396383630323
0.027026292336374 -0.299490883519539 0.52292869966307
0.0287831808724415 -0.299124414751555 0.529950282129572
0.0245580594973961 -0.30182230862187 0.548371990071055
0.0270803385498219 -0.300859453953163 0.549963982395135
0.023840488861159 -0.302754626338468 0.560715896111489
0.0331722902264928 -0.299731876084171 0.577093221532137
0.0242923192271971 -0.303891524757313 0.586450793659212
0.0213167262700562 -0.305569463516249 0.595107944719036
0.0296454653633441 -0.302759209566522 0.607539946770235
0.0226987917819605 -0.306334656587434 0.621107385436391
0.0307927781867583 -0.303585398712917 0.632834977662222
0.033281358006957 -0.302981429979327 0.641131134935106
0.0324634096246762 -0.303807530857032 0.65060243586946
0.0285118133014201 -0.305892624662263 0.659315587552999
0.0367986148490311 -0.302732721061482 0.664614005311934
0.0343297272776047 -0.304581241214347 0.680666061649866
0.0314307977449213 -0.306550123756243 0.695595335407132
0.0308026835209858 -0.307092847201184 0.701087107574145
0.0308182113267035 -0.30733008079405 0.705823100868737
0.0284362232871436 -0.309004413986394 0.719189193953586
0.0285483961254231 -0.309521889253539 0.730150167673775
0.0307434153916397 -0.308963249737516 0.736963953824348
0.0276736557947574 -0.310938345140047 0.75063865714826
0.0377415998685275 -0.3072343302091 0.759701179877946
0.0327921609739885 -0.309983653999998 0.773291134993825
0.036518235292629 -0.318016138655001 0.775645644410666
-0.410705067065449 0.211054205622432 0.430263373595552
-0.413765168106847 0.208632776246601 0.448480736894934
-0.415020895291644 0.207263051421717 0.451582962007097
-0.415963538496886 0.206777165989945 0.460218410952869
-0.414684653618013 0.208742971196226 0.46369693589114
-0.416780694325268 0.207020010385399 0.475426362878358
-0.41416841192421 0.211419182984027 0.486994466574965
-0.415359993404635 0.210604815230583 0.495582706689125
-0.413787047711161 0.21272712371987 0.496424699221627
-0.416162829107728 0.210779108768241 0.509776473018162
-0.418625947979944 0.208453295279861 0.520058496091515
-0.419677952361966 0.207663366404532 0.526815646319994
-0.419152959408057 0.209613978298188 0.541542690674608
-0.418415696224241 0.211092349954906 0.547561198150158
-0.419100027328261 0.210939924942606 0.556159685339403
-0.41780510414615 0.212620042990906 0.556072949571622
-0.421234935483942 0.210031113566236 0.577945733730059
-0.420172193394803 0.212308415098368 0.588322224054196
-0.418046403688256 0.21587449637828 0.597575245072498
-0.419848565139846 0.213525588696916 0.597571929098357
-0.417913546911171 0.217323497584893 0.612411962199802
-0.417764459231845 0.218235456379614 0.62075753797476
-0.421828946244566 0.213446395249268 0.626663593756748
-0.418563303086522 0.218018929362065 0.630346031080315
-0.422046043020867 0.214958972857809 0.647543159580332
-0.421715479018402 0.215559552165636 0.649517497469278
-0.419644183445919 0.219229929090747 0.660809208695143
-0.419574458719812 0.220714476342323 0.677016047432821
-0.418902539950903 0.221838090246042 0.679899437135447
-0.424708119309174 0.215032374557038 0.688740384827733
-0.421553766070417 0.219871828733605 0.697213378056977
-0.421403070542595 0.220549420416855 0.702809176975964
-0.421630626751302 0.221385596149083 0.715981507954531
-0.423338947725408 0.220284536823387 0.729067031695361
-0.424225247830212 0.219450171267948 0.732796195177387
-0.42627567666231 0.21757230282047 0.74203298510998
-0.42450852564288 0.220866493883464 0.753559400977648
-0.425114873677669 0.221215344260877 0.766805293046458
-0.423240211663602 0.224312614778177 0.774412433356338
-0.425512942302475 0.214178258049238 0.775645644410666
-0.416452569521067 0.202961014453208 0.775645644410667
-0.409189233653218 0.205504994979039 0.775645644410666
-0.408073185632512 0.198003438567368 0.775645644410666
0.0220581014126936 -0.286626306200452 0.232888714701849
0.0250625057318004 -0.285861069021788 0.2422032075745
0.0293017158397379 -0.284703437482694 0.25383217362885
0.0284173773245794 -0.28534193566576 0.259122645518349
0.0329648756443891 -0.2841998124508 0.273535019262467
0.0287077251183687 -0.286152291351403 0.277210636928507
0.0227508440299497 -0.289602227447329 0.296307253907402
0.0270592631903082 -0.288579017764576 0.311106096435449
0.027568805090936 -0.288191051983122 0.30766765800907
0.0286647171991742 -0.288299416412988 0.318596898018232
0.0342743878941675 -0.286660430044168 0.331903396438278
0.0279569486464976 -0.289890405753173 0.343821964037858
0.0358332079773145 -0.287282478764735 0.356543641399237
0.0323054878862867 -0.28888063238349 0.359204961493419
0.0333300753642478 -0.289087382853891 0.371472254303465
0.0253668592273876 -0.292985101055518 0.383119476952513
0.0345128279526705 -0.290248513469084 0.403562681857719
0.035215325337768 -0.290268265123882 0.409602282022667
0.0374796932568991 -0.289524273030978 0.41337178544528
0.0345829798683919 -0.291324146413269 0.425033961201477
0.0367816792320542 -0.291235412579098 0.441010678418206
0.0366077521956227 -0.291545160118338 0.445630814496243
0.0378869187787407 -0.291425355869044 0.453600616475425
0.0345384873506693 -0.293491055761637 0.46679280652413
0.0369213697276342 -0.293429281246284 0.48477634645624
0.0372942945935691 -0.293684486530782 0.492738994335895
0.0335843149009358 -0.295332324383881 0.494898656189962
0.0292171849406975 -0.297758887450971 0.506903364544667
0.0375471628911297 -0.29522220309115 0.524662564940205
0.0429257058720696 -0.293094403862064 0.526607498050005
0.0332900117698395 -0.298030521741873 0.544972673213374
0.0417168818578507 -0.295001205064809 0.553936908719645
0.0381299557438075 -0.2970747604157 0.565361697203942
0.0396895617661084 -0.296752967598542 0.571663330981413
0.033784034305368 -0.29972904568145 0.581963265584035
0.0398208022616727 -0.29779277535284 0.592930110159027
0.0409766810858563 -0.297856633361776 0.603477085645857
0.0426613426092289 -0.297797390166186 0.615888557259733
0.0410704366882321 -0.298905823255028 0.624624435312078
0.0377103347964357 -0.300879839101593 0.635940654931867
0.0349093196966581 -0.302710798115538 0.648977477473042
0.0429743242719429 -0.299547686080887 0.652427881478441
0.0470486732438426 -0.298652209946401 0.667824949134738
0.0387316262689441 -0.302463789468105 0.674949303334972
0.044780209553695 -0.300306446482919 0.681714401361897
0.0414060026786044 -0.302167036959199 0.690712476224202
0.0396942731331865 -0.303938597858226 0.711364479357208
0.0438204195944142 -0.302370452827692 0.71410425824659
0.0393519477898113 -0.304704817679333 0.723501072107821
0.0483753871813041 -0.30176547322762 0.739016936498044
0.0379789555709969 -0.306555654507167 0.748421040570911
0.0462054146699839 -0.303788859891124 0.760874297808166
0.0420776170004545 -0.307646110776918 0.775645644410666
0.0515356648721871 -0.31347221370725 0.775645644410666
0.0710867858906841 -0.331981880537776 0.775664367739157
0.0636311807241522 -0.329413510835902 0.775645644410666
-0.405840698548276 0.217766152286713 0.434596013577116
-0.408733317402244 0.214775730718136 0.443658490992347
-0.408626318103842 0.215120288128404 0.44604371298699
-0.411420930315611 0.212494708643471 0.457863582270983
-0.40698059169834 0.219374755218857 0.47057717852559
-0.408880939684348 0.217644804877682 0.479259610883211
-0.406687258825602 0.221340830702427 0.488994844500011
-0.410704717426313 0.216245726306221 0.490629268561315
-0.409927082055877 0.217968938258866 0.498883137920079
-0.409956923523455 0.2196360291816 0.518721663196844
-0.411757279082183 0.21738144943104 0.519787900326747
-0.412320432077877 0.217473750371525 0.529395809475822
-0.412009036040344 0.218692476856654 0.538848951464914
-0.410705130670356 0.220707813245238 0.542524280517685
-0.410365708667238 0.222444978547232 0.557581515319063
-0.412783438266803 0.220859260520924 0.575782093455363
-0.411920817538623 0.222217535135666 0.578504227406143
-0.412709415096465 0.221049730411044 0.5768752131625
-0.412064747859838 0.223035782806062 0.59020072969942
-0.41401653480586 0.220878057992848 0.594688210359677
-0.41350633856426 0.222515966252683 0.606003127943373
-0.414770523902306 0.222045957488146 0.619696160711139
-0.414480760400056 0.223349628915829 0.630464951206768
-0.416547393383671 0.221792603675585 0.643678338191854
-0.414961293013496 0.224418394583202 0.650175872199803
-0.416976689736822 0.222030497299081 0.652950724969686
-0.415227175145356 0.225502730243865 0.666814834878797
-0.416923862513646 0.224370546271148 0.679362109303424
-0.415994325614836 0.226030443137902 0.684577638634244
-0.418386467271943 0.223916403325568 0.696246680356243
-0.41765363605812 0.225073062373242 0.69859122020224
-0.418176860540314 0.225600590188069 0.712655183918292
-0.418052130130627 0.225854921889684 0.7137224743069
-0.420643808740642 0.224010551293986 0.731551421281926
-0.421022551599307 0.224433348678423 0.742207882245768
-0.418134184934295 0.228114848511162 0.74124626254754
-0.418651058966808 0.228498038492118 0.75353550861416
-0.416334964224708 0.232026667517904 0.759468940001275
-0.420220287218614 0.228083754230674 0.77249946305812
-0.414788715421738 0.227100133932945 0.775645644410667
-0.405464094444739 0.218511268834101 0.775645644410666
-0.408244212856609 0.209975877567273 0.775645644410666
0.0412488989046072 -0.277931991600507 0.218404158957211
0.0382876040443148 -0.279680613324049 0.228550248427169
0.0385488431593676 -0.279960595505241 0.236095306753434
0.0377939199575797 -0.280669839042975 0.243802720619184
0.0372633638625961 -0.281639995805676 0.258387708957398
0.0374499069332174 -0.281855438178015 0.264076975532679
0.0358805039909689 -0.283589970164976 0.285155117175332
0.0394731304506116 -0.282593520598752 0.294711345207425
0.0402558472400283 -0.28234455274896 0.296173823396549
0.0376859251149858 -0.284069531307803 0.309011254855367
0.0407444627161658 -0.283172014572494 0.316190520055641
0.0413538300811571 -0.283475377759016 0.326992749118907
0.041361131594015 -0.284153531500593 0.340232440804257
0.0436390463479275 -0.283539021415001 0.346627679606439
0.0421019796705131 -0.28499987107219 0.362646739760379
0.0441942412759504 -0.284655337618459 0.372794703858471
0.038415678421557 -0.287411419275281 0.379840859069695
0.0373052246018615 -0.2886459925414 0.394896501316589
0.0470619539878955 -0.284999099140529 0.4038533369279
0.0400406200629785 -0.288423668732056 0.412597559632015
0.0421257745742483 -0.288435780576559 0.429620227823857
0.0376047202716996 -0.290831656198544 0.439789259769393
0.0454111517619295 -0.287400294569173 0.43594410919634
0.0498078810919753 -0.28592286594 0.454438650056789
0.0426787921810949 -0.290113206399737 0.466675707695128
0.045013408104442 -0.289411963172664 0.471841653583376
0.0437063775907806 -0.290953027940507 0.491271797170755
0.0452410767193149 -0.290577075761716 0.496320243107822
0.0423199882182008 -0.29241659974807 0.508556845993581
0.0483220771377922 -0.290390550856766 0.517499517524774
0.0430457849711006 -0.292953796381973 0.524841324606925
0.0496580469511877 -0.290977678852919 0.539666894118479
0.0512716553900142 -0.290341920751655 0.546941362521144
0.0476653286271795 -0.292506264715426 0.553334125336925
0.047352758078973 -0.293317814207432 0.566591317698914
0.0472153284134249 -0.294308748075984 0.584745139575762
0.0541461272239125 -0.290648027149464 0.588863913381721
0.0477540479789744 -0.294787913992471 0.598395576917689
0.0521198966318027 -0.293502141728567 0.61055039053137
0.0523465256048125 -0.294352778337112 0.627650360318006
0.0504181465459973 -0.295623534092158 0.6360853198324
0.0501719347886548 -0.296075078546865 0.642879532920914
0.0509124260220118 -0.295987761317242 0.64714397555741
0.0526819968052719 -0.29583605701325 0.658441921833191
0.0523850003291273 -0.296501087882348 0.668976695233208
0.0543268257688821 -0.296116321625625 0.68244651593877
0.0521408104272592 -0.297596378985448 0.688299342197556
0.0560834298642812 -0.295976736606714 0.702613685734966
0.0519751876501013 -0.29905458817708 0.715308363994982
0.0528514468870742 -0.299061059557954 0.722488772464459
0.0545045279956093 -0.299048474930419 0.735552872447449
0.0542773984461927 -0.300066029602366 0.75350194860886
0.0554441269785922 -0.299856853424624 0.759187065831778
0.0560363123401767 -0.299785486263133 0.765580059576032
0.0540401905711037 -0.302363069125026 0.775645644410666
0.0690628221414783 -0.316634198192209 0.775645644410666
0.0753323187440903 -0.324040287989021 0.775645644410666
-0.401329228133754 0.223434676562217 0.432143051130682
-0.402758924703713 0.222277367645645 0.44035191842138
-0.402388337017554 0.223089398700816 0.444178630742184
-0.404776894539626 0.221405336278591 0.460793479274416
-0.404175698607552 0.222961274744004 0.46977608953877
-0.402654168250357 0.2253905805633 0.47496729206774
-0.40662487573433 0.220905488126151 0.482986916511605
-0.402786766629423 0.227682900782844 0.503633764918146
-0.407121846427285 0.222767581530026 0.512172411278549
-0.40742224499911 0.222360569647739 0.51199187588783
-0.406210811798926 0.224768701390399 0.521636358164022
-0.406847256371066 0.225264009508961 0.53704149080729
-0.405708006160938 0.227031265448952 0.540327281950733
-0.404540911363622 0.228894524154424 0.544307487241462
-0.408690767534999 0.224736939308918 0.558850624974993
-0.40603790865053 0.229104218077389 0.569432906614599
-0.408279382042406 0.227248187649186 0.581818918707466
-0.407900644220051 0.228342305338933 0.588802447187783
-0.407587349193722 0.228896846038592 0.590503121559622
-0.408685123024481 0.228214838322386 0.599208900169685
-0.407464168333018 0.231314052324836 0.616745547098934
-0.411321875434115 0.227167789993822 0.626992845645536
-0.410446128329463 0.228744927133024 0.632061160055135
-0.408954563190353 0.231769401919451 0.644627589410215
-0.409929537761563 0.230610916084767 0.645931478319976
-0.409703347897166 0.231653884234247 0.654632056358053
-0.410093119023629 0.232441643276112 0.669699719037061
-0.410580115321849 0.23190476806762 0.670836908522173
-0.410070755740375 0.233599395667034 0.682824083925205
-0.411660900266473 0.232370135018142 0.692627820221232
-0.410731969611513 0.234177113803033 0.699562924437701
-0.411005605023134 0.234506945140989 0.707545402345013
-0.413533815669702 0.232007785071026 0.716798074446957
-0.411052490315136 0.236503931425188 0.731478515638266
-0.411266987654006 0.23679387909346 0.738100959100434
-0.414297595484983 0.233810955913263 0.749341850808717
-0.416084517323286 0.231578504674728 0.750461828689125
-0.416792483153685 0.23194990194957 0.765509927581906
-0.414744483414823 0.23493325093097 0.769165370577729
-0.411736412890507 0.229074898968532 0.775645644410666
-0.405810041048508 0.22081679605627 0.775645644410666
-0.394465708800027 0.215505812710055 0.775645644410666
0.0446774443618558 -0.27557904926324 0.216089782353062
0.0489193236879813 -0.272933447077644 0.226259389012151
0.045917923035812 -0.275935002341867 0.237917672508933
0.0478153907974837 -0.274634326177937 0.240509736376744
0.0458546169956735 -0.277204644004596 0.258297821324403
0.0490694825921173 -0.275059976207974 0.263675245052851
0.0496930653864814 -0.275020347146608 0.271000070863814
0.0488098114596562 -0.277116848744727 0.294679788012924
0.0442347572166305 -0.280579210620374 0.293895410512351
0.0495005626897749 -0.276947140985074 0.300693768840505
0.0487027828256503 -0.278569550906497 0.317555344772955
0.0490308038604882 -0.279217694684606 0.33257414744278
0.0506155409618525 -0.278571439587413 0.342083648613035
0.0482683147863254 -0.280671616577676 0.347075550272566
0.0481645476937255 -0.281152686202789 0.35377587703638
0.0548536179110343 -0.277241995791405 0.374171856112402
0.0469372578743914 -0.283486025941464 0.377002449934866
0.0505420556771393 -0.28116797304604 0.384479874996464
0.0525176770481092 -0.280635076678049 0.400887458992273
0.0528083724943868 -0.28096723576388 0.410154299091492
0.0551342290898125 -0.280337532930155 0.42943161650113
0.0537265111318601 -0.28190162014752 0.43750825422601
0.0519205069681807 -0.283785536134696 0.445822113811146
0.0564905175831295 -0.280846962663549 0.45530428533521
0.0561647219205049 -0.281655589444568 0.464628163928059
0.0518868194680339 -0.285102375540903 0.467369340997965
0.059634449827957 -0.280137676042307 0.483730444404728
0.058107264414287 -0.281906253551689 0.493690095417173
0.0569014190726486 -0.283483388574569 0.504569898932096
0.0556343966365637 -0.284727076950423 0.509100824372445
0.0519761179016017 -0.288433604101902 0.524112750199855
0.0579185464635522 -0.284758722458994 0.538882213918483
0.0597254111435234 -0.284148776702753 0.551842532994229
0.0605395399913931 -0.283391804645338 0.549634901279569
0.0559425466870071 -0.287852704664023 0.565215502093258
0.0594027419231888 -0.285576793070083 0.571544353473854
0.062048063030563 -0.284444824893343 0.586530024399426
0.0594581967993903 -0.286937488767824 0.594965213131714
0.0564691209413279 -0.290012567841898 0.608008487545641
0.0629317347954925 -0.285541115448599 0.616144850322552
0.0576367190046722 -0.290051283912799 0.623608158608861
0.0585086857899763 -0.290601512570243 0.643959050284305
0.065531321713696 -0.285515231168603 0.649005858080285
0.0648900104387829 -0.286610807137167 0.659078229726656
0.0593683826567136 -0.291507723976445 0.67009431884209
0.059918541056681 -0.291786108872294 0.681786596509329
0.0610557935718249 -0.291304958601792 0.688320818778701
0.0584572986338012 -0.293962678146389 0.699400355469076
0.0625692082097119 -0.29154788420336 0.711757730932993
0.0621581939458519 -0.29269879358978 0.725703067505696
0.0624973759377506 -0.292927001015926 0.733855875274115
0.0675008535796318 -0.289638869661417 0.743055194536967
0.0636624694348201 -0.293306954259178 0.755118877977705
0.066506445047713 -0.291868953557711 0.767540900506321
0.0693154169389946 -0.289993307311495 0.772210120287538
0.0718223210904248 -0.30592270397524 0.775645644410667
-0.395943452312278 0.231044293380288 0.439012619219076
-0.397858769722795 0.228760342200827 0.441479543553981
-0.400734824969405 0.225490317695326 0.447039551536285
-0.39912838992673 0.228609688829835 0.45896866381755
-0.399357330859926 0.229113010638767 0.468291286096005
-0.400607243406236 0.228847234458441 0.484142996692558
-0.397400219074186 0.233588744568795 0.490678789106509
-0.397967102943332 0.23374524870633 0.501089846089249
-0.401346274909203 0.229726994317393 0.505573545049235
-0.397126270838701 0.235911614922766 0.513539327221027
-0.401260701386062 0.231036897958347 0.519509299055552
-0.402942276087462 0.230089534373956 0.533976782351745
-0.398872123448276 0.235790908878673 0.538593980692073
-0.401656900680932 0.232467185158287 0.542146216496964
-0.40189387539095 0.233742189763499 0.560564340866177
-0.40149107848402 0.235508959646237 0.575005397706146
-0.402461660860421 0.233980003374778 0.571934593766343
-0.402887607093192 0.234309242274608 0.582218446232823
-0.403564724604539 0.234605335210365 0.595923340534757
-0.404016987907832 0.234863719169497 0.605782068613857
-0.401990780396356 0.23830646438697 0.615110002186355
-0.405878365873795 0.233695514629426 0.620406345686997
-0.403903020987278 0.236767300255783 0.626191282532499
-0.40563815872519 0.235435302622008 0.63699767608157
-0.405230018460607 0.236902012343864 0.647868412771953
-0.4081841541646 0.233685650436122 0.655235758718999
-0.402900653697517 0.241939749037101 0.67114985985537
-0.404931697063664 0.239273261665332 0.670922166369942
-0.406507462544418 0.238503193087889 0.685847844977545
-0.41036435856661 0.234305209081348 0.695481390259414
-0.406315975643841 0.240129598142472 0.701859020284692
-0.407481960378801 0.239718583144574 0.714749854304628
-0.406008828287009 0.242134797186755 0.720522288699293
-0.407442525622323 0.241303022391453 0.7325773609884
-0.407957938749987 0.240805442901874 0.734602168638642
-0.408402589350755 0.241979342749878 0.754991884410642
-0.409648879889712 0.240482304249843 0.756470591365622
-0.408350080300311 0.242874235118896 0.76460264295369
-0.407688293162399 0.24417505643688 0.769700287962189
-0.404109072695757 0.231208521496888 0.775645644410666
-0.397963958493222 0.222510782444223 0.775645644410666
-0.390484488607252 0.218939692968621 0.775645644410666
0.0534395792724467 -0.268702369478377 0.213531848199613
0.0532444793997119 -0.269536711710457 0.224958756632226
0.0558390715908487 -0.268141738409021 0.234905061676889
0.0555318311976769 -0.269095141977265 0.24688297063087
0.0521150324415287 -0.27219772399021 0.254907415231047
0.05837477015053 -0.268114547615546 0.266926041986992
0.0574856365195764 -0.269646856960319 0.28111382535874
0.0554327333760708 -0.271276444387101 0.282020776001962
0.0600373645239983 -0.268392671754762 0.292860985861238
0.0585911503068662 -0.270244434542386 0.30524603982282
0.0550302572988785 -0.273866488975653 0.32009529999814
0.0588246847185556 -0.271579675398927 0.330522719046006
0.0588031816287239 -0.272244737349302 0.341347522470501
0.057453640635114 -0.273712347811646 0.348558993149044
0.063310446620645 -0.269865041459307 0.359354035710075
0.0593941178115699 -0.273098899628746 0.36317203643781
0.0585260033520518 -0.274699116080881 0.378762414627503
0.061472786380028 -0.273159859905605 0.390811095284457
0.0635213079925311 -0.27252113345366 0.406385962490732
0.0591302013532692 -0.275714071204457 0.403440480953887
0.0564349477038149 -0.278726781883167 0.419205792183416
0.063300607896172 -0.274077644741586 0.429538346422536
0.062174582869969 -0.275661867962065 0.441558717692995
0.0654519914688909 -0.273636553526537 0.449729195837213
0.0650122242149278 -0.2748422484095 0.464220687068956
0.0623439568360478 -0.277457732277881 0.473701711763792
0.062436726163633 -0.277414004225061 0.474159971163432
0.0664209128557133 -0.275141845549858 0.487262243034966
0.0629452422608482 -0.278495961782118 0.498730936871276
0.0643205811646049 -0.278527610673299 0.51687319984324
0.0627053532078881 -0.280144093874916 0.523166760971227
0.0707878632454645 -0.274444761834321 0.531555323579018
0.0669630433911039 -0.278314442023498 0.547157450056138
0.0669377426116218 -0.278352957592113 0.547476264640597
0.0679549583354357 -0.278358530626572 0.560596809454977
0.0694609353422347 -0.278185351276518 0.576993481600028
0.0681784835080015 -0.280206300872223 0.594299654706845
0.0681408934148707 -0.279953057237865 0.589591482165502
0.0698354776952822 -0.279548040166183 0.604534176461732
0.0722327896660185 -0.27883220692681 0.623289069443068
0.0716342704339538 -0.27976501689083 0.631192840124373
0.0687998158093528 -0.282494910369969 0.640455046990666
0.0733469826816519 -0.279350914683068 0.646216064963013
0.0670879995173813 -0.285129357249771 0.662501885985286
0.0663338416722143 -0.286339229312281 0.673036681623138
0.0667537699072066 -0.286830287449012 0.686610711305838
0.0668934986852085 -0.287067687450242 0.69236254101809
0.0720099139333682 -0.283436220316843 0.697277822908303
0.0737577574462195 -0.283388505112418 0.718866145622523
0.0687495593872507 -0.287566119805192 0.724452263990531
0.0743052240498117 -0.283645951519749 0.730174476180736
0.0709336831948978 -0.287416474133367 0.749926781286874
0.0728115760481651 -0.286420747283567 0.757357894846138
0.069771323929556 -0.28931202467313 0.766678016618071
0.0754608164845156 -0.293754894976361 0.775645644410666
0.0845115668303971 -0.30461724427037 0.775645644410666
-0.390639776943497 0.237923585115889 0.438633606452378
-0.392288671490689 0.236046695162921 0.44179654038534
-0.395568313380793 0.232623482710575 0.451691493379341
-0.394257251549598 0.235310877550125 0.463073604806366
-0.393233199095624 0.237488127601347 0.472872955484691
-0.394972453063456 0.236427381953338 0.486896067397956
-0.393726964674076 0.238289790560743 0.489678335564392
-0.394336249099108 0.238338816876436 0.499482132256576
-0.396997688543919 0.235678996434528 0.508885592525156
-0.397478444033977 0.235268276255637 0.511395235364192
-0.393757439832228 0.241509374951563 0.527580111800976
-0.39802337661345 0.236063989398185 0.528906859857972
-0.396351040380486 0.239527310558475 0.543836971027902
-0.39516302072823 0.241738704115401 0.551548454155967
-0.39602118110639 0.241695347789081 0.564049655211674
-0.3954289134927 0.242863969151004 0.56866353778664
-0.397998849150654 0.240105940390454 0.575538216507648
-0.397431989315558 0.242335958521749 0.592879931390005
-0.398525171622893 0.240619820258451 0.589490420784852
-0.399383032553008 0.240834947886546 0.604992943819687
-0.399549480069224 0.242012778530818 0.621212214348373
-0.401933274380069 0.239153886580672 0.624093010405934
-0.399719620430297 0.242820471409175 0.633183189019341
-0.399172794675989 0.243978954843051 0.638367848996261
-0.402002571909642 0.241342310615747 0.650591972909151
-0.399157439631897 0.24538634456443 0.654501407861739
-0.402809022873878 0.241999976383184 0.670461570888632
-0.40092448433807 0.244965598973859 0.676388124565773
-0.400824612212135 0.245383362005338 0.679732652614776
-0.400731787310401 0.246979505645851 0.696887142094348
-0.400908005753769 0.24752358727404 0.705884745403966
-0.401557065498126 0.247330940391852 0.71348096428783
-0.40180120360809 0.247382638637786 0.71778205572756
-0.401447973575085 0.249518731510698 0.737269082290114
-0.403084209302109 0.247643340999737 0.740257609073037
-0.403288390878531 0.24841322440844 0.752304797853047
-0.406569124095311 0.244746981385721 0.759390134179802
-0.405943630466499 0.246526984308066 0.770610116297825
-0.404742590214473 0.2482220100686 0.772119531188738
-0.399853340693028 0.238499866761444 0.775645644410667
-0.390385658561845 0.233668394549752 0.775645644410666
-0.385491705471084 0.230669932563312 0.775645644410666
0.0612286687158479 -0.263025545400705 0.218538228257378
0.0630565107410968 -0.261780986875705 0.221175221732414
0.0620795865662813 -0.263376291407609 0.235290086683033
0.0634785114592984 -0.26290102638043 0.245273786514617
0.063193346519069 -0.263607395289316 0.253411292994656
0.0628819043614939 -0.264765380292509 0.268749949431187
0.064522960347427 -0.264032202817591 0.277529954060666
0.0681823477885505 -0.262139470419741 0.292805308808736
0.065917848017931 -0.263865215825839 0.292607253349725
0.0704441344608698 -0.261341539249366 0.308454270297878
0.0692263710320427 -0.26272394311178 0.315931284334527
0.066885637836988 -0.264847710158538 0.321400070949157
0.0645662707843033 -0.267551353171132 0.336820895347921
0.0677829644765282 -0.265754247747061 0.348022709862359
0.0670266072950659 -0.26697125061833 0.358648355027424
0.0663854051423357 -0.267937026340788 0.366555697493436
0.0672950344894056 -0.268035834046558 0.379854508860391
0.0683252402131504 -0.268089510514692 0.393944285965849
0.0698382556794173 -0.267643583236092 0.405878809705595
0.0649473728827103 -0.271651880578023 0.410141404357054
0.0700422380975843 -0.268142491082355 0.416818226759558
0.0679750140222925 -0.270565550465854 0.430785186015967
0.0684226204361578 -0.270873398749801 0.441655833414238
0.0685586782896925 -0.271439843193608 0.452852554811281
0.0752285861762874 -0.266987690633143 0.463965864957337
0.0721126792363391 -0.269980366364781 0.474009457648127
0.0719340915065729 -0.270416648551625 0.479004029835462
0.0759907220315414 -0.268312441887497 0.495837290669946
0.0744558260638316 -0.269979887057273 0.504010246296212
0.0741588279155049 -0.270953686487428 0.516459744606454
0.0715363018373046 -0.273479472270752 0.525029477308813
0.072341319831212 -0.273201966902264 0.530707685379158
0.0747774778492125 -0.272397545022644 0.548481495694229
0.077283268051297 -0.270582457603293 0.550278608821034
0.0783633899379593 -0.270312705178617 0.559609485271785
0.0745541641281367 -0.274342310499403 0.578080550507941
0.076728811067761 -0.27322640526704 0.587306373896463
0.0794564691573499 -0.271617102344931 0.595379598541793
0.0760696161216831 -0.274928908849123 0.60727961380171
0.0770309777782872 -0.274515463275221 0.612691216805151
0.0758692713113365 -0.276233318632401 0.62648499698941
0.0747376234947746 -0.278093363100972 0.64303694234232
0.0775104855272748 -0.276643501208773 0.654350241185102
0.0757187030477729 -0.27833250160204 0.659593006258251
0.0744356573651521 -0.280092513951753 0.67253640945067
0.0759872922613123 -0.279316994634572 0.679464488979013
0.0781893890084105 -0.278276624961078 0.690302587052578
0.0741951131068375 -0.28188008959022 0.699291220191135
0.0812815799334484 -0.276790011777274 0.705092149400565
0.0776156269056143 -0.280286693950037 0.716503379533975
0.0823177736524903 -0.277538906919139 0.730862139307676
0.0766231754408624 -0.283019399248262 0.749403135631402
0.0826673818392972 -0.278940097097523 0.758726105648234
0.0822145291892169 -0.279608594325632 0.764083931928984
0.0807344320477057 -0.280874923766061 0.766263889817446
0.0956623716574732 -0.288218465514279 0.775645644410666
0.0976841706100773 -0.298115901013422 0.775645644410666
-0.388679671294281 0.240503000114137 0.438923810115628
-0.38820857551932 0.242048284885845 0.449754192883604
-0.387708690264025 0.243313485814025 0.456891231272124
-0.388130277809796 0.243215858062198 0.462145077981983
-0.389555216501029 0.242212361888055 0.472070498571467
-0.388926843662395 0.243474903743269 0.477229391343664
-0.390968491642343 0.241856235938815 0.489347302176692
-0.386367193268386 0.248616310506716 0.498226428920386
-0.388740606505366 0.24638909723123 0.508295569848483
-0.389291754750432 0.246840873192235 0.521901813271049
-0.392164837790764 0.243185466782133 0.522935245682341
-0.392425565678901 0.244079533214121 0.537283491821344
-0.39004765050247 0.248210556921284 0.549285168880136
-0.388137963755228 0.250925147783118 0.551911402894503
-0.390459041954076 0.249249412900235 0.567600444551849
-0.389633452324041 0.250290206888825 0.567191862164146
-0.39276282887549 0.247901053900267 0.586834428711199
-0.393303280044113 0.247234466784835 0.587273329672679
-0.391705588188035 0.250290555250683 0.598599042608138
-0.390788405761213 0.252439026236984 0.609683337725648
-0.3914009778214 0.252027990747589 0.614186988299588
-0.39205666572499 0.252064948479662 0.624553684469109
-0.395419734304122 0.248828900093628 0.637889460192053
-0.396750502103558 0.247961451634443 0.647969797652336
-0.39640168787077 0.248978504524896 0.654510645136374
-0.395968763519668 0.249981443680105 0.65961268150689
-0.39506320160262 0.252383626950673 0.673823456216046
-0.395128588140654 0.252421564218521 0.675255551550429
-0.397277502211836 0.250609004746878 0.686744346518697
-0.396304975350702 0.25277001832646 0.69713575452808
-0.394326911378945 0.256340114039625 0.708674235739636
-0.394692627405337 0.256153482161393 0.712046340152722
-0.396117083946779 0.255238334970351 0.722991847084421
-0.398318105661018 0.253335766173811 0.734223630033603
-0.40008416063401 0.251782468763331 0.742925120479981
-0.400581695405684 0.252048280271698 0.753556309243581
-0.399876997052835 0.253239749608592 0.756732003527166
-0.399280679511301 0.254893134740273 0.766921734095213
-0.398298225610557 0.256834353056337 0.774606741479205
-0.390216090485162 0.25402597146635 0.775645644410666
-0.388814834550226 0.238883843715289 0.775645644410666
-0.381342950269076 0.232332317789432 0.775645644410666
0.0706120755720517 -0.255346535704347 0.210545691464599
0.0740444905227784 -0.253352399138448 0.221221716242508
0.0754251924932515 -0.25289894652102 0.231336093575468
0.0740416300770183 -0.254768362589454 0.244818173513982
0.0680704483723781 -0.260174034416483 0.258568163286611
0.0709461062662465 -0.258440107082596 0.26645678856825
0.0730206145043982 -0.257184541187305 0.272069129356256
0.0753830581583034 -0.25621613357065 0.286161877922834
0.0749865043076318 -0.256897243732388 0.292451241252179
0.0744430876031508 -0.25780015223891 0.300561643235671
0.0763662213699465 -0.25704203441501 0.312537964827598
0.0730801902284434 -0.259941582945319 0.318848432620877
0.0747090966792625 -0.260098905634259 0.342335701120999
0.0765909175375112 -0.258364961762948 0.337495934046389
0.0744823666362695 -0.261147219178202 0.356928801618719
0.0764092807613005 -0.260482804468249 0.370517487154454
0.0787969458133388 -0.259110028659573 0.378184153389496
0.0753148133516873 -0.262192460904921 0.385035557207766
0.0786127127543615 -0.260614271567115 0.400931188662301
0.0779740305963545 -0.261730225760822 0.411377353621569
0.0760826978437389 -0.263778850620305 0.421347474051945
0.0766512582837145 -0.263853911471421 0.429881854245122
0.0794106912038735 -0.262331537944488 0.439812912791956
0.0783137563099885 -0.264077756056963 0.454909613101748
0.0767075846953289 -0.265972625637889 0.465965557869659
0.0819148425500268 -0.261982126629391 0.466051855541236
0.0847385205368239 -0.260731436904616 0.481340233103941
0.0778373781116028 -0.267028403430446 0.498056298105209
0.0774085841605632 -0.267689573743625 0.503599955612972
0.0837980109970481 -0.263290904452122 0.512013792861866
0.0776575387950224 -0.268923846329519 0.527388914753314
0.0819826362964466 -0.266080043025368 0.535316231175325
0.0784242734471438 -0.269432788947527 0.545703010414149
0.0817412021249626 -0.26736936686191 0.553743589542063
0.0843585381046564 -0.265995354978489 0.564331031180156
0.0890923828074223 -0.263023001688543 0.575347632406963
0.0839991335071895 -0.267235411505325 0.580425242506841
0.0881074559178465 -0.265058953516506 0.596714615339643
0.0840884414503157 -0.26882589582379 0.608114939311564
0.0821276578119456 -0.270782420551338 0.615658404868941
0.0822299864760527 -0.271735717451247 0.632879903114672
0.0877328787802894 -0.268215383082408 0.644599672056169
0.0838156823510981 -0.271287788117958 0.645711832944009
0.0851285209248911 -0.270596407825544 0.650985956666585
0.0851709484293548 -0.271801461610884 0.671642237989729
0.0882906364464432 -0.269579575996055 0.67451191666926
0.0861881748114224 -0.271999757897898 0.687979560375279
0.0931012733414357 -0.267554354677278 0.702320073840129
0.0878394777917337 -0.272403257968541 0.715862477696641
0.0942046093050223 -0.267995164774397 0.723807874295704
0.0864497630217784 -0.274578491893785 0.734370006980778
0.0927516756405506 -0.270202821699754 0.742046911318967
0.0915373687691449 -0.271870444596888 0.754328632506831
0.0853735757495053 -0.276897255957056 0.759288482277567
0.0860494842235612 -0.277012879907572 0.769874690718078
0.0914652030763071 -0.278130399156815 0.775645644410666
0.106516914380926 -0.299225804143593 0.775645644410666
-0.383757489799369 0.246346000678612 0.43227549015317
-0.382614250117337 0.249044267217525 0.446327363890554
-0.381870270002243 0.250316296332053 0.449844558897895
-0.381090112530981 0.252358113688252 0.461765206776903
-0.384531489158414 0.248789434100173 0.472419633428152
-0.384884327607776 0.2492883425014 0.483568594538444
-0.386074084110109 0.248218521200087 0.489158557101036
-0.383534789794503 0.253016004483477 0.506464670283132
-0.383683471074381 0.253315285984445 0.512198215559411
-0.387217405007921 0.249057209010201 0.516238474811238
-0.384681002459389 0.253383818521506 0.528112712230462
-0.385604078942924 0.252497834047215 0.531798953680371
-0.385459500349836 0.253819323222045 0.544975214344417
-0.383895256079145 0.257174963991278 0.560291260008465
-0.387521082196462 0.252862023300283 0.565086141740663
-0.385576562867442 0.25591282564739 0.571094228065634
-0.38583526169492 0.255858355298058 0.574381372411799
-0.387732503457415 0.255182015835531 0.595268967984892
-0.38655223394711 0.257247704282011 0.601403527524105
-0.387988452516409 0.256169740235591 0.610633921639616
-0.386594797391389 0.258366817283986 0.615062524151271
-0.39100498912463 0.253837887023575 0.629232731787615
-0.39019422962871 0.255146421200412 0.632162398502174
-0.388519697703734 0.258690667472237 0.648000296584019
-0.387551456015081 0.260690490794372 0.65658219575127
-0.390027540977087 0.258104790944507 0.664038550931772
-0.388390261254781 0.260893950797811 0.671660250062909
-0.389430181437542 0.259829034474042 0.675036488720708
-0.391095659929176 0.258449340785758 0.684232551176966
-0.388352287912032 0.263465924982072 0.700993757917536
-0.388730907766848 0.263769566596756 0.710262715275799
-0.39293365214338 0.25883635034844 0.716587703336415
-0.391740877702616 0.260962866760761 0.723240107889739
-0.390514855193529 0.26324291766567 0.731174062436751
-0.392674816487952 0.260776064462349 0.735221621858878
-0.39228771548535 0.26308719812548 0.75623085096458
-0.391331320719851 0.26493624543347 0.763238944522876
-0.393902498239952 0.262203159661968 0.770422500824648
-0.394667361079757 0.261588599338351 0.774867360495926
-0.391243085153363 0.258698341500628 0.775645644410666
-0.375358011972239 0.240757759479728 0.775645644410666
-0.37667636884945 0.2361849104856 0.775645644410666
0.08060894202887 -0.24737812019514 0.205579441671128
0.0832427006282023 -0.246208629160671 0.219790757012285
0.0839209265630879 -0.246278536109879 0.229643607181798
0.0864323859852068 -0.244934024693559 0.239367459477973
0.0786291920379473 -0.251539777100426 0.249684689938958
0.0837953346004312 -0.248179108564876 0.259756586854403
0.0783169758198611 -0.253313053522487 0.27528293401652
0.0801198730329019 -0.252226948870841 0.280245127272182
0.0869823214282325 -0.247648037963273 0.291708656515321
0.0854628638615308 -0.249183648427926 0.297878949664877
0.0817910225647975 -0.252454218059633 0.30544084458393
0.0868406001916047 -0.249450744920408 0.319981646984853
0.0838799256073439 -0.252728976918309 0.336779374964159
0.0826245340914033 -0.254130867014536 0.344099718710069
0.0879720285451094 -0.250719096035455 0.355641273942159
0.0883238369304093 -0.251221536583462 0.368532867355222
0.088050014456097 -0.252114141361133 0.379924000920897
0.0833021015659949 -0.256043144631329 0.384694162619955
0.0866840029468977 -0.254181641937551 0.396936979054744
0.0865504870312324 -0.254922842380459 0.407598016089737
0.0882311059494399 -0.253666204607996 0.408147908223882
0.0902184709872 -0.253658149503571 0.433465739641921
0.0878031760986097 -0.256123717032357 0.443684420876181
0.0923015486252668 -0.253025098775072 0.449577897921389
0.0862973744005437 -0.258420505315558 0.462734018555971
0.0875935348304399 -0.258234022931295 0.476221526358529
0.0903964421546543 -0.256138413907658 0.47714179549319
0.0942838737144256 -0.253955216567608 0.490489726184061
0.0858319445167873 -0.260634598274803 0.493727482043792
0.0893527455872273 -0.259089422398247 0.513028835427948
0.086191310629892 -0.261855027410609 0.518699432391851
0.0893606016699925 -0.260623272272058 0.538730119209515
0.092847051651084 -0.258040170853648 0.54026807470641
0.0867121852357834 -0.2633488721519 0.550303263506113
0.0889666594885234 -0.262849178122413 0.570836291636145
0.0906301693866845 -0.261677786475033 0.572589865398845
0.0950451974376848 -0.259020375185363 0.584779896230408
0.0963900457671711 -0.258738921420932 0.597305835509838
0.0939538157118806 -0.261279372030004 0.608506232681273
0.0905620766956432 -0.264561163601239 0.619842709719247
0.0936384385044587 -0.262553843347862 0.625738703735475
0.089785703700941 -0.266077923906273 0.635215102979914
0.0953047424140372 -0.262350775528183 0.643689837338804
0.0922271211795458 -0.265695841589528 0.660105315948195
0.0957395616062249 -0.263472994799544 0.667988950226127
0.0968322465013599 -0.263128160314916 0.67622756706309
0.0934321818085493 -0.266194189142963 0.683856235854116
0.091936139941773 -0.267990810413366 0.694682807160523
0.0950575956062539 -0.266414415024624 0.708348657443087
0.0993556200467943 -0.263937711219338 0.722056309977095
0.0964614094050525 -0.266848886338662 0.733578894018402
0.0960207730275349 -0.267925006088206 0.745896584867813
0.0977181453088184 -0.267084124056279 0.753600195520467
0.0998216608425049 -0.266187752426446 0.765579154071692
0.0979123685200818 -0.268079256097296 0.772696839470271
0.105129882390294 -0.278817746879926 0.775645644410666
-0.376350299746858 0.257171174400883 0.445903704651357
-0.378609761378857 0.254982975600673 0.454699605749385
-0.376593971932987 0.257232982813816 0.450315304219511
-0.378547952891218 0.256689512673302 0.473607891594816
-0.377243308868545 0.258572662880414 0.475734858763336
-0.374002810415776 0.261679705771925 0.481904820633545
-0.376911865978431 0.259712747763531 0.485924503698238
-0.378731399532938 0.258575656962451 0.498321626034121
-0.379541930707599 0.258657002417618 0.511551141559895
-0.379309987320547 0.259745041842347 0.520688650386509
-0.379986925268982 0.259334370018844 0.526171992213999
-0.382529084438591 0.256577414925407 0.532638204923286
-0.380010852312369 0.261448868168872 0.551123697087883
-0.377893559331492 0.263618022499889 0.556524696297956
-0.38347585030228 0.257695276018993 0.559985791913714
-0.382034271399953 0.261221908811325 0.579149259220693
-0.381116741188546 0.262885702300642 0.584592062452888
-0.384341184115861 0.25930468920343 0.59181544425868
-0.381731495538703 0.263631434188303 0.602580610479294
-0.381458150037339 0.263936780689593 0.602807401372954
-0.382666505004309 0.264130661001434 0.622556050915934
-0.382988586816342 0.263942400230778 0.625247938621185
-0.386228224025623 0.260966103812519 0.639733722856111
