ply
format ascii 1.0
element vertex 863
property float x
property float y
property float z
end_header
0.284431133518161 -0.324606698217397 0.66578653057272
0.283442248675671 -0.325016307730782 0.672664005347064
0.282519313533359 -0.325398599983919 0.6822259652617
0.28459136905152 -0.324540326486306 0.690049820777404
0.284584773977626 -0.324543058255357 0.700432097801536
0.284759476921434 -0.324470693926646 0.710221007714766
0.281848752888089 -0.325676355297584 0.713682785245263
0.283583216713266 -0.324957916857749 0.7292960075311
0.284340942864647 -0.324644056409282 0.739782037385858
0.287506187418785 -0.323332969186729 0.748379925603808
0.287894862534513 -0.323171974682438 0.745575312215824
0.283796367006238 -0.324869627115576 0.764582064166008
0.281599239830156 -0.325779706990169 0.778568466889485
0.284055089802846 -0.324762460624326 0.781690555759122
0.283839628915896 -0.324851707445862 0.787817002081136
0.286391405944156 -0.322873401676851 0.80061121690027
0.287593338536106 -0.322433394127276 0.800514679618583
0.283665342722574 -0.319195127973582 0.807088627672626
0.285793226586924 -0.310450352530821 0.812943872974816
0.286267643994425 -0.308657945428734 0.813722845325156
0.289149509242568 -0.288206269304195 0.816466648455105
0.307932301486785 -0.0707736791852726 0.651749903851266
0.312546541336383 -0.0733270153958658 0.651749903851266
0.31122075770549 -0.0572872540326252 0.651749903851266
0.319395993667505 -0.0369757931508237 0.651749903851266
0.316074378441101 -0.0291585820348327 0.651749903851266
0.31814765612879 -0.0161509750179705 0.651749903851266
0.316018064447203 0.00259865145910573 0.651749903851266
0.32069781999947 0.0122328295328081 0.651749903851266
0.317946785329646 0.0259059631400877 0.651749903851266
0.328014325036731 0.0362299354676331 0.651749903851266
0.325535003030156 0.0418349420055083 0.651749903851266
0.322804265131998 0.0615943133333122 0.651749903851266
0.330712578840639 0.0702024376930939 0.651749903851266
0.334654386019926 0.0942318664473548 0.651749903851266
0.328709616770881 0.0969724244337814 0.651749903851266
0.332624008734402 0.121474983223632 0.651749903851266
0.33888689311399 0.132773119153449 0.651749903851266
0.336048328319881 0.1395901334152 0.651749903851266
0.339702054941575 0.154495586921771 0.651749903851266
0.34049523525713 0.171540363035782 0.651749903851266
0.338925925621847 0.194369227322422 0.651749903851266
0.345919675025986 0.201769999375024 0.651749903851266
0.337994446068259 0.214120020421882 0.651749903851266
0.342344071639361 0.22497053128399 0.655092547528408
0.344330149777894 0.223446559928059 0.660671053328981
0.347717244900521 0.220847550429618 0.681208458560033
0.339530631130691 0.227129360115364 0.687704507759095
0.346334152387633 0.221908834641628 0.696999388039405
0.343906000083042 0.223772021435862 0.716766607568287
0.345344673039412 0.222668088849565 0.729704093146863
0.345617008741204 0.22245911831579 0.737932754306512
0.34533928131027 0.222672226068848 0.736603822158832
0.345570951080615 0.222494459601763 0.753719052376553
0.346298625815773 0.221936095139007 0.766428107764207
0.342631576664456 0.224749920919056 0.775343125959105
0.343260185794764 0.22426757216848 0.78356996106841
0.339428107777036 0.227208029051522 0.793818881364634
0.347285476423785 0.227276878703665 0.80654651018914
0.34965793759812 0.235037146496904 0.812881147338951
0.349140425545418 0.251077190377852 0.816712135913107
0.345835648708526 0.261969352917556 0.816500361993219
0.349606970234669 0.267559467260782 0.814735910020354
0.29570357323233 -0.31993750080675 0.307403825703417
0.297583247746017 -0.319158914130333 0.31416534138491
0.297973221792211 -0.318997381591426 0.326734806587031
0.293122401544577 -0.321006657126632 0.337274072540872
0.295383551765695 -0.320070058038481 0.35079695232054
0.29164502833011 -0.321618605148752 0.352523682043902
0.293659362666232 -0.320784240547575 0.36795732442525
0.297264750602768 -0.319290839966644 0.368662001210858
0.296218015023807 -0.319724412039669 0.384167241273491
0.291197266454175 -0.321804074190478 0.391415588778895
0.299311152629847 -0.31844319249296 0.396060237899812
0.290693954097231 -0.322012552994834 0.413537211609226
0.294322046034853 -0.320509748108733 0.413295100441254
0.29332308704855 -0.320923530469115 0.429012451874945
0.298187582965513 -0.318908590286198 0.439790562165613
0.298029819239208 -0.318973938161284 0.442522137287727
0.296423367247478 -0.319639352363561 0.454173795514464
0.296490846501683 -0.319611401541291 0.460021841648426
0.293989432987859 -0.32064752094382 0.475491686366846
0.290426042552803 -0.322123525590053 0.480181416962868
0.297685859380821 -0.31911641099954 0.491055652377175
0.298412194412966 -0.318815553178398 0.494726037352903
0.292458615262223 -0.321281606407301 0.503679196399764
0.292260101957535 -0.321363833310414 0.522743332421999
0.290544537944557 -0.32207444319171 0.52966063094384
0.293408695708435 -0.320888070201134 0.530509135058157
0.293055278246666 -0.321034460506978 0.549924919475335
0.296742710520935 -0.319507076048642 0.551363625232653
0.297856825473399 -0.319045594525288 0.557195119794483
0.296394706200331 -0.319651224158001 0.566898545703116
0.291252902410711 -0.321781029022725 0.586457201453188
0.291552841438642 -0.321656790209471 0.584254346135922
0.298096861178737 -0.318946168480684 0.596195940167844
0.292075326946686 -0.321440369625895 0.606531260109237
0.296280004890581 -0.319698734996121 0.614678672647911
0.29255148985362 -0.321243136491944 0.62849082337527
0.29304627683837 -0.321038189012375 0.633990444455126
0.295068985813943 -0.320200355521958 0.637550479989072
0.296811396942695 -0.319478625201198 0.647299479392182
0.293823016052131 -0.320716453095608 0.65622607388566
0.290907686037669 -0.321924022326393 0.67511497215824
0.298378540446481 -0.318829493107745 0.683744512728231
0.294879856577048 -0.320278695416921 0.689748902928219
0.291594731867256 -0.321639438625805 0.699312304773654
0.295170558854668 -0.320158282590918 0.702438274909087
0.291157922574703 -0.321820370958951 0.713182844255337
0.293668282247776 -0.320780545935929 0.718357975840167
0.298278156674119 -0.318871073427699 0.73342726576555
0.29809221536731 -0.318948092838785 0.737872168465217
0.291026023005489 -0.321875005549391 0.744719459981558
0.296640938733386 -0.319549231303312 0.758471395976906
0.294199698168003 -0.32056042625451 0.76910878690614
0.297635744455249 -0.31913716928139 0.773962564519879
0.298404350361039 -0.318818802291091 0.783971162418981
0.297571430958845 -0.319163808803844 0.791377529375492
0.294961354413095 -0.317588588300144 0.80350658033081
0.293941304748145 -0.315230269784371 0.806767524932967
0.291785009309874 -0.310608201102723 0.811435905812443
0.297051339702849 -0.30290894030757 0.814348724658778
0.300065540409454 -0.295050883940558 0.816367846454156
0.298250829191054 -0.278038186719768 0.814878417674572
0.324671623309087 -0.0622740515093553 0.651749903851266
0.325348273427342 -0.0542936997498685 0.651749903851266
0.3236390356162 -0.0365042373970805 0.651749903851266
0.326699622791985 -0.0293010299190402 0.651749903851266
0.32939592436988 -0.0180790590661602 0.651749903851266
0.327466284592411 -0.000699037429419275 0.651749903851266
0.328635326646574 0.013272877244698 0.651749903851266
0.332168680659082 0.0187656556582739 0.651749903851266
0.334722474753456 0.0278978311529937 0.651749903851266
0.339030028579721 0.0469138202560795 0.651749903851266
0.339923409536674 0.0729733577120699 0.651749903851266
0.336867861938272 0.0704391546975802 0.651749903851266
0.334811643088385 0.0881614124257986 0.651749903851266
0.346291235158934 0.106011571949075 0.651749903851266
0.343777453051438 0.106658381494663 0.651749903851266
0.343537563011065 0.127183445662641 0.651749903851266
0.344423193645592 0.152579905216479 0.651749903851266
0.353297100011321 0.164792217679945 0.651749903851266
0.348366466424888 0.179058073104104 0.651749903851266
0.345564977489553 0.187587492145374 0.651749903851266
0.350525868355352 0.20153725817952 0.651749903851266
0.357017925052828 0.210512061729929 0.651749903851266
0.350197316282127 0.2189445247264 0.657820708538326
0.352349406246954 0.21729316801583 0.677954103659378
0.35011557153565 0.219007249676496 0.674672674357691
0.357544408284327 0.212894291697914 0.692484215900535
0.352333338546381 0.217305497196114 0.702597566190586
0.353166933629416 0.216665857191855 0.719117896314884
0.354414985452535 0.215708193345581 0.724419231953488
0.353475686593945 0.216428942709555 0.73249433106261
0.354192194836841 0.215879146597671 0.749274334721184
0.355774468129902 0.214665025597547 0.757052434558255
0.358023771505961 0.212269573384675 0.771345202051259
0.34987300317291 0.219193378927657 0.772360657501814
0.352732556295378 0.216999166643229 0.795151632968677
0.35509785832939 0.216648359850273 0.801171877874179
0.358011646490197 0.219430263830967 0.806909512227768
0.352012981899311 0.23308208522378 0.812819124920438
0.354131111789594 0.252413212850678 0.816747526723394
0.35360271056628 0.256384419681583 0.816471318349677
0.301212398110863 -0.317655670829321 0.312059956118752
0.30195017429577 -0.317350073927536 0.322924334753704
0.307661830086262 -0.314984228635505 0.328237282348578
0.304889518970072 -0.31613255749895 0.331101851902467
0.304611010716317 -0.316247919394889 0.345655767814355
0.309315948032244 -0.314299070548514 0.350462513292061
0.30461013574175 -0.316248281821222 0.356523365338139
0.302020475193091 -0.31732095434242 0.369025443569213
0.305429956792691 -0.315908700823202 0.379611562423203
0.305588493558646 -0.315843032744609 0.387866246149977
0.307136345394097 -0.31520189152182 0.389101984877513
0.306560402216856 -0.31544045499699 0.406927869043536
0.303941869630977 -0.316525086707577 0.410801680738921
0.308685904960876 -0.314560042933555 0.424419180991155
0.303512228219313 -0.316703050007247 0.437171787868292
0.299177040021468 -0.318498743754235 0.449514986236275
0.304139301174031 -0.316443307884805 0.446629779507143
0.308089142768155 -0.314807229927291 0.455491121337259
0.306229630766924 -0.315577465017597 0.466979735596657
0.307055812806674 -0.315235249211743 0.484258766798802
0.300278013915043 -0.318042705435697 0.492081979877725
0.303735435801203 -0.316610594399603 0.491381698660386
0.301214016406986 -0.317655000509119 0.507961099678805
0.304472155281552 -0.316305435199177 0.511902863975132
0.304710944002994 -0.316206525672214 0.522284032917493
0.302088534688321 -0.317292763176447 0.538066642128745
0.299285176894836 -0.318453951994694 0.542333221784465
0.301496145230339 -0.31753813892415 0.544446135294354
0.307504883835662 -0.315049237901068 0.555568211026934
0.302976915028068 -0.316924783991178 0.571488984708807
0.301124530173827 -0.317692066920539 0.575970224202423
0.300293954984126 -0.318036102428684 0.585549338890055
0.30672090271922 -0.315373973512143 0.592268387679604
0.301615081644882 -0.317488873848186 0.607576731981352
0.304816806765092 -0.316162675880403 0.61129627313458
0.30473769635614 -0.316195444484716 0.620119541377514
0.305684604750515 -0.315803222185441 0.628674540272449
0.304744108538781 -0.316192788471701 0.637798272260772
0.307450373386096 -0.315071816868569 0.648496412204497
0.306387102230707 -0.315512238201612 0.653605015659325
0.303308455032822 -0.316787455624739 0.663967965102058
0.305495053290444 -0.315881736970969 0.676479936567353
0.306861956448532 -0.315315547144439 0.683157778476236
0.303410128498659 -0.316745341096256 0.695227639529931
0.308051788401633 -0.314822702612518 0.701043391673089
0.302953412790421 -0.316934518936757 0.715231007626921
0.306943077417865 -0.315281945738748 0.722592759039683
0.307496499877853 -0.315052710650098 0.722850382007982
0.304523086254715 -0.316284338899349 0.736381024949507
0.308389123127242 -0.314682973994112 0.74367828705632
0.302330416444506 -0.317192572472544 0.758229637754287
0.303433738154502 -0.316735561656602 0.762347246045718
0.301664290136866 -0.317468491023422 0.772111451905996
0.301684481870201 -0.317460127333627 0.78746180007909
0.306133673606424 -0.315617211774883 0.789450744902639
0.306859186118967 -0.315316694652517 0.799073733677388
0.303944131498869 -0.313974945639557 0.803327778833245
0.303610601324009 -0.304860963020859 0.812069762351077
0.303135094915456 -0.30213589051383 0.81349603453471
0.308642640956446 -0.292352695848785 0.816113166154139
0.31254529615051 -0.2726958555497 0.815869574048939
0.309089047453005 -0.26907993360566 0.814102205190129
0.335334963995859 -0.0577550148386783 0.651749903851266
0.330810045242559 -0.0479927324150813 0.651749903851266
0.342052531047303 -0.0238952987884155 0.651749903851266
0.343006815040142 -0.0138648394110976 0.651749903851266
0.336469187271337 0.00246237082077692 0.651749903851266
0.338179295458192 0.0184064486228233 0.651749903851266
0.346868553787463 0.0183214899913919 0.651749903851266
0.341063477004601 0.0270059655043268 0.651749903851266
0.34631622936937 0.0459302066262926 0.651749903851266
0.345716513170304 0.0695702383071968 0.651749903851266
0.348877304930083 0.0855876234533954 0.651749903851266
0.351671283887346 0.0944552624502057 0.651749903851266
0.354231300653385 0.104869215061623 0.651749903851266
0.348449113178715 0.107301774252673 0.651749903851266
0.355134737516153 0.124890843972103 0.651749903851266
0.355748278390159 0.13486780556222 0.651749903851266
0.357130522223858 0.168788505742195 0.651749903851266
0.364069441035275 0.16431617145581 0.651749903851266
0.358607611426926 0.190695301854867 0.651749903851266
0.361739595706361 0.192069233759038 0.651749903851266
0.361927219241399 0.207182501254296 0.661298560769514
0.368054333294168 0.199197490758442 0.674396951501462
0.365417110252873 0.202634386739697 0.680247002627117
0.365996795357375 0.201878926403252 0.699092566482342
0.367942652739554 0.199343035690868 0.708209593309592
0.366531786955471 0.201181711778357 0.718651238557106
0.360395233843625 0.209179023495496 0.72506349835003
0.363340208424559 0.205341057899255 0.736076944084809
0.362867873549533 0.205956616692865 0.747937734042159
0.364036065786916 0.204434198928752 0.759581355114581
0.359729629727351 0.210046455668091 0.762716459115339
0.360711803754648 0.208766461555174 0.777060267093073
0.359766621259576 0.209998247364715 0.785708181220924
0.361412480736448 0.207853321534326 0.797638409848778
0.363279523039457 0.216016551439281 0.80847145945855
0.368085547404857 0.217832153053982 0.812315862564648
0.365522548852919 0.222427656808264 0.81271961020525
0.362950801272052 0.235527308261313 0.816229248273922
0.311090463575367 -0.31356404214391 0.300608953105397
0.30969522320883 -0.314141969626501 0.307232448042837
0.309074897261671 -0.314398917046906 0.323907997435446
0.31263462142809 -0.312924431018867 0.337406146572903
0.314769826129926 -0.312040000272922 0.340696018210789
0.314458293021047 -0.312169041511748 0.349154925472177
0.316155110196962 -0.311466196824616 0.355701261256028
0.313632611933302 -0.312511049816488 0.374347287779992
0.317935880267963 -0.310728577709739 0.377407455291233
0.313443201551597 -0.312589506165444 0.389318501722262
0.311376567017266 -0.313445534218034 0.392371735769038
0.317326288771577 -0.310981078775049 0.403040845179409
0.316091870285003 -0.311492391653833 0.406278201112835
0.316579309754233 -0.311290487614842 0.425743949367077
0.310680783363822 -0.313733737243769 0.425789214188179
0.316522722072536 -0.311313927000064 0.439879917664377
0.312405568590532 -0.313019307810684 0.441368808173117
0.312082481824608 -0.313153134730953 0.460841553542258
0.311526555239789 -0.313383407062069 0.465984873953419
0.309608796911339 -0.314177768571068 0.470845312280925
0.313442567270118 -0.312589768893435 0.486114664373999
0.311492179010892 -0.313397646162301 0.495141794787255
0.309994936642875 -0.314017824257293 0.501446889988497
0.309715339891604 -0.314133637023665 0.504742556783602
0.318021302295381 -0.310693194747457 0.513252092806692
0.310166960465722 -0.31394656965682 0.5203564404577
0.311679624520366 -0.313320003690072 0.543624701931513
0.313196800723998 -0.312691568730016 0.545282938641277
0.312103493171629 -0.313144431546053 0.548775571738954
0.310998920682803 -0.313601960451549 0.56853268576656
0.308931363497195 -0.314458370678811 0.576206662294924
0.309074893836379 -0.314398918465709 0.583146154327436
0.316700508491056 -0.311240285454307 0.586459710743628
0.311988282966661 -0.313192153175474 0.603792891456594
0.309102289730137 -0.314387570714961 0.611249363306942
0.309730043940412 -0.314127546407228 0.619990424606425
0.313498432267704 -0.312566628853773 0.625444947677938
0.317054331933259 -0.311093726985861 0.637984917590352
0.315073123425941 -0.311914370419482 0.640886348038621
0.310596457179712 -0.31376866629289 0.646656682964789
0.317977178032042 -0.310711471615761 0.660397153752101
0.315026889116148 -0.311933521297646 0.670812123597622
0.312370498979697 -0.313033834119119 0.674088997375489
0.315358839757054 -0.311796022840144 0.682315650470731
0.316478018155792 -0.311332443968671 0.692415059848112
0.316988458214623 -0.311121012773524 0.705869833906588
0.312835821466142 -0.312841091234355 0.719600508067312
0.317675247310159 -0.310836535415663 0.717550312452857
0.315899484591131 -0.311572080417442 0.735390074223431
0.313821635964147 -0.312432753499298 0.742413562351187
0.316791202880448 -0.31120271860819 0.752061647289262
0.314343407730204 -0.312216628557333 0.755418548722179
0.313636281828724 -0.312509529696031 0.768386651413509
0.310784281176783 -0.313690867045963 0.780014026806663
0.317157897520898 -0.311050828714866 0.792103414194628
0.316077603745632 -0.311498301047929 0.790229020963215
0.316727942208527 -0.309044079081971 0.802719742376961
0.311386274824829 -0.30738429647669 0.807450322765967
0.313929575280914 -0.299657437116869 0.812523346300075
0.320281359708139 -0.286138168304433 0.815671144715859
0.316848069582203 -0.272102228013396 0.816421364135032
0.31882808790836 -0.279442927234363 0.816752116208733
0.346201522089448 -0.0440451903636101 0.651749903851266
0.347094246942359 -0.0316029715107966 0.651749903851266
0.343514049241756 -0.0228930990530359 0.651749903851266
0.345464601456495 -0.0181120515696481 0.651749903851266
0.345861086081498 -0.00506711044852301 0.651749903851266
0.352029036649704 0.00863811624597134 0.651749903851266
0.34745191932561 0.0233073970894911 0.651749903851266
0.357068500166934 0.0373345458342468 0.651749903851266
0.358385282436948 0.0542106360798295 0.651749903851266
0.35457700249154 0.0632995667018595 0.651749903851266
0.362956941825377 0.0739138000772602 0.651749903851266
0.364140676133912 0.0911321192906211 0.651749903851266
0.358581934012479 0.101365424431677 0.651749903851266
0.367312910649733 0.11344009727496 0.651749903851266
0.364284446107332 0.135817084253827 0.651749903851266
0.369995145392571 0.141527096449117 0.651749903851266
0.36575016855973 0.167538186272194 0.651749903851266
0.366000145826477 0.170157953354432 0.651749903851266
0.368472509289812 0.181032343652978 0.651749903851266
0.377395358865175 0.187024029225957 0.657898342824948
0.376731626938603 0.18788902151343 0.675464186520295
0.374638091576125 0.190617369916749 0.684297642499672
0.368852539926775 0.198157247622059 0.68022744911593
0.375375739471411 0.18965604846339 0.695529735274485
0.376044823052473 0.188784081763999 0.720350896532121
0.370757278541114 0.195674943931225 0.722891639465756
0.375148634743039 0.189952017107697 0.739154371049397
0.372312691138149 0.193647890769533 0.737695732673686
0.371868322334644 0.19422700346916 0.749395708400238
0.370123496462143 0.19650090481739 0.756587217605207
0.372166754930447 0.193838078538226 0.770863964589766
0.377197520877619 0.187281856711052 0.785610010987983
0.376765946870125 0.189126841264994 0.800484003875271
0.376707051796656 0.198368151819807 0.8083980034855
0.371273488644209 0.208165996106769 0.809734589366456
0.379500181169773 0.212970507636066 0.815191283035859
0.379982596102432 0.231080593416937 0.816754821090484
0.318628748741929 -0.310441582190881 0.30376285249085
0.31986306764168 -0.30993031056231 0.310998225598507
0.322063570961955 -0.308798069805845 0.315617407087517
0.323356503768344 -0.307805967569858 0.327109128270683
0.326092652527478 -0.305706446783848 0.326592345733177
0.324916845242813 -0.306608675446034 0.342535132667899
0.318954070309315 -0.310306829585538 0.358015947229072
0.32681300893393 -0.305153697872213 0.356243536374427
0.322477351618124 -0.308480564741262 0.372919098640095
0.319996320102226 -0.309875115585932 0.38338210153902
0.323734432814973 -0.307515972412838 0.386423162552115
0.326519451512961 -0.305378952403844 0.39197655437032
0.327330571452481 -0.304756558183762 0.406616106292509
0.325131836500722 -0.306443706851661 0.412088992782122
0.327373534089149 -0.304723591793172 0.425964180449349
0.319133716140387 -0.310232417845883 0.439665271381339
0.322818945737617 -0.30821845035444 0.444620092524644
0.325316615347881 -0.306301921055428 0.450166635880207
0.321290668901132 -0.309338978758984 0.467195180392086
0.325622125948999 -0.306067494526076 0.46358412202725
0.325648972462024 -0.306046894472099 0.47903157754642
0.320465042563445 -0.309680964385507 0.48340949442304
0.319393532819699 -0.310124798253582 0.499137640590306
0.321680828896256 -0.30909175812229 0.503262937921793
0.319230974452486 -0.310192132133958 0.514941093838582
0.324320571372981 -0.307066212478583 0.522631763127263
0.327151741482186 -0.304893779246229 0.52301826525022
0.318459239169743 -0.310511795354633 0.541887469276874
0.318938163634935 -0.310313418345798 0.554449346257599
0.321295823980069 -0.309336843455373 0.561685914027227
0.322352066297091 -0.308576699549289 0.566502392259209
0.326183255150975 -0.305636924945657 0.580791510332634
0.318581366805323 -0.310461208431635 0.588792062963402
0.326119153105671 -0.305686112175003 0.590442463484437
0.322943665548561 -0.308122749477566 0.601795077484192
0.318087242217767 -0.310665881537302 0.613957917846355
0.323542559824003 -0.307663201737073 0.621014961807086
0.320757514694659 -0.309559818462141 0.630715957349111
0.326424538961076 -0.305451781366404 0.631667531565898
0.326918853114338 -0.305072480776065 0.648033247068765
0.31797053281351 -0.310714224155402 0.660707376533285
0.323563872020639 -0.307646848313422 0.667574785760608
0.326585367252813 -0.305328373477724 0.671471260204548
0.32160285009196 -0.309151593363317 0.682927649783615
0.318272300017835 -0.310589228086692 0.699984408005356
0.326135711248996 -0.305673406664759 0.695442273153553
0.317856123971227 -0.310761613849531 0.714668526857328
0.321800724281972 -0.308999759157096 0.721027361813801
0.32455650103301 -0.306885177283178 0.726656695888204
0.324610043284304 -0.306844092868763 0.733268891494973
0.317946869491031 -0.310724025824504 0.755757329270274
0.325465051983875 -0.306188021618625 0.754983442612301
0.323042636411853 -0.308046806463139 0.765674640603926
0.318627398742749 -0.310442141378851 0.778142543481585
0.326505915104727 -0.305389339255202 0.78457529655626
0.32391606689511 -0.307376599681212 0.796184988703065
0.320000528206211 -0.309173063784881 0.800242390573218
0.319594011605042 -0.304594080799241 0.806547387639614
0.325039654129306 -0.29247056423565 0.812195895076136
0.323563933410368 -0.285986051232218 0.815107021662073
0.327479394695411 -0.27962000025448 0.815908293689229
0.32685745698578 -0.273626579100117 0.816725407215305
0.332434269405338 -0.25712691793873 0.815796256661196
0.354375858931407 -0.042069228108463 0.651749903851266
0.35636459801408 -0.0262416928342351 0.651749903851266
0.361802690314665 -0.0148142708448571 0.651749903851266
0.356644275407542 -0.000240297196393312 0.651749903851266
0.358328813941767 -5.83325749787348e-005 0.651749903851266
0.363636349474036 0.0192400605068421 0.651749903851266
0.3659575584351 0.04017468074488 0.651749903851266
0.365411391403943 0.0508036145724306 0.651749903851266
0.371147210214798 0.0710492897927332 0.651749903851266
0.373055911549926 0.0816078177328954 0.651749903851266
0.373655554257893 0.086845468335262 0.651749903851266
0.369093887998267 0.0968841628375837 0.651749903851266
0.371640837780672 0.114899557495347 0.651749903851266
0.375100601577471 0.135081792057053 0.651749903851266
0.382973921411039 0.153938739233274 0.651749903851266
0.379458996107303 0.160359646622688 0.651749903851266
0.386430639120736 0.174984022614589 0.651749903851266
0.385085197335934 0.177002436617821 0.654656565560965
0.382897472603413 0.179853534998032 0.670376406060237
0.384728687378852 0.17746704943956 0.687837227900612
0.38478348423446 0.177395636786979 0.696757466382352
0.385950242599548 0.175875087681624 0.704075759937238
0.378470153945486 0.185623329006692 0.702482289335531
0.376974632840521 0.187572330056299 0.71668479425753
0.382285779700104 0.18065070871001 0.733307542855254
0.384431707993186 0.17785408051017 0.748012806443549
0.385297246861505 0.176726088295797 0.752727997025717
0.379423839664742 0.184380461579642 0.759714485165799
0.377939347056566 0.186315090012409 0.767761091152326
0.379361409059685 0.184461822728194 0.775868935027991
0.383755306349197 0.178735584294848 0.796837195950366
0.382218185813494 0.184853459661745 0.803598157754852
0.382846899228616 0.190938138058125 0.80867922128704
0.384829881520294 0.199284906823867 0.813368987799987
0.385969199252572 0.206710545787021 0.815588289902689
0.394078825157911 0.238736771184273 0.810889206780497
0.335088579466811 -0.298803629261406 0.285654354888172
0.33548575031781 -0.298498869348595 0.291580140568632
0.330762688177455 -0.302123002394794 0.306743851214737
0.334197192012571 -0.29948761491179 0.320097258914718
0.332650112452599 -0.300674730810708 0.326705905963042
0.329500148624708 -0.303091783067008 0.342575061049365
0.336012478497796 -0.298094696600763 0.347417894153613
0.333296958617408 -0.300178388291379 0.346512111236141
0.332144563534589 -0.301062652139241 0.365373322717805
0.330539594511967 -0.30229418818517 0.374280216883836
0.327950477469541 -0.304280887566862 0.388545129586814
0.337633523438076 -0.296850825069358 0.380210400589164
0.332832906363511 -0.300534468109627 0.39936951630028
0.328885650119292 -0.303563304354287 0.410330207311284
0.330938294228458 -0.301988255132607 0.422067415281387
0.337485232017347 -0.296964613078569 0.429877481861388
0.334585880213775 -0.299189363965097 0.426754296072081
0.330366124026962 -0.302427296769933 0.442483336446095
0.327863860378714 -0.304347351198273 0.456664863800865
0.336277895499601 -0.297891034972209 0.460920492753774
0.33500351070068 -0.298868904821491 0.472599141411063
0.330391555714618 -0.302407782349644 0.476864179040565
0.334515210666161 -0.299243590616209 0.492722592828845
0.328924767976972 -0.303533288166377 0.497693142879839
0.334738375610068 -0.299072350131979 0.50898935374492
0.333341541659933 -0.300144178519643 0.516848240374363
0.332248247977401 -0.300983092268037 0.520125155516618
0.328030338363438 -0.30421960814769 0.546059079564434
0.337958249403044 -0.29660165407274 0.534574914870445
0.333548562439642 -0.2999853258883 0.552644590064032
0.332719485457669 -0.300621499031681 0.566857264645937
0.334818317801233 -0.299011008331219 0.563904850900331
0.327512673774326 -0.304616826157637 0.58562859258362
0.335806978557843 -0.298252382250716 0.59058013845063
0.337699254637016 -0.296800387746459 0.587700807229263
0.337008147700737 -0.297330692750246 0.609207074524475
0.333709545221029 -0.299861799455541 0.609690770881038
0.331022031209041 -0.301924001487513 0.624274349252173
0.334553263588757 -0.29921439158173 0.62825877698911
0.329488334776385 -0.303100848151659 0.648646587405612
0.330096805538142 -0.302633952114766 0.659282868323149
0.335481010832492 -0.298502506083588 0.66390722912029
0.336690532306332 -0.29757440761417 0.669122799947547
0.32935036811642 -0.303206713693291 0.685866504664832
0.332084850489569 -0.30110847157022 0.685352468582125
0.330799631349249 -0.302094654902055 0.699533865769183
0.337331524230263 -0.297082557211861 0.708521102856786
0.32835839831735 -0.303967878891377 0.716580413915271
0.337284979053452 -0.297118272582189 0.721164048412508
0.337258403189941 -0.297138664959489 0.731645318040727
0.336258139796476 -0.297906194056382 0.73675580797328
0.338184864769232 -0.296427765986374 0.745349185390835
0.336951367096812 -0.297374262040031 0.762395211957041
0.328606110936321 -0.303777802313579 0.766038582692866
0.335014082231395 -0.29886079300067 0.776779043962918
0.337064978565794 -0.297287084893737 0.780223264939896
0.338032346073545 -0.296544797697745 0.786434894023062
0.332613212528595 -0.299424761807562 0.800905524599813
0.331241582110131 -0.289806566289888 0.810919504663642
0.339742896942929 -0.28331199520516 0.810901091890773
0.332520060649771 -0.281876202257265 0.814230630800475
0.335751489782376 -0.273151222721027 0.815937224743155
0.335327213046622 -0.249435629676745 0.814307147556748
0.33793907101084 -0.253152120042313 0.815855652251553
0.365685598289919 -0.0268641387559688 0.651749903851266
0.369953553171394 -0.0139980858754335 0.651749903851266
0.370691520385729 -0.00129566328413142 0.651749903851266
0.37048628919025 0.013039324624117 0.651749903851266
0.371111024838796 0.0330805382520187 0.651749903851266
0.377247352914161 0.0323049649387965 0.651749903851266
0.377254703276382 0.0470367367155307 0.651749903851266
0.372692842915659 0.0585025149778392 0.651749903851266
0.376789396789941 0.0755749126678782 0.651749903851266
0.383155103387781 0.0844435273293872 0.651749903851266
0.388068175696077 0.104114998867555 0.651749903851266
0.389918076819533 0.126468618615586 0.651749903851266
0.385923824611521 0.131197964354549 0.651749903851266
0.388680835849129 0.146140620497887 0.651749903851266
0.384105996315902 0.156323200715461 0.651749903851266
0.393608108854681 0.165895162076118 0.656713111498972
0.395567465191537 0.163341679183491 0.67144514301042
0.387843534292966 0.173407701908574 0.669105583602214
0.394311350179107 0.164978680138895 0.693652871028351
0.38941832324165 0.17135539699378 0.694795308877323
0.393887383021447 0.165531204896009 0.713327977356531
0.391883485208037 0.168142735371024 0.725034261265353
0.388735806372826 0.172244870294624 0.729439750645688
0.392064170619463 0.167907261558351 0.742276671634138
0.386646272542614 0.174968003799564 0.748274083709594
0.38905904889095 0.171823612443423 0.759433487006711
0.388995734157405 0.171906125810654 0.767713647937227
0.387604780413443 0.173718852022232 0.776058550301804
0.393238315316244 0.16637708639812 0.790142174478578
0.389740764183072 0.172311892057711 0.800587543020601
0.397038118568368 0.173712019557985 0.809303183442145
0.392193438149312 0.187681919837639 0.812723612073507
0.391183535296678 0.191410823993483 0.813499618755224
0.399197975565566 0.207430041161329 0.816672117580244
0.346039464516843 -0.290400719620254 0.277763819095603
0.340823487358098 -0.294403079662844 0.291352288886077
0.34334402431451 -0.29246900363199 0.297573153384427
0.339057180547755 -0.295758414547472 0.31295936817224
0.341111202501943 -0.294182308068121 0.322445454403436
0.340215186958088 -0.294869844976571 0.327930540341851
0.344901818756973 -0.291273665914563 0.341540428532493
0.344075812293871 -0.291907482965946 0.34598118331555
0.34336564398477 -0.292452414275527 0.353326641579271
0.341786196099357 -0.293664367264112 0.36081614918323
0.343148128864067 -0.292619319497936 0.368727696839588
0.348325300667185 -0.288646735851997 0.379131159140944
0.344026973868598 -0.291944958007709 0.384580974563101
0.342587515213 -0.293049493482229 0.405614189726686
0.344026197005368 -0.291945554115831 0.40614944451673
0.339753880332884 -0.295223817999823 0.425191790988526
0.346438582909405 -0.290094465306242 0.429146631620554
0.342400069304666 -0.293193325786481 0.436480098531649
0.345611417697696 -0.290729171496704 0.447443116314828
0.338965408565447 -0.295828833666237 0.464659536236171
0.34313837471919 -0.292626804116545 0.461969715208906
0.342728235124151 -0.292941515296658 0.472039305689617
0.342803636160619 -0.292883658046454 0.48719945981604
0.342559898844088 -0.293070684267406 0.487301373390275
0.344208031109622 -0.291806027900302 0.491593043558372
0.341712746557639 -0.293720727079727 0.514432182999234
0.342608494246417 -0.293033395703707 0.513055689888863
0.341667966688809 -0.293755087881598 0.525347696756126
0.346024805491183 -0.29041196788626 0.537055558077245
0.346157656588697 -0.290310027653755 0.544386582864566
0.346265623430498 -0.290227181782235 0.55675932294679
0.33781496732084 -0.296711598281309 0.571740888209624
0.347390058222233 -0.289364372620313 0.568394963106554
0.346837008130509 -0.289788742881398 0.578760474795837
0.341672193571395 -0.293751844480516 0.592978845520056
0.343312589807331 -0.292493124177702 0.595114334528402
0.344481437988324 -0.291596235423575 0.605351086086939
0.341782556133372 -0.293667160308247 0.612596539244263
0.339707494557601 -0.295259411057056 0.63117046414983
0.343994184614821 -0.291970118087048 0.635414307633284
0.34429309541282 -0.291740755764744 0.646919982256357
0.34476051499407 -0.291382092105341 0.646488286371243
0.346462838683444 -0.290075853196208 0.657427271741981
0.339287795775022 -0.29558145725975 0.671479275396454
0.342324769922251 -0.293251105034787 0.679957721589456
0.346022933685519 -0.290413404173262 0.688701034783061
0.342466210950193 -0.293142573516839 0.701738645660098
0.338550205139606 -0.296147430460387 0.707793823721516
0.343532113327891 -0.292324677855879 0.714599798653603
0.347609364986604 -0.289196092621365 0.719099921919789
0.341300630706265 -0.29403695469466 0.736497615224914
0.340061613329546 -0.294987686166393 0.751943001082662
0.33943716551381 -0.295466841827992 0.760441559863408
0.347027431770667 -0.289642625683155 0.760623099825301
0.346493844127266 -0.290052061882389 0.770552682743039
0.337631860908067 -0.296852100773502 0.786056813107989
0.346933386918457 -0.289714788836336 0.78627178568495
0.340544995816511 -0.293909987843253 0.800086563913391
0.342196239263274 -0.286441787602426 0.807312413165038
0.345471628078078 -0.278583246652367 0.811114563872755
0.342930026851429 -0.277934684721615 0.812534615175569
0.349822239337248 -0.267821294999195 0.814556929375941
0.342941021394084 -0.263923924566405 0.816521009667075
0.351571851787064 -0.253180328011892 0.816840222896795
0.379020930145964 -0.0252148688714391 0.651749903851266
0.38020249429761 -0.0184280966872451 0.651749903851266
0.377656141351232 -0.00991813200262462 0.651749903851266
0.386167918289111 0.0149095969841381 0.651749903851266
0.379875093041281 0.0303094351988765 0.651749903851266
0.379335549021901 0.0344664025795163 0.651749903851266
0.386264272297352 0.0558181602471327 0.651749903851266
0.385102886927331 0.0624569680884863 0.651749903851266
0.386268590365709 0.0735702027996724 0.651749903851266
0.387746244517906 0.0869436637149437 0.651749903851266
0.388652568287368 0.101542243914006 0.651749903851266
0.393988982808858 0.118210808275639 0.651749903851266
0.39655403046478 0.125799661666918 0.651749903851266
0.399191288109169 0.150677220419916 0.651749903851266
0.394911032528582 0.161952542443547 0.651749903851266
0.400128373927906 0.157397787195047 0.667187377122919
0.402019756650793 0.154932889240828 0.682572318561737
0.402210824430568 0.154683884862294 0.68496353623694
0.39584499249152 0.162979998564499 0.695424568815011
0.398224640117908 0.159878781399369 0.704270913961329
0.396005753697319 0.162770490482131 0.710525675905021
0.404207387201066 0.152081913601313 0.73522107861136
0.403156934966809 0.153450889605953 0.734849023292941
0.399295199152559 0.15848360170229 0.741491132640037
0.401106961129189 0.156122467524798 0.754064807568613
0.403138355248051 0.153475103166858 0.768962021473605
0.402258381521486 0.15462190725475 0.785889907614317
0.398720262199978 0.159232874126676 0.785128357495456
0.40208684833926 0.158235865440383 0.802801783490038
0.396254665869923 0.164316597622345 0.801130504932617
0.405479949353994 0.16761200836071 0.811714725650349
0.402086499108907 0.189110905278437 0.816211032795649
0.399166434713803 0.188630179420503 0.815427083195943
0.40446244310059 0.205043400774335 0.816406181868631
0.357650681782491 -0.281491119249029 0.267938688698256
0.348975007164687 -0.288148198522198 0.288853465534276
0.355812872349599 -0.28290132002565 0.29043327276092
0.351598456773319 -0.286135154835891 0.3081482005234
0.357669130436509 -0.281476963098908 0.310080977103427
0.35785207234102 -0.281336586838344 0.309698667314788
0.353039449193166 -0.285029442462668 0.326264777632782
0.357426961150727 -0.281662786127549 0.33836304642196
0.350040553923451 -0.287330575737245 0.348648168210536
0.353376176961763 -0.284771062158222 0.362226359637702
0.35510768239462 -0.283442431309758 0.364130159952396
0.351482187109835 -0.286224371686566 0.371491307916357
0.352407210809131 -0.285514576037574 0.386515019484367
0.351545265233048 -0.286175970140273 0.39958808483414
0.350886099963402 -0.286681765441211 0.405299050772392
0.350163508793561 -0.287236229147106 0.415381426185072
0.3527403345003 -0.285258961239006 0.413933167884492
0.354827520346116 -0.283657407210582 0.425617119286101
0.358117688402642 -0.281132772465822 0.435562408521103
0.350729472075986 -0.286801950246295 0.456903633477001
0.352479070542129 -0.285459436125096 0.458648442851972
0.352948861340314 -0.285098952966945 0.462021480247412
0.356491056671846 -0.282380930892366 0.466843743900324
0.350023316405742 -0.287343802549789 0.482874253421458
0.351878028623592 -0.285920631810097 0.497574919450332
0.354859183044421 -0.283633111567661 0.504397771612026
0.348313097315957 -0.288656099812738 0.51662518597707
0.357589621009841 -0.281537972827789 0.516845983168796
0.353615989684973 -0.284587047383641 0.527538512295725
0.3566060630418 -0.28229268340091 0.531848304987652
0.350228198170361 -0.287186591242451 0.55068387483126
0.354651885132189 -0.283792176850268 0.550250258598063
0.351650604794106 -0.286095140252171 0.564976428822758
0.356858895410623 -0.282098678300877 0.566472549647639
0.348711984923017 -0.28835002258667 0.590129194373636
0.350495691385736 -0.286981336479193 0.59656831215053
0.358090631740334 -0.281153533773015 0.593603722245177
0.348068276008382 -0.288843957809273 0.618536478502107
0.352625983500254 -0.285346705847443 0.616141314640452
0.348306698766586 -0.288661009592355 0.630329331064657
0.35555526812698 -0.283098986697883 0.639278180653236
0.354503944799067 -0.283905695460483 0.650619276982188
0.354709080595973 -0.283748289227316 0.649659241490394
0.353436750384261 -0.284724582536385 0.668931725213809
0.349191348255548 -0.287982194164572 0.67561442863479
0.354156837519384 -0.284172040243907 0.67827109179171
0.356403791963394 -0.282447891458258 0.694675087196221
0.351068200784014 -0.286542034567022 0.700719891638346
0.348722959261154 -0.288341601680842 0.714505801781764
0.354584102213324 -0.283844188513237 0.724314314015188
0.356876693005059 -0.282085021726345 0.731227836621472
0.350432880109043 -0.287029533266948 0.737594566606797
0.350724311624221 -0.286805910000204 0.750968537395426
0.353364324723907 -0.284780156700196 0.750984544065248
0.355158034514982 -0.283403794768902 0.758849682194398
0.357637184081475 -0.281501476399294 0.772599764478295
0.357588184075888 -0.281539075425991 0.779794608230968
0.357113754691734 -0.281903117896343 0.79515724688289
0.350263485188931 -0.286229806597772 0.800406013143841
0.352847341236058 -0.277575587206298 0.807968053852438
0.354769172655675 -0.272336930784515 0.810545238003793
0.35374240303472 -0.261622037597684 0.815394783383174
0.355785734118939 -0.25350999152153 0.816564220660893
0.359069038785981 -0.241887777185544 0.816590450067711
0.358756688816922 -0.23958392712134 0.816393424830721
0.364347530042868 -0.2224215195234 0.812317850295033
0.388218742250542 -0.0015443624301535 0.651749903851266
0.38652048899178 0.00949938976671607 0.651749903851266
0.392340216521393 0.0330545830840247 0.651749903851266
0.395858989418595 0.0384072130581508 0.651749903851266
0.395236888585977 0.0509756062192346 0.651749903851266
0.396560001142633 0.0593750447929472 0.651749903851266
0.395658932222835 0.0826887663769084 0.651749903851266
0.401603389402923 0.0905036266853807 0.651749903851266
0.400678738697858 0.0927351079978727 0.651749903851266
0.407530260767158 0.117030815858054 0.651749903851266
0.407177518035469 0.130237007593067 0.651749903851266
0.409259677773742 0.140595070553857 0.660501014342034
0.405712837128688 0.148432031623965 0.651749903851266
0.410500281724941 0.137599987669342 0.678852452258134
0.406925989524037 0.146229092376641 0.682573212932901
0.410192734606377 0.138342472094046 0.698678943651344
0.408834952623601 0.141620447771607 0.705551149795035
0.40705029540917 0.145928991422869 0.712807018834297
0.410182928387465 0.13836614640074 0.726936070604755
0.405428013216407 0.14984552709463 0.727439558976008
0.410647609815044 0.137244306196097 0.75020279886671
0.40653782079086 0.147166214596765 0.754702755492533
0.407933240415219 0.143797373614438 0.772209919537852
0.405514630343854 0.149636414850814 0.773717214161474
0.41031914314148 0.138037294894203 0.797141535928226
0.409588345943303 0.143486162140434 0.801620612117656
0.411320487655704 0.14996599615595 0.807323854619778
0.412286155844737 0.157902217360664 0.811301566251064
0.411002577207123 0.160781455243481 0.811895126807473
0.4084619209416 0.186530709613968 0.816663051639262
0.415427704100906 0.195374376856288 0.81562312252758
0.366702037952884 -0.27454576938167 0.26658226124091
0.362706148503877 -0.277611923196876 0.286140872556027
0.36294274140419 -0.277430379079301 0.285706674405014
0.359568970038784 -0.28001916489925 0.300926796542845
0.367185173901271 -0.27417504612961 0.296865267860755
0.367204369509088 -0.274160316821681 0.311848506553104
0.361292361845837 -0.278696759854836 0.322964487631321
0.36248228203928 -0.277783701976865 0.334354624449716
0.361438838385357 -0.278584364452956 0.34206448457193
0.362697362322343 -0.277618665071088 0.350499076314428
0.364289584898216 -0.276396909717751 0.358254916030152
0.359686230878286 -0.279929187492467 0.368736550997152
0.367031781252192 -0.274292748449007 0.369950681179719
0.362466764724602 -0.277795608831199 0.391593368217247
0.359420316434852 -0.280133230821408 0.395323319120073
0.362422075171228 -0.277829900331583 0.396084242620996
0.361957835668053 -0.278186123831256 0.415996012120804
0.362928516702607 -0.277441294076723 0.422878831033218
0.362393422648875 -0.277851886185258 0.435048660364342
0.367898534572546 -0.273627665234377 0.435854361130656
0.368336752989637 -0.273291408416314 0.445915743308408
0.359153820283368 -0.280337720510634 0.464049618469676
0.366723409967198 -0.2745293700583 0.467389491154219
0.362249248769032 -0.277962514694224 0.471061478481811
0.359583011337713 -0.280008390631636 0.49050279620183
0.366743857370732 -0.274513680213734 0.48795310100515
0.366924268857043 -0.274375245611346 0.50374009167086
0.361061294518443 -0.278874064051185 0.512643897559357
0.360129203723833 -0.279589282473137 0.52670609522434
0.36435771483863 -0.276344631775782 0.535198370261736
0.366294897049556 -0.274858179584704 0.534820204769567
0.359005905592111 -0.280451219445154 0.552001782738158
0.361285089804369 -0.278702339888512 0.562240939233128
0.367715933590922 -0.273767779895609 0.560620510096726
0.368189420608459 -0.273404460528595 0.575378371298111
0.365170754022458 -0.275720764867745 0.588320652408051
0.36133400143192 -0.278664808676666 0.594279598482013
0.365508410765008 -0.275461671736514 0.599402552540951
0.36514869180095 -0.275737693805724 0.609808582258161
0.360022296279508 -0.279671315440383 0.62197649948429
0.36587200785056 -0.275182673880019 0.634048445141311
0.361717866747105 -0.278370258460576 0.645510705579654
0.36142228911366 -0.278597063155761 0.647199745106795
0.358899778619645 -0.28053265353528 0.657008780034188
0.36103203134185 -0.27889651847634 0.666306939879182
0.362434158683522 -0.277820628326491 0.67571135554727
0.36219614102744 -0.278003265697617 0.69024920753011
0.366745544304858 -0.274512385783653 0.691768732962674
0.359846563597743 -0.279806159869772 0.703823709679276
0.366170342398838 -0.274953753729679 0.704409805538598
0.364898862496831 -0.275929394573162 0.717072103533157
0.363999425589915 -0.276619556785823 0.732110197957603
0.359271738801015 -0.280247238449661 0.747355494382778
0.368066428267494 -0.273498835871132 0.746398759059067
0.366183509945599 -0.274943649915683 0.758046291759591
0.36730015454986 -0.274086818374853 0.771760827992608
0.365731779552506 -0.275290274837595 0.772724774524035
0.367406317317874 -0.274005356817837 0.786528314814256
0.366530299639322 -0.274677548824536 0.789739120457299
0.360889171807629 -0.273790532237982 0.805712054502771
0.364589674642405 -0.268909289635647 0.807642833524198
0.36513560454003 -0.265741310762493 0.809673994262286
0.361744574015793 -0.255750713056519 0.815330674883539
0.365460504213552 -0.241797437585411 0.816896440782484
0.370510448755179 -0.238957974695801 0.816816229719363
0.370412009098237 -0.212706548821383 0.811416141616198
0.399346518543647 -0.000193330596043312 0.651749903851266
0.400672519293766 0.00347680589985051 0.651749903851266
0.407321076172212 0.0317153431800323 0.651749903851266
0.400975574021506 0.0397066450688635 0.651749903851266
0.409909001303689 0.0517632522207553 0.651749903851266
0.407323486535506 0.0628085982174127 0.651749903851266
0.406476070379882 0.0775782758574149 0.651749903851266
0.412029875038679 0.0945199925626527 0.651749903851266
0.415718704170363 0.105627581027717 0.651749903851266
0.416232630727649 0.123190816003233 0.651749903851266
0.419076206840955 0.116895872944388 0.662807872949443
0.415485800248525 0.125563881234255 0.667443300442814
0.416522925270761 0.123060039939701 0.676009148431526
0.413166135705266 0.131164046834742 0.684528555440625
0.419951033358568 0.114783854900844 0.705711172604785
0.412552274417157 0.132646039081909 0.700985375928304
0.416000864495931 0.124320406142676 0.724125330624895
0.418000903856801 0.11949188399239 0.74121562862333
0.414095476037775 0.128920420799941 0.736970581320234
0.418832029095522 0.117485370169039 0.757586450091213
0.415557722372346 0.125390245867492 0.759421552643675
0.419252071580648 0.116471297904678 0.779795930204723
0.417776764670493 0.120033003855831 0.78597198779526
0.420194139211474 0.114930569980342 0.799580836037736
0.420505724717506 0.118434982541823 0.802523152463848
0.421755001662783 0.13509004247119 0.810885348699545
0.419089516468634 0.142202876964858 0.811094972752933
0.418327333723439 0.146565156047187 0.811875037343403
0.417310543721965 0.160353597903194 0.814461968519341
0.425097019474698 0.195555548046216 0.812184897081012
0.375071052371064 -0.268123998755811 0.254263260898047
0.372982663228689 -0.269726476106159 0.270848641844812
0.375690152968385 -0.267648946159213 0.283431366861482
0.372757814217229 -0.269899008820873 0.28994663791325
0.370374415653567 -0.271727854861882 0.299097882711978
0.372783707692419 -0.269879140058547 0.308713341608474
0.369946388860621 -0.272056291371688 0.313028975633179
0.374036660758263 -0.268917715356453 0.316129339623279
0.374068529835825 -0.268893261353158 0.328121131065888
0.369383915689967 -0.272487892215545 0.349425656557295
0.374186890921282 -0.26880243969796 0.346646798173102
0.36975226285689 -0.27220524949342 0.360571267725038
