ply
format ascii 1.0
element vertex 835
property float x
property float y
property float z
end_header
0.210171807131406 -0.101863536256136 0.81235278669141
0.209604632903295 -0.102298744348253 0.832718499267871
0.197735168331272 -0.111406504847226 0.841465346833333
0.208775726716526 -0.102934786435863 0.848227080817464
0.204994349224268 -0.108128955607263 0.865475595549491
0.211327897714266 -0.103813459055148 0.866033789983544
0.226133964391623 -0.108474144945951 0.872077061629779
-0.266383938564452 -0.0843203275647144 0.265557138825592
-0.268044785430691 -0.0821558697882283 0.261920089644665
-0.266399196621745 -0.0843004428773097 0.277303753846959
-0.267984650695576 -0.08223423890082 0.284011238392543
-0.265773655705827 -0.0851156636706854 0.285968275265214
-0.270214332643868 -0.0793284608124395 0.30283158877153
-0.269501215981386 -0.0802578125407819 0.315126898173628
-0.265157416457973 -0.0859187622942295 0.315782542803535
-0.270269360660067 -0.0792567469055119 0.330607345998081
-0.267263927452417 -0.0831735037181008 0.341799581292468
-0.265005326732085 -0.086116969483954 0.345056146156641
-0.26775620074908 -0.0825319606675172 0.358745021026704
-0.271101199896142 -0.078172672906933 0.374344039089355
-0.266530207407832 -0.0841297062967658 0.372285123896683
-0.265859385645004 -0.0850039382387377 0.386799748596055
-0.264885649179907 -0.0862729363065125 0.394878909399198
-0.264702760043773 -0.086511282069139 0.404216068625395
-0.270633870922552 -0.0787817078827796 0.419524950755068
-0.269624072724894 -0.0800977025154178 0.423389967042109
-0.27093374915554 -0.0783908989607882 0.441159869659446
-0.269322977399518 -0.0804900975830904 0.441455062424349
-0.267223573422716 -0.0832260941135032 0.450600203958142
-0.266049146420068 -0.0847566371819043 0.455098658514654
-0.269787238774156 -0.0798850603800326 0.472846902028606
-0.266491075244248 -0.0841807043252427 0.476546323346959
-0.271664428756144 -0.0774386587658629 0.489392737281325
-0.271153983666809 -0.0781038837577267 0.501644964198216
-0.267398873961765 -0.0829976380031418 0.504290490728491
-0.269900611054139 -0.0797373107481824 0.517801583766387
-0.265591446935493 -0.0853531227633382 0.522354806867328
-0.264663218584213 -0.0865628135025174 0.528459131076154
-0.267492922405963 -0.0828750716843873 0.533877001668162
-0.270091012572446 -0.0794891746584978 0.551429709957315
-0.267909103985886 -0.0823326932897231 0.557888966304599
-0.26706373296399 -0.0834344022549214 0.567822364846571
-0.265418308559561 -0.0855787610878656 0.575741006170342
-0.26657041124976 -0.0840773116298794 0.587879628267351
-0.2684892057899 -0.0815766898999 0.596698848740734
-0.26797208378901 -0.0822506164123141 0.59940306131852
-0.266821091339494 -0.0837506189764731 0.615581730466673
-0.269835268917475 -0.0798224662785989 0.627132529831338
-0.266346239374923 -0.0843694581050448 0.631089817085118
-0.266622668433517 -0.0840092087420947 0.635002569239775
-0.270336071603306 -0.0791698075116361 0.655107278990933
-0.269306852054705 -0.0805111125415979 0.663402032639704
-0.267639275869989 -0.0826843401366647 0.667305321900464
-0.270027005210955 -0.0795725906760403 0.681221614745051
-0.269785720414434 -0.0798870391449484 0.689084695462863
-0.267164342890647 -0.0833032848457436 0.693336439905811
-0.266139094020043 -0.0846394151873905 0.706252982177698
-0.271724339397051 -0.07736058169853 0.712429776838215
-0.270821904519214 -0.0785366577286638 0.726203464179546
-0.269551984191938 -0.080191650120656 0.733600314564322
-0.264494368597334 -0.0867828630896214 0.732277165181992
-0.268587649880611 -0.08144839506308 0.753013549052909
-0.268795591845202 -0.0811773998187457 0.760349301795643
-0.271545084894339 -0.0775941907146594 0.765461155185936
-0.268586174910825 -0.0814503172811289 0.780471821910626
-0.271548745844264 -0.0775894196718296 0.795878867977973
-0.266585091362563 -0.0840581801343987 0.801008441105585
-0.268492336178922 -0.0815726102974988 0.805047255014396
-0.26713161275307 -0.0833459395914897 0.809930438982882
-0.270054460881388 -0.0795368097497044 0.825330184041253
-0.270503178064317 -0.0789520301316811 0.829440763134295
-0.268688683711285 -0.08131672521143 0.836664271840404
-0.265407839117482 -0.0855924051304222 0.855037355619385
-0.265578881743317 -0.0853694980405962 0.857296752294377
-0.265821789949648 -0.0825540147268396 0.864750903815184
-0.262162997170051 -0.0842447261361682 0.86753749214873
-0.252475206473705 -0.0869693746226937 0.871557168709251
0.212626342493665 -0.0999801050297266 0.528915971920346
0.22317554938651 -0.0918854138790727 0.526377625894186
0.211771189889475 -0.100636286701762 0.540313249269691
0.215040683811443 -0.0981275157784021 0.559759763062449
0.2235083593432 -0.0916300398174362 0.563308375224286
0.223908799176377 -0.0913227715263786 0.579579740382583
0.214508696784635 -0.0985357237813276 0.591324342204288
0.212900664042374 -0.0997696107020178 0.601295682239073
0.211585704855435 -0.100778614374247 0.610416513703806
0.216080074532669 -0.097329963226951 0.615285386759604
0.222780086374969 -0.0921888633205756 0.622989450442825
0.214152866720572 -0.098808761792617 0.638063299997633
0.221168245979296 -0.0934256719564903 0.644772538678345
0.21365453327204 -0.0991911464966877 0.658783346454278
0.218344606622643 -0.0955923266391694 0.665818237091766
0.211913906690415 -0.100526776248763 0.682540978444579
0.210692981673036 -0.101463624964897 0.70080483880021
0.217156029657342 -0.0965043538219358 0.7045671163854
0.215677020362919 -0.0976392375690177 0.712880853141962
0.215328492453842 -0.0979066724397168 0.725442537263353
0.215535865732056 -0.0977475493267567 0.738762566069744
0.219079559874023 -0.0950283771744821 0.744151669006595
0.213922329509113 -0.0989856592167029 0.760590287322084
0.222915707750081 -0.0920847973793054 0.759720686705761
0.217897009283213 -0.0959357801574621 0.777959483499474
0.223460042767564 -0.0916671144298887 0.783309252981382
0.220793219542766 -0.0937134398624453 0.804342933626986
0.213341440328859 -0.0994313911617367 0.818097091747942
0.222901462780211 -0.0920957279291287 0.81456122020112
0.214646576270673 -0.098429925130601 0.832010472165918
0.215784755707603 -0.0975565693314827 0.838796107964838
0.220852276132104 -0.0936681241476289 0.847344830880088
0.217371750076093 -0.0974748572116258 0.863241245522159
0.231248242612783 -0.102328875854655 0.872227932240505
0.235972091638999 -0.100105688922071 0.872163383482436
-0.275737594291868 -0.072130406091925 0.267153274048064
-0.278961820361699 -0.0679285128699445 0.283796625493647
-0.273231349361966 -0.0753966080751279 0.284352583464621
-0.277318523983386 -0.0700700984052607 0.298547744200274
-0.273444112351679 -0.0751193299485326 0.304698386724235
-0.273375350043978 -0.0752089427326228 0.308874300076531
-0.277770928921979 -0.0694805128104877 0.320287405525056
-0.272034733461591 -0.0769560682780418 0.332254271801445
-0.275330424572324 -0.0726610400014874 0.338140067348924
-0.274288926251688 -0.0740183470387114 0.345033416195561
-0.272991817996371 -0.0757087714283633 0.350655814024977
-0.273814736125554 -0.0746363236426406 0.368743971140386
-0.277383608836386 -0.0699852781734438 0.369182051750334
-0.273307740152485 -0.075297053658672 0.384458557230646
-0.277256285830472 -0.0701512087452972 0.395548349656748
-0.276226184400659 -0.0714936630652293 0.404643788343274
-0.277612187802265 -0.0696873882654121 0.411785172195514
-0.273719958117742 -0.0747598407472084 0.420170507853671
-0.276934844222584 -0.0705701196045839 0.430202876817052
-0.277311704357124 -0.0700789859152384 0.438269288261992
-0.278263613987642 -0.0688384331320959 0.448910805568636
-0.275365651206019 -0.0726151317586562 0.451995066780427
-0.273588380426036 -0.0749313161335401 0.462150078252561
-0.278868234843941 -0.0680504758912174 0.475819264723999
-0.276648015093233 -0.0709439226036236 0.491241613549374
-0.27844301781391 -0.068604629513718 0.494179114903177
-0.278697961125118 -0.0682723809219161 0.502161253055488
-0.278881619874697 -0.0680330321795206 0.51272442601916
-0.277283110742302 -0.0701162498395753 0.52365737853813
-0.273801986351627 -0.0746529394715204 0.523439648707004
-0.274319546098083 -0.0739784424779768 0.532204222121479
-0.278363645535199 -0.0687080694812354 0.551900241503534
-0.275677466655915 -0.0722087659527078 0.56158839811903
-0.273958558530881 -0.0744488906348353 0.563096409880651
-0.275586522410442 -0.0723272868009226 0.575945782919999
-0.277322348962254 -0.0700651135957489 0.587787210099432
-0.273836251454509 -0.0746082843200421 0.599719659754003
-0.277590017673306 -0.0697162809399902 0.603769082635917
-0.274267372141952 -0.0740464369014076 0.612203068470039
-0.278353506467573 -0.068721282971422 0.61664908684126
-0.275793084179437 -0.0720580902625091 0.629875208106682
-0.27465671649818 -0.0735390334575999 0.637732084565715
-0.277767212507268 -0.0694853561364347 0.654544060821847
-0.274610199868023 -0.0735996551102798 0.658062884439006
-0.276926608502904 -0.070580852603434 0.66998689784082
-0.272790600138411 -0.0759710036463247 0.671549354913725
-0.273898267950286 -0.0745274628492109 0.682310647420274
-0.277573101415066 -0.0697383266369423 0.695183345904139
-0.277593476947485 -0.069711772726109 0.701521067670988
-0.277657736137862 -0.0696280285187723 0.714770722594408
-0.278819490588208 -0.0681140006420689 0.719764890698143
-0.273774573692186 -0.0746886643448397 0.729208177740308
-0.275274354421254 -0.0727341120450205 0.740704755938962
-0.27437295218109 -0.0739088423155381 0.744883911876554
-0.272705012579115 -0.0760825435251993 0.753168212138078
-0.273817513782945 -0.0746327037290516 0.766898981546375
-0.273110470852053 -0.0755541400162782 0.77236939886248
-0.277242825962492 -0.070168749986763 0.780317263056007
-0.276578385101319 -0.0710346661757966 0.793888224172944
-0.273668016376166 -0.0748275325427395 0.796598105204551
-0.27562907271711 -0.0722718341616503 0.811090617878189
-0.276509617111089 -0.0711242863655033 0.819094022753869
-0.272166921192857 -0.0767837978726763 0.821412276510242
-0.273182195629736 -0.0754606664661393 0.833106555153518
-0.278760583260025 -0.0681907701668043 0.852328037025585
-0.275618380848107 -0.072285768076618 0.856186617124033
-0.275522312707773 -0.0686490246424634 0.866085532799425
-0.265414161944095 -0.0751385746594107 0.870135922767248
-0.264773834355769 -0.0699667435933607 0.871805079161736
0.232315652635911 -0.0843252008385058 0.502769499652602
0.229032095082114 -0.0873915283105042 0.515039603225033
0.228499685011065 -0.0878000609266919 0.522093516556914
0.226859537380837 -0.0890585904676352 0.540001501199552
0.229657351755256 -0.0869117519907881 0.548683442106537
0.231784676889809 -0.0850171819031897 0.553401988631795
0.227185361843277 -0.0888085765642609 0.56994012002703
0.230123037862169 -0.0865544184730272 0.581951936996605
0.234931138830175 -0.0809166328678246 0.576305720336774
0.2252072044549 -0.0903264701148322 0.604896913708742
0.234084224936727 -0.0820203525423782 0.603780520934751
0.231492299176749 -0.0853982159573027 0.626362031343888
0.232566518066271 -0.0839982666444927 0.630291358040706
0.230666407916774 -0.0861374759656691 0.642493409511529
0.233187883812895 -0.0831884870376776 0.647929388778307
0.226573533178146 -0.0892780492110357 0.665202358919056
0.232030059277589 -0.0846973933493862 0.669189821115365
0.225541264214622 -0.0900701370456005 0.689663079050257
0.228088969195967 -0.0881152142560066 0.698926710174399
0.230840468042723 -0.0860039149334976 0.707633069456003
0.23299835816606 -0.0834354816694356 0.717813734866613
0.232313508231752 -0.0843279954804152 0.727601613686263
0.224850644166923 -0.0906000684466392 0.746610254871594
0.235016698916351 -0.0808051287926179 0.746898416137274
0.228627985829319 -0.087701612246266 0.758348160864365
0.230566279649886 -0.0862143070871115 0.771352675243734
0.224782154916426 -0.0906526220969325 0.78612339866929
0.225840622004919 -0.0898404317340437 0.795387689189599
0.229058394295556 -0.0873713482142671 0.803080365522379
0.233463967718803 -0.0828286874864645 0.817253773922559
0.223937879707134 -0.0913004572503034 0.825598709206042
0.228137805198647 -0.0880777410731651 0.841084396847779
0.232454051878354 -0.0841448354341734 0.838008255194378
0.228122149946769 -0.0886701144084263 0.862167771870629
0.235423902993782 -0.0853984946177065 0.867175486179813
0.246968453023891 -0.0839000727291521 0.871984444146588
0.249177483140018 -0.0918185353854754 0.871416908066063
-0.281947550517449 -0.0640374335745146 0.271434260376003
-0.280006998367967 -0.0665664103730415 0.277244472510348
-0.283773356975881 -0.0616579962719899 0.290568440368904
-0.285708336814514 -0.0591362814503459 0.306632986177907
-0.282154889970194 -0.0637672235389068 0.309074290833697
-0.285010314309004 -0.0600459620903399 0.319377089723319
-0.285382649917009 -0.0595607248787771 0.330323262644958
-0.281097867803564 -0.0651447616461143 0.334046789919378
-0.280016678976422 -0.0665537943584784 0.346315324921606
-0.281229271628987 -0.0649735128467341 0.348383228988135
-0.280998272020096 -0.0652745573981581 0.356919490140267
-0.28058506471459 -0.0658130596429365 0.36900926294742
-0.282406005448629 -0.0634399634758966 0.384927879949984
-0.282201706293513 -0.0637062113184935 0.387361743475859
-0.282383116383604 -0.063469793086197 0.398566683128633
-0.283543221705467 -0.0619579143955773 0.415278238604196
-0.280989166337942 -0.0652864241541767 0.420178304387822
-0.280167911037379 -0.066356704899451 0.426327686960178
-0.280589321818478 -0.0658075116771347 0.434377271889469
-0.279130776680892 -0.0677083247078702 0.441574107003522
-0.282932981351913 -0.0627531951078617 0.456646175684821
-0.28287197564 -0.0628326992995138 0.45742737819251
-0.281737192494418 -0.0643115774875097 0.472915849115095
-0.285130759168745 -0.0598889952930981 0.478981326627646
-0.279453807703473 -0.0672873424830287 0.494794204738907
-0.282667519272451 -0.0630991520253438 0.505090121177861
-0.280585752406495 -0.0658121634253965 0.503534864229138
-0.280578577291348 -0.0658215142175098 0.516622949084588
-0.282365842399625 -0.063492304980409 0.531768065395638
-0.284824059387495 -0.0602886942298678 0.536998055148383
-0.28269759002582 -0.0630599630565723 0.54846825025013
-0.279433117161952 -0.0673143069217171 0.554642348496006
-0.28168701437921 -0.0643769708804099 0.558123624164822
-0.281625129377077 -0.0644576209853879 0.568741207147316
-0.282409483752132 -0.0634354304625184 0.580902475707228
-0.284664183741495 -0.0604970482282347 0.591851969095733
-0.285129786567185 -0.0598902628121287 0.603453623679368
-0.282405345599145 -0.0634408234084866 0.611267203754138
-0.282391876205133 -0.0634583770645203 0.616834800749834
-0.27936218488133 -0.0674067476695764 0.626092608238533
-0.281446769470276 -0.0646900641414292 0.632516809596849
-0.279784910309258 -0.066855841166156 0.6440506051086
-0.28564862717356 -0.0592140965694402 0.652776901970089
-0.285103614593873 -0.0599243707918067 0.669358312125023
-0.282964016032714 -0.0627127499244031 0.673059161870724
-0.285313364286747 -0.0596510196701072 0.68322740536383
-0.280889586160003 -0.0654161995687004 0.691610547315205
-0.282528711060647 -0.0632800504089247 0.692432635630624
-0.28319617479286 -0.0624101947376537 0.711414481701091
-0.280235941581623 -0.0662680457680637 0.712453831743405
-0.278979645803907 -0.067905282301378 0.726286746936955
-0.281473155752606 -0.0646556768688016 0.727704233669351
-0.283369927545912 -0.0621837557412748 0.745770383259106
-0.281301684676622 -0.0648791423257324 0.753989900949386
-0.282516783091941 -0.0632955952403893 0.761315607306932
-0.279048016035966 -0.0678161804802106 0.767055697478603
-0.280497802445728 -0.065926782045809 0.775665041754779
-0.281320523855439 -0.0648545906298938 0.792984396490938
-0.282813379179013 -0.062909063694231 0.802042414459402
-0.278982544980411 -0.0679015040209978 0.804717142450172
-0.284910140024535 -0.0601765117595673 0.819661397276119
-0.284399142000678 -0.0608424573497287 0.829674722999613
-0.280385406723716 -0.0660732590025333 0.830647126723676
-0.281889467579194 -0.0641131287333779 0.845158360968012
-0.285259266987153 -0.0597215206435401 0.857705115621337
-0.281364202967786 -0.0646799074377702 0.859189491234896
-0.276571300967258 -0.0642933819081408 0.868476987683974
-0.269171103590729 -0.061690932441484 0.872010822545574
-0.260763113194777 -0.0642998986153936 0.871853276935782
0.235326672318761 -0.0804011635896907 0.501482277432676
0.239638631072187 -0.0747817095355822 0.49803649482721
0.239054349629795 -0.0755431599361867 0.514477148362077
0.240803193725614 -0.0732640219373721 0.531573133209585
0.242288286632809 -0.0713286111796897 0.532805345989138
0.235996117311552 -0.0795287258893642 0.546010390188889
0.236557842185342 -0.078796671781286 0.560205857308028
0.241449366674429 -0.0724219129552336 0.564691403307674
0.23578961500534 -0.0797978449343712 0.581037172853227
0.23648059500752 -0.0788973422634038 0.593798033390403
0.24205779970745 -0.0716289875889254 0.606768207375458
0.240129177240666 -0.0741424173222706 0.618377886347304
0.241252231601427 -0.072678824384247 0.616413140586297
0.237919120383228 -0.0770226194943048 0.631350479194882
0.235909914191673 -0.0796410679824087 0.647214643653703
0.235972609717211 -0.0795593615827633 0.653792372651389
0.239617539096516 -0.0748091971334394 0.667711375630101
0.241488622946984 -0.072370753184797 0.679911525428462
0.240512468429835 -0.0736429025193585 0.691727017470204
0.236170173698693 -0.0793018911893375 0.69880045181838
0.235962838854633 -0.0795720952187916 0.719659545842918
0.239817880571604 -0.074548107039873 0.716989077194387
0.238925247127405 -0.0757114095929995 0.731047501076973
0.242852198841211 -0.0705937064816452 0.743716916785051
0.241118452711436 -0.0728531684280338 0.75884730277571
0.235768658100128 -0.0798251565049796 0.765900492770358
0.239161623773427 -0.0754033575503562 0.77131171017777
0.242181604059195 -0.0714676426164634 0.778880157199167
0.238426598912051 -0.0763612605993717 0.795971438363827
0.235671977439039 -0.0799511531955725 0.814423079547061
0.240003749613668 -0.0743058777882293 0.822838231936842
0.242140859089201 -0.0715207424951751 0.827519355516344
0.236063469659028 -0.0794409506012127 0.837802946376318
0.242047767784102 -0.0716420614459725 0.84706058121523
0.235555154163844 -0.0801785583637826 0.858990802680704
0.252185554627474 -0.0794043869950012 0.872170640864105
0.256030433686913 -0.0785222592621042 0.872034582634058
-0.292683392509825 -0.0500462118912363 0.28457352973782
-0.292817414488467 -0.0498715510481509 0.292613079659263
-0.292595134953502 -0.0501612313779812 0.301173428038877
-0.289294854657204 -0.0544622403976052 0.308051581505214
-0.288777399331901 -0.0551366013068507 0.315820690966643
-0.292170117190985 -0.0507151253100017 0.333063368502652
-0.292756427858463 -0.049951030371777 0.337494950696941
-0.292511567357555 -0.0502701387893663 0.34357044266815
-0.29004760512098 -0.053481236893795 0.352043883487304
-0.290924354072453 -0.0523386354146217 0.363092416806764
-0.288981737521267 -0.0548703025938287 0.374074447079386
-0.289766951959145 -0.0538469912152658 0.379716924939807
-0.28769345135815 -0.0565492298090832 0.38680165094482
-0.29041147887541 -0.0530070273845096 0.400158725025589
-0.286458534371215 -0.0581586049598086 0.403680786816417
-0.289841678871621 -0.0537496052068929 0.423573202112429
-0.291125900900806 -0.0520759744740963 0.434075029083009
-0.286675106235326 -0.0578763630114571 0.430285671429675
-0.289173414624866 -0.0546205041290267 0.440807400001286
-0.288562738271814 -0.0554163530469175 0.444863288790361
-0.287220994209747 -0.0571649479524627 0.455803896645585
-0.292292910176803 -0.0505550983752768 0.47723536115013
-0.288620338450327 -0.0553412870327988 0.478849417830327
-0.286261696203587 -0.0584151294542062 0.485909520793752
-0.290323250545305 -0.0531220087829056 0.497041179218958
-0.292357994529589 -0.0504702787953509 0.508915731673754
-0.29197856820976 -0.0509647568024754 0.512626362654036
-0.291189833738319 -0.0519926555780932 0.525214478304004
-0.289384019235312 -0.0543460388570547 0.532599228609812
-0.288805347756401 -0.0551001782109123 0.535725168344212
-0.287967455847978 -0.0561921402056668 0.547961903197705
-0.289646273840379 -0.0540042620015876 0.563244686029315
-0.289981498984763 -0.0535673880878122 0.574532597564244
-0.29122730108731 -0.0519438271782332 0.57695232345639
-0.287746963721704 -0.0564794911391394 0.584020271494298
-0.292395031126979 -0.0504220117619089 0.602293134126899
-0.288080852928865 -0.0560443582526489 0.604019780939406
-0.291376524562461 -0.0517493553591934 0.61223315956827
-0.292819355175698 -0.0498690218953111 0.624500813732801
-0.292735262523925 -0.0499786135727709 0.634334105169677
-0.290389265906035 -0.0530359758898052 0.643486739813682
-0.286433859029252 -0.058190762491539 0.64144715957532
-0.288161850667449 -0.0559387999445827 0.656204015130235
-0.291425143052748 -0.0516859945090622 0.66762760473234
-0.291224115119478 -0.0519479792123501 0.680071883046378
-0.289315297937958 -0.054435598195422 0.68819069327348
-0.289582186975339 -0.0540877816301725 0.696872469209606
-0.290207772380968 -0.0532725028566799 0.708905444187445
-0.292271720920911 -0.0505827127511874 0.715253813362659
-0.287651400290341 -0.0566040318276065 0.719514851916461
-0.287304042735177 -0.0570567170069457 0.730295802225926
-0.289613031912318 -0.0540475837256784 0.736208055776131
-0.29168816824979 -0.0513432133985808 0.758500856958211
-0.292424002903562 -0.0503842550075693 0.755575262644213
-0.288871884874609 -0.0550134653502278 0.772087199749334
-0.288706863474737 -0.0552285254256028 0.775154463801272
-0.292942788661287 -0.0497081602450333 0.788020712531605
-0.292626698043143 -0.0501200975587148 0.796630535908682
-0.287549644811864 -0.0567366421489838 0.804605173283209
-0.291977486888016 -0.0509661660084082 0.816395874108354
-0.286564610918248 -0.0580203633122524 0.820195009486601
-0.290448244488363 -0.0529591135048614 0.835825360402916
-0.292171950424916 -0.0507127361930282 0.839991237642833
-0.290596521050756 -0.0527658757265538 0.850518615218078
-0.292310191793632 -0.0505325765337413 0.854880647765723
-0.285378358906464 -0.0538538638665526 0.867646330288588
-0.281920683432448 -0.0500771187583059 0.871180288563561
-0.268048465002069 -0.0578542042308622 0.872099728191911
0.243565852942561 -0.0696636543493339 0.485315720154651
0.248006165002524 -0.0638769270094576 0.487427594796201
0.249637923405624 -0.0617503780561907 0.501748481362042
0.250460575275066 -0.0606782772669175 0.513130812982152
0.246464757436218 -0.0658857284597567 0.516653767762112
0.246217943713294 -0.0662073823658358 0.535087813767338
0.247315093735223 -0.0647775486194449 0.544165304707691
0.24920343102181 -0.0623166195550839 0.55155785449355
0.246061870497324 -0.066410780940909 0.556950492515899
0.245768411076038 -0.0667932247046285 0.572516241093178
0.244349333483764 -0.06864260262891 0.58969911281899
0.245371498945689 -0.0673104906636885 0.595346922745828
0.247925915908782 -0.0639815096645688 0.608775112769425
0.245515830228015 -0.0671223944744667 0.622258211394426
0.243913131964052 -0.069211071517071 0.631326376909055
0.245529613636319 -0.0671044315870396 0.63656413496627
0.244863034389679 -0.0679731345742715 0.65263861693085
0.250532650968237 -0.0605843463948137 0.653796385018618
0.242995542955044 -0.0704068967954503 0.677401536218778
0.250684231265844 -0.060386803104949 0.684484793058469
0.244901297837186 -0.0679232686786269 0.697760815728437
0.244056910835279 -0.0690236952440088 0.708509325296689
0.247549107649186 -0.0644725757491724 0.714427316735346
0.243786832044337 -0.0693756687770314 0.732510677677877
0.249702779410894 -0.0616658560645414 0.743995196565421
0.243396171979978 -0.0698847868850594 0.749245221109001
0.246053701613652 -0.0664214268373783 0.75776239363518
0.251161617045578 -0.0597646618441661 0.768572606860828
0.243750839448419 -0.0694225752412656 0.783621241865658
0.244675280216085 -0.0682178205771553 0.789480220066684
0.243666392491081 -0.069532628658728 0.806867875224644
0.248583582273458 -0.0631244221712587 0.815428121495647
0.248538325402598 -0.0631834020736591 0.825104403433534
0.245005951845775 -0.0677868809192651 0.844997072432985
0.246360954180413 -0.0660210074965052 0.840445220076668
0.247187568150005 -0.0653591936588716 0.860577893005522
0.248009676679072 -0.0645546931852922 0.861822652290379
0.257251678179177 -0.0670263995168864 0.871486284640578
0.268160788437058 -0.0644204944114999 0.871896609127088
-0.295005561703881 -0.0470199020775115 0.281841535611653
-0.295656867329627 -0.0461711040605658 0.29699765461957
-0.299709421578774 -0.0408897125382619 0.311581653343052
-0.299070287357847 -0.0417226484716247 0.319578897183865
-0.299252303415385 -0.0414854405271774 0.334265366876101
-0.29469793427595 -0.0474208099469728 0.332156351636364
-0.294959093586265 -0.0470804605074165 0.331606203099755
-0.293088128218911 -0.049518750045861 0.352668401917583
-0.299973748142783 -0.0405452354533292 0.364394715981917
-0.296303880359417 -0.0453279002635843 0.368913169459966
-0.297144513087957 -0.0442323663625113 0.377636430898234
-0.298515294487599 -0.0424459292618776 0.3801770852733
-0.29654559979299 -0.0450128853646427 0.397844383412933
-0.298214184234459 -0.0428383437837934 0.406976756725302
-0.294464322377748 -0.047725258900109 0.416182653668729
-0.294116608080517 -0.0481784089947603 0.415057579102502
-0.294972703082808 -0.0470627242662104 0.433478978491041
-0.293119877989284 -0.0494773729395289 0.435063438720644
-0.295050336500119 -0.0469615504269907 0.448918612820793
-0.298492596657455 -0.0424755096500313 0.464811491818211
-0.294653207547237 -0.0474790989546769 0.471022537009578
-0.297236653534771 -0.0441122865943576 0.470169215190253
-0.298239678178103 -0.0428051194295824 0.483193822498417
-0.294196088280239 -0.0480748283818427 0.50078477461033
-0.296430303167402 -0.0451631428525121 0.506802702883887
-0.29407389077785 -0.0482340792674548 0.510313020062899
-0.293756501137965 -0.0486477094992293 0.524152285950719
-0.295330541847582 -0.0465963797085716 0.527005249622913
-0.299295020264121 -0.0414297708460571 0.535688714176942
-0.29480699510058 -0.0472786791131323 0.545457627297433
-0.299699614585465 -0.0409024932607731 0.556885963090094
-0.299925598148068 -0.0406079857481439 0.566842840815591
-0.299779601114583 -0.0407982527865418 0.58438907443393
-0.294699015549565 -0.0474194008037637 0.582130471087566
-0.294867435537341 -0.0471999116024003 0.596174629416187
-0.298443537139778 -0.0425394452582467 0.59829909349534
-0.294605189613229 -0.0475416771446268 0.609030600866023
-0.295053123819757 -0.0469579179213171 0.622979380045484
-0.294771141955505 -0.0473254038414916 0.627781718530022
-0.297241073553435 -0.044106526313886 0.642248972860051
-0.29676043936432 -0.0447329009841952 0.64482597326714
-0.297884592991554 -0.0432678754542137 0.655706513524771
-0.299361441596037 -0.0413432088810057 0.667967857844227
-0.296647097403439 -0.0448806111034237 0.675071447243771
-0.296220774148351 -0.0454362063864868 0.68416493347671
-0.294533853290831 -0.0476346444499804 0.690167725152588
-0.296701975753055 -0.0448090922457841 0.699696806822016
-0.295224612239729 -0.0467344298612613 0.713573595238151
-0.294312716439229 -0.0479228356058597 0.714192034600693
-0.294542700142283 -0.0476231150086995 0.732877685134593
-0.293795426053964 -0.0485969815610634 0.739749185405502
-0.297861165528951 -0.0432984067178981 0.742047630506051
-0.299901917065328 -0.0406388475360279 0.758173089369697
-0.293838562737599 -0.0485407647404507 0.762412878975319
-0.297486595568147 -0.0437865557947222 0.775879715933873
-0.297565228143278 -0.0436840798276803 0.778236194642915
-0.294475839464472 -0.0477102495404681 0.789532539196574
-0.299544963865334 -0.0411040380031768 0.804560993762401
-0.295311782994081 -0.0466208267224189 0.812521661316012
-0.299558652688902 -0.041086198380978 0.82108013329523
-0.294516355682936 -0.0476574477765536 0.822042626032033
-0.294800348562107 -0.0472873410507125 0.832419469750967
-0.298510718135719 -0.0424518932797627 0.846356220452358
-0.294945923591131 -0.0470976239792354 0.853420707415148
-0.291956045439412 -0.0480163906928378 0.865460657481206
-0.293627345870208 -0.043934153147458 0.866981702160922
-0.288567737749723 -0.0454085621410377 0.86992658385901
-0.277498428587553 -0.049316081542004 0.872133893711626
0.252421617517037 -0.0581225972599677 0.474524467361561
0.252441343724583 -0.0580968895657856 0.476867166005988
0.255970152768258 -0.0534980560841556 0.489551646324974
0.254627617729624 -0.0552476818104319 0.502077154376962
0.257302771660869 -0.0517613533309776 0.506416128913845
0.253644074028604 -0.0565294609168994 0.536190935536231
0.258188334498344 -0.0506072653719349 0.533375965055752
0.25512602449396 -0.0545981454691528 0.541626139165637
0.255663797468318 -0.0538973060841417 0.557378969382971
0.252819402945726 -0.0576041931963545 0.572809426735967
0.258436556857206 -0.0502837756957584 0.572566229838841
0.251534350382002 -0.0592789063028336 0.593932853794075
0.258325955209115 -0.0504279145698289 0.598776261247553
0.253304220048723 -0.0569723672465406 0.61661611533918
0.253270374165294 -0.0570164760605924 0.623640221013246
0.253444858101568 -0.0567890841676862 0.636292234704223
0.251306918332406 -0.0595753015204657 0.645025905798373
0.251687379293145 -0.0590794751430549 0.662577976642214
0.258529368615176 -0.0501628210578742 0.662767692859384
0.259079657114378 -0.0494456711233318 0.674579585724097
0.254385584944125 -0.0555631050775539 0.692499502203606
0.257358624170666 -0.0516885649230729 0.693257936227571
0.25163967893215 -0.0591416394637957 0.716785642255269
0.254838229549033 -0.0549732071435584 0.728004850779592
0.257739363665295 -0.0511923755532295 0.731238112894989
0.253777169631039 -0.0563560073507928 0.740355730817609
0.252200705480868 -0.0584104954306703 0.755907371590846
0.258699725498729 -0.049940807644791 0.754004466289623
0.25673008517766 -0.0525076928865785 0.771846208891525
0.257014073391256 -0.0521375922410318 0.78435601050211
0.255669664499192 -0.0538896600206434 0.799288522060515
0.257921519479158 -0.0509549854747936 0.809877953730697
0.256076851230149 -0.0533590039413762 0.821122913177315
0.252508086583522 -0.0580099085785593 0.831809633105682
0.255613529937788 -0.0539628160053599 0.83279533141538
0.255414108616091 -0.0542227069316793 0.84750751400311
0.255814893388991 -0.0538887473959261 0.859518734227365
0.261049120222437 -0.0566700588456894 0.869827532408604
0.268570066579707 -0.0526215854879467 0.871574181373425
-0.305243420081519 -0.0336776652762184 0.297136527149821
-0.303710794354712 -0.0356750220104632 0.306517641897994
-0.305412867720164 -0.0334568368141693 0.307394605509913
-0.30658268161676 -0.0319323056626236 0.324581051389002
-0.302555747179043 -0.0371803087966234 0.325719217728216
-0.300184956309105 -0.0402699836120267 0.342375077711769
-0.303315663887959 -0.0361899660603192 0.353704926960267
-0.303322324686585 -0.0361812855385454 0.354305259426181
-0.306633379921326 -0.0318662343457528 0.364783040480167
-0.302407204624356 -0.0373738932228385 0.379750015277735
-0.302713335700603 -0.0369749354368575 0.381331033607167
-0.302366299315629 -0.0374272020590544 0.395583268201487
-0.302051596810866 -0.0378373303481598 0.404509285875894
-0.304624996043103 -0.0344836111742583 0.413348762508276
-0.305027449469949 -0.0339591236570055 0.428043331797666
-0.305445487493057 -0.033414325898479 0.429828922459544
-0.304798496748772 -0.0342575006524246 0.436802543374217
-0.302275290712704 -0.0375458067795341 0.45021282406638
-0.301890857312671 -0.0380468101406251 0.455421741656011
-0.300240476823998 -0.0401976278683049 0.457202250102186
-0.302694330947089 -0.0369997029138423 0.466919250844895
-0.300161174821078 -0.0403009762506281 0.484458209637728
-0.3029398351703 -0.036679755581013 0.48838970432614
-0.302937438336784 -0.0366828791952674 0.497849057433623
-0.305810986171117 -0.0329379987474904 0.517496786579634
-0.304079340164856 -0.0351947237596293 0.520158904419684
-0.305090313906579 -0.0338771971281394 0.52851464898049
-0.300023876787348 -0.0404799065318267 0.537575736381594
-0.303432804207535 -0.0360373058236648 0.551626295717814
-0.304824293061775 -0.0342238822427935 0.552853721328314
-0.303072554860512 -0.0365067919132544 0.557098850509587
-0.302404267950954 -0.0373777203701272 0.572472019861694
-0.302688935770575 -0.0370067340447672 0.57944723679946
-0.301052561793583 -0.03913929813104 0.586010190866901
-0.303397163275002 -0.0360837539912533 0.594890895076298
-0.303378560331803 -0.0361079978188396 0.613211972478956
-0.302807634326041 -0.0368520430755635 0.612772042136278
-0.303632748716594 -0.0357767330662975 0.631294232625726
-0.303128763345279 -0.0364335395897366 0.638184392938351
-0.304844456083989 -0.0341976052806501 0.64167494303611
-0.301592796455678 -0.0384352506121094 0.650100897331406
-0.305632693781932 -0.0331703539128616 0.668238710870484
-0.306599122879545 -0.0319108789918003 0.670880081710743
-0.303157277819898 -0.03639637880292 0.681149881758707
-0.306884309649026 -0.0315392163578134 0.697799157188107
-0.302080926595607 -0.0377991070285047 0.691994400938019
-0.304651856323321 -0.0344486061755562 0.71369364867113
-0.306020885049357 -0.0326644532036371 0.714199631588786
-0.302312443200321 -0.0374973887150087 0.726064156401559
-0.303788304785432 -0.0355740084504891 0.731553296181217
-0.303124863074585 -0.0364386225214669 0.74163980299565
-0.302423492025107 -0.0373526670689231 0.75102064031091
-0.300186161938174 -0.0402684124056348 0.7602271170649
-0.306248784606473 -0.0323674487183451 0.777186707936308
-0.305909890759783 -0.0328091037780511 0.779679414248976
-0.303236035892481 -0.036293739284414 0.785669730399434
-0.304004128653937 -0.0352927413089888 0.79376270242878
-0.306707981582488 -0.0317690115680695 0.811105452441752
-0.301512738519321 -0.0385395841460663 0.819943219567477
-0.301599188281186 -0.0384269206229278 0.821303724557684
-0.306631747756464 -0.031868361424413 0.835530777017163
-0.300797299366555 -0.0394719626026753 0.836338567501698
-0.301074454895428 -0.039110766485225 0.855758106888592
-0.301686083716327 -0.03699452958284 0.863002054040811
-0.299748843680421 -0.0403026300919843 0.861138755735854
-0.291221804520833 -0.0330290849199755 0.87200474481713
-0.285103856096985 -0.0407801359325599 0.872022691707318
0.264437492975304 -0.0424632034858553 0.450702552573682
0.260058709170852 -0.048169745642004 0.463845180335315
0.2664267067186 -0.0398708096635863 0.470641088960461
0.261695619049503 -0.0460364831550901 0.488059839535615
0.264555134591533 -0.0423098899466837 0.488674713370883
0.259892331423862 -0.0483865733433558 0.51018133067551
0.267326834864438 -0.0386977398251225 0.514373963943558
0.259775144370793 -0.0485392944842852 0.52889805191093
0.267379907194439 -0.038628574618069 0.541133272177004
0.266060987510729 -0.0403474242146201 0.55297299315961
0.267737584618503 -0.0381624403237373 0.562668552436814
0.263060360935095 -0.0442579169024077 0.574929689325923
0.260181492366001 -0.0480097314667271 0.585725869151442
0.267829835922787 -0.0380422160833157 0.590624042337506
0.260025272572269 -0.0482133210656581 0.602928943247897
0.263570902568177 -0.0435925660922829 0.616783366606164
0.261568460708494 -0.0462021991314625 0.623741779382217
0.267621600200089 -0.0383135941606678 0.631854936757251
0.259952752616667 -0.0483078309118359 0.651030010085296
0.265142572754025 -0.0415443256283482 0.665876415183755
0.261857290897823 -0.0458257883002859 0.672219996119483
0.267052313587953 -0.039055502918023 0.681157020684344
0.265963748640703 -0.0404741483772646 0.698236644890803
0.259567899494624 -0.0488093812653001 0.703962614560153
0.265773669052516 -0.0407218649194494 0.712822822714842
0.266081003162799 -0.0403213393089897 0.731613118640445
0.266026231669321 -0.0403927189089968 0.737137362985234
0.26097081666872 -0.0469810640080227 0.746479600590652
0.266151143868899 -0.0402299301611312 0.75621774405826
0.262696658200595 -0.0447319035341796 0.768617987187925
0.267523908910456 -0.0384409079280238 0.779018207836097
0.264894046926884 -0.0418682107920843 0.782689893056547
0.261501961585988 -0.0462888624751824 0.800795259382062
0.264959044591577 -0.0417835041862816 0.81246469391684
0.266491905286395 -0.0397858412357643 0.823035171500545
0.26208323237552 -0.0455313356337744 0.836622975380188
0.261879002903917 -0.0457974926630491 0.84908284136864
0.262708820458511 -0.047689872836999 0.865454877915927
0.265416794357655 -0.0456782348232612 0.86666914995061
0.275128781481923 -0.0435813270974223 0.871448852454569
-0.308155080956165 -0.0284713030334457 0.299459879469411
-0.307167937299543 -0.0308544786372724 0.30823959740231
-0.308195308884491 -0.0283741842232926 0.321745499776513
-0.308796152921446 -0.0269236184004078 0.321889995798087
-0.30713318031485 -0.030938389421106 0.342302624482743
-0.308053567059954 -0.0287163792584478 0.340353177204236
-0.308489804846153 -0.0276632080785873 0.354724895080823
-0.310649426959022 -0.0224494190840965 0.366692145548469
-0.307206775337604 -0.0307607153190495 0.369705728456731
-0.30870035211739 -0.0271549020008473 0.378396799017515
-0.308785363027036 -0.0269496675098289 0.383781724686327
-0.308742860577562 -0.027052277499782 0.394974423663346
-0.308656320426927 -0.0272612039051341 0.408260801667778
-0.308276527991273 -0.0281781039541788 0.410002987915862
-0.309407141976947 -0.0254485603361561 0.425318092454702
-0.307441908963372 -0.0301930525307506 0.434667696954966
-0.30918435462535 -0.0259864165819059 0.444811866655012
-0.30952202052685 -0.025171218982954 0.448434356260199
-0.307224479261858 -0.0307179742650098 0.464929553321193
-0.309980865771402 -0.0240634685705251 0.472696661524528
-0.308863717403256 -0.0267605033120864 0.479616508808049
-0.310588578876552 -0.0225963193500402 0.493926891859999
-0.310003327931158 -0.0240092401198019 0.502447882780229
-0.30769601273487 -0.0295795917593487 0.502616352090416
-0.309251744742304 -0.025823722447586 0.518190769801972
-0.308332025959342 -0.0280441200069811 0.522405123586122
-0.307831507689282 -0.0292524780027746 0.535628292080916
-0.30712148375991 -0.0309666274026746 0.537737938225298
-0.309072912741584 -0.0262554610891117 0.556072606331268
-0.308948828088787 -0.0265550279407764 0.553086639958547
-0.31030875012518 -0.0232718857167442 0.567224449439577
-0.309560314975405 -0.025078768005889 0.5798798995688
-0.307310736972407 -0.0305097297303435 0.583103852397785
-0.310429877066223 -0.02297945941291 0.592413831416376
-0.309080873842562 -0.0262362412911569 0.600090645394102
-0.309976925363181 -0.0240729815574943 0.613257524804773
-0.308407252482923 -0.0278625071135016 0.623030879564076
-0.307442356712339 -0.0301919715691206 0.633885621423512
-0.307736301070401 -0.0294823271133061 0.639831343857298
-0.308767907506459 -0.026991808864342 0.65643499573253
-0.308978436042202 -0.026483548018087 0.658552411056171
-0.310072107119375 -0.0238431924707991 0.662397258116656
-0.309373270682978 -0.0255303328734279 0.674220815471104
-0.31058242394186 -0.0226111786768484 0.693535150651261
-0.308213494071196 -0.028330281298918 0.691172270914356
-0.30751355684034 -0.0300200792544598 0.703713951214358
-0.310285188233155 -0.0233287691560275 0.714566403607832
-0.309763424360336 -0.0245884185741425 0.719652923204386
-0.308555785961062 -0.0275039155761136 0.7253937352522
-0.309860111282273 -0.0243549956958973 0.743648886262385
-0.309008580752475 -0.0264107722497097 0.748316960080888
-0.307349746829142 -0.0304155516051474 0.759480593242918
-0.308883614075278 -0.0267124684966439 0.771337485974711
-0.308538595602228 -0.0275454167735529 0.770488340807854
-0.309452513590085 -0.0253390235723703 0.787444519982169
-0.307215335768343 -0.0307400486110608 0.798755683439218
-0.308962664615226 -0.0265216236109905 0.803865739113555
-0.310191449490165 -0.0235550745006726 0.805150337760116
-0.30806968026177 -0.0286774785480906 0.821457121314365
-0.310249550033396 -0.0234148073812232 0.829554278171192
-0.309002369149387 -0.0264257683861294 0.835077770289096
-0.310126244048711 -0.0237124943617729 0.842379293378225
-0.307555025630047 -0.0299199647399337 0.857477043894497
-0.30747068426414 -0.0270057451368669 0.86395196340063
-0.301508309105548 -0.0298748996103475 0.869299569002025
-0.294893274362946 -0.0267913881779326 0.872122195775919
-0.288708055188477 -0.0272851036255546 0.871805079161736
0.268153709162253 -0.0376201362600593 0.449169394795671
0.270880066442493 -0.0340670782770206 0.451274970186832
0.271975500371847 -0.0326394809860162 0.472806103548423
0.270644841651545 -0.0343736291929061 0.476300874650615
0.273369085970538 -0.0308233248745746 0.48542449759635
0.274743797284764 -0.0290317662095439 0.49839749948194
0.272343475054951 -0.0321599270424318 0.519815824261079
0.268257279260956 -0.0374851610795625 0.531470008984738
0.274481079094253 -0.0293741472213252 0.542065857361346
0.268795863581466 -0.0367832643276586 0.546668197111244
0.269826478537681 -0.0354401407670905 0.565215180236078
0.2723289066021 -0.0321789130198291 0.574401777225425
0.268315174212483 -0.0374097109097733 0.580006573183553
0.268238142370003 -0.0375101007614105 0.586526964178322
0.268708728681589 -0.0368968207400399 0.603264190524772
0.271145416558538 -0.0337212672731044 0.607002235837168
0.268287402473982 -0.0374459037440348 0.623094166174214
0.27376871154984 -0.0303025226799924 0.636105839638829
0.271457438425554 -0.0333146324591286 0.644243396502353
0.269116912512408 -0.0363648652149326 0.656515432083788
0.272161622705221 -0.0323969216387096 0.660968362696661
0.275684039802536 -0.0278064183037594 0.672155249048196
0.273751561685493 -0.0303248728183504 0.679285446211025
0.275345122484729 -0.0282481039516213 0.695344146635518
0.272997237781521 -0.0313079268693469 0.701869108698414
0.273654644277099 -0.0304511780440386 0.715871102859242
0.269564550347644 -0.0357814922302085 0.725460043361112
0.276084922967568 -0.0272839771915448 0.73385630190118
0.275323602306714 -0.0282761495936379 0.744442098733298
0.272906726446503 -0.0314258835376727 0.766523642911708
0.27407828284821 -0.0298990815092529 0.771956295514889
0.273748614379551 -0.0303287138222353 0.782854707116813
0.275029567228685 -0.0286593435678305 0.790883893517979
0.269302139487049 -0.0361234727218464 0.805785111997988
0.267792700834913 -0.0380906114720561 0.828746661156473
0.271962036154058 -0.0326570278962628 0.828715542463629
0.269634941059446 -0.0356897572685759 0.84048698744718
0.269311077051026 -0.0361118250616988 0.853428385893701
0.272023792772161 -0.0368363503683732 0.866483922664686
0.285438383526345 -0.0371803673674301 0.87227844263963
0.286312902307399 -0.03730997400031 0.872175836694527
-0.311456666539337 -0.0205005703412145 0.2983495479679
-0.311278074456989 -0.0209317297685536 0.306440673239562
-0.314374486639966 -0.0134563294817139 0.322696996822954
-0.313944256449913 -0.0144949970414811 0.324598762707036
-0.311036906716312 -0.0215139601989023 0.343003194494398
-0.311970334883789 -0.0192604652574806 0.344989716671934
-0.311672013090951 -0.0199806777756995 0.35373423803721
-0.313687200279289 -0.0151155855348915 0.372088832431562
-0.31217201689773 -0.0187735618041357 0.369019246954448
-0.314278112790034 -0.0136889965372779 0.38010206001899
-0.312503437733209 -0.0179734411282683 0.39743905924944
-0.314239247280512 -0.0137828261774735 0.400953949289063
-0.311468131939413 -0.0204728904168546 0.411444451045902
-0.310982779297231 -0.0216446353481434 0.422737948172538
-0.314344588097225 -0.0135285109490922 0.427307223881799
-0.311718541560052 -0.0198683481145593 0.440129758183899
-0.311824178304384 -0.0196133184537079 0.453745334757855
-0.313865700519115 -0.0146846478350193 0.456747180038411
-0.313734156765101 -0.0150022225500035 0.463139806536581
-0.313360181787763 -0.0159050780122818 0.475285627323132
-0.314109434073327 -0.0140962229828346 0.485482435214627
-0.311610677227277 -0.0201287556496415 0.487081834137864
-0.311447853493719 -0.0205218469154718 0.49797639479439
-0.312029508017413 -0.0191176086757561 0.510228987789532
-0.313634118625854 -0.0152437359825304 0.513248014513259
-0.311320836182296 -0.020828493831367 0.53212929757678
-0.31392481306151 -0.0145419375334598 0.538519735955197
-0.311667006859256 -0.0199927638881541 0.547024396789215
-0.312681896949166 -0.0175426024687758 0.554393862143631
-0.310896057335874 -0.0218540006834087 0.561619265131366
-0.312578885286769 -0.0177912946212163 0.570504826431786
-0.311384955749205 -0.0206736955033201 0.580210537696328
-0.311231420234331 -0.0210443630256346 0.585057638842129
-0.312701084786578 -0.0174962789314633 0.602785443106342
-0.312729453225969 -0.0174277914603425 0.602433001895349
-0.313933872651385 -0.0145200657487165 0.620108971833772
-0.312246892673223 -0.0185927956914464 0.623826247740835
-0.313085575464574 -0.0165680363220387 0.635839122703327
-0.311776112075626 -0.019729360595067 0.647784304299679
-0.313601902258477 -0.0153215131735816 0.649349397649411
-0.312626547449643 -0.0176762279811944 0.666311682559173
-0.313584376666305 -0.0153638236958923 0.668525954349398
-0.313285425174691 -0.0160855564414358 0.678793334943766
-0.31418838528686 -0.013905617892356 0.692874810400899
-0.311927172515621 -0.0193646684320935 0.694047501519561
-0.313320314731836 -0.0160013255993919 0.700424953663154
-0.313616451483901 -0.0152863882362408 0.715521584546999
-0.311152109340007 -0.0212358364623559 0.728949803759157
-0.314404690609812 -0.0133834106480717 0.73082010952913
-0.311202612150543 -0.0211139118922246 0.744418750927921
-0.312020812427837 -0.0191386016860425 0.755854384022318
-0.313775064990733 -0.0149034613568705 0.757983063385657
-0.313558902956623 -0.0154253226712897 0.775938195806211
-0.313921450758905 -0.0145500548500113 0.77544596285074
-0.313677286177727 -0.015139520293343 0.786693556203119
-0.314065804895615 -0.0142015531353812 0.795502939274801
-0.313995208944838 -0.0143719868371977 0.803192705461336
-0.312558732791865 -0.0178399470477308 0.811640465767861
-0.310903476425037 -0.0218360894177286 0.821546958219938
-0.31427588561404 -0.0136943734157682 0.839981627268914
-0.31199881439039 -0.0191917096463919 0.836881318313775
-0.313357509271459 -0.0159115300373883 0.85084673141778
-0.312858616849559 -0.0171159628885055 0.858640272578006
-0.310630843433719 -0.0176740906085408 0.865538306095138
-0.301912637923809 -0.0221539428235614 0.871040328879584
0.281349469639857 -0.0204230863917121 0.422966472051122
0.277841201758302 -0.0249951501096773 0.427628191582089
0.281879362915119 -0.019732516030492 0.443766115869354
0.278516495945364 -0.0241150895909659 0.455626982411101
0.281543574502631 -0.0201701240095527 0.46097983834791
0.280005092826037 -0.0221751123661414 0.482258159425568
0.28312427497773 -0.0181101150435408 0.48636669721752
0.280748661690462 -0.0212060745555678 0.502211888387226
0.280782670235136 -0.0211617537572546 0.502354385588361
0.283864189585558 -0.0164943946363323 0.512500075083571
0.278948164029565 -0.0235525287909886 0.530121502827832
0.281300687078253 -0.0204866610637467 0.537620854295096
0.28036690021855 -0.0217035957921352 0.554721945672642
0.281504985930486 -0.0202204136158731 0.559830089653082
0.283445355803635 -0.0175055488330308 0.576839266171147
0.276705448198945 -0.0264752929655254 0.592279705870609
0.281494114685967 -0.0202345812975649 0.592614314140632
