ply
format ascii 1.0
element vertex 859
property float x
property float y
property float z
end_header
0.419218719036362 0.221484439540607 0.756231302723551
0.420094407175902 0.220343220538464 0.761186492954025
0.421603528055815 0.218376495917078 0.774641106539299
0.420624729524919 0.219652090997441 0.781039138915527
0.425248132913665 0.213626754392351 0.789097290592186
0.422381061251532 0.217363194928194 0.797277004146505
0.420012080674959 0.213566909899571 0.805774813846379
0.414523796133763 0.213522739133366 0.810185476008415
0.412820957828942 0.207412638384537 0.81351686739159
0.406211782739554 0.205477756821671 0.815971919959406
0.401291841713241 0.193092781382956 0.816497684930568
0.400349014933294 0.192278610820508 0.816376259237624
0.257081423082216 0.0343741692397359 0.651749903851266
0.252503268955623 0.0246748445686832 0.651749903851266
0.24628398871286 0.0169062847374014 0.651749903851266
0.233861984445156 0.0115539499130066 0.651749903851266
0.220786345956194 -0.00228965743675127 0.651749903851266
0.224678982105061 -0.0103252318024304 0.651749903851266
0.210476911210846 -0.0188343283977495 0.651749903851266
0.20317033570771 -0.0236515324320345 0.651749903851266
0.191114170899813 -0.041058431529337 0.651749903851266
0.186465341653991 -0.0500743895644918 0.651749903851266
0.178283415725115 -0.0586113352788666 0.651749903851266
0.173574843482326 -0.0563818996266293 0.651749903851266
0.17068988682239 -0.0663339767400476 0.651749903851266
0.148872689346384 -0.0817337867826666 0.651749903851266
0.14613696769159 -0.0869139386634227 0.651749903851266
0.137064566394295 -0.0983509958870071 0.651749903851266
0.137494390316898 -0.108333202994893 0.651749903851266
0.117492059654137 -0.116140097223045 0.651749903851266
0.116291166449793 -0.12120466526987 0.651749903851266
0.103330789504818 -0.138106977687272 0.651749903851266
0.102656040272075 -0.143665078819038 0.651749903851266
0.0864451761163415 -0.156675108232064 0.651749903851266
0.0711256081971764 -0.167618951757198 0.651749903851266
0.0702979663462464 -0.175290425854351 0.651749903851266
0.0581928438748417 -0.182085344170852 0.651749903851266
0.0453335306516801 -0.205609416433761 0.651749903851266
0.0371250866565499 -0.206263382998894 0.651749903851266
0.0348763888633531 -0.225363464015581 0.651749903851266
0.0253429273591998 -0.224016497710717 0.651749903851266
0.0177790648376812 -0.234086693710325 0.651749903851266
0.0051314786741499 -0.256466136876968 0.651749903851266
1.13608933584343e-005 -0.257590145521992 0.651749903851266
-0.0124402860278281 -0.258848213921001 0.659799682003717
-0.0049197437969526 -0.263399979366605 0.666166428240775
-0.00872024825654751 -0.261702699299203 0.680177639972931
-0.00136934217768237 -0.264870603869176 0.696346564725529
-0.00930633240076631 -0.261252981118118 0.709893740763168
-0.00829743928638303 -0.262000892085318 0.715688636634937
-0.00460638720670278 -0.263529775916145 0.727632116623907
-0.00535943710188438 -0.263217852436417 0.741393979336468
-0.00620687171031279 -0.262866833528383 0.746044231503295
-0.0121516804044272 -0.259069668804719 0.754296179872474
-0.00257601898160099 -0.264370781971593 0.767557050547989
-0.00522395729855124 -0.263273970008386 0.775921235649187
-0.00851720080714702 -0.261858503086969 0.780976703072544
-0.012081827930501 -0.261747935046855 0.802834903308013
-0.0103969606661239 -0.263561374676147 0.803580921123073
-0.0144118853884193 -0.272951305225739 0.812890645315034
-0.0231383620622002 -0.279772483971421 0.81654261200892
0.425111612880075 0.213804670764027 0.446582737075173
0.424572775137225 0.214506897782354 0.449643116612397
0.428448846158221 0.209455503680861 0.458502830801741
0.429782854644238 0.207716989974299 0.468303419727679
0.426982155596738 0.211366932034689 0.480295350490288
0.429998496938139 0.207435959465431 0.488906563274022
0.428886641345684 0.208884957884452 0.48971188780448
0.429101974700244 0.20860432999317 0.506242098461181
0.428527692787693 0.20935274875277 0.510653968861065
0.426199508572425 0.212386897494753 0.519379541761339
0.428039200655607 0.209989364093738 0.533529175340576
0.424244066713443 0.214935278940492 0.539291038419532
0.427181533930865 0.211107097130862 0.547419367959222
0.426684402035271 0.211754972030848 0.552346502686184
0.424506103479153 0.214593785978803 0.559473290795706
0.427430985884274 0.210782005015875 0.568661821914113
0.428303281455758 0.209645207294501 0.57654138349688
0.425897359422134 0.212780665933794 0.585270054572925
0.425803959087867 0.212902387619244 0.593931534535879
0.427125029574689 0.211180735041506 0.60965988245906
0.429912743090699 0.207547716055233 0.609710052763389
0.427034024162905 0.211299335603208 0.620311229337878
0.425753189979236 0.212968551209767 0.62690206611998
0.427739873582526 0.210379454730154 0.633003530468188
0.425960025156554 0.212698998358691 0.649048219907094
0.42386393295469 0.215430678899972 0.653099267401138
0.425003141596384 0.213946033293158 0.668803798636891
0.426819526867863 0.211578873920514 0.668018732325416
0.428765605864411 0.20904269439466 0.686174063627857
0.426876374811527 0.211504788237937 0.690842728851079
0.427612582701469 0.210545343436079 0.698924490966986
0.42898892401375 0.208751660516226 0.707541972823255
0.427648858652823 0.210498067695851 0.719873569639985
0.425279358089676 0.213586060950702 0.718433978361634
0.428725557199002 0.20909488683157 0.73304361238322
0.427411027780199 0.210808014923499 0.736125438217965
0.424058515427256 0.215177094084615 0.747314929431684
0.428404492185157 0.209513306903944 0.751546483341518
0.426947464305661 0.211412142605439 0.770926497196036
0.428217293788116 0.209757268604723 0.771642418113572
0.430051950837658 0.207366296987299 0.778827973946226
0.42576803421502 0.212949205825054 0.792435357476817
0.427654606406432 0.21049057707751 0.798441558097758
0.425597169855906 0.210185004685251 0.802358061026898
0.419643616419335 0.206054745941003 0.810576959992063
0.415773667784747 0.198524136394416 0.81496456887285
0.414707822592173 0.192820522152814 0.816261812248572
0.408288953884347 0.182853805408458 0.816431104413243
0.40314437147317 0.184265153274994 0.815576900322083
0.265807719039642 0.0248486712665714 0.651749903851266
0.26244862848081 0.0236536417468143 0.651749903851266
0.24290997197399 0.00326003632645704 0.651749903851266
0.243158311224679 0.00370524602871952 0.651749903851266
0.238288798252807 -0.00988155769764347 0.651749903851266
0.226441755766771 -0.0176600043597572 0.651749903851266
0.212792597325634 -0.0219030591904525 0.651749903851266
0.210471184466689 -0.0311754378191494 0.651749903851266
0.204394546025118 -0.0444991861504275 0.651749903851266
0.188511519549493 -0.0511993418504929 0.651749903851266
0.186794504721251 -0.0596750082141266 0.651749903851266
0.181319956558714 -0.0694494346270462 0.651749903851266
0.165907137769631 -0.0850508543236083 0.651749903851266
0.159185046266502 -0.0914697798414361 0.651749903851266
0.151743933354503 -0.101168777631711 0.651749903851266
0.146996734837977 -0.105951769384849 0.651749903851266
0.133673737183792 -0.119363620636104 0.651749903851266
0.130452266568426 -0.130775242281741 0.651749903851266
0.117545573118324 -0.136863332836001 0.651749903851266
0.1106043563328 -0.148155579394219 0.651749903851266
0.108460179719886 -0.150281130632841 0.651749903851266
0.0906569037481253 -0.166108162537963 0.651749903851266
0.086827271816507 -0.174245501854413 0.651749903851266
0.0805085801447326 -0.182205292275731 0.651749903851266
0.0677237684290943 -0.203869981919302 0.651749903851266
0.060410094110522 -0.207685199177491 0.651749903851266
0.0473381011106994 -0.210752129624481 0.651749903851266
0.0418929318045314 -0.233331326228407 0.651749903851266
0.0272642360586181 -0.235634769611397 0.651749903851266
0.0169264773015346 -0.247836604562266 0.651749903851266
0.014637706793496 -0.253916511303485 0.651749903851266
0.00236972010478083 -0.266419374177129 0.659169090047974
-0.000943031817424804 -0.265047187402175 0.662116056976839
0.00273513359923899 -0.266570733402408 0.670480421028983
0.00406344073389722 -0.267120936232579 0.692630287296634
0.00311469732928277 -0.266727953847176 0.690100580334648
0.000830515783510826 -0.265781814871996 0.697886844267602
0.00828259804254744 -0.268868568411606 0.723522034761925
0.0028221900059552 -0.266606793346761 0.727177382524932
0.00805618632475578 -0.268774785607416 0.733632231379304
0.0041859827887497 -0.26717169481366 0.748337843095214
0.00355332965578853 -0.26690964130571 0.762053982402375
0.0041149252684929 -0.267142261825061 0.76919251976273
0.00640037627436667 -0.268088926627832 0.783464033683866
0.00712563015181402 -0.268389336620034 0.788779636596421
-0.00284666856748528 -0.264985340992026 0.800286374448257
-0.00357138504116967 -0.26845764476763 0.805734535439113
-0.00333387968740809 -0.282398114270063 0.815035057662735
-0.0176899183940393 -0.288348295471865 0.816846245235949
0.429312341844662 0.208330174192953 0.446349420585402
0.432540442634724 0.204123231337259 0.447186871979531
0.433725020799831 0.202579459016378 0.45691836495964
0.433382650642572 0.203025644492221 0.468331892985413
0.433427505238656 0.202967188844516 0.474365786551172
0.4319446613741 0.204899668592766 0.489635254704527
0.430636438018857 0.206604578462661 0.49774647591064
0.433266886307947 0.203176511510375 0.496680469993985
0.429790289243829 0.207707301015476 0.513629985469894
0.431166200412968 0.205914178669079 0.518954716067799
0.432384400023824 0.204326590027027 0.524932355184527
0.43239023584944 0.204318984631014 0.541555399310579
0.434937017257067 0.200999954481517 0.544976143102901
0.430431738601995 0.206871347936522 0.552278960005517
0.432214079470618 0.204548556093482 0.567886926868233
0.433261069344308 0.203184092324982 0.572452226204102
0.431809817812725 0.205075400143314 0.575647978273207
0.432880539240078 0.203680008811944 0.590892717484841
0.433580768453006 0.202767452334853 0.596841997736672
0.432991356867629 0.203535588467961 0.5983889127673
0.432505563298818 0.204168686972799 0.616445153201785
0.432012031383388 0.204811870287293 0.620503181793486
0.429290978765191 0.208358015100162 0.626391466131731
0.43236583386401 0.204350785917573 0.634070639956395
0.434628888329537 0.20140151591798 0.648688887765422
0.432525078162072 0.204143254707859 0.658868016997173
0.433281168736059 0.203157898287673 0.665545031478152
0.433788323721824 0.202496961042262 0.66941103254907
0.433074983512253 0.203426604102842 0.683267928433731
0.430823570297481 0.206360702929082 0.690016049982935
0.433489656184849 0.202886192154491 0.693405276782093
0.431758903456963 0.205141753023584 0.704445758887609
0.432089833779861 0.204710476230142 0.722536308343772
0.431467570524077 0.205521425493666 0.720439188890026
0.435617822632545 0.200112711642228 0.730321530504831
0.433193348656373 0.203272347643766 0.740060889887757
0.432914651423761 0.203635552948645 0.746879400400665
0.434296802403627 0.201834298722589 0.754847136027123
0.433807298556357 0.202472232556453 0.763492368697148
0.431800450252387 0.205087608185629 0.780890468460127
0.430531869931258 0.20674085424761 0.784731487957384
0.431620018843273 0.205322750976043 0.789667179834572
0.431921227386678 0.202544183470039 0.801697373575237
0.426158185890077 0.201789285396451 0.808508863418554
0.428108014514899 0.200849625686265 0.807346845821062
0.419573626783439 0.198307834554819 0.813614819486268
0.415723171805461 0.19016384302688 0.816418324541834
0.408334441963028 0.178374201711678 0.815736549770647
0.402195764487978 0.177350451403997 0.813593225572662
0.27058555322222 0.022190230353576 0.651749903851266
0.258853396266695 0.00828286515719621 0.651749903851266
0.255658352779281 0.00566850610175991 0.651749903851266
0.252258485927088 -0.00445516214116914 0.651749903851266
0.246168387648777 -0.0119928478619658 0.651749903851266
0.232664173596779 -0.028011908700943 0.651749903851266
0.226736441262862 -0.0292747430040968 0.651749903851266
0.213961060416377 -0.0471586010559438 0.651749903851266
0.206942049724632 -0.0493687978460929 0.651749903851266
0.204399716455049 -0.0564668332048791 0.651749903851266
0.190083906437278 -0.0697939766876792 0.651749903851266
0.184545556246706 -0.0726686813604971 0.651749903851266
0.176592458200059 -0.0871554019180423 0.651749903851266
0.168827017608481 -0.0935994766945236 0.651749903851266
0.156656716013742 -0.103039002427441 0.651749903851266
0.15074709636696 -0.116532907711995 0.651749903851266
0.141383864283962 -0.117455030446437 0.651749903851266
0.134001674236888 -0.134418516332402 0.651749903851266
0.128342598640451 -0.147735518461026 0.651749903851266
0.124602168152005 -0.150872062828348 0.651749903851266
0.105344178584567 -0.164031939829481 0.651749903851266
0.10663660228857 -0.169140766396765 0.651749903851266
0.0898396224712162 -0.188196683189354 0.651749903851266
0.084310793317536 -0.189981792399119 0.651749903851266
0.0785966804778806 -0.201869386455352 0.651749903851266
0.0715938924547883 -0.206913579719943 0.651749903851266
0.0575972261423982 -0.225552340982918 0.651749903851266
0.052158117632709 -0.225625084130425 0.651749903851266
0.0458922045964695 -0.235682348462851 0.651749903851266
0.0316561850771081 -0.25146625797102 0.651749903851266
0.0143083986329624 -0.268245922456866 0.651749903851266
0.0156746837926397 -0.271930470583516 0.65731714655954
0.0189204977654352 -0.273274930751987 0.664639067454657
0.019403209652246 -0.273474876562223 0.683067154842622
0.0101705372060065 -0.269650578418045 0.680593399655556
0.0099060273968552 -0.269541014867714 0.700824460253158
0.00984384850356897 -0.269515259526822 0.705546282471473
0.012437607566343 -0.27058962970815 0.720192663122129
0.0158977836412222 -0.272022881566562 0.731133932185652
0.0163052518024876 -0.272191660405193 0.741488308759438
0.0161824153115433 -0.272140779864689 0.753957504634533
0.0112779198516816 -0.27010927132862 0.758454673625599
0.0118633401390851 -0.270351760351351 0.77354074361832
0.0145141888165555 -0.271449777825356 0.781113459703161
0.0176483760422803 -0.272748000681267 0.792300981964729
0.0179336760034748 -0.273531765146613 0.800184451755781
0.00703293075153752 -0.279372403976419 0.811487457529216
0.00683165955535649 -0.282701100915099 0.813354559767783
-0.00571135002159522 -0.293205193655182 0.816855697660731
-0.0120280249807887 -0.307275433061281 0.812069762351077
0.436599431395141 0.198833454196609 0.441096109124162
0.437232136501655 0.198008896848276 0.453194723304034
0.435637101453107 0.200087586994113 0.461283923233334
0.438299891064687 0.196617372009766 0.462833721378377
0.436969312942477 0.198351415179176 0.478664754957158
0.439069534328146 0.19561435338079 0.48072106627118
0.435442570024652 0.20034110528749 0.496808801185268
0.438137417642406 0.196829111496095 0.502677350717927
0.438481101797519 0.196381213584909 0.503845206599497
0.439795199026864 0.194668648733247 0.516634094816566
0.438214548847683 0.19672859215234 0.522467795547726
0.439687690458382 0.194808756627491 0.534676749865693
0.438616520068736 0.196204733057912 0.544933126915815
0.437928928716819 0.197100819553875 0.554651872119978
0.438578846828836 0.196253829780027 0.565073092311062
0.437969644664738 0.197047757497469 0.563126200440153
0.435991879911876 0.199625230704908 0.578267020386536
0.438741513227023 0.196041838802601 0.588973631944732
0.437541085224806 0.197606267033358 0.592524703484462
0.440569806610447 0.193659160476328 0.60394163916408
0.438203592375641 0.196742870904701 0.606797223116789
0.437935516868911 0.197092233706908 0.620833349614963
0.435089569219107 0.20080114489391 0.630108377280228
0.436792674439847 0.198581614957624 0.638608721514519
0.438427822547911 0.196450648454844 0.638679303317612
0.438940370092036 0.195782683490553 0.650358951286711
0.434734778482622 0.201263517183745 0.664063674292847
0.439163103436958 0.195492411744073 0.667645169319419
0.438908041275549 0.195824815224472 0.678074086274342
0.437648690315996 0.197466033348272 0.685290275319735
0.438474015601005 0.196390448496002 0.695038386898813
0.438671085433998 0.196133622089425 0.698268935684736
0.435333283612155 0.200483530113163 0.719612246744012
0.436769053380345 0.198612398521701 0.723220229769696
0.435895003732568 0.199751482199805 0.728597930734085
0.439095707217616 0.195580244207153 0.733251150258799
0.436399699024412 0.199093750489921 0.745050422541584
0.438194366518175 0.196754894276237 0.754495917161553
0.439083337583495 0.195596364628192 0.768837819347071
0.439666760958814 0.194836032482368 0.773126072660917
0.440506820998315 0.193741244924182 0.778946409449601
0.437770569392351 0.197307197443549 0.795297568283475
0.438213373660474 0.196730123686129 0.791504877312639
0.437809178482928 0.193519205957657 0.803183629455612
0.431799047026874 0.192324784228588 0.809538217204063
0.426606550259784 0.187162350148223 0.814251635801705
0.426428112137009 0.183380332909534 0.815194777585581
0.417931726688724 0.176745421709207 0.816814976127436
0.279791940987467 0.0212862112470695 0.651749903851266
0.277690035724256 0.0116471131310721 0.651749903851266
0.266089006079623 0.00737502124164196 0.651749903851266
0.263041154287096 0.00247290113913177 0.651749903851266
0.248423361130189 -0.0104632126626644 0.651749903851266
0.246915334698695 -0.0217889741877912 0.651749903851266
0.234125148314888 -0.0317583215075472 0.651749903851266
0.229065338057585 -0.0346246301451239 0.651749903851266
0.23157921897831 -0.0468405671096854 0.651749903851266
0.216787070136211 -0.0558231603022785 0.651749903851266
0.208659120264084 -0.0645408055073196 0.651749903851266
0.204012406020217 -0.0748139935146247 0.651749903851266
0.189847306165286 -0.089350120001367 0.651749903851266
0.182481765756193 -0.0924176143846398 0.651749903851266
0.171453653912277 -0.101885005530542 0.651749903851266
0.165057410349138 -0.11659002118931 0.651749903851266
0.151894588302131 -0.120843379076949 0.651749903851266
0.151059694679292 -0.125133206307159 0.651749903851266
0.144327694362731 -0.144177912098401 0.651749903851266
0.135530028423649 -0.148932768495114 0.651749903851266
0.124346735036966 -0.156879350939779 0.651749903851266
0.111834469786231 -0.170524888183587 0.651749903851266
0.108735600957836 -0.184104742475198 0.651749903851266
0.0936131736007281 -0.188362819341943 0.651749903851266
0.0955362000108591 -0.190325786576366 0.651749903851266
0.0822596040073971 -0.206321936490765 0.651749903851266
0.0796998407414006 -0.213043415551465 0.651749903851266
0.0646031124777209 -0.226462417817937 0.651749903851266
0.0535820156472096 -0.235923401108889 0.651749903851266
0.0529384821056453 -0.242673200338329 0.651749903851266
0.0288834590845915 -0.262034938869707 0.651749903851266
0.0318475511920258 -0.268827550675762 0.651749903851266
0.0269729200402976 -0.276610353268186 0.656153163142487
0.0244045305181039 -0.275546491494638 0.665982270058102
0.0253529849425921 -0.275939354180553 0.68242425570001
0.0282496012232006 -0.277139171928971 0.688101265708023
0.0286976857522489 -0.277324774617992 0.699248245589059
0.0228207231581459 -0.274890457005957 0.706636048857248
0.0188184269248112 -0.273232651625478 0.717725686330771
0.0260715689143167 -0.276237001407344 0.73408061702528
0.0300131293796185 -0.277869649208985 0.746640792159291
0.0249581725670205 -0.275775817539998 0.752424851628247
0.0247366288575201 -0.275684051130865 0.766424563038327
0.0183744093542299 -0.27304873352581 0.770282526882273
0.0240857453218268 -0.275414446342856 0.779330134622639
0.023577343816772 -0.275203859544332 0.799073733677388
0.0193379909066651 -0.281472560398898 0.809249878501062
0.0203532950940014 -0.28744199610905 0.812934810250687
0.0130512736168468 -0.28790607211934 0.814637664087363
0.443395564489668 0.189976561110623 0.439612262196485
0.445597271248579 0.187107240998857 0.445837986102184
0.441185108123671 0.192857283932346 0.45625845121161
0.441964354990709 0.191841749643517 0.458998898215835
0.441991596953642 0.191806247226216 0.47177569580834
0.442100375883724 0.191664483764504 0.486492499560438
0.439895418620167 0.194538040016398 0.492010580174882
0.440661061443116 0.193540234862999 0.499761207348651
0.446127850163189 0.186415777095043 0.502561575117334
0.442587037121498 0.191030254491458 0.516319918344313
0.440357566335568 0.193935757387688 0.526438109856438
0.440813797272985 0.193341185654172 0.535788969226981
0.443268675426762 0.190141926156938 0.543647567692535
0.441421219084713 0.192549578137111 0.550443292024153
0.441684402920654 0.192206590284391 0.557642718252758
0.442960305262156 0.19054380197968 0.56410402851207
0.444728502662771 0.188239442263007 0.573584820852551
0.442342579106754 0.191348838378866 0.587548308413494
0.445016584810313 0.187864006298869 0.596943946799291
0.44136455203575 0.192623428073123 0.599748755492376
0.441431433494867 0.192536266458629 0.612813576163518
0.442590053114092 0.191026323973385 0.623601692889503
0.444532044788759 0.188495471149114 0.624792252670553
0.442719063965637 0.19085819375828 0.638963938987483
0.443196460564201 0.190236038398123 0.643922301077282
0.443393408805546 0.189979370452868 0.650888024290744
0.44314597270622 0.190301835455665 0.664660088541353
0.442992050874321 0.190502430292429 0.667420947133967
0.445168778527754 0.187665663584713 0.674180519434285
0.443056091446318 0.190418970994112 0.684862245824326
0.445991355963119 0.18659365979982 0.691167830107924
0.443074445298749 0.190395051787935 0.701222887016159
0.442527011594259 0.191108481281574 0.706574772223393
0.440957479650656 0.193153935133961 0.718175941884398
0.444807081734246 0.188137036023288 0.734217565242684
0.439776264901587 0.194693324165721 0.737283376669297
0.441797811280797 0.19205879363196 0.745215543905458
0.442378911224237 0.191301489441513 0.759655314985663
0.441391016752519 0.192588938582745 0.759809640983157
0.443878471144536 0.189347224905285 0.77533224121496
0.441281140368748 0.192732132273952 0.781614635341433
0.443109497880696 0.190349370373758 0.79033255919234
0.441353649947658 0.192637635950942 0.796085845178571
0.442338703883214 0.190481762297453 0.800032711747115
0.440703811547588 0.185606751319658 0.806496206553556
0.437234088074536 0.182244332086969 0.811012896054125
0.426820532567224 0.177792828812039 0.816123193032801
0.422271814170351 0.173783247215597 0.816884691650799
0.41900658317581 0.168192963173893 0.81638989252236
0.276185359773375 0.00306649807024055 0.651749903851266
0.270222906808511 -0.0065159454832493 0.651749903851266
0.271060339160373 -0.0149710668425946 0.651749903851266
0.259140977184223 -0.0264388806167054 0.651749903851266
0.257125387656731 -0.0254242672832596 0.651749903851266
0.248949779284934 -0.032428315269063 0.651749903851266
0.235635031245519 -0.0518095418413796 0.651749903851266
0.224728350841803 -0.0559885539530517 0.651749903851266
0.224746936631287 -0.0628252005034356 0.651749903851266
0.209673697251843 -0.0755560863066321 0.651749903851266
0.20757358128324 -0.0843512907822697 0.651749903851266
0.200527788189782 -0.0856941182930317 0.651749903851266
0.193414819663248 -0.102879860227545 0.651749903851266
0.187850537623675 -0.103476218581313 0.651749903851266
0.173787180671114 -0.119919035470528 0.651749903851266
0.17444625049012 -0.120484740367778 0.651749903851266
0.153263912541902 -0.14274618914598 0.651749903851266
0.146069098909918 -0.144182415510557 0.651749903851266
0.143072935669095 -0.160939123460373 0.651749903851266
0.126059425801162 -0.169154923818394 0.651749903851266
0.129597666193148 -0.174578391212374 0.651749903851266
0.112315525227761 -0.181505314743367 0.651749903851266
0.113404314989656 -0.191134929281464 0.651749903851266
0.10513800391011 -0.19692596030627 0.651749903851266
0.0884898069759581 -0.217442067760435 0.651749903851266
0.0781257590758121 -0.230715781684536 0.651749903851266
0.0729604791955482 -0.240264554660791 0.651749903851266
0.0635997553637149 -0.251730290358569 0.651749903851266
0.0469697743975567 -0.264990003309051 0.651749903851266
0.0486935510042896 -0.264220385819912 0.651749903851266
0.0353924689317852 -0.2800978446081 0.659543487754723
0.0351785595440925 -0.280009240438599 0.662166446642909
0.0346658126643971 -0.279796853726964 0.67817806643133
0.0374798847431275 -0.280962480547469 0.677635413522688
0.0360787734486715 -0.280382121246912 0.690257621377876
0.0340933069646202 -0.279559714101581 0.706193314104953
0.0349341214476681 -0.2799079908639 0.714696132860429
0.0369500591229812 -0.280743019589912 0.72602442771477
0.0379141902876498 -0.281142375794224 0.738448918224155
0.0386874801973571 -0.28146268296247 0.746248543804069
0.0341957508113703 -0.279602147732287 0.76292262328142
0.0318015831436321 -0.278610451013716 0.772938378416409
0.033884674872971 -0.279473295859674 0.780884396697342
0.0360298890663654 -0.280361872672773 0.786179087077748
0.0334864558294653 -0.283532007068907 0.805431147875477
0.0355259683396095 -0.284034180518406 0.805053842981806
0.0297462116447395 -0.285886927778435 0.809326890364412
0.0162211287860235 -0.291694820786842 0.815367248008808
0.0108569184273176 -0.298652779367425 0.816876432479356
0.447468551047315 0.18466854168546 0.44022018290678
0.449167343434676 0.182454632343064 0.449948047057928
0.447786650383035 0.184253986560067 0.458433394515929
0.449377584600509 0.182180640721335 0.46521394928348
0.447603522430074 0.184492643554842 0.476504489064795
0.448370760687908 0.183492759190219 0.479069824377474
0.448314686409707 0.183565836612334 0.492195031466076
0.448826753274928 0.182898498080987 0.501974929247717
0.45025590831557 0.1810359869703 0.508527726315908
0.446515854492624 0.18591012000815 0.51295980532633
0.451474537681122 0.179447838261024 0.524335691387325
0.450906640516774 0.180187936254767 0.529041397959112
0.446607304896767 0.185790939521115 0.547694054410916
0.449661327977289 0.181810859153339 0.546036708960349
0.451594805865265 0.179291101711903 0.558772005661111
0.448763037543105 0.182981534039348 0.568401359588196
0.446235410793314 0.186275601352745 0.577866989209517
0.447844287434651 0.184178872491984 0.588497381836997
0.446870850291019 0.185447480476431 0.592059586864895
0.448035270136026 0.18392997898978 0.598425180369543
0.451039884791285 0.180014288935437 0.606639895903232
0.45003369870527 0.181325576172531 0.620523267078673
0.445011729699562 0.187870333602389 0.62686530200669
0.449914872753733 0.181480433167527 0.630703699258434
0.447252420187486 0.184950208905843 0.643162712154357
0.447194504859695 0.185025685630497 0.654266099053717
0.445945669130405 0.186653200039417 0.658521461725209
0.450146769098663 0.181178219966945 0.669468440148811
0.447615788792229 0.184476657720449 0.675669788954863
0.450941848950369 0.180142051730768 0.683350972238369
0.449083685738527 0.182563657175319 0.68606381978709
0.447069725339267 0.18518830146753 0.69874309245264
0.450345911119567 0.180918693032505 0.715244624231923
0.447998218945055 0.183978265041947 0.72094707231869
0.447617564768658 0.184474343222904 0.730287635961406
0.451330611641067 0.179635406328236 0.739651736337669
0.447705720047702 0.184359457026505 0.749832247912393
0.447237025317921 0.184970271890471 0.749849163850868
0.449495135332224 0.182027445625167 0.763751601469755
0.448820491006694 0.182906659227842 0.774701589784089
0.448508100732483 0.183313774159422 0.778044372885962
0.451035994412502 0.180019358975778 0.783462347656148
0.448059849250873 0.182551066254792 0.800554744926812
0.445567680988023 0.181583858844588 0.804815789862418
0.444772974933354 0.180197055964813 0.806573600347796
0.436039509354452 0.17175738747783 0.815029642737741
0.435388212552385 0.170539607652308 0.81540761700963
0.43251644802719 0.158625010313337 0.81680230415316
0.420162616793439 0.15159872823655 0.813855981087221
0.418257942048389 0.147362292808825 0.812069762351077
0.280638092010205 -0.0164398086377989 0.651749903851266
0.27783379735313 -0.0159948721659598 0.651749903851266
0.267399400838776 -0.0318515289861283 0.651749903851266
0.2622445458484 -0.0324109584510392 0.651749903851266
0.254545717101969 -0.0463847661090774 0.651749903851266
0.244116486458195 -0.0527511221811999 0.651749903851266
0.228520468079891 -0.0639120067991195 0.651749903851266
0.232078713605396 -0.0668365742930276 0.651749903851266
0.216021678515289 -0.0803193695002336 0.651749903851266
0.209301206211151 -0.0899326647292469 0.651749903851266
0.206677376825661 -0.0967745949782466 0.651749903851266
0.199294785663491 -0.108213991328013 0.651749903851266
0.181984613626937 -0.119080461974514 0.651749903851266
0.183676223336735 -0.123626740602153 0.651749903851266
0.174070394901631 -0.131539091967117 0.651749903851266
0.165423021352827 -0.139577524509997 0.651749903851266
0.154623349100417 -0.148648703305503 0.651749903851266
0.149562337399072 -0.159350128867627 0.651749903851266
0.147093613464205 -0.167116472604245 0.651749903851266
0.129966291551845 -0.18749105268265 0.651749903851266
0.123409817848614 -0.187962397060315 0.651749903851266
0.112355346608169 -0.20245768486458 0.651749903851266
0.109210919586341 -0.217612323582688 0.651749903851266
0.100950858341327 -0.215470775587133 0.651749903851266
0.0949193035783789 -0.227220951429975 0.651749903851266
0.0793423235596666 -0.234864670444066 0.651749903851266
0.0616054588636197 -0.263617343561602 0.651749903851266
0.0599569794575611 -0.263296853726046 0.651749903851266
0.0527576885736664 -0.269603051736061 0.651749903851266
0.0415954321546101 -0.282667196101893 0.656608329642937
0.0454643665031759 -0.284269761180999 0.664427992428399
0.0480747084307874 -0.285351000209845 0.678580366395451
0.0474933662952834 -0.28511020041294 0.688691500766138
0.0417539604276935 -0.282732860662624 0.702640900909186
0.042986683703287 -0.283243471362027 0.70434121150394
0.045656470775403 -0.284349333375945 0.719831678836597
0.0504403147787269 -0.286330866442396 0.733899422214662
0.0445997156527611 -0.283911611072039 0.741446854208177
0.0448682670093796 -0.284022848686144 0.757729392809287
0.0438769031803139 -0.2836122123429 0.759437802567439
0.0420109180140209 -0.282839295979835 0.76314481018102
0.0472171106933896 -0.284995771595955 0.786553322717809
0.0447437343423656 -0.283971265566509 0.795099864558496
0.0453637338490806 -0.285420376844484 0.801063411144139
0.034713097151613 -0.286202903777938 0.807812901137425
0.0345422727637744 -0.293991552896841 0.813262961236333
0.0272121972166638 -0.308687046992749 0.816689315394624
0.454028562978681 0.174037371173197 0.431934127148048
0.453648061528355 0.174955982935076 0.444675297465065
0.45277718054497 0.177058475616375 0.452668348355053
0.453549845822243 0.175193096624811 0.461896957038949
0.4552297348977 0.171137485635562 0.465128466285604
0.455145242905416 0.171341467349246 0.477752318330342
0.454660089778159 0.172512730608898 0.488437044860165
0.454807285252591 0.172157369298203 0.49208972992262
0.451682136619109 0.179177290057665 0.502709724337166
0.452978345005938 0.176572821646438 0.511631657599966
0.45297656599234 0.176577116565195 0.520833258435654
0.454408425673523 0.173120301503472 0.527323335883714
0.451632380974974 0.179242132875544 0.535704124253639
0.453442842466313 0.175451425577915 0.547667015306197
0.453680972133927 0.174876529704758 0.557037937067339
0.451789902824447 0.179036846404533 0.568330889321821
0.453023025581559 0.1764649531948 0.573064887708036
0.452665126452772 0.177328998125478 0.578505809273162
0.452957602633299 0.17662289816378 0.593919999676992
0.453120870089536 0.176228735656637 0.595642507481343
0.452056174467796 0.178689834442854 0.605803696328959
0.454476057639621 0.172957023493667 0.614463600283268
0.452608382103809 0.177465991102333 0.624914958409839
0.452783641577739 0.177042877303438 0.629645023042202
0.452641049085877 0.177387126031181 0.639304612176192
0.453207167139075 0.176020396149249 0.651041622763421
0.454233224300014 0.173543275035543 0.656368919679425
0.453481637517992 0.175357766037998 0.660875270856887
0.454473936593623 0.172962144151683 0.675963423442912
0.452734249649725 0.17716211996592 0.677906950169071
0.451029508456404 0.180027811638333 0.694340655507912
0.451221579790132 0.179777499402824 0.699958436036812
0.455103444702903 0.171442377136636 0.710184815702892
0.453018311253415 0.176476334589744 0.723007304324687
0.451711630729334 0.179138852584871 0.727441020561307
0.453715647284075 0.174792816486994 0.733444297383906
0.453980974073411 0.174152260953718 0.7441018016182
0.454134548807702 0.173781498747354 0.748198804009158
0.45239103791359 0.177990706394061 0.763320502564251
0.454913743819019 0.171900355583303 0.773014204988495
0.452599627536525 0.177487126497403 0.779157172153889
0.453096677321558 0.176287142165202 0.780042381157415
0.455268466404532 0.171043979506477 0.791700774289286
0.449580486975434 0.173608063196942 0.805874110458673
0.448364382308851 0.175998886311259 0.806122761579524
0.445864439109708 0.163545893729335 0.81241558621816
0.444911817086433 0.16048602486663 0.813499219008484
0.437023102467831 0.150692040614926 0.816692188923025
0.430461890727313 0.144147333091872 0.816237614527374
0.424667574944445 0.145074969595929 0.814735910020354
0.284741599909729 -0.0228330546365008 0.651749903851266
0.273026936699415 -0.0245578068842533 0.651749903851266
0.275976801851221 -0.031585307583391 0.651749903851266
0.269335926291047 -0.0428865273766793 0.651749903851266
0.259303579999431 -0.0472452298452256 0.651749903851266
0.256238952420905 -0.0576355380169302 0.651749903851266
0.242728223551114 -0.0669265489213133 0.651749903851266
0.238465584655525 -0.0725933950683609 0.651749903851266
0.22473558751683 -0.0823482078684381 0.651749903851266
0.217926083712848 -0.0913758487493528 0.651749903851266
0.206355447614706 -0.106241707883871 0.651749903851266
0.206768981039187 -0.109902026925079 0.651749903851266
0.199237182895286 -0.116023629624986 0.651749903851266
0.190827649363794 -0.1270414355726 0.651749903851266
0.175967745539506 -0.148422485606527 0.651749903851266
0.178272833397536 -0.147070752376218 0.651749903851266
0.166891149143601 -0.153664573842509 0.651749903851266
0.153881370443146 -0.173934091986732 0.651749903851266
0.155877960598949 -0.177410486568529 0.651749903851266
0.137302746837918 -0.189821677412805 0.651749903851266
0.131081763711663 -0.195411572414679 0.651749903851266
0.118696877604524 -0.21529295534126 0.651749903851266
0.114227132996845 -0.214789329009446 0.651749903851266
0.10678580979061 -0.233630728656901 0.651749903851266
0.0878171818252815 -0.249019018228515 0.651749903851266
0.0818168822223481 -0.259086064251532 0.651749903851266
0.0740479112375973 -0.267072528929309 0.651749903851266
0.0621993457297232 -0.279203618797942 0.651749903851266
0.0655633257686018 -0.284919782195145 0.651749903851266
0.0576146027278307 -0.289302553811281 0.656645882655438
0.0575697669731589 -0.289283982233617 0.669626948603662
0.0564589606547849 -0.288823871191378 0.688387665203044
0.0599742236310896 -0.29027994079147 0.687859875135715
0.0506184507932107 -0.286404652795543 0.702697104331205
0.0540217128450207 -0.287814330093711 0.709816845940928
0.0552678567697134 -0.288330499807986 0.717067657692257
0.0560470480676345 -0.288653251411268 0.732779861138903
0.0563290507299181 -0.288770060738611 0.744582700898207
0.0589124849148931 -0.289840154215525 0.749430968824626
0.0522557740820462 -0.287082854307767 0.769515391805068
0.0579984274164479 -0.289461539202881 0.775723798440998
0.0538409264978116 -0.287739445936804 0.783123556213951
0.0484769019617354 -0.285517594225063 0.78979369375015
0.0561015915350686 -0.288992491931305 0.799602147359724
0.052843510724079 -0.295856062706445 0.809626990049641
0.0419801061198692 -0.304603192217668 0.815988643382868
0.032698510731228 -0.313972347554468 0.816417543714586
0.024576239693457 -0.321314092786544 0.812618066960658
0.457678151362136 0.16522648540079 0.428485496278912
0.456482195951115 0.168113777174069 0.443141232850719
0.456541214581816 0.167971293595396 0.444821148658647
0.457666327673591 0.165255030310034 0.458071761265091
0.457888159851353 0.164719480057912 0.463225711386435
0.458314465282422 0.16369028770451 0.473755020199878
0.457688323689702 0.165201927229619 0.483046982585811
0.456670002019013 0.167660373217852 0.501718207828943
0.457186919395086 0.166412424277911 0.499082351094612
0.455370193432239 0.170798388736528 0.508087315468298
0.456772482316077 0.167412963894805 0.525799213284054
0.456932619760514 0.167026357904602 0.526410253527471
0.458341565509287 0.16362486196927 0.534892030187876
0.457010291932159 0.166838840694397 0.537598902135011
0.456573114914771 0.167894279378933 0.550792575561905
0.457615524824764 0.165377679236677 0.55499451723272
0.456091666504439 0.169056598660738 0.566747308775122
0.45870733255094 0.162741822216642 0.573337742195361
0.454523859588729 0.172841619379823 0.586431084686265
0.457514944311194 0.165620502076648 0.592110296063656
0.456328997795067 0.168483630240129 0.605391502049189
0.456036677729488 0.169189353307001 0.610395774551855
0.457107905422314 0.166603180882596 0.619186824806095
0.456597912095813 0.167834413688152 0.627173482697643
0.456015456481827 0.169240585930914 0.640079964113439
0.458458690301233 0.163342097708063 0.642075370486468
0.455660234913295 0.170098166659314 0.654867259729945
0.457030283543647 0.166790576674808 0.664488664327321
0.457733819790244 0.165092089926656 0.664880391132671
0.456799687988104 0.167347283592422 0.681659649451012
0.45657815974253 0.167882100087337 0.685175063473576
0.458020442998539 0.164400120289899 0.698075495820396
0.455216706083494 0.17116893997552 0.710867963415641
0.455710502101366 0.169976810932128 0.713114558872266
0.458132174064479 0.16413037763517 0.724452274893996
0.454854845365335 0.172042549028987 0.732750595383747
0.457069272649916 0.166696448645671 0.738270791782641
0.456234754966993 0.168711152553821 0.749383819357127
0.456327733153306 0.168486683355421 0.759974544459206
0.456401220584259 0.168309269002949 0.771125927263607
0.455754292690669 0.16987109109753 0.776265797857188
0.458552885234476 0.163114691022721 0.778753461583865
0.455450082627554 0.170605519157713 0.79150116970405
0.456323428685416 0.168497075260177 0.794473191213062
0.4535248526483 0.163767132069371 0.806019342728207
0.449591311225092 0.158226747120225 0.811461146536729
0.445523027546181 0.157503240343472 0.813803945399744
0.444285556220427 0.152765732474835 0.815094114489341
0.440072837472135 0.145839581279119 0.816598394657491
0.29783262038884 -0.0149697301408155 0.651749903851266
0.291507331159465 -0.0253347005534199 0.651749903851266
0.284383848924246 -0.0288287959902549 0.651749903851266
0.275144542141346 -0.0465467900066698 0.651749903851266
0.275920296460116 -0.0504741546171291 0.651749903851266
0.269379904095792 -0.0591238086824093 0.651749903851266
0.2623639985414 -0.0611407943338699 0.651749903851266
0.254462118768837 -0.0750165054418062 0.651749903851266
0.248087818536895 -0.0827805559677883 0.651749903851266
0.23081759917884 -0.0895363304586238 0.651749903851266
0.233951361924874 -0.0958983652705458 0.651749903851266
0.218850504697344 -0.10586369444865 0.651749903851266
0.205948745949651 -0.124799715775469 0.651749903851266
0.206347788826223 -0.135483677689523 0.651749903851266
0.199939114516022 -0.134070806148089 0.651749903851266
0.186558756677395 -0.154691883865069 0.651749903851266
0.17575819715903 -0.161300618743746 0.651749903851266
0.168964039841582 -0.165328958399455 0.651749903851266
0.161498196872965 -0.180304837259037 0.651749903851266
0.155627189682208 -0.184029718160711 0.651749903851266
0.150563044529712 -0.193245239050894 0.651749903851266
0.137274338744887 -0.212537599490952 0.651749903851266
0.134316849384328 -0.213689793496237 0.651749903851266
0.121965158196125 -0.224438392079193 0.651749903851266
0.116024964095018 -0.233947436141285 0.651749903851266
0.103767978326453 -0.246685587716558 0.651749903851266
0.0865347515511638 -0.260110554464725 0.651749903851266
0.0886918346499509 -0.275109751056309 0.651749903851266
0.0787296899904782 -0.272015190302653 0.651749903851266
0.0687446077527038 -0.292737345446752 0.655215416443851
0.0609497529088459 -0.290684018248808 0.663553707669625
0.0646552328145336 -0.292198969022571 0.677381461300818
0.066786623613009 -0.292479571944524 0.681107045624101
0.0641638967051116 -0.292015360200637 0.699678656364905
0.0673621750799928 -0.292555344732643 0.703841419922024
0.0662913479760679 -0.292414367669928 0.717110362059946
0.0694492672447013 -0.292830115628822 0.72411324229476
0.0693548728225102 -0.292817688367382 0.739791314977642
0.0671341999074018 -0.292525331231784 0.740243390266167
0.0584948751901837 -0.289667174603772 0.755429349614188
0.0693774233099442 -0.292820657195374 0.767545362156024
0.0674883055619633 -0.292571950125617 0.773372131258939
0.0611648914179328 -0.29077313153706 0.784450240075093
0.070871741965084 -0.29391516472078 0.800681485629982
0.0570330177099191 -0.292911407621084 0.805019391520642
0.055481337708207 -0.299043174932064 0.811190870238857
0.0567743360272558 -0.30195653552261 0.812655831458934
0.0465723018168456 -0.311076179083242 0.816662608900184
0.461443066076887 0.156137177235269 0.433811303336832
0.462462624571115 0.153675745290876 0.433551558085357
0.459645833999295 0.16047607929172 0.447727461090858
0.460263869854533 0.158984008747971 0.455391702737307
0.460682878070223 0.15797243343091 0.463312728535309
0.46232521190378 0.154007488815996 0.471324661349153
0.458440531913565 0.163385935933841 0.482961886534934
0.461377490018574 0.156295491844616 0.490922469114403
0.460052828838763 0.159493506830461 0.499108885967818
0.458854676839884 0.162386101635935 0.509522484784479
0.460878097710109 0.157501131528655 0.510694631435799
0.460768231206051 0.157766372732801 0.525249236665309
0.462838780827362 0.152767623755471 0.532775556263723
0.46080177072998 0.157685401159256 0.540319006645058
0.460548423708528 0.158297034974432 0.551533725780674
0.462561003905811 0.153438236566795 0.557782365319536
0.462643142722852 0.153239935920696 0.567013355289857
0.460760891493183 0.157784092367152 0.574429163302951
0.460470659220921 0.158484775055084 0.588336424602641
0.460564177425492 0.15825900213728 0.590219499858717
0.462544188087138 0.153478833544297 0.598968345999399
0.461962445425578 0.154883284567646 0.608876958206079
0.45975081200733 0.16022263996097 0.618400115431827
0.461324370143374 0.156423734567753 0.625484671259263
0.460885443715932 0.157483396701768 0.633569409535246
0.461356886630039 0.156345232824648 0.643892153579235
0.461767250493749 0.155354526819371 0.648050135261814
0.459106943006176 0.161777077235947 0.663151579536534
0.461010575217102 0.157181302534563 0.671127945765443
0.459212332909474 0.161522643502067 0.673669792121747
0.460311385868502 0.158869294942618 0.685500162837433
0.461523814111277 0.15594223423551 0.693952411774489
0.460812261483013 0.157660074241007 0.698436954646119
0.461231753891905 0.156647329978148 0.704325059964316
0.460052782619129 0.159493618414529 0.718278870908977
0.461122177605747 0.156911870534304 0.719907884658903
0.46117353001 0.156787894863495 0.738550338862604
0.459905375518285 0.159849490636576 0.740837729942237
0.460463898212251 0.158501097573911 0.749505852887075
0.459596574653319 0.160595001872848 0.765208233275834
0.461821500391158 0.15522355598129 0.771688587869789
0.461611722348393 0.155730004977222 0.780873505613081
0.460870467132099 0.157519553373576 0.789723602929567
0.459364355341495 0.159883941355367 0.799952760651548
0.459080670647748 0.155110769936965 0.803725519524332
0.457013429011053 0.154723424704165 0.806302855124891
0.447661787838354 0.152243726255127 0.813823373020969
0.446170279609375 0.14591542827234 0.815358578838798
0.438870579708117 0.135401596068869 0.816762935669919
0.435619627622071 0.12835287499154 0.8158532996508
0.30364867913765 -0.0274692456367824 0.651749903851266
0.294141162537198 -0.0350823389535806 0.651749903851266
0.280577897590739 -0.0516620353879144 0.651749903851266
0.272703009152246 -0.0537800982674113 0.651749903851266
0.274538287510573 -0.0598565615362683 0.651749903851266
0.266679294766001 -0.0784922885480304 0.651749903851266
0.26142782410529 -0.0741103609183719 0.651749903851266
0.251299783837293 -0.0863174768835553 0.651749903851266
0.242616608026457 -0.105017431039948 0.651749903851266
0.238230775044535 -0.101495296728903 0.651749903851266
0.231209003373582 -0.114341424970459 0.651749903851266
0.219350940039769 -0.126108462199292 0.651749903851266
0.208665893229938 -0.1431371576076 0.651749903851266
0.199975220451073 -0.146519148891718 0.651749903851266
0.18657318919474 -0.162706289173276 0.651749903851266
0.190792934612854 -0.167920241520584 0.651749903851266
0.178774847112302 -0.175329695567193 0.651749903851266
0.172183185156803 -0.18442938419602 0.651749903851266
0.167052876498183 -0.188746067276245 0.651749903851266
0.149683247418597 -0.206347536874525 0.651749903851266
0.148312746256972 -0.208790492415773 0.651749903851266
0.129768436264521 -0.227211413937982 0.651749903851266
0.121474135991172 -0.237176015517967 0.651749903851266
0.123664453816256 -0.238443561727049 0.651749903851266
0.117022802576057 -0.255637307443734 0.651749903851266
0.100027109084563 -0.268861261701676 0.651749903851266
0.0863204680391958 -0.277903897316564 0.651749903851266
0.0756442931184254 -0.293645706257714 0.653744732009505
0.0791652251549795 -0.29410924575416 0.653101136713486
0.0816866729957632 -0.294441200659935 0.668436024823531
0.0841913870113278 -0.294770952515825 0.678519500432548
0.0735044745454069 -0.293363993798193 0.688289050344083
0.0728810772269879 -0.293281921984234 0.699408654024229
0.0769089121110696 -0.293812196506592 0.708649704654912
0.0818192823673421 -0.294458659014906 0.725372898172988
0.0814328068745514 -0.294407778551025 0.728760604580885
0.0823789879870135 -0.29453234565765 0.745158725385368
0.0819394060094963 -0.294474473592415 0.757011155298534
0.0758127044050008 -0.293667878024213 0.756561925930582
0.0735570776028622 -0.293370919122088 0.767910566127337
0.0855940098670294 -0.294955611317951 0.781040774734455
0.0791122125847061 -0.29410226651688 0.790808247620308
0.0795441743213883 -0.294668404535883 0.799985740500447
0.0713954580032495 -0.297753103608227 0.806294954262736
0.0676731389861133 -0.305423023021579 0.813028139359061
0.0539113590603253 -0.321684143472068 0.816514501771003
0.0567086032689198 -0.321583957623668 0.816628056687891
0.463772329983113 0.15051383672252 0.431383724248819
0.462907785791375 0.15260103103548 0.433894862879153
0.464224577373846 0.149422014938264 0.441220205939931
0.466339941742285 0.144315073590623 0.446343860897785
0.4659485544538 0.145259966090623 0.462017364368148
0.463693540768988 0.150704050711828 0.470473230076719
0.463844172991175 0.150340392358093 0.476683926962551
0.463948197946423 0.15008925390031 0.484680532989964
0.463623214899419 0.150873832379924 0.49654043603423
0.462835360904082 0.152775880180637 0.506657746368018
0.463962953797801 0.150053630123787 0.506512468140262
0.464587507001757 0.148545825308375 0.525099211795634
0.463514627907751 0.151135984567908 0.523842465531748
0.46470798551608 0.148254964445121 0.53609715416144
0.465887034115342 0.14540848932609 0.543589359030866
0.462726989965447 0.153037510770455 0.556861549156056
0.464328080850281 0.149172135441701 0.562283988408979
