ply
format ascii 1.0
element vertex 939
property float x
property float y
property float z
end_header
-0.5 0.171856851655364 0.81751270274125
-0.5 0.174092778814695 0.825109762730417
-0.5 0.177526123681506 0.828824325064362
-0.5 0.171438351157408 0.845423157036977
-0.5 0.178045001914228 0.848069673447753
-0.5 0.176270644761998 0.863451740759805
-0.5 0.174261886641663 0.864725820351513
-0.5 0.174055079314283 0.878150723882141
-0.5 0.175323899564592 0.880338094826203
-0.5 0.175347548332033 0.895672396351172
-0.5 0.172122631380548 0.894894850165826
-0.5 0.173872071344274 0.913081094554934
-0.5 0.174664105069396 0.918230540804714
-0.5 0.172388673115683 0.926905414737764
-0.5 0.176946027212625 0.928375312660573
-0.5 0.179063500996614 0.941515635546209
-0.5 0.170966255632772 0.950816157937139
-0.497630225066612 0.175079585370204 0.955555555555555
-0.483119976748044 0.17227814100304 0.955555555555555
-0.469499831074658 0.173889744769501 0.955555555555555
-0.464727415623728 0.17839191453696 0.955555555555555
-0.452729422133347 0.178644858345204 0.955555555555555
0.111080844557686 0.221446726717026 0.512286296216203
0.111111111111114 0.213613371149564 0.527458224331985
0.111111111111114 0.213598636016439 0.531077478902344
0.111111111111114 0.21585226149264 0.544628546766142
0.111002370469412 0.223021892969794 0.554583027659491
0.111111111111114 0.217932005186997 0.566799048372346
0.111111111111114 0.212973523586803 0.575027151174995
0.111111111111114 0.218382159963581 0.588400381253828
0.111111111111114 0.215813927618774 0.591761323669612
0.111111111111114 0.219621993891124 0.608827648335243
0.111050405775285 0.222057707282305 0.614802332634577
0.111034517002048 0.222376633694212 0.622730680131426
0.111111111111114 0.219277650307137 0.637391902672633
0.111111111111114 0.215511312025509 0.645387332652789
0.111111111111114 0.21691814038148 0.659840974995526
0.111111111111114 0.215491778883485 0.665240277096483
0.111111111111114 0.213448648496933 0.67475294572929
0.111111111111114 0.218917091949644 0.684527194294459
0.111111111111114 0.220751286338506 0.702984693962491
0.111111111111114 0.217650967766518 0.713095092518216
0.111111111111114 0.21606642556598 0.715738111340634
0.1110460174964 0.222145790737102 0.730504741776512
0.111111111111114 0.217767143006352 0.734881914263217
0.111111111111114 0.219603416613753 0.745978176201196
0.111111111111114 0.214544494876827 0.760463274847874
0.111111111111114 0.217458563625399 0.768068443405795
0.111111111111114 0.216492764191729 0.782897816300157
0.111044152462509 0.222183226513809 0.797711877740728
0.111095333586466 0.221155896588607 0.802777818577621
0.111111111111114 0.21716296473724 0.814070920551419
0.110995885703437 0.223152058031235 0.814360696748209
0.111111111111114 0.219033817448612 0.824199625855646
0.111111111111114 0.217417566394573 0.846221978257897
0.111111111111114 0.218412190110752 0.860919921987785
0.11105857211538 0.221893788928997 0.865307661446441
0.111111111111114 0.220245456485519 0.869459706936064
0.111111111111114 0.213427451778505 0.88624671679764
0.111111111111114 0.213405565100785 0.898550581298143
0.111029124675659 0.222484870830033 0.906195749618172
0.111111111111114 0.219671386104138 0.917723409077299
0.111111111111114 0.218379907952119 0.928666790493408
0.111111111111114 0.215353326927264 0.93614417888834
0.111111111111114 0.218373107022525 0.94186562981561
0.111111111111114 0.214921960460796 0.953884600376918
0.129840164883197 0.219032565412723 0.955555555555555
0.157121294457781 0.224399762159089 0.955555555555555
0.156677258811108 0.223537331651533 0.955555555555555
-0.5 0.185286457999095 0.49682923848564
-0.5 0.180147615802549 0.502685250151365
-0.5 0.183066581297472 0.508910071580362
-0.5 0.185722012213266 0.517259747518548
-0.5 0.185609247825886 0.520779097049377
-0.5 0.179472088929807 0.531922125596261
-0.5 0.182082454125197 0.547943989565013
-0.5 0.180789390026449 0.553764733498134
-0.5 0.18394716070002 0.560338114568499
-0.5 0.180660058421133 0.564770559993502
-0.5 0.181864906245746 0.575100331698951
-0.5 0.183833608427853 0.586325799572269
-0.5 0.187793171455767 0.591118066319534
-0.5 0.183654400140091 0.607689103720036
-0.5 0.181438862762054 0.607884844854369
-0.5 0.183564117988183 0.610514393026266
-0.5 0.179723439197863 0.618282961478405
-0.5 0.185688135381291 0.626384061495783
-0.5 0.182197682663467 0.639481253093063
-0.5 0.182354496786422 0.651157058928139
-0.5 0.181541039059459 0.655118427988478
-0.5 0.185160857277534 0.665467527223684
-0.5 0.181313685641296 0.675919648142572
-0.5 0.180143307536848 0.687963592042009
-0.5 0.182146049834983 0.694379643307291
-0.5 0.186226397488314 0.701789360137525
-0.5 0.18126921592172 0.709592127168883
-0.5 0.180951352212213 0.715007492909358
-0.5 0.182552381946656 0.722836358468448
-0.5 0.185571018741501 0.730179147131321
-0.5 0.181064372813168 0.738860406421434
-0.5 0.18309878754152 0.753901976769689
-0.5 0.180446102084358 0.754559619569883
-0.5 0.185103543951224 0.77213969080017
-0.5 0.180065471645023 0.777639283405324
-0.5 0.179061721808443 0.786513454298665
-0.5 0.184187691194416 0.796655940875159
-0.5 0.184014675145274 0.799637764641496
-0.5 0.179427642100944 0.808980422814711
-0.5 0.179235513218498 0.818434386728591
-0.5 0.182942031864507 0.822690561437547
-0.5 0.181692199551537 0.836715160385807
-0.5 0.184773057894659 0.842133923421228
-0.5 0.183543723802617 0.844597905328214
-0.5 0.182680525436364 0.859144132420761
-0.5 0.183279857142405 0.867752774873578
-0.5 0.183216995115489 0.879006735569525
-0.5 0.179948862513131 0.886442572220902
-0.5 0.17917970261568 0.894609808057895
-0.5 0.183064026657232 0.903066321808485
-0.5 0.180573572613122 0.909445766233175
-0.5 0.186946713990655 0.918961509618584
-0.5 0.185283087434783 0.922468128521557
-0.5 0.183441067326779 0.935732636923316
-0.5 0.182806972060828 0.940265206589221
-0.5 0.184654507523496 0.949897146945449
-0.5 0.18686791570692 0.954256478106957
-0.487002830951738 0.18250379176447 0.955555555555555
-0.476320084013109 0.184334439012314 0.955555555555555
-0.470476985454409 0.185796256858247 0.955555555555555
-0.454272717447615 0.182189677011827 0.955555555555555
-0.452915534058438 0.185125748319042 0.955555555555555
0.110810885127688 0.226865470573831 0.519911399430481
0.110418084202632 0.231513427743546 0.529499038299477
0.110102896740994 0.233211488388477 0.53975940664013
0.110633709193063 0.230351756183355 0.555778977452505
0.110901396973736 0.225048677177328 0.571268528429754
0.110797058293569 0.227143008841107 0.565301776916101
0.110994995604263 0.223169924491499 0.578006596658702
0.110509201941751 0.231022534336655 0.590919944525648
0.110134003558278 0.233043901575396 0.606830294620381
0.110904019928485 0.22499602808138 0.613213030458111
0.110899473260728 0.225087290786952 0.632184486059235
0.110719779318068 0.228694186267146 0.637478082209144
0.110838099566465 0.226319210445248 0.644929190859645
0.110303687788659 0.232129734139368 0.653142506585089
0.110900689874911 0.225062870374493 0.663086830652551
0.110866933182472 0.225740449482516 0.677973057356407
0.110129077045685 0.233070442977486 0.682897003311685
0.110698702810539 0.229117243152745 0.701462562124341
0.110673192761342 0.229629292027557 0.709112355084409
0.110672653148017 0.229640123382436 0.71735815032785
0.110829819479313 0.226485411979274 0.730797309726125
0.110766464058534 0.227757109719707 0.74047242867163
0.110755245245787 0.22798229864034 0.745305655316972
0.110232777556523 0.232511760359215 0.758882453436008
0.110786258437863 0.227359788272604 0.766919323448931
0.110156867421142 0.232920723370534 0.775768929496483
0.110361706765507 0.231817159074569 0.789600251962798
0.110866000071509 0.225759179294239 0.805531707033381
0.1107083351564 0.228923898489943 0.817940932124182
0.110865779907038 0.225763598531885 0.821460984905077
0.110640013440607 0.230295281877989 0.834388573068285
0.110797923767322 0.227125636673081 0.840493212387691
0.110696149763053 0.229168489039507 0.846866534340695
0.11013820571071 0.233021262636558 0.861922481510824
0.110893497191025 0.225207245074128 0.87385894007014
0.11080292649517 0.22702521972971 0.887776166036108
0.110557523641751 0.230762202987687 0.895010060966911
0.110647245521077 0.230150116392867 0.910884238381403
0.11099538569519 0.223162094415654 0.919611375925313
0.11080963290362 0.226890605763476 0.925912684846776
0.110647455649786 0.230145898597426 0.933294378125044
0.110762071690043 0.227845275262897 0.942988720327457
0.115127143492291 0.223980857256299 0.955555555555555
0.131834076951525 0.224861368001251 0.955555555555555
0.146229042425801 0.22956151305529 0.955555555555555
0.156972314031607 0.226788677731897 0.955555555555555
-0.5 0.189359718396338 0.494623074161952
-0.5 0.190552599047562 0.501382005220354
-0.5 0.188917498495395 0.510267807088722
-0.5 0.195374772244621 0.511252967195089
-0.5 0.188758332585683 0.521870792929828
-0.5 0.18970082709445 0.533158241444888
-0.5 0.193873504290837 0.54707062724787
-0.5 0.192017068951033 0.551693951727242
-0.5 0.189504831143527 0.557910483487606
-0.5 0.194307001352201 0.563165834979322
-0.5 0.188066116862012 0.580401894312007
-0.5 0.193912656305435 0.584355279034217
-0.5 0.190809804410066 0.595835589592636
-0.5 0.194807164007706 0.593645482932425
-0.5 0.195241675349955 0.610916473773947
-0.5 0.191234173674792 0.614980745355611
-0.5 0.189527781867422 0.628408268209335
-0.5 0.187744642598019 0.635757786807801
-0.5 0.187720043426725 0.640767266881388
-0.5 0.188132889875012 0.654010636900576
-0.5 0.18887336187036 0.65391821023422
-0.5 0.190745835012646 0.66995356263461
-0.5 0.18983014672312 0.677452310026668
-0.5 0.189941880309823 0.68167337098734
-0.5 0.191733939069707 0.686195072378478
-0.5 0.19548418636395 0.698964864574147
-0.5 0.188610477722301 0.708325574718427
-0.5 0.187733572282748 0.717641081038253
-0.5 0.189164645717604 0.731470175697658
-0.5 0.191677826604746 0.733562834974912
-0.5 0.194734582486086 0.741939920647398
-0.5 0.191793018626474 0.745229696792328
-0.5 0.189172194872245 0.764312468687507
-0.5 0.190433232257344 0.764459325779423
-0.5 0.188022507214116 0.778882104872596
-0.5 0.193996706727085 0.779556404470767
-0.5 0.187688844823929 0.786555283494416
-0.5 0.193920253686525 0.798184853474372
-0.5 0.188675811907095 0.807712993782975
-0.5 0.189482586974555 0.81282856106689
-0.5 0.191638951970099 0.820395620636865
-0.5 0.189817976298127 0.835483276223633
-0.5 0.190355158720457 0.842516831490643
-0.5 0.195025251373767 0.850546254319753
-0.5 0.190240774443377 0.859286280491454
-0.5 0.18975415422977 0.869907969237798
-0.5 0.194187434408129 0.877969172863941
-0.5 0.189722582289026 0.882020994622838
-0.5 0.19423838769707 0.89095785020256
-0.5 0.191073623028568 0.900768718174461
-0.5 0.19281547651165 0.909136567541642
-0.5 0.190087786080993 0.920212627318365
-0.5 0.189775301112739 0.919512247890979
-0.5 0.191807312767371 0.937486888005171
-0.5 0.189122051825387 0.943057862190454
-0.5 0.188050483016889 0.95137063913528
-0.495703971736816 0.195011351453174 0.955555555555555
-0.485644348446057 0.196610471842556 0.955555555555555
-0.481445358415782 0.191843455677454 0.955555555555555
-0.474361595695962 0.197290169965684 0.955555555555555
-0.453848383413924 0.194308020896604 0.955555555555555
-0.448838575404163 0.193525098480895 0.955555555555555
0.109766782348089 0.235022292091846 0.520172546498324
0.108986266240659 0.238418397469623 0.533999403503507
0.109856697189142 0.234537879253231 0.535305620030707
0.108880927510044 0.238739190726317 0.550491832821119
0.108419788869714 0.240143519080711 0.56496160359882
0.1096486966327 0.235658474460867 0.568688054473382
0.108027792033098 0.241337286473739 0.581554404930756
0.107755671432272 0.242165988825123 0.594781586347842
0.108884266599241 0.23872902203251 0.602336204447968
0.109325177241727 0.237386295002401 0.609779865258442
0.1084250117118 0.240127613700876 0.627403922787613
0.10980487541977 0.234817067094856 0.636555404232147
0.109005415739509 0.23836008055177 0.642940724567081
0.108521736441382 0.23983305308842 0.659539794287053
0.109578829976168 0.23603487845623 0.665496548727621
0.109836870994545 0.234644692134078 0.679075324616094
0.108886341586005 0.238722702972487 0.688369005452384
0.10750688770721 0.242923622232219 0.707125942358839
0.109327477802132 0.237379288991789 0.706503692318152
0.107367884649586 0.243346935132281 0.724694179531845
0.108113349168313 0.24107673508985 0.725307387524073
0.109318122988377 0.237407777669723 0.737669905157481
0.108175443453695 0.240887636285322 0.752635636511393
0.108808885610073 0.238958583494535 0.757046413303115
0.109554435171676 0.23616630455178 0.771410128503789
0.108719674885354 0.239230261335604 0.784541423385296
0.107300622861784 0.243551770788017 0.797709673192491
0.10975144884719 0.235104900753656 0.806854564130194
0.109781144898394 0.234944914389995 0.806927631613088
0.109453942450216 0.236707705324918 0.827627231969174
0.109032687368345 0.238277028908955 0.828880598648896
0.108044936611665 0.241285075238984 0.853341360563093
0.109757081385906 0.235074555662278 0.851066252508177
0.108706929049926 0.239269076859888 0.870668947418163
0.109819373240634 0.234738960627929 0.87692000931489
0.109454867302249 0.236702722719226 0.887552712818093
0.109211343931472 0.237732957223445 0.890526426899611
0.108279116943813 0.240571914268042 0.906882409828183
0.108313832401551 0.240466193564171 0.913331980254573
0.109956837866076 0.233998375106792 0.929526121349882
0.109361735992816 0.237204464160774 0.939757130475831
0.10766431697109 0.242444195093085 0.941133612972688
0.115730800262166 0.238934635631366 0.955555555555555
0.124609617267399 0.235418080701331 0.955555555555555
0.145018568651985 0.241925363078949 0.955555555555555
-0.5 0.199523199440231 0.490347850549514
-0.5 0.197205678864633 0.504020538980658
-0.5 0.200051823025355 0.509813663803165
-0.5 0.19590234329752 0.513550937722081
-0.5 0.200072640810807 0.52162077082628
-0.5 0.196088261234527 0.532501547662872
-0.5 0.197164340049068 0.54618358447374
-0.5 0.201109229283927 0.543651425183346
-0.5 0.204349672010027 0.555883745092146
-0.5 0.200773129847928 0.563959796891288
-0.5 0.201553507241632 0.578171652308802
-0.5 0.202916459306134 0.580531451712456
-0.5 0.198815587796057 0.59269141919028
-0.5 0.196247590310949 0.596565807492328
-0.5 0.199169390283746 0.604626332230912
-0.5 0.195736316664782 0.614911888654235
-0.5 0.198416152359292 0.625945642546063
-0.5 0.197865202964376 0.635696231537758
-0.5 0.200999223764888 0.638556088923253
-0.5 0.202096620623975 0.652788132134263
-0.5 0.201668977836193 0.660740903990714
-0.5 0.19846749066901 0.669844895837178
-0.5 0.196769505976342 0.668560452609465
-0.5 0.200988563503323 0.682720418318788
-0.5 0.201235176683704 0.688351450709178
-0.5 0.200698822676177 0.700691196937677
-0.5 0.196069541462984 0.707343499899582
-0.5 0.199893893760404 0.718897436124987
-0.5 0.197651485398108 0.726037059261008
-0.5 0.200028648062691 0.732602779548927
-0.5 0.203709815092919 0.739066327980746
-0.5 0.200539105601809 0.748487018557602
-0.5 0.199168824220912 0.754349137082989
-0.5 0.19641955723951 0.761708521972768
-0.5 0.203779019403933 0.771879296067569
-0.5 0.202463382190868 0.786707730483279
-0.5 0.202157006696812 0.796370046139731
-0.5 0.198267353125385 0.792817040827323
-0.5 0.204215334566847 0.811570720013378
-0.5 0.198044616641907 0.815922924959764
-0.5 0.197476579938565 0.8229669506115
-0.5 0.200511918321124 0.832895965894727
-0.5 0.201789796868961 0.848192984053555
-0.5 0.198610782676537 0.855778342398927
-0.5 0.198107849345164 0.864172178384508
-0.5 0.200654938255958 0.866695108820974
-0.5 0.203613988736033 0.88077671117116
-0.5 0.20261039578078 0.879115275397099
-0.5 0.199255510648713 0.89711491794167
-0.5 0.203587896300032 0.904818582946822
-0.5 0.1984765720026 0.909416793113924
-0.5 0.202397930254417 0.91285553049351
-0.5 0.200010584383403 0.925330322374341
-0.5 0.197098392055383 0.933479981335476
-0.5 0.196090280077358 0.944524477536865
-0.5 0.203747758679881 0.948267752943621
-0.5 0.196306515573058 0.952960219617302
-0.488831384260306 0.204716378452475 0.955555555555555
-0.475738127174744 0.202306427500579 0.955555555555555
-0.466474211498879 0.20245678058551 0.955555555555555
-0.458650188216019 0.199662398527815 0.955555555555555
-0.449288704747453 0.202951056846394 0.955555555555555
0.1038144051047 0.250859310765555 0.529386465145884
0.103023894635033 0.252053410124572 0.53790548586363
0.105568928831765 0.247326368752474 0.545166597644335
0.106984034509511 0.24440453175035 0.560500016275594
0.104994185383838 0.24851306929314 0.567621667377732
0.10492202382482 0.248662064747393 0.575239238517273
0.107097598745877 0.244170050189608 0.590579443092898
0.106118868411875 0.24619088195501 0.596024440303674
0.102439131395311 0.252936719627134 0.617152318639772
0.106133529388155 0.246160610729577 0.625459620895257
0.103009744243851 0.252074784886437 0.634119372170835
0.10748686067396 0.242984611549069 0.640987501082273
0.106770405952957 0.244845620943237 0.643427730869979
0.105554137163057 0.24735690982487 0.658745748834389
0.106031869653867 0.24637051249023 0.673168291749614
0.103053155725078 0.252009210015646 0.69046185170683
0.104024975757044 0.25051424319479 0.686382173189317
0.104280290062141 0.24998708342465 0.699589181290496
0.10215187906762 0.253370626366556 0.718696127075681
0.105107184008046 0.248279755579124 0.723877356548973
0.106294028012311 0.245829221472772 0.730183788935372
0.107125304544682 0.24408567634747 0.738196998793461
0.103012373898788 0.252070812681901 0.753351648092052
0.10650353441461 0.245396643490755 0.763909765683881
0.102624630825581 0.252656514924877 0.779326283454887
0.103038195176666 0.252031808554129 0.791871797022258
0.105619266813301 0.247222433492107 0.800224835276331
0.106861019566823 0.244658526640635 0.805609662626081
0.106077493805291 0.246276310102439 0.818402070766759
0.102377788101794 0.253029381255638 0.820304831026019
0.105625536666345 0.247209487823872 0.841477619240376
0.106435003815899 0.245538141925988 0.846352489650717
0.106731422935107 0.244926111061962 0.859999554301514
0.106515792438569 0.245371333756973 0.863302510587364
0.104868848703809 0.248771857986586 0.874595740389255
0.106254360173527 0.245911125574336 0.893708095966154
0.1071428628586 0.244032205143946 0.895307055527238
0.106305159817357 0.245806237097544 0.913320382248798
0.106447506846557 0.245512326315049 0.922315591750979
0.102858304067596 0.252303541651003 0.926618532518269
0.103606878031751 0.251172789149834 0.94209110549401
0.102416378324604 0.252971089098747 0.952636700592563
0.114862253593581 0.253485074304593 0.955555555555555
0.133148835182087 0.250683323916584 0.955555555555555
0.133449311923115 0.253495054320153 0.955555555555555
-0.5 0.206095265085333 0.489046432830123
-0.5 0.207897445230147 0.498927783020789
-0.5 0.204731796337109 0.513923902717927
-0.5 0.21008449607165 0.513491527778573
-0.5 0.211400633043538 0.529142464301265
-0.5 0.208868652795226 0.527313223886751
-0.5 0.211236927989395 0.540216111397404
-0.5 0.207422258183954 0.548107236618395
-0.5 0.204495426879885 0.559252874059437
-0.5 0.209963964009972 0.568123539051667
-0.5 0.212149249094479 0.573896592862774
-0.5 0.206155046735358 0.580018114927747
-0.5 0.204638769496055 0.591442381792439
-0.5 0.209309476080499 0.597155163609105
-0.5 0.211628599445653 0.601438633783784
-0.5 0.209440843179878 0.616301043082214
-0.5 0.209618172613076 0.625626234744698
-0.5 0.204994449261572 0.633170498981971
-0.5 0.207325492802136 0.636726787097711
-0.5 0.210333320745662 0.649369876883171
-0.5 0.207565267091152 0.654300232334082
-0.5 0.207449943524015 0.662009971655833
-0.5 0.212434098532346 0.673642578614172
-0.5 0.206168370993033 0.679752700903868
-0.5 0.209679934080454 0.6987949250594
-0.5 0.207208732813465 0.698827344646523
-0.5 0.210781286829467 0.702769340503732
-0.5 0.209955026745275 0.712227333521384
-0.5 0.210433954077745 0.725986239108147
-0.5 0.207881260586552 0.735343672354589
-0.5 0.210787239945262 0.742047513424546
-0.5 0.212494268211648 0.749333166688339
-0.5 0.204538287441183 0.756634261575264
-0.5 0.205687994320781 0.772148343410123
-0.5 0.207668710285412 0.778081512597501
-0.5 0.211774233673179 0.78264413650092
-0.5 0.207290663821814 0.791534626290136
-0.5 0.211913783575141 0.802211646738128
-0.5 0.205443816183026 0.810413909840495
-0.5 0.205751268126627 0.818011565799515
-0.5 0.20909465409186 0.826733660123662
-0.5 0.212349867074623 0.828920805297838
-0.5 0.210383005175213 0.845233491532417
-0.5 0.206784638433221 0.852573825908585
-0.5 0.206362601598782 0.859759918462502
-0.5 0.205989193801532 0.867930447456919
-0.5 0.208398573647157 0.871903969773226
-0.5 0.20547257972361 0.882555626412741
-0.5 0.210909019614824 0.891416120330033
-0.5 0.20964204531728 0.896521243880306
-0.5 0.209839292240724 0.90868210664793
-0.5 0.208497972240379 0.920384010208258
-0.5 0.20926338438191 0.923077480547748
-0.5 0.210766802028972 0.933528372431019
-0.5 0.206808207118086 0.948390525391949
-0.5 0.211907031257735 0.948160365425169
-0.499499966130179 0.210000204500244 0.955555555555555
-0.491072368827443 0.206360894184989 0.955555555555555
-0.482590850427675 0.208411966884709 0.955555555555555
-0.459254499385962 0.211217474482464 0.955555555555555
-0.454882074121576 0.212073812605085 0.955555555555555
-0.445768057644494 0.215278312340736 0.955555555555555
0.0974103525999126 0.259573966339614 0.532517715443208
0.10119885526123 0.254810208965404 0.542339806933635
0.101482149609845 0.254382280920078 0.557062996867381
0.0990306470395306 0.257721056121269 0.561032252640412
0.100280607124322 0.256197261450825 0.570923953633848
0.0980982025673955 0.258787365952504 0.584419048680323
0.102181923516426 0.253325242961227 0.587782147977227
0.102020457482371 0.253569144206267 0.604748054709443
0.0981872283856916 0.258685559241091 0.610290540007763
0.0990328606798314 0.257718524682148 0.625149525262638
0.0952340507375531 0.262042370326208 0.639652717237063
0.100324050386897 0.25613163857297 0.649525865695123
0.100883649463828 0.255286340598167 0.647945588669999
0.0983578871224203 0.25849040007162 0.663955150734947
0.0972229800751178 0.259788238793645 0.676373837779312
0.0988022029488117 0.25798229653515 0.684803027165673
0.0979617302264581 0.258943430794092 0.701549099543177
0.0976732622557613 0.259273312349875 0.707662366396133
0.101954891857464 0.25366818384417 0.707738136080206
0.0989782199713486 0.257781009823497 0.729067689391239
0.0969946227762122 0.260049379955541 0.743880508750883
0.0972155034916409 0.259796788744557 0.75226072089226
0.10093534787582 0.255208247969427 0.7573764884728
0.0978855090537732 0.25903059457511 0.769395986471959
0.0995373679464566 0.257141588387915 0.78281854641004
0.0937913444234466 0.263303958176286 0.788087832561249
0.0984024642388488 0.258439423290787 0.80152198061507
0.100100343344698 0.256469557482268 0.810002170700149
0.0991507311014705 0.257583732323824 0.825150943658634
0.100957857268077 0.255174246584376 0.82867858059614
0.0995349032420186 0.25714440693492 0.834440251950614
0.0943886999591685 0.262781595115506 0.852774235903099
0.102273555315887 0.253186829268809 0.862354674243731
0.101838144319177 0.253844535917908 0.873270157279257
0.099316405512787 0.257394273048929 0.877580237148056
0.101389824148388 0.254521742418158 0.897742221281517
0.0962241533631061 0.260930460957586 0.9049736008031
0.0980235471956358 0.25887273914012 0.915767995501623
0.0988729592777601 0.257901382152112 0.923805903289428
0.0975119761539848 0.259457753312426 0.930839527672322
0.0966112066192433 0.26048784082892 0.942414001488671
0.106671035677009 0.263227815868821 0.955555555555555
0.118531900364994 0.259499984002185 0.955555555555555
0.135054434789426 0.258549231811965 0.955555555555555
0.147017366823455 0.264646055448162 0.955555555555555
-0.5 0.213149746100021 0.486442254615368
-0.5 0.216973014534293 0.499722563088571
-0.5 0.218587357511527 0.510158223955259
-0.5 0.218307247234084 0.51830464002965
-0.5 0.215084888211428 0.524333810186948
-0.5 0.214714544948548 0.53357781989961
-0.5 0.213206853239796 0.542290488625925
-0.5 0.214125679699606 0.555244704343518
-0.5 0.214769275791685 0.557469175532807
-0.5 0.213358577898106 0.571136155856614
-0.5 0.219912924858756 0.571122768508967
-0.5 0.220632924780321 0.584486012777057
-0.5 0.215310578134241 0.588244648121563
-0.5 0.219557977914553 0.600605491275878
-0.5 0.213534665487144 0.614459040847137
-0.5 0.214000109574831 0.617477012018128
-0.5 0.220290681722829 0.62409950566974
-0.5 0.217267653709931 0.636492899916134
-0.5 0.214438325004435 0.634100822903968
-0.5 0.21679797799839 0.646423080679301
-0.5 0.215023153879384 0.6597160910354
-0.5 0.220050312526815 0.662807968495543
-0.5 0.212515879890565 0.674637854170932
-0.5 0.217118664831499 0.683290598838411
-0.5 0.217239006819327 0.687025951809437
-0.5 0.213679193037359 0.707469966033133
-0.5 0.216451347376423 0.702320313369797
-0.5 0.218327724444017 0.710727581593858
-0.5 0.21678050222349 0.726961393800685
-0.5 0.220327013630819 0.733984485428464
-0.5 0.219646074321138 0.74311596916562
-0.5 0.214090204483857 0.750827674272824
-0.5 0.216368362630054 0.764319405080145
-0.5 0.219562017166211 0.770538265603386
-0.5 0.215395021347881 0.774284339816155
-0.5 0.214753089911064 0.786135732051685
-0.5 0.220999885190809 0.786764972501261
-0.5 0.213033738251767 0.800307829487073
-0.5 0.217908620631889 0.808926118082282
-0.5 0.214172512797275 0.822881274711966
-0.5 0.217542542926386 0.826241451004252
-0.5 0.219220184563009 0.830260114646525
-0.5 0.218492127002983 0.836975682813688
-0.5 0.217254932522298 0.850536501304789
-0.5 0.213344332461561 0.853045216519992
-0.5 0.216921719970016 0.867269541450926
-0.5 0.216375572043966 0.870646801447057
-0.5 0.217132446489935 0.888959040636139
-0.5 0.216261276425021 0.894443982222374
-0.5 0.220846553589539 0.897424135797845
-0.5 0.21633306622547 0.908386354667231
-0.5 0.220843332533289 0.92015384996523
-0.5 0.214587541413432 0.926185947682951
-0.5 0.219047896834856 0.933359893479973
-0.5 0.219977864737406 0.943858824253213
-0.5 0.219925893747411 0.943468109468083
-0.497719290804678 0.214335572860967 0.955555555555555
-0.488352259449456 0.216008846477985 0.955555555555555
-0.474527903642441 0.216332438342319 0.955555555555555
-0.461701089736981 0.220242368795443 0.955555555555555
-0.454895440043477 0.220223265053657 0.955555555555555
-0.446924936689711 0.2188926548314 0.955555555555555
0.0936985806842369 0.263385076284088 0.538796699883381
0.0874094464539452 0.268351503640108 0.549165570809491
0.0840224254371826 0.270593758905142 0.561858560033784
0.0817042492938224 0.271729699829488 0.579642119050022
0.0925394047094485 0.264398728412451 0.576076660740747
0.091307724281961 0.265475782728567 0.591077826264375
0.0854127170558858 0.269673366416716 0.59792298985563
0.0932349640715302 0.263790490109457 0.603402631966055
0.0863304021422383 0.269065846059938 0.621061962339223
0.08359262881682 0.27081511883719 0.639657310169228
0.089572105019392 0.266919793434934 0.642002853555131
0.0902883589232409 0.266367176173496 0.652293200049656
0.0913461062702302 0.265442219244725 0.660204131414541
0.0819568477596455 0.27160736120385 0.681136723855877
0.0919419580876444 0.264921171124296 0.684507879810396
0.0938268621571852 0.263272899366251 0.691631831444373
0.0888708847468236 0.26738401105872 0.705051746537808
0.0880268178453695 0.267942795147882 0.706965152777207
0.0824534595224019 0.271366841926217 0.72694968753575
0.0898471747682083 0.26673769341563 0.734225484668791
0.093779970174276 0.263313904493438 0.742603309993844
0.0920355454591488 0.264839332783633 0.747794710583322
0.0908270132830129 0.265896144897736 0.768425352755298
0.084760098521596 0.270105409010289 0.774289856805331
0.085207235619667 0.269809398000207 0.786458857192764
0.0929332482574707 0.264054328287381 0.79499814611547
0.0924199855378516 0.264503155609088 0.812141618265151
0.0898713365384142 0.266721697985962 0.81416480095106
0.094290425646972 0.26286753199471 0.819445429848278
0.0830911533546245 0.271057993704367 0.839797853103364
0.0834029296125967 0.270906994058417 0.858726682008543
0.0911520614369897 0.265611903539854 0.859723624048788
0.0814931964944926 0.27183191703545 0.875166405290316
0.0914852230602624 0.265320567283872 0.879705910144155
0.0902057513265322 0.266439413148764 0.886769264864082
0.093933578238742 0.263179580503926 0.889761299309577
0.0906281282984633 0.266070061707844 0.913108164985737
0.0893699145438557 0.267053646356444 0.923482239444096
0.0851315084870827 0.269859530420674 0.93552318338947
0.0886094455559196 0.267557087458125 0.936360213492303
0.0935069118740283 0.26355268284395 0.954472038982388
0.106531231992668 0.268160533300098 0.955555555555555
0.109440238063257 0.27232679905912 0.955555555555555
0.14019032512895 0.266769308798547 0.955555555555555
0.14195711122115 0.275191171416061 0.955555555555555
-0.499755833404106 0.227123241021767 0.486517924609427
-0.5 0.221476972905324 0.499502321860219
-0.499944470737304 0.223336829891634 0.509293999041536
-0.499862820735352 0.224975744474066 0.520053894609551
-0.499810174923637 0.226032474253114 0.52299211697331
-0.499908339262268 0.224062076675517 0.534722369840098
-0.499857454076086 0.225083466408154 0.538319516770021
-0.5 0.222177240281107 0.554064876845239
-0.499893117541477 0.22436761371874 0.558711556020997
-0.499686954602352 0.228505806483101 0.567208795253698
-0.499689966058057 0.228445359225872 0.576645344586954
-0.5 0.221884751755045 0.584826926195503
-0.499828265365521 0.225669354984317 0.591996917892911
-0.5 0.221567725661092 0.601837497218551
-0.499701706956783 0.228209690766945 0.603686494765162
-0.499726113354103 0.227719794875741 0.613845285929859
-0.499917433942118 0.223879524280292 0.622724007961588
-0.499671476234172 0.228816495065028 0.631059918200395
-0.499890858814463 0.224412951876157 0.638349668621286
-0.499720727052215 0.227827911085132 0.650170736889922
-0.499816014491146 0.22591525989773 0.656869532197597
-0.499961631005087 0.222992381484606 0.6667141455578
-0.5 0.221166219166047 0.66899372046263
-0.499672266213068 0.228800638262803 0.680679907163196
-0.499908495495482 0.224058940694075 0.693465058081741
-0.499685350598503 0.22853800275052 0.698569355489558
-0.499970225349441 0.222819872042451 0.710920646240119
-0.499807140194215 0.226093388670562 0.709068626488559
-0.499869861944475 0.224834410242165 0.72383080816475
-0.499906872296417 0.224091522256288 0.732196136715405
-0.499725341340419 0.227735291072367 0.743689230265755
-0.5 0.221426197607141 0.743621679742624
-0.499675580696545 0.2287341084995 0.752759302965389
-0.499953074233035 0.223164136759058 0.765981611781583
-0.499752785385138 0.227184422192807 0.775102961036506
-0.499755564874814 0.227128631059267 0.783291518731223
-0.499822623303248 0.22578260492814 0.795057860125734
-0.499818462609956 0.2258661201853 0.796824363388895
-0.499758049305554 0.227078762477872 0.80687122426942
-0.499878634990474 0.22465831382238 0.816872914750059
-0.5 0.221458508048571 0.822546388543316
-0.499949690456747 0.223232057397983 0.834890172944368
-0.499921998438306 0.223787903714637 0.839573800585077
-0.499669001002179 0.228866179005161 0.851475027277432
-0.499988952138488 0.22244397973483 0.86574824775186
-0.499760380402413 0.227031971681255 0.867368244358858
-0.499807634552255 0.226083465699573 0.874274086013705
-0.499659589580634 0.229055089178364 0.885360937487545
-0.5 0.222138276589162 0.885531270440491
-0.499802359111055 0.22618935666474 0.897885940063531
-0.499798963831222 0.226257508207852 0.9022896493163
-0.499712981132124 0.227983390584095 0.919881123678102
-0.499918161464314 0.223864921136284 0.924504822058062
-0.499985564915837 0.222511969550673 0.930964997077286
-0.499795786974068 0.226321275475357 0.938966606757771
-0.499874926845623 0.224732745329113 0.949499528102787
-0.493414946399712 0.227613437491251 0.955555555555555
-0.485007383333837 0.229010079184944 0.955555555555555
-0.467801494851437 0.230320780298656 0.955555555555555
-0.462811252748373 0.228296826115653 0.955555555555555
-0.452311934209378 0.228594552784248 0.955555555555555
0.0772198931898544 0.273857354999703 0.539273739322999
0.0654092942058014 0.276980335641538 0.558361642579584
0.0764152591858952 0.274121572288621 0.563305037286187
0.0789173317040891 0.273079461264426 0.567924813027747
0.0565361802017548 0.277660022092626 0.597790623513011
0.0646783068699621 0.277116018688878 0.598755113479017
0.0778793698498452 0.273582167511268 0.600039456405085
0.0803163259198367 0.27240189962892 0.60745426927513
0.0323372836514245 0.277777777777778 0.654575031714145
0.0793070204409392 0.272890727004551 0.627168198385075
0.0565992742044257 0.277656878777229 0.660383898270244
0.070368471111201 0.276059832369001 0.656765755183851
0.0767505452922157 0.2740114745478 0.656972127472275
0.073664269288835 0.275024913545474 0.679900989576227
0.0770375110131278 0.273917243749177 0.685161756072861
0.0521977909338708 0.277777777777778 0.708945528501925
0.0421511467469013 0.277777777777778 0.730779889236556
0.0665591479116879 0.276766904235602 0.72003194313879
0.0520716323518088 0.277777777777778 0.739602379791211
0.0719174474088011 0.275598516623513 0.739557624433368
0.0455294240425033 0.277777777777778 0.769811793705749
0.0750507024230803 0.274569651150156 0.754736462134564
0.0785439736549362 0.273260286236799 0.757492405009808
0.0807687803426234 0.272182766658073 0.776702817833957
0.0611417137081251 0.277430576443769 0.798299285908589
0.0768832698106696 0.273967891860185 0.792107947279509
0.0301917643706801 0.277777777777778 0.83279915364964
0.0780928445013204 0.273478777352564 0.818584787746311
0.0642815657822319 0.277189660237984 0.839870569585402
0.06352044505474 0.277312069096786 0.839121388172852
0.0488299521711257 0.277777777777778 0.865669976258875
0.0797798341937271 0.272661733591982 0.856288586963109
0.0779912850038959 0.273527964703306 0.86781605125676
0.0674534342411529 0.276600910259472 0.87692828060497
0.0583311516193508 0.277570597407946 0.897612945909512
0.0588595983963237 0.277544270422492 0.913660352627596
0.0497195681961437 0.277777777777778 0.926746028402475
0.054517632622204 0.277760585243128 0.936093483150316
0.0718452265468023 0.275622231753953 0.930356731477319
0.0788315000221067 0.273121031311083 0.935823775237321
0.0638212591244184 0.279753489847204 0.955555555555555
0.0735096750349933 0.278773086326321 0.955555555555555
0.0996728303115959 0.276447941031714 0.955555555555555
0.120939217295578 0.285446986714619 0.955555555555555
0.138132373453914 0.286218965365974 0.955555555555555
0.151709258880221 0.278058336166874 0.955555555555555
-0.4995941874976 0.230367868419544 0.490670850897449
-0.499304381494374 0.23618498138226 0.495909819529062
-0.499339537136191 0.235479321949901 0.506101975210178
-0.499331483249656 0.235640983086128 0.52064386226658
-0.499393604961284 0.23439404889582 0.524210668723874
-0.499466366654596 0.232933544335383 0.531466111923654
-0.499401342511675 0.234238737397164 0.538316609282393
-0.499636634645063 0.229515850693951 0.54957083551083
-0.499300560640513 0.236261675233581 0.552526401716858
-0.499295580436875 0.236361640061134 0.563039332794759
-0.499555301808808 0.231148398987651 0.579791286986147
-0.499565640114356 0.230940883992969 0.58541308272901
-0.499172615131018 0.237349618653937 0.592924588317889
-0.499415092224849 0.233962747135235 0.598537705059171
-0.499611311419826 0.230024149556427 0.604308258098948
-0.499609665486343 0.230057187453825 0.621794842172098
-0.499664111386915 0.228964325503216 0.628704444582302
-0.499573082897885 0.230791489183804 0.639191766101824
-0.499564651715568 0.230960723566117 0.647444730932374
-0.499386191528814 0.234542854557675 0.65106089003589
-0.499493584292262 0.232387219997303 0.652304521462797
-0.499290642732582 0.23646075182323 0.664620669892113
-0.499208518943391 0.237156188209476 0.681609315517004
-0.499494371554324 0.232371417728577 0.684254942471405
-0.4991833509903 0.237291779614142 0.688687878806378
-0.499500762117804 0.232243143540863 0.702524085761939
-0.499288238067164 0.236509019320182 0.706926155259019
-0.499621813795398 0.229813341276423 0.720256086160131
-0.499640141758065 0.229445454386478 0.720344773682146
-0.499372179493516 0.234824110264113 0.737448910547073
-0.499451157402305 0.233238831105404 0.741945172936459
-0.499442872500609 0.233405129279051 0.745024609087502
-0.499375522818038 0.234757001590729 0.75889817240858
-0.499551483620399 0.23122503933683 0.770165389373653
-0.499380370231769 0.234659702180309 0.771715239148742
-0.499591830927156 0.230415170533127 0.784164718617317
-0.499318172026648 0.235908171781488 0.790262258374594
-0.499435440389306 0.233554309870616 0.797102337460983
-0.499619048968508 0.229868838092075 0.806982782641526
-0.499595434330351 0.230342841446747 0.814861858927596
-0.499312574164276 0.23602053452554 0.824945485912791
-0.499283027429661 0.236613609517158 0.837481671869885
-0.499486183221135 0.232535777536877 0.83856546091253
-0.4995718609369 0.23081601691963 0.852919697770684
-0.499479804703377 0.232663809937584 0.856720664998913
-0.499403625272163 0.234192916829354 0.869900169845883
-0.499289740492996 0.236478861971175 0.875337206584551
-0.499551704191174 0.231220611943695 0.877320774682768
-0.499325183227265 0.235767439893467 0.891017189375349
-0.49941860104094 0.233892316642646 0.896656938606025
-0.499428227673869 0.233699086652326 0.905435867832239
-0.499478663460568 0.232686717462835 0.917634349893617
-0.499648515908842 0.229277364766199 0.926250481254379
-0.49952364078847 0.231783912847847 0.933303890624271
-0.499557011590207 0.231114079506927 0.940652751865451
-0.499612918170441 0.229991898154719 0.94728568776673
-0.49169337738999 0.237985988089294 0.955555555555555
-0.482881598553385 0.230544143657629 0.955555555555555
-0.477458084796066 0.237679864819493 0.955555555555555
-0.460309892764173 0.240790774143203 0.955555555555555
-0.454891358565422 0.235332185640522 0.955555555555555
-0.447801858553638 0.23556868272456 0.955555555555555
-0.0292324073601079 0.277777777777778 0.630918135520494
-0.0773532154689533 0.277777777777778 0.680632960966569
-0.0462021825106155 0.277777777777778 0.672284311442081
-0.0138577679937656 0.277777777777778 0.642654690636532
-0.00738715026380233 0.277777777777778 0.652409703315788
-0.0108572997070449 0.277777777777778 0.671835876122413
-0.0387408540134635 0.277777777777778 0.699638131710987
0.0328439011908734 0.277777777777778 0.656114473964256
-0.0734313754745627 0.277777777777778 0.744434434833524
0.00218714053346016 0.277777777777778 0.697891495144016
0.0245348018682927 0.277777777777778 0.696572256700224
-0.052747481384452 0.277777777777778 0.758772293207323
-0.0587845120451965 0.277777777777778 0.770011300249267
-0.0188022136892193 0.277777777777778 0.748724142379025
-0.0375619485004315 0.277777777777778 0.781716293920005
0.0208329865366931 0.277777777777778 0.74070264526534
-0.0185349613223699 0.277777777777778 0.785791019783686
-0.066983429788584 0.277777777777778 0.833441391948693
0.012242716729272 0.277777777777778 0.783465685816947
0.0148365676620804 0.277777777777778 0.789959778392654
-0.0539571461552049 0.277777777777778 0.854248194548665
-0.0311187592861054 0.277777777777778 0.846677197318712
-0.0716002971463744 0.277777777777778 0.886468762243483
-0.0352204364584797 0.277777777777778 0.865061850948309
-0.0527079320147616 0.277777777777778 0.890419885609927
0.000982469900984057 0.277777777777778 0.860295256994413
-0.0292829368911038 0.277777777777778 0.89436027124494
-0.0244696639264704 0.277777777777778 0.899008671232229
0.023674758722416 0.277777777777778 0.871617766457562
-0.000881258113290264 0.277777777777778 0.904867937468141
-0.0369262598251602 0.277777777777778 0.939482201276491
-0.0289761506166906 0.277777777777778 0.940083849556703
0.0286485094688651 0.277777777777778 0.904573197885132
-0.022550574002429 0.28012629352125 0.955555555555555
-0.0147180978506999 0.27926973631821 0.955555555555555
0.0125960995858267 0.280683182774742 0.955555555555555
0.0296166277129687 0.286580280844856 0.955555555555555
0.0371429579928951 0.285690366806303 0.955555555555555
0.0469837936238109 0.279752600431657 0.955555555555555
0.0711437329112676 0.284735753128018 0.955555555555555
0.0773192909310092 0.287960244974129 0.955555555555555
0.0925300984978396 0.291961671014553 0.955555555555555
0.111495552336042 0.285551839447953 0.955555555555555
0.124054277093048 0.287376204159124 0.955555555555555
0.135978675336709 0.296348598130722 0.955555555555555
-0.497738390631295 0.245076449430528 0.490793951114874
-0.497735095503502 0.245094201808099 0.495752807318639
-0.49879423382011 0.239388133795028 0.513619457130056
-0.497581079750421 0.245923955909507 0.515327393733895
-0.498444311201976 0.241273328794661 0.52415692902217
-0.497770233906275 0.244904894979188 0.52982528553391
-0.498630189317281 0.240271917410103 0.54528490771224
-0.499078416332236 0.237857111154374 0.55495673830178
-0.498601875844944 0.240424455181901 0.558097335360463
-0.498496909787858 0.24098995588318 0.563821532544309
-0.498956641305932 0.238513169547775 0.576989662950122
-0.497832375470017 0.244570109631901 0.579521432122821
-0.497696003100762 0.245304810663741 0.590459873949964
-0.497782997872831 0.24483612958741 0.598115144380366
-0.499063083691315 0.237939715183082 0.609612507322236
-0.498674902093961 0.240031029000358 0.615416718860548
-0.498733878917275 0.239713293573596 0.621379637223631
-0.498361069061097 0.241721792710991 0.631220691952628
-0.497529778422123 0.246200339894339 0.63408954983028
-0.497801043925337 0.24473890715541 0.648997414897073
-0.498515385770381 0.240890417219313 0.656141875928982
-0.497711071015558 0.245223632837114 0.663019205331091
-0.49809149176449 0.243174130300052 0.669405502657387
-0.497942064013502 0.243979166712015 0.678299299181881
-0.498039476621654 0.243454359933967 0.68792527728228
-0.497741087592165 0.245061919654844 0.696530221045576
-0.49903102198903 0.238112446403343 0.700929896443629
-0.498515636858891 0.240889064489369 0.710228777666334
-0.498689349605635 0.239953193572313 0.723637757748419
-0.498527538313796 0.240824945846811 0.732498382150085
-0.498520912488963 0.240860642229945 0.737960490842203
-0.497996774341095 0.243684416871161 0.752772668485046
-0.498992628476919 0.238319290011898 0.759713757996845
-0.498772660475224 0.23950435938262 0.760733010289146
-0.497953286435517 0.243918706333723 0.775127841341353
-0.497881237422618 0.244306867692282 0.787108402145334
-0.497645835041484 0.245575089204172 0.790527055863737
-0.498915040506588 0.238737292296174 0.797853972473065
-0.498487659068678 0.241039793786296 0.807010542580469
-0.497900038997079 0.244205574914042 0.815424483869164
-0.498794870541937 0.239384703480031 0.816968673614268
-0.498486609980318 0.241045445710546 0.83508836725978
-0.498233034529071 0.242411573957043 0.8434913112095
-0.497619933906207 0.245714630600405 0.849476484104651
-0.497649372526862 0.245556031134186 0.855753358902479
-0.498240806937791 0.242369700396156 0.869777124006583
-0.499078249325803 0.237858010895273 0.874288253658019
-0.498667108480418 0.240073016801426 0.883402748011542
-0.498009886248983 0.243613776958493 0.888456039850158
-0.497609981122385 0.245768250850487 0.897554136090498
-0.498082388196689 0.243223175430625 0.907322728704776
-0.498321694739823 0.241933920392185 0.916717059568536
-0.497522995026469 0.246236885184362 0.924850540555028
-0.497736088811213 0.245088850400006 0.929926205814331
-0.499122606146709 0.237619040183927 0.944717562480411
-0.498600030143129 0.240434398831303 0.95306730491722
-0.49609128774962 0.244928503350424 0.955555555555555
-0.484726650606972 0.24312024777977 0.955555555555555
-0.481076628894175 0.247302337185527 0.955555555555555
-0.46429309659483 0.248085756914822 0.955555555555555
-0.452252016278369 0.242981019259963 0.955555555555555
-0.447355926923633 0.242800107076148 0.955555555555555
-0.0779063848946199 0.277777777777778 0.670182063733166
-0.117604248335692 0.277777777777778 0.70676169205685
-0.136100122853729 0.277777777777778 0.740733454893605
-0.144872050460858 0.277777777777778 0.754147307938516
-0.159199537491766 0.277777777777778 0.776417409084542
-0.16152356189464 0.277777777777778 0.792468258106686
-0.0936627565198759 0.277777777777778 0.741231742645779
-0.113734748145812 0.277777777777778 0.765041454720096
-0.134659968699667 0.277777777777778 0.796624250979715
-0.113552333683402 0.277777777777778 0.786942306354929
-0.147330992170776 0.277777777777778 0.819990652441947
-0.0799793868832707 0.277777777777778 0.785448310172121
-0.132275111389765 0.277777777777778 0.832975044205278
-0.164715899726393 0.277777777777778 0.864856082260517
-0.07844379850015 0.277777777777778 0.809544242283948
-0.126657898427018 0.277777777777778 0.851505309772683
-0.15206851763046 0.277777777777778 0.884304230079915
-0.163376244828709 0.277777777777778 0.905527396498661
-0.161233741518535 0.277777777777778 0.914609533868328
-0.106744110591485 0.277777777777778 0.877861293262871
-0.116305826594049 0.277777777777778 0.894428071242608
-0.149642083853866 0.277777777777778 0.928311050309306
-0.126244314112828 0.277777777777778 0.925999800079791
-0.116915945037384 0.277777777777778 0.918881107757005
-0.147843496458682 0.277777777777778 0.95168760241955
-0.0827387723153782 0.277777777777778 0.922325901537706
-0.130567328486389 0.281439280184029 0.955555555555555
-0.0941554589415026 0.277777777777778 0.947844743909731
-0.083702419320862 0.282059675940278 0.955555555555555
-0.0797519999386652 0.277777777777778 0.955100181789559
-0.06296247978178 0.284054263718005 0.955555555555555
-0.0491143993928146 0.288647004562701 0.955555555555555
-0.0320849567064595 0.288725720557232 0.955555555555555
-0.0247324896381249 0.286937351549513 0.955555555555555
-0.0126303141462537 0.287726408104174 0.955555555555555
0.00897726480903578 0.28781584781057 0.955555555555555
0.0228961591355418 0.296200363554363 0.955555555555555
0.0312276979262859 0.288996896328491 0.955555555555555
0.0558656273854818 0.290897522066045 0.955555555555555
0.0665702279635337 0.293654887552912 0.955555555555555
0.0807571341104345 0.300109672848651 0.955555555555555
0.0922648704143234 0.296348176251492 0.955555555555555
0.122275106235032 0.301142639128338 0.955555555555555
0.124022931015028 0.301188516586789 0.955555555555555
-0.496655560621118 0.250910155555376 0.489100916877813
-0.496822532246381 0.250010602177822 0.497044891695278
-0.496266165047298 0.252206254218058 0.509354305959859
-0.496932303869692 0.249419211668485 0.513322981109408
-0.496248718285009 0.25225938570788 0.521329700934536
-0.495536958333854 0.254426943560357 0.524039897357325
-0.495609424928075 0.254206257449696 0.544671179644571
-0.497119391177147 0.248411285806509 0.539586770047953
-0.49709936190893 0.248519192738879 0.549500268576302
-0.495745989687787 0.253790370019099 0.565829006438625
-0.496084534031518 0.252759384151637 0.570971010758037
-0.496967601004709 0.249229049675558 0.583328667135938
-0.497275227793698 0.247571721871356 0.589980099262542
-0.496734927189546 0.250482571140472 0.600062796233232
