ply
format ascii 1.0
element vertex 862
property float x
property float y
property float z
end_header
0.187141534139082 0.10260715241559 0.288440809430981
0.189251565521043 0.0981911282634596 0.293899622642345
0.188286301654675 0.10156736265874 0.302319851217503
0.189734667114776 0.0998463390417866 0.316615253871083
0.189781781433753 0.10200236933253 0.334888856221405
0.191788665387928 0.0978231915230917 0.340249661850093
0.189266822909393 0.105005970176604 0.349061411590441
0.191567076392555 0.100725989875675 0.359312737162976
0.192567860382665 0.100337742957251 0.375638719586589
0.192045929887265 0.102779592527684 0.385153191805304
0.190174851436158 0.107443400755695 0.38633364907984
0.193586298731062 0.101306746891998 0.403234857164184
0.193852890756878 0.102593886982956 0.418779028517347
0.194792906863496 0.100039080676709 0.41648126349103
0.193898586425383 0.103668857391087 0.428321611236894
0.195793875389722 0.100223997835606 0.437425288074052
0.193854834276211 0.106657006842592 0.451528353876405
0.195760451731786 0.103593306063893 0.463901430445705
0.196806101853585 0.102618085227218 0.476373815334433
0.195158403669008 0.107047720361765 0.48001070291542
0.195744670555004 0.108079480320623 0.499712196038371
0.197978919759419 0.103518072856406 0.506414905451691
0.197348663497648 0.106439620899455 0.517685886491408
0.195710670733479 0.110719255223268 0.520303779740161
0.198135456744822 0.107048431635582 0.537879803444704
0.197358539982574 0.11015888777629 0.547821093383995
0.198791390345533 0.107678024847959 0.555697588568769
0.198883677495684 0.10922587020796 0.569952787952176
0.199586389462281 0.10858639017817 0.578462666335617
0.200106289189201 0.108305538608183 0.586306584185007
0.201926665826596 0.105858202226649 0.601985135499484
0.201468793695457 0.108512132176234 0.614452101942839
0.199161094660206 0.114126140726069 0.614796116511604
0.199943393317454 0.11296338558191 0.620640071357315
0.20407148420918 0.105144161770105 0.637924183633061
0.202480136640875 0.110555311097991 0.650558346857823
0.201655283558704 0.113276472340609 0.656433771336935
0.202178312002801 0.113969905294096 0.672182314541635
0.204482509537179 0.109102989450348 0.6777849711379
0.206357321608653 0.106551716624702 0.693684778357456
0.20486123224587 0.111571940969661 0.705023147282107
0.205861237545154 0.110669523937474 0.717194490567681
0.204046964977016 0.115879703285134 0.723877802604099
0.205048764394308 0.114302804806281 0.730653871276063
0.204116966694275 0.117840074199819 0.741021031557911
0.204439409915236 0.118741659605959 0.754546711255162
0.207565871296512 0.112547239654953 0.765443736075015
0.205096145402439 0.11902885014222 0.769623451171385
0.221709585136662 0.126605101873811 0.775645644410666
0.225842251818268 0.130615947291094 0.775645644410666
-0.26728532673233 -0.327868620218662 0.4157206112876
-0.265734303504723 -0.328940766027337 0.423303935114872
-0.268130575388374 -0.328226238871266 0.428210894690996
-0.267544088694855 -0.328977205917725 0.437176882427052
-0.263091214682072 -0.331160040360163 0.443148961895819
-0.266747376135241 -0.33038640140431 0.456222709285781
-0.274299516591346 -0.327935026370498 0.468167515889221
-0.267157825819874 -0.331156335971535 0.47281122019081
-0.26747780347673 -0.331650987143226 0.483880075129254
-0.269154990497384 -0.331564421528523 0.494612866135512
-0.268086608441587 -0.332407670032297 0.501684727754489
-0.271569554256433 -0.331730397551548 0.515192945188776
-0.274001966238604 -0.331197569472372 0.523570778791568
-0.274576089804978 -0.331453281124778 0.532280603200428
-0.273663585096141 -0.332368508966787 0.541762269791918
-0.269766121358079 -0.334449823687999 0.5500028423244
-0.271928093318855 -0.333991822659372 0.557724284148254
-0.276794653133485 -0.332426838976525 0.565680348318213
-0.27529894913549 -0.334137859761968 0.584943135959185
-0.278087343449637 -0.333204354555461 0.588851983774508
-0.277245479952403 -0.334184043719218 0.599987684000164
-0.277198757297212 -0.334237813491957 0.600595079472201
-0.278073003539618 -0.334800180316292 0.616910801719288
-0.278549351565046 -0.334934784160657 0.622768520458469
-0.277956803234199 -0.33567228530655 0.631452546036787
-0.277207956435486 -0.336358074912299 0.638081380780876
-0.273097028370512 -0.338359950507493 0.643359524775074
-0.278129461202373 -0.336969482992415 0.655608066880398
-0.273455248044015 -0.33958174881701 0.667540861558795
-0.273982091610333 -0.33967281564357 0.672999356219537
-0.277204503726337 -0.338816080092834 0.681435805158001
-0.276583483944764 -0.339267013730435 0.684854264125448
-0.282961289968538 -0.337857947537244 0.706609482761743
-0.27943994694882 -0.339645463663902 0.712414511260149
-0.281703250642196 -0.339265274189292 0.722249948946845
-0.278054766658344 -0.341287034173591 0.731259565665961
-0.281686933406264 -0.340575141357651 0.745247623281853
-0.283019743463511 -0.340059066614952 0.74588284386951
-0.28084559527669 -0.341528485485016 0.755922218379187
-0.282289071188519 -0.34172711673305 0.769979786304108
-0.279188581891509 -0.34319254767983 0.773177066072783
-0.276646861471618 -0.336296645391465 0.775645644410667
-0.268787246361134 -0.327536037956391 0.775645644410666
-0.267776999037968 -0.324919913547048 0.775645644410666
-0.260389002273891 -0.316664286636681 0.775645644410666
0.185655709165269 0.103582298927373 0.267412385090177
0.186859152981889 0.101600641047357 0.274849051739753
0.182376486973468 0.113003469122291 0.279524298496698
0.184306601508665 0.110513899739545 0.296995754746987
0.182988632953566 0.114928023057412 0.306916535969817
0.185723644527539 0.108231362528445 0.306161700821989
0.187333676308494 0.106394308338803 0.322665180303009
0.187246700997181 0.108406228613 0.337172347388402
0.185459389846766 0.113741851144185 0.345389617641427
0.189396050812815 0.105793977759307 0.357917271914182
0.187524887018189 0.111955674487112 0.371155339295195
0.187468778552714 0.112674201344221 0.375849538040153
0.186794057566163 0.115125036237409 0.38246664337556
0.189895180970358 0.109337789031538 0.396149272468973
0.189646524777031 0.112108132561204 0.413619883946505
0.188191005732806 0.115962615921546 0.416361595704883
0.189868768485001 0.113116889398645 0.426060860413896
0.1907090764168 0.112475587691781 0.437230451283543
0.191547263428713 0.112157343430753 0.450959704560658
0.193020920764636 0.109606707335837 0.45906760987493
0.189814407839519 0.118973612222955 0.472155852454122
0.190903505308007 0.116807076192736 0.47588160541509
0.193627471651031 0.11264444434711 0.495313163486044
0.190082438490726 0.121782837438405 0.499982057762062
0.193171936901909 0.116048820806391 0.513867289265094
0.191621023937953 0.120667146413788 0.520904456796151
0.193346503141482 0.117181780082791 0.526381519153022
0.192639887106118 0.120761324458768 0.541465763291703
0.194181898792669 0.117845964557574 0.547965900221022
0.194684675469645 0.119254542256703 0.569078340610923
0.195125517833906 0.118386391015047 0.570657404246238
0.196531271744796 0.117111725179582 0.587718146746427
0.197896764770492 0.114727289030242 0.595061770813162
0.198668231810448 0.113829807723066 0.602830876034177
0.196183994983659 0.120931400352877 0.611719930401689
0.197000364621074 0.121547668850726 0.632548748979606
0.19605522781062 0.124759687994488 0.640038104661616
0.198349779666574 0.120311341939695 0.6488231241116
0.199656888229729 0.118411974233937 0.658937171979388
0.197852316281017 0.124150706284594 0.670064325869414
0.198636628808144 0.123147279787684 0.677230153539371
0.19894363828182 0.124014801122453 0.690181611243327
0.201829977222062 0.117879389682899 0.696886574158994
0.200844344599755 0.121682130490092 0.708344643441708
0.19962233423623 0.126624157962431 0.724380587038187
0.202241161657481 0.121435961326054 0.733511952944448
0.202645940823517 0.120845271132457 0.736623871685182
0.202367499041669 0.123759840077608 0.754676693288114
0.200883988143534 0.128537831881281 0.764309366278551
0.199704040359066 0.131771295574156 0.767407474517693
0.202801681350839 0.125752635837472 0.775645644410666
0.217241657314068 0.146198916374343 0.775645644410666
-0.280238116508125 -0.322527684732535 0.416149213284263
-0.279116715091916 -0.323759651819301 0.429693724464732
-0.273980553529011 -0.326164610476012 0.434590972550095
-0.277592418224535 -0.32501389105272 0.440686065832249
-0.28290431991929 -0.323432689793989 0.451611443599602
-0.281169241777824 -0.324929108877845 0.465337004926161
-0.277508242108418 -0.326579166842093 0.467695213266283
-0.278527609441376 -0.326858020629055 0.480068266847184
-0.279116721026562 -0.327104117156182 0.488717965463021
-0.27897955524545 -0.32797555782154 0.50309472428861
-0.277415721999812 -0.328497861460755 0.500880613587427
-0.281741046445113 -0.327334455569136 0.51196732683485
-0.280942550419867 -0.328036591159394 0.518521696280367
-0.281205385576742 -0.328682159136677 0.531836257827084
-0.281709958924903 -0.328794007462617 0.537498711891191
-0.280412811516606 -0.330069142139215 0.550520324789433
-0.286591471988761 -0.328149288290233 0.56180521033716
-0.276358173817512 -0.332533671548582 0.56437502413963
-0.282459396354492 -0.330845550964297 0.579183527942301
-0.280715657083183 -0.331984938884543 0.586544774345161
-0.279902513606052 -0.332825522843932 0.59543544962155
-0.283952449867566 -0.331512587249269 0.601870079171625
-0.281652682448861 -0.332847259348324 0.608613100993626
-0.283737335420761 -0.333144927494759 0.62910561968505
-0.288976778845499 -0.331213227382133 0.633315598639076
-0.282999071072453 -0.334190980852913 0.642169864304731
-0.287200782000852 -0.333428014068748 0.659420019131745
-0.289005772971178 -0.332738423228701 0.660444696525499
-0.288956929191081 -0.333259195271504 0.669278392144244
-0.291242815046441 -0.333099810349798 0.683175738974829
-0.282569374233292 -0.336968251101777 0.688042862363189
-0.287709580975136 -0.335419474044516 0.698285352883391
-0.285775508886987 -0.336664650604119 0.70612222515786
-0.290046072237943 -0.335434316193388 0.715627449298671
-0.286103866610566 -0.337486416972635 0.723025373816853
-0.2886251317859 -0.336974285279389 0.732417996172822
-0.286437751537361 -0.338350879093304 0.740722435628946
-0.29371317028541 -0.335952050321058 0.751571711717065
-0.291644362502058 -0.337346700915194 0.761061608363875
-0.288156358315323 -0.339127721121387 0.766995707439349
-0.290625254262607 -0.336145850190319 0.775645644410666
-0.287234250062572 -0.328296327289646 0.775645644410666
-0.27451243701258 -0.326437157870458 0.775645644410666
-0.265636739310792 -0.318946620510728 0.775645644410666
0.177331127051596 0.121280164983262 0.24809475984034
0.177934982682328 0.121363381433402 0.260501538668453
0.180176640903068 0.117871368999013 0.27595778729364
0.180337823643816 0.118224425416325 0.281933011916242
0.18019902780929 0.120090317211592 0.294257318733148
0.18154230471546 0.117677175345393 0.300938034781507
0.181147488106156 0.119705869663359 0.309596901908216
0.181063106211154 0.121206043116316 0.320034481236022
0.180477729024571 0.124282739163842 0.333426825255841
0.180685419473796 0.124063036942384 0.335694803804525
0.184461447951322 0.116745422253449 0.350174446461157
0.181854989467352 0.125023556646336 0.366160100384966
0.183641386683382 0.12077776848475 0.366699154608571
0.183690383792504 0.122832075587109 0.3841903940619
0.182845476136381 0.125616694390118 0.390186915623106
0.183946129813245 0.124455535168873 0.402231413724898
0.184698344065834 0.124260806796073 0.41528406820364
0.187084214931852 0.120118381013959 0.428306922824651
0.184504290582401 0.126422415679017 0.428915134500045
0.185270441283376 0.126210035499752 0.442096552239168
0.188676659086215 0.119759965195174 0.456372850166669
0.188196632193235 0.123105899836139 0.473980429312112
0.187976118657788 0.123289191563653 0.471170080094867
0.18764583061177 0.125982329994452 0.486432490978891
0.188331679456825 0.12499596562891 0.491821897776324
0.189738255222589 0.123190852420169 0.504628064380102
0.189273743556884 0.126197631065365 0.519806712104797
0.186871152194591 0.132411343456246 0.523134478685851
0.190152927608917 0.126143854928917 0.536461994737786
0.187674571917904 0.13394953516557 0.551133858106306
0.19018588856731 0.129290122804958 0.562432755659557
0.190082965830457 0.12934557378546 0.560878729238599
0.19153042069599 0.128009218923775 0.578253341872815
0.194126447229294 0.123581166339202 0.593061341539667
0.194357586957374 0.123657389857668 0.598167543478366
0.192053863871793 0.131127740877679 0.613533962850813
0.194798853675896 0.12582992611791 0.624234960338494
0.191199621371223 0.135877452200805 0.635169704342943
0.193407054378477 0.131790950456246 0.645174594376701
0.192814697311554 0.133884891842446 0.650519268289806
0.195917823008431 0.128192029724967 0.665000694629393
0.193562399997924 0.134723924323758 0.671806882806912
0.195949756477174 0.130161125469297 0.681474253834435
0.195222256937475 0.13417429364996 0.699643634823411
0.194127773141739 0.137010288089608 0.701202896946711
0.196147707420782 0.133463291296166 0.711906946383138
0.196865577445974 0.134259663137863 0.732271265344785
0.196957446655894 0.135106902253434 0.740877868821861
0.194617642216559 0.140606067324413 0.739673280871462
0.197488363049667 0.136035821051858 0.758675586002091
0.198945410379286 0.134206889382847 0.772270982413731
0.198262053177533 0.140413113843677 0.775645644410666
0.213512163838624 0.147265065134079 0.775645644410666
0.224058261596994 0.163749937839385 0.775645644410666
-0.284330487039975 -0.320830653907195 0.41611540882927
-0.282350181606691 -0.32215994295568 0.425098751509838
-0.287322043943677 -0.320809859965747 0.437617231825905
-0.287060531532094 -0.321995305041872 0.45662664577654
-0.290818377113961 -0.320238934953987 0.453100167419429
-0.283839212504918 -0.323831120729437 0.465477307981525
-0.287952024253644 -0.322692861015047 0.475454304270454
-0.287209356962122 -0.323219295955509 0.479315970011451
-0.282879389450281 -0.325577632597354 0.489283836513129
-0.28686065123945 -0.324141140295556 0.493035875308034
-0.287790895626389 -0.324817473401073 0.511772267234668
-0.28558949665075 -0.326074529203544 0.517864582168413
-0.289000117492354 -0.325410670010387 0.53108081347636
-0.284766291250599 -0.327116578756343 0.530237232487388
-0.295492302196039 -0.323955408692397 0.552856893763379
-0.292986607157811 -0.3253855430239 0.559779296994477
-0.288545677347572 -0.327626250324142 0.56686004942858
-0.291239941554315 -0.327380181673736 0.582212890754312
-0.292441527595273 -0.326686202167397 0.578749120600966
-0.293382730897532 -0.327294086234872 0.596357613513233
-0.294581414095299 -0.327030544150835 0.6004691208418
-0.296362898669833 -0.327043584998014 0.613722231908873
-0.293695372663189 -0.328549992595193 0.620807717692363
-0.289708139875376 -0.330571239094293 0.627331959600059
-0.295684919627651 -0.328734307333741 0.638604497610794
-0.295476344763846 -0.329244570994948 0.646085075942111
-0.29122841419465 -0.331157793401639 0.648797127885498
-0.28951901472172 -0.332351724346628 0.657371996990968
-0.297049368848884 -0.330044273512579 0.671697562209021
-0.294015232998209 -0.332100971969454 0.685814775983684
-0.296538618872901 -0.331780825866514 0.698611124332958
-0.301040541390444 -0.330014518975339 0.700348609864901
-0.299740329252907 -0.331379292403779 0.71492979252003
-0.296919543403474 -0.332919933423759 0.721499084635583
-0.300613302013771 -0.331703732278613 0.727037194232187
-0.299281110451324 -0.332746583574845 0.735703216625842
-0.296763043697903 -0.334163177198191 0.742296209704409
-0.301436330104465 -0.333097733598666 0.75765545536374
-0.299664288749388 -0.333891427094999 0.758708882474999
-0.300823600109997 -0.334188597978284 0.772428217226478
-0.292113183908761 -0.328879120478462 0.775645644410666
-0.288582562221838 -0.321812704106525 0.775645644410666
-0.282575418534912 -0.314504206951544 0.775645644410666
-0.276151714272171 -0.30824932821667 0.775645644410666
0.173068014702153 0.130776651079698 0.241689687860682
0.174459444686875 0.129146107022524 0.255606903358873
0.177126108198469 0.124426098065846 0.26943734021255
0.175952644078867 0.128389110510693 0.278534952231102
0.174259252020929 0.133595277378234 0.287535449657904
0.175170300760302 0.131973721741917 0.292188118498502
0.175669998032553 0.133120685748654 0.311134494743322
0.177786690994289 0.129224228011415 0.320905734417396
0.178780571844384 0.127313391573285 0.324839411256282
0.176907942504608 0.13366467584405 0.339575333643397
0.180223797380736 0.1276165642573 0.355331403658647
0.179597921273784 0.129579082685873 0.358966520151521
0.179163065489525 0.132142077686997 0.371148739688991
0.17810005824693 0.135297060910131 0.375887924001337
0.178662256560339 0.135343412537584 0.387188239039858
0.18046878504755 0.13311235883121 0.404338889733088
0.180625368941711 0.134173709751724 0.415927098667308
0.180649089238636 0.135342958805165 0.425801580754654
0.18389555851932 0.128775533376023 0.43602812488358
0.183261418363618 0.130822716979943 0.440184243765951
0.18187923674636 0.135894853121538 0.454154509928251
0.180626513770196 0.139747220230306 0.460820821815375
0.182454924438253 0.1366847208066 0.471702943641043
0.182458905548497 0.138163699620269 0.483687352253615
0.185595731131778 0.131483762117299 0.490876993678595
0.180749530480068 0.144538833525453 0.501788369540389
0.182998179880212 0.139709170745145 0.506611285684158
0.185557714833858 0.135811626629003 0.524981059922345
0.184845120229953 0.138071740791374 0.529326573057644
0.185064587530337 0.140085356600645 0.549803550316647
0.186721870228508 0.135990305171046 0.549046633468519
0.186539946647772 0.138029911642188 0.561931239570609
0.187147659511958 0.138075491313708 0.574109981474305
0.184411205937031 0.145886365174343 0.583807148610779
0.18617352576148 0.143519210286768 0.599002809799828
0.185827855435124 0.144891632192236 0.603333358911697
0.18791474156487 0.141690036771104 0.618119488424686
0.190102511223773 0.137880969586965 0.629975775348443
0.187317486795528 0.14526399795018 0.635284379022535
0.188663621916557 0.143831327330504 0.649914271170001
0.190826719674768 0.139843923583622 0.65985526356033
0.188965909581542 0.144751504832814 0.66319788029572
0.190130778255564 0.144064325726993 0.680306431323482
0.191750968435631 0.141521962489618 0.69132901995601
0.191742003905951 0.143026624240366 0.703268580509344
0.189454264816377 0.149388214836562 0.710019213322566
0.191571521034418 0.145720728787741 0.72164481639196
0.191485315683027 0.14724594105452 0.732248537803377
0.193654791918541 0.143037253081678 0.740531980101186
0.191547726245595 0.150145307993606 0.756803933493773
0.194316805100947 0.144512549916815 0.765276559976451
0.198458267171857 0.145488573705246 0.775645644410666
0.207194893803629 0.160288536442405 0.775645644410666
0.213967865898633 0.170367997664621 0.775645644410666
-0.294050808210702 -0.317400431667687 0.426634983837053
-0.298386994530642 -0.31611579931843 0.435661655846798
-0.288810726547047 -0.32024307692128 0.438496991445827
-0.297668566206441 -0.317029035415212 0.446526903597706
-0.291256951481102 -0.320323832175926 0.457804515723246
-0.300239114142541 -0.317304003808025 0.470170786429587
-0.293937381886793 -0.319976992602833 0.471277791973521
-0.296235247297077 -0.320267975757658 0.493210951786303
-0.297957211004789 -0.31995417714689 0.500260787319751
-0.295469193126091 -0.321396399378237 0.507525744796632
-0.298400138636469 -0.320313905465882 0.509847266147496
-0.294075304605827 -0.323006503208741 0.525751806475494
-0.296948858768268 -0.322266024533385 0.533689781760106
-0.296434238951502 -0.322793257316805 0.539232594783868
-0.299832017486652 -0.322179461322781 0.553238478003828
-0.301021683742072 -0.321969472768579 0.558229199797561
-0.295863999973838 -0.324393144922923 0.563299378631624
-0.295320199614129 -0.32560404811902 0.58069451166785
-0.298876985382714 -0.324630681853979 0.589516953872048
-0.303148303638194 -0.323479890101614 0.60043149085893
-0.302213385742568 -0.324373008337059 0.609359115725353
-0.299985329615022 -0.32559596745426 0.614654812998993
-0.296766870304397 -0.327186519994019 0.619197897483659
-0.302280324545408 -0.325883313422571 0.636502798869706
-0.305587598787016 -0.324552624029406 0.639153864123325
-0.301170018737098 -0.327003786288699 0.64816073508526
-0.306130424429466 -0.3252143405664 0.655494564430751
-0.303723129256583 -0.326747338579361 0.66229854544982
-0.305735209620839 -0.327130108853769 0.683762455426736
-0.30068007327998 -0.329243670528223 0.684109344512408
-0.302531436520813 -0.329074180632657 0.694651919652761
-0.30350735671378 -0.328850292145512 0.697834810085503
-0.305484580369264 -0.328995341239849 0.714848531781825
-0.30651738326228 -0.328816308441856 0.719238872240716
-0.308711429937031 -0.328370075390414 0.733333604962017
-0.305760525811697 -0.329872526631733 0.732346590262212
-0.305427495045406 -0.330836362208826 0.746922157043313
-0.308753601885592 -0.330322580162009 0.763414139805283
-0.308576814730039 -0.330791098068532 0.769145395478395
-0.306315413378019 -0.3319686933771 0.773396738309447
-0.297794345484477 -0.324003382413555 0.775645644410666
-0.297025680505901 -0.318613031017555 0.775645644410667
-0.290308280835237 -0.310159186779771 0.775645644410666
0.168026672080332 0.142269123136854 0.236227948603502
0.168699884013255 0.141992059455519 0.247082208777757
0.170392504181986 0.138967877169289 0.255633529296228
0.168220207964038 0.144786465573558 0.26025633615927
0.16933827394934 0.144153584368469 0.276892352591376
0.169710571627299 0.144015893332662 0.283019972405145
0.17023710851428 0.144261736484069 0.295233230978755
0.1747175054294 0.135556353379067 0.312230593767225
0.169269318049658 0.148038961056774 0.306832661390998
0.172484957947509 0.14313295475742 0.329835820160142
0.173397452536218 0.141466674921019 0.334156523569283
0.175826697442083 0.137714961725847 0.351167982668435
0.172029455976801 0.146876757604684 0.351123252442565
0.174495666778653 0.142558601442348 0.364292852903621
0.173072470816375 0.147768511814412 0.37857514441657
0.176051107282425 0.142854633117086 0.396908415912531
0.175226685075383 0.144599729413844 0.394934067005631
0.174957693730875 0.147255918759564 0.411090397425114
0.17423732474203 0.149969818154846 0.418938158834147
0.176725841302163 0.145450335341434 0.430920454520334
0.178181100293886 0.142809328114569 0.437943197125775
0.17727394365609 0.146290738169031 0.44833957752922
0.176746589489125 0.148623897224231 0.456873582225347
0.17941863194743 0.14367925362883 0.469000067994247
0.178959195436208 0.145794714151926 0.477101494268997
0.177783978715761 0.149862438338935 0.487008059988445
0.178846475745621 0.14947046068127 0.504503489859229
0.177542333332454 0.152632249841687 0.504610653530739
0.179829676584477 0.14930874205416 0.522311462333938
0.178769512300919 0.15263158436065 0.52845731125225
0.178848096091047 0.154262020815717 0.543111093967159
0.179086073632052 0.15479445824542 0.552023106498482
0.181507202031861 0.149299572999991 0.554842800599293
0.182473458249104 0.149481846873073 0.575090860078157
0.184014060583889 0.147046920825368 0.585431502923299
0.181393859524676 0.15387138223982 0.589446753276398
0.183252230221273 0.151709923959627 0.608165335042096
0.182442462372275 0.153356649480873 0.605683847069783
0.184107772196706 0.152479077916749 0.630986382427344
0.18427013032673 0.152448545292878 0.633896236352461
0.185334114641091 0.151384210108952 0.646007527207383
0.184095835544346 0.1557630559387 0.657193175824294
0.184201042568866 0.15745774369091 0.672881697246035
0.183876214210163 0.158760343654276 0.677055214768445
0.187383594340547 0.151571654807597 0.687351246504666
0.18838575222734 0.150737793446509 0.700116359587979
0.185862583178138 0.158216640505838 0.711285926481642
0.185399249894517 0.160583508650013 0.721335657207888
0.187133124090288 0.157220390797054 0.727960092107774
0.18980527497431 0.152876032110178 0.744921486341041
0.186267822364771 0.162079255562633 0.750259658912887
0.188311691916386 0.158978985128637 0.765025450225478
0.18909297818002 0.158002414043858 0.772348666818729
0.194315992016795 0.164927704364901 0.775645644410666
0.212350666818894 0.17495748923202 0.775645644410666
-0.301453549123472 -0.313489698313529 0.423421636315625
-0.298909359931793 -0.316098501685442 0.439174963581642
-0.301670986054751 -0.314908090899105 0.447445846791042
-0.302543339497097 -0.315090371035045 0.460352724465001
-0.301787261534315 -0.315872117663221 0.463407775860627
-0.302486299997466 -0.315871270800403 0.471523925288783
-0.305362326816882 -0.314131241093418 0.478598612056888
-0.303308544504449 -0.31668645372986 0.493439710274791
-0.305891049102316 -0.315029846190426 0.498365343025955
-0.304517202192697 -0.316821816815972 0.509546379364145
-0.308311733954197 -0.314756684670551 0.522375269730859
-0.303645406347206 -0.318088608083299 0.518606600329215
-0.302991645205874 -0.319537431492761 0.532960994100349
-0.304354463983498 -0.31950279389739 0.548284019818021
-0.30542136980662 -0.318688655748449 0.548352633623626
-0.306356470155344 -0.318335622943147 0.553876538506468
-0.305870714377063 -0.319877280240762 0.571591527833751
-0.307675898338 -0.319492738144473 0.586755945453337
-0.311610647455534 -0.316607852797461 0.588792072115777
-0.306939639130128 -0.320467995920901 0.592974118414694
-0.310686050537068 -0.318819694643205 0.611560480224903
-0.307850185765807 -0.321367394466319 0.617193035859331
-0.310294482792373 -0.320460405782347 0.631871920731496
-0.311149500837438 -0.319993514867607 0.634739049210453
-0.309363717939363 -0.321805464765963 0.641432546326003
-0.307644597598217 -0.32393735172032 0.653749881719848
-0.314157225706202 -0.31922851707799 0.65812179376218
-0.307833318727219 -0.325126207479958 0.673961540992557
-0.314519288690363 -0.320367989606662 0.679600811339336
-0.313084147141167 -0.321927252072503 0.686542382027059
-0.312337499552369 -0.323495872412477 0.701632134499315
-0.310164540866656 -0.325441754852411 0.70585298085712
-0.310706158797075 -0.325762194852835 0.717007605760515
-0.312691518919729 -0.324377240150876 0.719106047471488
-0.315288914596533 -0.32342679983904 0.734906779507048
-0.309656780804235 -0.327968715949933 0.738244323082882
-0.312362806721536 -0.326187499202213 0.742717914294729
-0.316363188865406 -0.324359289906297 0.761531154633591
-0.31567492869005 -0.325157470734495 0.765623905602746
-0.31750858480666 -0.324283811265293 0.773706867799635
-0.308461754957899 -0.317583394954796 0.775645644410666
-0.295294797165295 -0.31511658966753 0.775645644410667
-0.296319777603253 -0.303149686349925 0.775645644410666
0.164159540444977 0.150296932439474 0.225695250135759
0.165532657589621 0.148539876040105 0.238237997522852
0.163662728452996 0.154730757928614 0.251735027504778
0.165101964589068 0.151564932321588 0.254221110818849
0.165440122659264 0.151978482219593 0.264123133088074
0.16471333456422 0.155550435671214 0.278754190428747
0.166535834839315 0.152671939768293 0.291002819052329
0.169223559647876 0.147544139181537 0.301959545561784
0.167522355107617 0.153270997520881 0.315000202576102
0.167290145014284 0.153902000843616 0.315566970554864
0.167031121170743 0.156571661109916 0.332025486212326
0.169019694460608 0.153272789892136 0.344117609698248
0.168248522754042 0.156102269748217 0.351908466529113
0.169903533698768 0.153396359879254 0.362291158912167
0.167083427202259 0.161672762657506 0.374110310741927
0.171863742585449 0.151248132085304 0.383095631225736
0.169593386268019 0.15741975781188 0.388654745786106
0.171719987451168 0.154385527138106 0.405560223083766
0.170198129878986 0.158569576814939 0.409665836166303
0.171153250516042 0.158440217836125 0.427188551439865
0.173606149174082 0.153717711037688 0.436844046447543
0.172770141291167 0.156298779212408 0.441374793439157
0.17399242375319 0.155920561746323 0.462086667708759
0.172610492939505 0.160415692327222 0.471416425985151
0.174832587157053 0.155289420433459 0.473335249229173
0.173681072913627 0.160393265168188 0.492044153649401
0.175723221558232 0.15645955311134 0.500066586885362
0.17699365444815 0.155049967642759 0.513410950601465
0.177346056732657 0.155070636770377 0.520426807597045
0.177500209924893 0.155517789878216 0.527022960595623
0.176226642215746 0.159407012268524 0.533580840833271
0.1779675837001 0.158255181446296 0.558145369039924
0.178693176988406 0.15631540181017 0.556631468096908
0.176967694909398 0.162397308501266 0.572058695114718
0.177690901200153 0.160996700372715 0.574839185891854
0.178610629918676 0.161140919948688 0.593876546218556
0.180642826792967 0.157752761156652 0.606097717309968
0.180745638410744 0.158646275151036 0.615289554363566
0.17796954568038 0.165680330382431 0.617962229863073
0.179441299321503 0.16364156462272 0.63015412307162
0.181409285175672 0.160218804005465 0.6408486852654
0.178826788011871 0.167978339161901 0.653124900112349
0.180410312305426 0.165790352369908 0.666287863703468
0.178315868558887 0.171164968741194 0.66993981388777
0.179977908205847 0.16866961812301 0.681063982272223
0.182407329084052 0.164288506381377 0.693011671197693
0.183768349988453 0.162052063924213 0.701459847406169
0.18203845395453 0.168450977881181 0.719353459282839
0.183752319164474 0.16579758343992 0.731302863854943
0.184693098397363 0.164669338494358 0.740504956407936
0.182823249993594 0.169179710560738 0.740474030618007
0.184183975112335 0.167798944948137 0.755805379870458
0.184163340230747 0.169161360846707 0.766372910712881
0.191302359168694 0.178620327921545 0.775645644410666
0.194857775162627 0.173207676308836 0.775645644410666
0.209933383603848 0.192095477036239 0.775645644410666
-0.308238250270664 -0.308951470248982 0.433542968616554
-0.309730776637587 -0.308265493258363 0.440503318529793
-0.311040288764882 -0.30759054197838 0.445502525281405
-0.310276316291113 -0.308596869244445 0.451869282785287
-0.311279884691732 -0.308639439138284 0.464184731249172
-0.312516443113935 -0.308324545732471 0.473792234933637
-0.308743689479291 -0.311659722378743 0.480464067696318
-0.311496272092359 -0.310163626256299 0.489800048499004
-0.313241658932262 -0.309430940470631 0.498992994362404
-0.31086741516963 -0.311979650955449 0.510008968295639
-0.310750064204335 -0.312684298760194 0.519323223540365
-0.316922998018818 -0.308761426087522 0.531656115757653
-0.313379318087625 -0.311757772399741 0.535856843419778
-0.312289353425548 -0.313607246441188 0.551210553497637
-0.31232716702503 -0.313618812257024 0.551825559998943
-0.31346873417552 -0.313556169982378 0.56415128347195
-0.313505889436551 -0.313589155593123 0.565083250347831
-0.312393506931058 -0.315731438721713 0.58461377669743
-0.315649124088798 -0.313637899896644 0.590745230973219
-0.313543271689054 -0.315729463660472 0.597954237564273
-0.316179913299922 -0.314177783776865 0.605099593295066
-0.315103320524157 -0.315525398321136 0.613003143485127
-0.314825057864458 -0.31679083754812 0.628944957393119
-0.316020171307177 -0.316338467138138 0.635987047343632
-0.313800853285946 -0.318433378210777 0.641927312405206
-0.318642165910436 -0.315833442340688 0.658824088414111
-0.316292329538496 -0.317576161934134 0.657909134086575
-0.313447427121211 -0.320289898306028 0.665952869393395
-0.318737152411454 -0.317134865619475 0.679651681643569
-0.320034427551896 -0.31645622005597 0.684452600125881
-0.317666878612936 -0.318831652886507 0.692920411516274
-0.320981932989764 -0.317032223598672 0.704200267078758
-0.32011371742009 -0.318728360042188 0.719808829959928
-0.319802660891612 -0.319033241298637 0.720812075781669
-0.31795342404193 -0.321143371509833 0.731286588866784
-0.32049750633702 -0.319670849509231 0.738555224442521
-0.318243748910413 -0.322341341525512 0.752817904605123
-0.322032132872953 -0.3197831193188 0.758102544846691
-0.324387951444045 -0.318892120848643 0.771994861807019
-0.32209685441317 -0.320877498025957 0.775440441148843
-0.316954534174297 -0.311446384870773 0.775645644410666
-0.307871253522992 -0.309939461141029 0.775645644410667
-0.305485291301496 -0.300248060026567 0.775645644410666
0.15879000120254 0.162048872094751 0.227293704395229
0.161006815070242 0.159248189156594 0.236482613109724
0.160303070726083 0.161252945066094 0.24235406738297
0.162900066897462 0.156648721674872 0.252352816181538
0.160193767040745 0.163092695977208 0.264091511844408
0.161432833014768 0.162411858934898 0.276052590369835
0.164415462280741 0.15672347116388 0.282408535103983
0.163405381168783 0.161168286570187 0.298560655680602
0.16459237486366 0.159972492034065 0.312004454553414
0.159987373715843 0.167324767916755 0.314847049642133
0.16295069463073 0.164397883985607 0.326821523048241
0.163903513171408 0.164146320808831 0.339502728274115
0.163230711611679 0.166093311321211 0.353208552581539
0.163789424824522 0.166061873718305 0.362131114157866
0.166108481047039 0.16320577965663 0.367502891420989
0.16516412829078 0.165169615806362 0.373648369019324
0.164682961120752 0.167494349722197 0.395390437800687
0.16640186688268 0.165263616010022 0.395510668940722
0.167000966555804 0.165302881777485 0.406012800692013
0.167019399989432 0.166992010157288 0.427953207668538
0.166793033900781 0.166880880408853 0.422751808187923
0.165787751555243 0.169506581630367 0.439600652012738
0.169432034201174 0.165647146981045 0.451756071768903
0.164495277447987 0.173062103860977 0.463564391401857
0.170095329182664 0.166523469854708 0.473291285029354
0.170733675297863 0.165969780670083 0.479652841363206
0.167648600637537 0.171430342392203 0.495296784056641
0.167759364773204 0.172358906120779 0.509037647310528
0.167910672136237 0.172748669736365 0.516554758286274
0.170426914867887 0.169880423191311 0.521818259750652
0.170709404377074 0.170666512143754 0.536600618699869
0.171676750073766 0.169872783560901 0.542580751807023
0.171730148262413 0.171127286832538 0.559538473245364
0.173718512288113 0.169393217076211 0.570516886604501
0.173572482191888 0.170446169348922 0.581564783997179
0.174916136947363 0.169115001120134 0.586942676890157
0.172672891465526 0.17256389587507 0.593672015154232
0.174717235544577 0.17090750017943 0.606579536987036
0.172367550402952 0.17447612206679 0.613065698488168
0.174756042848936 0.172605348343275 0.628971668051685
0.175293898261973 0.172888668968776 0.641577226227807
0.175328344140369 0.173999637458789 0.656380368250395
0.173743771967029 0.176114200508052 0.657014424436619
0.178605045460949 0.171149001039137 0.674561812313993
0.178946395931051 0.171009203011053 0.679850671264883
0.177355299972316 0.174349368149151 0.694690224436552
0.177221036139447 0.175327230967544 0.70497283218502
0.177992940890659 0.175229752373506 0.716607870087079
0.177577234949607 0.176327700209929 0.723731011955049
0.178172310572559 0.176288211331343 0.733157366078597
0.182027641473257 0.172292418268496 0.7500701459601
0.180133881167701 0.175659170209002 0.757840736792722
0.176283090467235 0.180888929195519 0.760547004380814
0.186701484692443 0.179874940855574 0.775645644410666
0.184902761685932 0.186288818207807 0.775645644410666
-0.315329391613542 -0.303488767059377 0.433217454366213
-0.312666411127333 -0.305535322357435 0.433265624434583
-0.311876121884707 -0.306884653538799 0.444524558807575
-0.315856087983455 -0.304503536185172 0.454721087186889
-0.319186733856368 -0.302505668552129 0.463174928712869
-0.318568322686409 -0.303686218760609 0.473874731730247
-0.318213270805805 -0.304373843860785 0.480166830479355
-0.31525931923691 -0.307668026069579 0.495739085770985
-0.318339382115715 -0.305778377693366 0.502919004098118
-0.321736947071579 -0.304009188171029 0.51561664162454
-0.315808740894366 -0.309173282042201 0.524940293534784
-0.321367986274728 -0.305404249408344 0.532468160332451
-0.318973435963879 -0.307831904494165 0.541413403992266
-0.322590121924057 -0.305504481376814 0.548199151465622
-0.318085546162726 -0.309235543152852 0.55236038774614
-0.324236671429419 -0.305476155846324 0.566917286217344
-0.319313634141147 -0.309426691427768 0.569538430060016
-0.321995953075132 -0.308260470025594 0.58305656519755
-0.320989294677451 -0.309359070379653 0.587999569511166
-0.321206010825111 -0.309832965229308 0.597701575788877
-0.319051408666454 -0.312136472441728 0.607555674624714
-0.322202889665047 -0.310208331600721 0.614982748866648
-0.323786718830002 -0.309501945988441 0.622695549647319
-0.318801339802587 -0.314068963331414 0.63393448785424
-0.327462509801931 -0.308410205895493 0.64889534071277
-0.322856041878936 -0.312334656885204 0.654802497848091
-0.325331706451953 -0.310980690416001 0.663072220868047
-0.322474340611998 -0.313651339689476 0.670318038320821
-0.324866153625558 -0.312355473089029 0.678493168710857
-0.324247468510199 -0.313295620768354 0.685546496136633
-0.325770753905456 -0.3128608976389 0.696672278264438
-0.327393456209462 -0.312133347660209 0.70451638223133
-0.32922916903936 -0.311413351761144 0.714952026311122
-0.324250013997301 -0.315732372799794 0.722504968776865
-0.326209980504795 -0.315015161425765 0.734427734288782
-0.326613494241293 -0.314900740340332 0.737386071179966
-0.329167295561887 -0.3137038378137 0.7489447286397
-0.32607260279382 -0.316588655433667 0.756676429003073
-0.327129909301698 -0.316796261184801 0.772117898842519
-0.324221845853716 -0.316673532264414 0.775645644410666
-0.323588535758627 -0.313131527187105 0.775645644410666
-0.307083456794861 -0.297918032792743 0.775645644410666
-0.307026512314265 -0.292148615503975 0.775645644410666
0.154889844795479 0.16686533960947 0.223882992521704
0.156458122623026 0.165380555078142 0.23104257835961
0.156111016844967 0.166638763137821 0.241363148982335
0.155067670060141 0.168628411344329 0.249430719508351
0.158762072856831 0.165400756899779 0.269755309162461
0.155718247426766 0.169896929708181 0.27653513218529
0.157429415497691 0.16860035951054 0.288490092476616
0.159300921206795 0.166443694286549 0.292105886499681
0.160079669000541 0.166506138166838 0.305903272414774
0.154394881969376 0.174983925264487 0.31959692939587
0.155149970200803 0.17438164182807 0.324486233042154
0.16064348825113 0.168759914032626 0.344177889485336
0.160487577607844 0.169269503736976 0.348102006686568
0.158751044544375 0.172307389181476 0.358024796780446
0.160217433754762 0.171190462360625 0.368194984535845
0.158974487754853 0.174081028989071 0.384469254372969
0.158368425086884 0.175641341656939 0.394336781117296
0.161580308063152 0.171707101507647 0.397558614257653
0.160873512771598 0.173388611614451 0.407297047620672
0.15830335978039 0.177709013598853 0.41973157983586
0.160361901894233 0.17554041446497 0.426316260654565
0.164653298068142 0.171557816549147 0.446936352977689
0.162360465645035 0.175330689134052 0.456987260915055
0.161367095392004 0.177246244316162 0.464940050341575
0.162679764481199 0.176585495972862 0.478386876111973
0.162056799150436 0.177541664644565 0.480234989750603
0.16171730818515 0.178731980566744 0.489813157445982
0.160672429983531 0.18095485876984 0.500842155136868
0.159306720520342 0.183846888176206 0.515086179315496
0.162690670989351 0.180075780588479 0.523269145422513
0.164210613681004 0.179138324661865 0.536631657730442
0.163863681638721 0.179970251496317 0.541495724949549
0.168652403042295 0.174990106824825 0.557640780670951
0.169198489164247 0.175130186361223 0.568549218046855
0.165556462092069 0.180440379172048 0.575769967729992
0.164917684673688 0.182690048621968 0.593920093830029
0.167822525236616 0.178688644441891 0.591157072917193
0.163171791440825 0.186405514085732 0.612364456602101
0.164380177983017 0.184985114929024 0.614341875284506
0.168513234835121 0.1802977457717 0.623293172893992
0.166944073674978 0.18403313556325 0.644942448255144
0.164607243489716 0.187632780146482 0.652040474064086
0.166564564274231 0.185413271218515 0.656283719574893
0.168744767471955 0.183131817333713 0.66345364473579
0.169170299205527 0.183988218093533 0.681523931729184
0.167663397658366 0.187044951128792 0.695520761004798
0.167413250900536 0.187928699655792 0.702663902596857
0.171917685251777 0.182460058040724 0.707807871993773
0.166160734473792 0.190769268024759 0.71813810754721
0.175377370359689 0.179915407272936 0.732962173134352
0.172390486397047 0.18496331965541 0.747758529777885
0.168377484510722 0.191096800048 0.759331418287774
0.174009299948658 0.183976542954656 0.762139589494097
0.171862458604708 0.187647488416847 0.773321771388724
0.176699035178588 0.191867127761864 0.775645644410666
0.190776540194188 0.210917144304397 0.775645644410666
-0.322059284206864 -0.29810332166328 0.429861886532214
-0.325718492774092 -0.296272085919827 0.444661819403933
-0.324178168182316 -0.29763063083777 0.447338370997575
-0.324597275609209 -0.297826399961466 0.455178963115235
-0.321601730713526 -0.300583720771813 0.46213142634647
-0.322516318164411 -0.300630571388183 0.473477006655555
-0.324045680328634 -0.300108417359388 0.483348442860174
-0.321244472589936 -0.302615915856695 0.488774769094437
-0.324473345009287 -0.300630195951939 0.496229205035477
-0.327537155561018 -0.298895669336355 0.505570991756778
-0.32301073065243 -0.303014516139869 0.515355013835699
-0.322851749643145 -0.304003203641155 0.52848977063815
-0.326720609112919 -0.30135467210546 0.533341611071956
-0.326429388248806 -0.302465206460917 0.546785159888341
-0.328231709180661 -0.301347623100502 0.550807075236293
-0.324731190185463 -0.305301818289651 0.570025871415427
-0.328637685539348 -0.302592238126156 0.574390182979582
-0.33190230896752 -0.300954519017576 0.587534297530746
-0.327267940897938 -0.304933423945857 0.593942256321428
-0.327055420009524 -0.305348416032735 0.597760078989145
-0.331560495689613 -0.30277236661491 0.61110881850875
-0.330850975385094 -0.303684460368502 0.616680684990521
-0.330441779997362 -0.304884977395095 0.630116014292859
-0.333643002006634 -0.303072443416998 0.639873534172009
-0.332074044970187 -0.304771620792712 0.647379394750624
-0.332964946730331 -0.304551800899117 0.654408158679231
-0.332245493042134 -0.305713954399178 0.66365415640031
-0.332169812902773 -0.306508862809093 0.674820889218827
-0.328122710456916 -0.30994010609009 0.679758258212296
-0.33002397705756 -0.309298255229638 0.692140499142056
-0.32975330240072 -0.309830841498976 0.697064197591729
-0.332280062306618 -0.308784667613447 0.710592681688084
-0.335185092798875 -0.307231328141395 0.720833929016383
-0.334485349676288 -0.308070070146056 0.725407849879986
-0.329335437783293 -0.312243126818868 0.728763010175382
-0.335369926657997 -0.308701308308102 0.745260812208811
-0.333221566363517 -0.310662457250122 0.749999071697534
-0.332634787563988 -0.31188029378639 0.761631794140963
-0.333237594174147 -0.312091742148651 0.771846206848127
-0.330480714655395 -0.307077989459322 0.775645644410666
-0.326804858499089 -0.302335427273947 0.775645644410666
-0.316962934437975 -0.286858484657803 0.775645644410666
-0.31401378207595 -0.286551645143479 0.775645644410666
0.149290549820655 0.173676751753581 0.217662211648304
0.146615995937876 0.177584307553784 0.22306690428657
0.146027873111854 0.179962677035224 0.243710746370392
0.150579952554273 0.174874566028205 0.254523407474824
0.147924921570449 0.179590556675194 0.270607608444804
0.14743251296482 0.180317064098732 0.271693492682744
0.147944138633944 0.181065980973023 0.289824176624441
0.147432202949124 0.182111391298013 0.294668348827681
0.1521694234124 0.17727907947991 0.31184713191912
0.150934590315955 0.179307380317395 0.317213732508021
0.150693433635533 0.180289604511159 0.325768105054772
0.154725016557544 0.176193289267663 0.340595409880138
0.153239221647741 0.178770326340134 0.348801030668124
0.151141158805705 0.182128400800337 0.356790395312718
0.154708301298716 0.178615283848841 0.371335019705091
0.148438691433981 0.187335692777621 0.378374979412121
0.155002627751189 0.17967445136694 0.389812272436115
0.153594056267307 0.182509469684835 0.402610765860749
0.155126858709543 0.181389220376057 0.413846870210259
0.149557313161985 0.188872267230022 0.416724277594812
0.153778053187744 0.183974554099064 0.424445163428967
0.154663759113359 0.18423168143208 0.442521050382417
0.152557486888857 0.187168737463741 0.444981394343417
0.155416418907486 0.184840446283949 0.462879773055827
0.15206344249491 0.189550378880047 0.467237353204514
0.156140589458298 0.185052162020299 0.477677970786548
0.157185718123714 0.184372541669776 0.486417727306516
0.157780789807207 0.184950206257722 0.503747928331794
0.157583563264763 0.186258737565998 0.517214545522546
0.15647010928543 0.188653685247223 0.52930268313526
0.159002471571201 0.185318613511718 0.528856575933818
0.158476024413155 0.187220347320602 0.544425518870166
0.155574705819077 0.19207945635377 0.558231988342842
0.159936963514978 0.187049616607312 0.56662271856471
0.158470181288281 0.190075682798053 0.580896406351776
0.159910923529082 0.188991950890745 0.59106366298478
0.160193125056066 0.189145328494588 0.597738052216696
0.157943467910406 0.192721111512593 0.605985440602479
0.162453562313275 0.18765803307736 0.616417945084407
0.162772667700576 0.188004746743265 0.626184340759307
0.163181710725213 0.188198717554043 0.635495652867728
0.163741274590709 0.188673006498067 0.650909275235005
0.165982986326323 0.186826970473778 0.66468222305304
0.164655047723624 0.188844893662305 0.668361942245769
0.16067347405465 0.194576605588506 0.675313915265527
0.161681018451586 0.194657433614031 0.69316546990457
0.166495767119561 0.188944634480719 0.700361793642518
0.16261825098286 0.195009028038783 0.713311204326482
0.166526550412157 0.190848159107884 0.725254108070591
0.163204768390031 0.195794245769605 0.733156773072943
0.163789166450286 0.19577729102929 0.742693509428368
0.162715819778241 0.198281387753387 0.756848933507169
0.164053073069383 0.196628732886273 0.758002688900764
0.167846119338264 0.193031543728667 0.775241036203958
0.170084176714053 0.20849923828642 0.775645644410667
-0.32733320455019 -0.294084027189501 0.430279056088839
-0.329333097949007 -0.293202303728149 0.440172950157649
-0.331099631761966 -0.292203254623971 0.445575085522758
-0.331709524728477 -0.292588955321879 0.4585126907139
-0.330133121603157 -0.294584829399276 0.470428387843324
-0.332157069849123 -0.292990249706971 0.469798705741524
-0.331948990127882 -0.293743086707459 0.478788198942523
-0.32963937589243 -0.296679709842108 0.496434536627802
-0.333259078921098 -0.294765400640538 0.509516092538183
-0.332060387674669 -0.29624106225028 0.517940330878706
-0.331371002968106 -0.296796905827967 0.518347394339292
-0.332377454345325 -0.297048835429647 0.533869205701323
-0.334340953723191 -0.295586804451348 0.53454534538845
-0.331554888620493 -0.298717710776235 0.54959548108734
-0.333360842064579 -0.297730183984315 0.555630639891453
-0.333225593859577 -0.298478726016179 0.565401986697893
-0.335287443965115 -0.297362045823573 0.572455604269723
-0.334375318031249 -0.29927864778688 0.590894687404935
-0.33504114255965 -0.299497662697803 0.601956594058834
-0.338000608630412 -0.296896589899674 0.59695250899258
-0.331871990385905 -0.302433054637301 0.609588871965841
-0.335089427071264 -0.300641936174617 0.619859500398933
-0.336736201037576 -0.299865809836861 0.627247356467696
-0.33879022642874 -0.298859991430953 0.635890087527031
-0.333321340471272 -0.303513107954842 0.642811246169748
-0.335964107843773 -0.30252784258819 0.658611824712616
-0.338359939034565 -0.301287005549991 0.667667652347617
