ply
format ascii 1.0
element vertex 852
property float x
property float y
property float z
end_header
0.117585011077133 -0.152457028152556 0.751985119890671
0.115046457428656 -0.157604705722856 0.761742985923098
0.11887481073103 -0.149841573185699 0.767545881462809
0.118478751382799 -0.150644702095193 0.786559481482501
0.117369288620078 -0.152894470021969 0.796191913978197
0.114408757791256 -0.158897832666225 0.792387672278885
0.11479210265918 -0.158120486172292 0.803387199878001
0.115692332766348 -0.156295000099324 0.820099342163868
0.118455890177429 -0.15069106003377 0.831430068987014
0.119171314169885 -0.149240323689701 0.834225689229075
0.117604585587921 -0.152417334971286 0.849532325285608
0.113874697803067 -0.15578879974451 0.857871725467687
0.109967627586521 -0.156319204126576 0.862789189675373
0.0976473702987194 -0.155393154042992 0.868176844483643
0.0940109759721279 -0.156100933809095 0.868245978147827
-0.40306031341267 -0.177752701729703 0.517758042153065
-0.396867995352152 -0.184813687197187 0.528444349858997
-0.402020158902524 -0.178938770631251 0.538758010982447
-0.402122327840647 -0.178822269285509 0.54524083979875
-0.403501314414422 -0.177188584488864 0.554480877027484
-0.3990719666753 -0.182300539563068 0.583187898525984
-0.39896164833874 -0.182426333516743 0.582526039896395
-0.397001094226926 -0.18466191701818 0.594858135073012
-0.400744457442121 -0.180393429352706 0.608842076703628
-0.39654043779993 -0.185187195000469 0.626509084931073
-0.400654579905904 -0.180495915040761 0.627462224643019
-0.403912523898819 -0.176573166004852 0.643204803083101
-0.395951998787003 -0.185858181096173 0.661285957417838
-0.396495422463701 -0.185238525153704 0.665361717298649
-0.396274752180031 -0.185490151386541 0.675997952809086
-0.403896459411923 -0.176597208208514 0.682788656483007
-0.401214911550931 -0.179856979255511 0.702198651059196
-0.402063540584811 -0.178889303303316 0.708885791681747
-0.396400386723764 -0.185346892645817 0.724284709358747
-0.403110166403091 -0.177695855289091 0.72564873189136
-0.395168895381078 -0.186751139389776 0.740976224125089
-0.397604829331848 -0.183973489072392 0.754293532007748
-0.402922916005999 -0.177909373444931 0.769388917338578
-0.403689433126066 -0.176907044940951 0.782753321282233
-0.400741753998571 -0.180396512039261 0.79168335848332
-0.400074375024662 -0.18115751190878 0.799592567424762
-0.396147214225616 -0.185635580551173 0.820863065596843
-0.398724990045895 -0.182696190579997 0.824796468553586
-0.3971510900032 -0.18449087961569 0.840532250627872
-0.402070931520787 -0.178880875556064 0.847245829877124
-0.399079651780917 -0.184069738739973 0.856222226647668
-0.407393481428307 -0.182864156418241 0.864053930022537
-0.416201553518267 -0.186458300243223 0.868061655977921
0.121759711422889 -0.143991573287948 0.110042087726572
0.124051948484275 -0.139343376345651 0.120084993020803
0.119990101961348 -0.147579986295816 0.129956429591051
0.120259943084164 -0.147032802628339 0.146289761310002
0.122960966125395 -0.141555669720571 0.149932042515458
0.123908826336545 -0.139633599351231 0.160318903825364
0.122556967937288 -0.142374897004818 0.166755379478657
0.119963235840162 -0.14763446540029 0.170452185604319
0.120206620588785 -0.147140929952579 0.181673296939472
0.122679817186333 -0.142125783371069 0.197254955605403
0.123834642762885 -0.139784028757534 0.20452574883567
0.121144425761157 -0.14523924918486 0.212420356831466
0.121399218608215 -0.144722580401964 0.228626211162412
0.120821665187383 -0.145893742883346 0.239132067218875
0.120056740096174 -0.147444857525867 0.241637512220662
0.123808602143217 -0.139836833910527 0.256882204175603
0.119547210119155 -0.148478082108561 0.261925398859361
0.122587062285933 -0.142313871702631 0.268595616350057
0.119939079285021 -0.147683450048359 0.291498590956328
0.120645778228842 -0.146250406352692 0.299743240207679
0.121766255013797 -0.143978304198218 0.29592675026825
0.123248798618402 -0.140972003163377 0.321556853710352
0.119884724252574 -0.14779367115065 0.319661867720613
0.120146886632658 -0.147262058433092 0.323893052919722
0.123621820562653 -0.140215589487896 0.346754825191925
0.122760596955428 -0.141961978203605 0.350346509167713
0.120944349103353 -0.145644964511908 0.363927087239224
0.124054668575772 -0.139337860545742 0.376491296082533
0.123084240700815 -0.141305693610253 0.381433326793099
0.123452441848176 -0.140559055543822 0.393748067898055
0.119297495193443 -0.148984453885588 0.394840134979533
0.123107487019319 -0.141258554739493 0.409784960391229
0.122504390716535 -0.142481513061619 0.416629627988453
0.122277716482382 -0.142941162938082 0.424299077688258
0.119291934608205 -0.148995729637008 0.430279447064506
0.120820738927099 -0.145895621153396 0.443082197546484
0.122513395834837 -0.142463252488111 0.459238194330373
0.12033340485278 -0.146883836897867 0.466359047550611
0.12392348408086 -0.139603876386074 0.485544490701548
0.120358213654954 -0.146833529623656 0.482133908788448
0.124277594029755 -0.138885812443466 0.497311636849616
0.122959333900271 -0.141558979545698 0.501248585078293
0.124305139584044 -0.138829955584952 0.523381944972337
0.123636528060831 -0.140185765631886 0.527512883908392
0.120133713719365 -0.14728877045879 0.538702816102053
0.121932369732958 -0.143641456870043 0.541450969547947
0.120358224451508 -0.14683350773041 0.551597478617266
0.121272952734723 -0.144978622264722 0.56183531186576
0.121888325171915 -0.143730770404585 0.5698300050074
0.121316704711068 -0.144889902033257 0.575139781168727
0.124364042932888 -0.138710511409391 0.594180932200647
0.123572646320692 -0.140315304986337 0.605145034241838
0.119657111258926 -0.148255224643055 0.602531300593652
0.120049168462822 -0.147460211279448 0.619790244113933
0.123612916669186 -0.140233644797744 0.633650734311201
0.121698694779264 -0.144115302801403 0.641776679280915
0.119806285500862 -0.147952729204465 0.649032220082939
0.121719388953701 -0.144073339166853 0.659857645689375
0.121674959848103 -0.144163432480616 0.67242966569166
0.12411455510907 -0.139216422669331 0.677937295659897
0.120458149584578 -0.146630879605327 0.684386354970097
0.124219422242421 -0.139003773159033 0.697632168790805
0.12123684833358 -0.145051834747771 0.709885726573431
0.122592349535292 -0.142303150221545 0.715760565509671
0.120306549070638 -0.146938295036837 0.730957629070053
0.121664432407114 -0.14418478001916 0.732655807478914
0.121571507341916 -0.144373213410797 0.742475296007499
0.122692352833171 -0.142100363593909 0.757373909362879
0.120662215491639 -0.146217074881022 0.766497846186555
0.124068280859485 -0.139310257564968 0.777153531508646
0.122896667976146 -0.141686053469165 0.78664017251189
0.11983352560693 -0.147897491733669 0.790317664508443
0.120138058120495 -0.147279960884778 0.795827259786028
0.123293627960306 -0.140881098250672 0.812428016449101
0.123183627550056 -0.141104157016797 0.819497270289029
0.119439173419047 -0.148697158864432 0.835486368193657
0.123533374387904 -0.14039494058816 0.83585442014575
0.122520966369604 -0.142447900962238 0.847909523310457
0.119407260532401 -0.140359338968079 0.860951249387336
0.117296360561701 -0.142189411918833 0.862366700094633
0.109384685157307 -0.141694855797455 0.867202433871892
-0.409952648198545 -0.167533481170665 0.499048627571672
-0.410544431360943 -0.166647815079573 0.511223847526267
-0.405901821236737 -0.17359597214527 0.527102618402031
-0.407108986857631 -0.171789321120546 0.529457797684333
-0.40503656006072 -0.174890927007507 0.539984701447719
-0.40621401822857 -0.173128736328204 0.559611844971227
-0.404336021513716 -0.175939357033922 0.570472029131045
-0.407143445002923 -0.171737750861733 0.588096099760843
-0.410636535669968 -0.16650997123992 0.587375656785019
-0.409808043327251 -0.167749897654354 0.603389381110096
-0.410394014623771 -0.166872929635226 0.61414017926296
-0.408449637410787 -0.169782895776973 0.623070031620125
-0.408853916343319 -0.169177849596822 0.638809382224472
-0.405406598891562 -0.174337124760858 0.644444162716023
-0.411258053082019 -0.165579804699447 0.658852502216359
-0.40587808743546 -0.173631492289029 0.671011936604842
-0.408680319461878 -0.169437655689966 0.684633934091654
-0.404596781845536 -0.175549101618646 0.696845474163328
-0.405179136519867 -0.174677546257128 0.70510443058537
-0.405149060790077 -0.174722557767647 0.72092576696168
-0.406794701186138 -0.172259682867627 0.729993018442732
-0.406980425797471 -0.171981726344037 0.734104373451423
-0.407521262476101 -0.171172307054138 0.7562651371124
-0.410955881466915 -0.166032036479925 0.767201003747875
-0.405235332409703 -0.17459344316456 0.776508783513849
-0.411015680098771 -0.16594254150289 0.77921882696779
-0.407429191790279 -0.171310100573111 0.795820352449489
-0.409454514819265 -0.168278990456671 0.80029543102463
-0.407746010169344 -0.170835948361285 0.820641329290102
-0.408253610581544 -0.170076270659255 0.835877488430971
-0.411335464776027 -0.165463949912098 0.839157110946687
-0.40728668270509 -0.171523380491237 0.848304354544033
-0.413639073268455 -0.165742248103893 0.85839412265897
-0.424643189415232 -0.169339330278007 0.86766044894563
-0.427605923791643 -0.166862140139294 0.867876332728412
0.124596029408757 -0.138240089372354 0.116753393888431
0.128330173593394 -0.130667994027805 0.13143472045628
0.125351385865508 -0.136708378001066 0.130311534083883
0.124904551645854 -0.137614468164469 0.136779669629745
0.124920115738963 -0.137582907305768 0.151119914124426
0.124448373133606 -0.138539506678807 0.160077808390324
0.125934735954821 -0.135525461038807 0.178799582682269
0.125312087581844 -0.136788067037177 0.187068427576754
0.125677762050791 -0.136046552567726 0.193695684787607
0.125737058813173 -0.135926310628425 0.203124675030989
0.128363132601212 -0.130601159771462 0.217721221012519
0.127190151011469 -0.132979731137686 0.222243464846798
0.125978748139369 -0.135436213157298 0.230946760837686
0.127710671920887 -0.131924219148847 0.23868632822607
0.126875569921171 -0.133617638484471 0.25144205699554
0.124972037038585 -0.137477621325445 0.258876298241384
0.125693044408251 -0.136015563012405 0.271601576788934
0.126002045952313 -0.135388969866145 0.27678584235531
0.125382475954199 -0.13664533353781 0.282759768000448
0.126467683648391 -0.134444750024494 0.301174646085907
0.125284229832924 -0.136844556963779 0.309551417275094
0.127696770764018 -0.131952407906431 0.315604574943698
0.128877934206611 -0.129557245383891 0.332871490025955
0.126982160533505 -0.133401494104522 0.334870818139291
0.126037765508553 -0.135316537771361 0.349771080182433
0.127578547957364 -0.132192140043067 0.357927924428618
0.12880859561795 -0.129697850132513 0.369375255259977
0.126536436678515 -0.134305332671123 0.384070427497345
0.126269280479004 -0.134847071852731 0.389902563126412
0.127928142862951 -0.13148323170258 0.396215907699215
0.124823088016795 -0.137779660062758 0.400435543852146
0.126335757902105 -0.134712268973919 0.410172913073361
0.12758317355471 -0.132182760259535 0.426332006099258
0.124227637690922 -0.138987113877478 0.428646173851632
0.127466788490937 -0.132418765822254 0.448760502265088
0.12669385288907 -0.133986124173496 0.450234510821136
0.128458735153923 -0.130407296972247 0.467935070816179
0.12844977925446 -0.130425457739821 0.473126646933776
0.127980277567918 -0.131377512979024 0.482720565000281
0.124276997692709 -0.138887021695371 0.486184038862084
0.124483440495726 -0.138468397102867 0.501000358543923
0.126795711794947 -0.133779574745072 0.505108520191924
0.126416953426448 -0.134547620738212 0.522735438528991
0.12744045177934 -0.13247217139028 0.536972273978944
0.127366559219693 -0.132622010678544 0.535714993840676
0.128611340517004 -0.13009784390825 0.550265529613338
0.126836533189335 -0.133696797145942 0.560839612267049
0.12635076832986 -0.134681830837493 0.563709887718294
0.124876217623524 -0.137671923878006 0.573015296062035
0.124353212098472 -0.138732474168942 0.589477961023114
0.128759504063972 -0.129797397956313 0.600184874291215
0.125095251787366 -0.137227766531551 0.603329596242894
0.126412546703804 -0.134556556687755 0.611945268515742
0.12532093110539 -0.136770134145421 0.627428156291425
0.127735586317304 -0.131873697750691 0.630303132151224
0.128042266783011 -0.131251811285728 0.641781079775231
0.124623537688047 -0.138184308100061 0.648179418524315
0.128310919319224 -0.130707037833453 0.665049398442713
0.127051882206646 -0.13326011253742 0.669972653095273
0.126540440868494 -0.134297212977078 0.682947040227182
0.126437566603019 -0.134505821351089 0.691983062265192
0.125524852593637 -0.136356622273501 0.697025177120765
0.124998283007879 -0.137424399764606 0.709012040946663
0.12852045872733 -0.130282133947002 0.722460556124805
0.127950485526148 -0.131437925263508 0.73219345430652
0.125288005895715 -0.13683689986591 0.735671938324975
0.124958356546466 -0.137505362619185 0.74317546878484
0.124701822860099 -0.138025561474989 0.75522097253098
0.127765706078408 -0.131812620917135 0.771879793939057
0.128534845669563 -0.130252960114147 0.782674281636579
0.12436636961563 -0.138705793363518 0.779631606577732
0.124297882727273 -0.138844671034772 0.800204619921917
0.125106789958548 -0.137204369434928 0.804534016632412
0.128151803669655 -0.131029692452497 0.815875599262725
0.128773294362542 -0.129769433997118 0.824310830628212
0.125215766310599 -0.136983387253407 0.830078091382355
0.124818437637629 -0.137789090098849 0.840216043397019
0.126686484055151 -0.134001066690511 0.849022308058852
0.121753685153275 -0.133707809741757 0.862044979669356
0.116629058507525 -0.136672179506765 0.864984974870973
0.107230601754638 -0.139355007494995 0.867978750939581
0.0936233084222267 -0.140204998643391 0.866095628120188
-0.412071719304655 -0.164362067141763 0.50629863198914
-0.41200829431341 -0.164456989349158 0.515189278614516
-0.414060652201637 -0.161385418706585 0.531144104946108
-0.413745931469773 -0.161856431567524 0.541435859352331
-0.418750985733162 -0.154365838514481 0.545457562597491
-0.412801848662211 -0.163269351337753 0.556752645367673
-0.414229761126394 -0.161132329315275 0.571365911554212
-0.41179736115722 -0.164772673126249 0.586209680855347
-0.41313154690332 -0.16277592305017 0.602728198742164
-0.418902300352243 -0.15413938018359 0.599933444316995
-0.418362782517723 -0.154946825683793 0.61908436940739
-0.418046250775366 -0.155420548913472 0.624022799102319
-0.41251879721669 -0.163692967762252 0.650820529726329
-0.417805456057092 -0.155780923676459 0.652287765812886
-0.417900115746723 -0.155639255439464 0.665436209422869
-0.418323460944387 -0.155005674577044 0.675948850871218
-0.411938890919427 -0.164560858868541 0.697289308619478
-0.418088911694048 -0.155356702336731 0.705506367482082
-0.416460542670307 -0.157793728801408 0.707173357739669
-0.417499422120052 -0.156238935830205 0.724910078915606
-0.417180121292544 -0.156716803288677 0.727578052472592
-0.418722070021685 -0.154409113934909 0.734468390906169
-0.417607283043238 -0.156077510550998 0.754036580413588
-0.416947206133236 -0.157065385458309 0.759970199211344
-0.415256822693314 -0.159595223055611 0.774700279220083
-0.416497145140976 -0.157738949332875 0.786718148973092
-0.416375870703138 -0.15792044935541 0.797704207385784
-0.413158193777483 -0.162736043184739 0.81876166119879
-0.412860568137453 -0.163181471432726 0.820960799956464
-0.414311384496334 -0.161010171309456 0.836706763310623
-0.415315279073918 -0.159869012152441 0.851697338754072
-0.41557141486977 -0.161836211029457 0.857031049316634
-0.417158515266935 -0.164881297817219 0.861998208771036
-0.438034932403891 -0.158408002954543 0.868374112401051
0.130984502142338 -0.125192747350829 0.127460168007317
0.130316203032548 -0.126640724718757 0.131567522921327
0.129222509685634 -0.128858515433588 0.139445333562274
0.131362382980047 -0.124079546299899 0.152059037243613
0.130754166108528 -0.125752623455189 0.1594399272447
0.1325698787138 -0.12052237857487 0.175128069350984
0.132822850058315 -0.119777149025056 0.185711554311771
0.130277419514261 -0.126719369913946 0.189830969755551
0.131436833392442 -0.123860222457435 0.197805346542536
0.131483598652391 -0.123722456444114 0.200845300744739
0.130141310100644 -0.126995372501483 0.211847952078199
0.129794497201291 -0.127698639491393 0.232165327727195
0.131788149724954 -0.122825277915309 0.234951058581714
0.130716485837663 -0.125829031485916 0.244421220180871
0.129741182552312 -0.127806750904711 0.259525876783022
0.132225351947551 -0.121537321699761 0.270229995563357
0.131675652713936 -0.123156683423065 0.279915619594654
0.132342133999822 -0.121193292867535 0.282808760101475
0.130114631359531 -0.127049471636758 0.291960967413223
0.129639613471137 -0.128012712626777 0.298474347395813
0.130807596166975 -0.125644278014624 0.319867664338775
0.130712861109085 -0.12583638170836 0.318781221795026
0.131870338226815 -0.122583158396359 0.330397211624042
0.132723443846661 -0.120069990281452 0.342891259160092
0.131666489491174 -0.123183677406854 0.353897776165468
0.130398147778762 -0.126474557211387 0.358704877265709
0.129126423315572 -0.129053359317338 0.365769225440347
0.131057560726471 -0.124977523702203 0.383097449924878
0.130068703864418 -0.127142603383884 0.391740821429825
0.130623154815506 -0.126018288076833 0.391891842231666
0.13108970843059 -0.124882819619757 0.413882100484797
0.129322031823256 -0.128656704502432 0.416386815506746
0.130959813242729 -0.125265478503742 0.424563434652303
0.129979332613447 -0.127323830353157 0.436395316790764
0.129688056528527 -0.127914479823972 0.446703022929767
0.132239567065261 -0.12149544531336 0.453091177017711
0.129631061002433 -0.1280300553177 0.457760515999009
0.13103756468002 -0.125036430155516 0.473144603513222
0.132730970919723 -0.120047816239245 0.48967295780006
0.13091953969345 -0.125384120554117 0.491298837369876
0.132476838222594 -0.12079646702354 0.504602810258026
0.130334713036631 -0.126603190143545 0.509209151496485
0.129879318652441 -0.127526638603476 0.525624772696502
0.132260410674389 -0.121434042020917 0.536158407080364
0.131335719699249 -0.124158093792239 0.543885726764143
0.132083071345718 -0.121956466836752 0.546313333588419
0.131594829324631 -0.123394781450101 0.562667634098298
0.131178930904442 -0.124619978687519 0.572724509521002
0.132028123865442 -0.122118336893883 0.585764470535743
0.129901103276592 -0.127482463755648 0.588290088656191
0.13035050465389 -0.126571167911511 0.59697552116994
0.130347552106914 -0.126577155084504 0.611204554225928
0.131513597363801 -0.123634083090039 0.619040638902952
0.131924217102243 -0.122424436347601 0.630473895459917
0.131395084109083 -0.12398321188022 0.630699112255544
0.129687813375503 -0.127914972889527 0.648546270640055
0.130275346741933 -0.126723573080433 0.654920530116441
0.129718041667709 -0.127853675976668 0.664189228061522
0.131174319037628 -0.124633564809045 0.674273236195714
0.130979429994933 -0.125207689415251 0.689885704113059
0.131340089425632 -0.12414522099342 0.689617535068071
0.13110257737302 -0.124844908937851 0.706505600357006
0.130330978591771 -0.1266107628486 0.712637817116562
0.13194655643765 -0.122358626787624 0.729979961168208
0.130620856679869 -0.126022948234905 0.734592348827414
0.131840939938866 -0.122669762959956 0.743899919644868
0.129686904800136 -0.127916815298115 0.751384311857381
0.130504461933206 -0.126258973432582 0.765299208226209
0.131862060161896 -0.122607544789235 0.774093633511673
0.130935088605273 -0.125338314936959 0.783212776318038
0.12967430959521 -0.127942355847131 0.786653519313377
0.131179923273408 -0.124617055262815 0.793510895693871
0.132669590543326 -0.120228636997257 0.81673711484858
0.131570692409317 -0.123465886509719 0.825297337957246
0.130824339189098 -0.125610326524375 0.833347337206024
0.131324402395776 -0.124191433493177 0.841821941621216
0.132680834172333 -0.120195514334294 0.848517192056049
0.130329196439467 -0.126057755259792 0.852043486086674
0.124242058598239 -0.124882152527243 0.863744392612913
0.114423302594085 -0.123774530723925 0.868036819659762
0.109901453722382 -0.129540876034515 0.86823539944244
-0.422571895806555 -0.148647442480015 0.495262551492001
-0.423114477077937 -0.147835412222551 0.500959414063021
-0.422293586450484 -0.149063961866114 0.513745503126696
-0.424197904987091 -0.146213947770278 0.519866183006574
-0.424978646737115 -0.144797793275942 0.526993160857468
-0.420950325058125 -0.151074294606686 0.540993179311252
-0.42467892567552 -0.14540556746541 0.549711512861451
-0.420435942237371 -0.151844122900443 0.572229433168211
-0.42182681446792 -0.149762535505072 0.579174785016655
-0.421865383396502 -0.149704813024295 0.593491307031031
-0.425886850999419 -0.142956137215959 0.605657331638877
-0.426010532535153 -0.142705335871764 0.615294161251176
-0.419738973869273 -0.152887209776534 0.630288374893567
-0.423918042337819 -0.146632791823933 0.638143617697809
-0.42097034779579 -0.151044328462112 0.655180761710206
-0.422483074468551 -0.148780373006319 0.654044736424966
-0.419695780030667 -0.152951853924303 0.676513813139273
-0.423983144178532 -0.146535360033961 0.687892984262552
-0.422404156212751 -0.148898482522729 0.695903573153707
-0.420311869854909 -0.15202981034302 0.710155919230698
-0.425463880834026 -0.143813835864404 0.709378801482864
-0.425034822760235 -0.144683879569856 0.729787983995242
-0.423941322944363 -0.146597949934021 0.736697861425654
-0.422305518218072 -0.149046104713984 0.752677877817564
-0.422694060789316 -0.148464609662818 0.759107903638432
-0.420252188799182 -0.152119129354946 0.779802638721521
-0.42243999272986 -0.148844849384711 0.787093038419533
-0.426011785084906 -0.142702795952122 0.80204324817936
-0.421631878473167 -0.150054277838169 0.814768969096238
-0.424199119512186 -0.146212130105023 0.816093400921471
-0.420604760470379 -0.151591468560078 0.830271810510677
-0.425763549009858 -0.143206168916657 0.841389805582365
-0.419654146816374 -0.153506855801844 0.852253109852137
-0.428908902975288 -0.146679044114168 0.861787952712055
-0.440822036758288 -0.151589644348849 0.868260036387526
0.135646323175302 -0.111459465439524 0.12489332891794
0.13359620383388 -0.117498922267335 0.139257832687782
0.134189749283407 -0.115750393757149 0.148578654577258
0.133960798937293 -0.116424859727554 0.15570559828831
0.133563338260267 -0.117595741125118 0.157228360243353
0.134088936179839 -0.116047379583473 0.166676170883478
0.136139523221149 -0.11000654495622 0.186101014398478
0.135275821016835 -0.112550929602345 0.196126489972419
0.13397036204695 -0.116396687714958 0.199384419222954
0.135558102768226 -0.111719354378232 0.207142589114565
0.133801158657959 -0.116895144825374 0.22065424024625
0.133533826713155 -0.117682679339448 0.226724230613096
0.133042406004115 -0.119130358065545 0.237942991536337
0.134994806420519 -0.113378771907985 0.246403677122217
0.135791841617792 -0.111030781931536 0.259988579739694
0.133628015294629 -0.117405208725911 0.272139263010894
0.135838894765114 -0.110892167829363 0.280501429453339
0.134771286827232 -0.114037239396464 0.285693244891777
0.133053798527634 -0.119096796773495 0.303310314845591
0.134810704318713 -0.11392111921104 0.301144994145511
0.13520747776169 -0.112752262339705 0.319097923391727
0.134124695268224 -0.11594203670604 0.320014605905003
0.134627097250966 -0.114462008190789 0.336546342519301
0.133480620260988 -0.117839420493159 0.345292140718381
0.135319105480711 -0.112423417683595 0.358936678028107
0.132984086981412 -0.119302160366386 0.364658294881435
0.135660045581776 -0.111419040533619 0.372451548632166
0.134025626297868 -0.116233884481609 0.382461563946493
0.135565907896563 -0.111696361211603 0.388086698469107
0.133145984659027 -0.118825225187678 0.400058818146479
0.136029593298444 -0.110330388065665 0.413744308202733
0.133572589490603 -0.117568487879372 0.424547349375798
0.136268858964798 -0.10962553414174 0.432010030906146
0.133333603356706 -0.118272518327235 0.437741902141085
0.136025285314627 -0.110343078976753 0.454580668263391
0.134155377635129 -0.115851649367824 0.461765452060741
0.135990370035936 -0.110445936070985 0.472939995641026
0.13535055854607 -0.112330759940943 0.476514274210569
0.135906313052875 -0.110693559958049 0.491608205000809
0.135521719018802 -0.111826537447742 0.495340150901135
0.133645561100005 -0.117353520450044 0.511333337557781
0.135107944410548 -0.113045478136953 0.520413155311282
0.133315976587772 -0.118324445114054 0.526583033275984
0.135508145148475 -0.111866524780271 0.541859227561602
0.136174497497715 -0.109903514059857 0.546927539817473
0.135195827400218 -0.11278658319787 0.554125179002042
0.135472911181244 -0.111970320700665 0.566274339071414
0.133080061503649 -0.119019428541021 0.572157785908543
0.135474933987976 -0.111964361704194 0.579785399675205
0.133052787613654 -0.119099774830048 0.584549148702783
0.135639085193855 -0.11148078784529 0.603717549683036
0.134127554223866 -0.115933614494307 0.608642257758817
0.134693671568485 -0.114265886575634 0.620336784475673
0.134780744896834 -0.114009376821887 0.637895667556744
0.135787016543174 -0.111044996143001 0.646296705961449
0.134605377953979 -0.114525991176478 0.648773311070154
0.134603645530958 -0.114531094730124 0.663494255696328
0.135092590235393 -0.113090710078384 0.669247349263898
0.13465895457793 -0.114368159531851 0.684548995759023
0.133268896878127 -0.118463137466311 0.680769598929095
0.134290074993425 -0.115454843745921 0.691502043770207
0.134283728104859 -0.115473541076709 0.710512497883852
0.13501167712341 -0.113329072419908 0.719550396371827
0.135442746311605 -0.112059183541098 0.721227002178972
0.133618089941384 -0.117434447873708 0.73853278060326
0.135020067876682 -0.113304354057851 0.743512520944406
0.135060646694742 -0.11318481271465 0.761801206084315
0.134141228864054 -0.115893330303341 0.758423247096193
0.13548330291286 -0.111939707646494 0.774963045701209
0.136130814585882 -0.110032199768437 0.785899344863594
0.135739051880045 -0.111186295484154 0.787661840097519
0.13399767771359 -0.116316218355903 0.803040332954526
0.133429496126291 -0.117990027337418 0.810585245185673
0.133800415740217 -0.11689733339047 0.819289443796543
0.133573727609743 -0.117565135088502 0.823850333542984
0.13332280647873 -0.118304324904101 0.833709503212181
0.132947051396704 -0.117452979217417 0.854908926220267
0.129331954702612 -0.117147738588042 0.861518696258711
0.127861264933638 -0.11544516932623 0.863640744623722
0.12469118020105 -0.116418864195428 0.865708410173406
0.107329676407939 -0.112407575990914 0.866261837663771
-0.426774003148664 -0.141157170618248 0.488906101196573
-0.430029172003574 -0.134556341160886 0.496583061522278
-0.430784791534872 -0.133024096327189 0.500345481503586
-0.428936407717138 -0.136772247927438 0.52334871888708
-0.430544560197532 -0.133511237289388 0.534641347974683
-0.427949602271587 -0.138773291419804 0.54372161642155
-0.430394210151473 -0.133816117022874 0.554208477114808
-0.426411469193998 -0.141892316754721 0.566444225250169
-0.427984637579449 -0.138702246843474 0.57522982652342
-0.430885055458599 -0.132820781202616 0.590879610409755
-0.427212034339169 -0.14026893123209 0.597909116604845
-0.427859831935045 -0.138955327654561 0.617606118087743
-0.429697459458397 -0.13522898766163 0.613813752506229
-0.426838540440777 -0.141026301935895 0.636893337516701
-0.426710563625469 -0.141285813245445 0.650574508393473
-0.431585921677376 -0.131399565103305 0.653673725557675
-0.429229599793589 -0.13617771321014 0.673007002760215
-0.426487540263394 -0.14173805988569 0.678933201688786
-0.427092292349396 -0.140511743967344 0.687897435592124
-0.428324918332046 -0.13801222573685 0.703902739987474
-0.429736157189899 -0.135150516424833 0.712774983790696
-0.426249646303563 -0.142220461115172 0.726294579184048
-0.426963235025052 -0.14077344633247 0.740479989261214
-0.4315062975702 -0.13156102682022 0.754739222641087
-0.429556710313517 -0.135514398693449 0.762009344044999
-0.427519443617624 -0.139645566881072 0.770155913733889
-0.430398216388024 -0.133807993178793 0.788680187480936
-0.431359261879208 -0.131859185706484 0.792086385311909
-0.429937951196835 -0.13474131865824 0.807569105841646
-0.430904970184841 -0.132780398132651 0.810101036434053
-0.429149292888281 -0.1363405595047 0.829184740633217
-0.431534405402591 -0.131504029774505 0.839169839328976
-0.43070781870139 -0.133180181792893 0.848650095353407
-0.430617979786075 -0.135897163282976 0.856098411923248
-0.433079862779929 -0.14177170437367 0.863515103027442
0.137209777332235 -0.106853678014237 0.126541124323224
0.136286739748 -0.109572859053019 0.132913662670883
0.137986711596043 -0.104564903478279 0.146321931024928
0.138482654818154 -0.103103901858297 0.154301381469343
0.138907741440057 -0.101851637051462 0.16383564258757
0.138949359601359 -0.101729033901805 0.169598389685176
0.138057162674937 -0.104357361292393 0.188910562906831
0.138365896247207 -0.103447861516772 0.198267025667781
0.137950214749149 -0.104672419722197 0.199398249360915
0.136522362010287 -0.108878738251365 0.21072384971386
0.139538318833751 -0.099994015951628 0.222480432856407
0.137002678063927 -0.107463772785184 0.231117080255588
0.137854476889167 -0.104954454363043 0.24168503621843
0.137341272844331 -0.106466304727077 0.250771908131036
0.138842227146965 -0.102044635935353 0.261473675274863
0.138814320951558 -0.102126844936059 0.268195726945257
0.138377434656143 -0.103413870460143 0.28121578512316
0.137147493034217 -0.107037161639471 0.293221067841974
0.137154103783756 -0.107017686999321 0.299638579479829
0.138204700131158 -0.103922729961751 0.308868446805698
0.138856231801872 -0.102003379552376 0.321729721732115
0.136795269608837 -0.108074778391018 0.32415744454581
0.136322247854473 -0.10946825554446 0.34044160442148
0.138707383979014 -0.102441871098648 0.3540252723614
0.137580344995666 -0.105762020880011 0.353317890533264
0.136659694878866 -0.108474168666529 0.36882409147834
0.138515050920091 -0.103008466019471 0.37683198173454
0.138746123591286 -0.102327747880983 0.387859746611379
0.138146129015017 -0.104095274905914 0.395193220561065
0.139423710525101 -0.100331641141644 0.407953424835896
0.138804684685764 -0.102155232459688 0.410694864122911
0.138203833942153 -0.103925281672277 0.430425949163192
0.136611158114919 -0.108617153362343 0.425161115576444
0.137414655431608 -0.106250126595973 0.44424500290707
0.138665139651127 -0.102566318875585 0.446654295768834
0.138073380317078 -0.104309585659246 0.466198833525101
0.136483903595319 -0.108992033088484 0.472370329995845
0.138448320874466 -0.103205046394829 0.484462553841746
0.137665013508523 -0.105512595484262 0.489096781910812
0.136896067023324 -0.107777838783236 0.496317534096121
0.136453560623415 -0.10908142060127 0.51004017606444
0.138229921769308 -0.103848429411705 0.521874998983943
0.136729757389819 -0.108267771164881 0.525110080163972
0.136262606500394 -0.109643953307917 0.541091639389291
0.138273886668758 -0.103718912994388 0.55148144580227
0.137663288727415 -0.105517676525559 0.553519061835836
0.13903205810122 -0.101485411977197 0.567999331081923
0.138445184517662 -0.103214285804036 0.575916226263374
0.136644017432893 -0.108520352933081 0.583869042030691
0.136349656248831 -0.109387513018351 0.601264894828789
0.139020838906939 -0.101518462657774 0.604673755223076
0.13637590542137 -0.109310185449603 0.608567937869823
0.139443302911081 -0.100273923833733 0.627061978903151
0.136775801690088 -0.108132129030289 0.62771825019401
0.139126419388375 -0.101207432589131 0.643318359332764
0.137899374819321 -0.104822189325908 0.655667637525528
0.138824523688668 -0.102096788641749 0.665474399890553
0.137837167981605 -0.105005444760452 0.665799947176704
0.136315400020774 -0.109488428612023 0.672670486502048
0.136666437168035 -0.108454306523125 0.684697703265262
0.137675564948896 -0.105481511943259 0.695943189121604
0.136855855558141 -0.107896297939758 0.70427568343433
0.137584603702319 -0.105749475134772 0.726584981912079
0.137505741068481 -0.105981796962465 0.735017263990755
0.139271385284788 -0.1007803768294 0.734188221160305
0.138898836265788 -0.101877870848911 0.749139906816902
0.139277594835173 -0.100762084083844 0.759976105497201
0.139485822877031 -0.100148664053246 0.770384081117152
0.137585100887283 -0.105748010475095 0.781359581011839
0.136425153620345 -0.10916510493378 0.790231430634252
0.137590492061142 -0.105732128589045 0.7931005793577
0.138600639578018 -0.102756329963752 0.812367807742209
0.138078983414012 -0.104293079467949 0.820150910358643
0.137596592472511 -0.105714157356664 0.826173913557089
0.136926670595037 -0.107687683568168 0.83739816491812
0.137103423992424 -0.107166984850237 0.838473481506291
0.137899715235736 -0.104821186491486 0.84743900843715
0.134201053280816 -0.109050037416942 0.858570884074003
0.121981953638909 -0.102963497038102 0.868056418387344
0.117055784572619 -0.107149036660618 0.868280470078023
-0.432141854645269 -0.130272244563465 0.478365695003751
-0.432347994693595 -0.129854233896743 0.482141274933074
-0.432770324694482 -0.128997833373503 0.496333971883071
-0.432666390442066 -0.129208591188397 0.506504184398824
-0.433007425788978 -0.128517039915873 0.521840484484398
-0.436707346087684 -0.121014343746749 0.522727372210388
-0.432056316093289 -0.130445699588017 0.541578176429487
-0.434561321416932 -0.125366051290753 0.547961319239951
-0.435542105572435 -0.123377217766745 0.567337278188902
-0.431881637872474 -0.130799911979726 0.574876146562654
-0.43267326440049 -0.129194652179616 0.582702008224035
-0.436467392845006 -0.121500920788756 0.597760905491569
-0.432022028089671 -0.130515228781248 0.604048816651933
-0.434607315514059 -0.125272784488106 0.618795042019306
-0.436417184706622 -0.121602732821748 0.636090692479243
-0.435514514269675 -0.123433167393981 0.635753462767484
-0.435720186105851 -0.123016106167576 0.655963652975331
-0.432180480328074 -0.130193919426972 0.661464566164382
-0.435024034116352 -0.124427762755579 0.670372886609458
-0.436762151824325 -0.120903208706764 0.686555986381085
-0.433039416745552 -0.128452168673264 0.698762808522535
-0.432570202850146 -0.12940364032977 0.70792153466104
-0.436522522177338 -0.121389129561624 0.716973545868358
-0.43461831329144 -0.125250483201709 0.728179750443384
-0.432843881208798 -0.12884867551776 0.753597233463719
-0.4347580110084 -0.124967204254797 0.760481467000272
-0.434810800415053 -0.124860157927557 0.768197014683517
-0.437171287671251 -0.120073563281033 0.786359710561648
-0.436396840291434 -0.121643987214701 0.787272510939921
-0.434066656262981 -0.12636913299412 0.800595704157089
-0.434081302994693 -0.126339432360314 0.809875887516423
-0.435423893927037 -0.12361692727059 0.824948042747002
-0.433687626506482 -0.127137729307684 0.834990911122578
-0.436062388633576 -0.122322188086499 0.838209408420524
-0.439243527471498 -0.121167152231252 0.859052736690594
-0.441809838462587 -0.125015337570574 0.863836938164297
0.140083517854156 -0.098387911428944 0.128137054358607
0.141754224519009 -0.0934661683038234 0.14217649451804
0.141053754550067 -0.0955296862908665 0.148138010596689
0.141425044152565 -0.094435902392728 0.167396958607979
0.142498048158977 -0.0912749345203445 0.168887981837451
0.140181239234671 -0.0981000335250325 0.178237439098392
0.139792635664201 -0.0992448227280656 0.187905518071899
0.139783702057801 -0.0992711402838665 0.199995136199392
0.140893865790374 -0.096000703388216 0.211353858729193
0.141606944677724 -0.0939000407253345 0.226104589507134
0.142547396340463 -0.0911295594655395 0.228350748887473
0.142121134487349 -0.0923852863918752 0.229544293876549
0.141876272879528 -0.0931066254277756 0.247771241269199
0.141666879541084 -0.0937234783114154 0.251999402348275
0.139527363828439 -0.100026288356601 0.262593189135583
0.14276831801209 -0.0904787452074816 0.278172580873552
0.1416163242501 -0.0938724093961336 0.289943268432123
0.140774033546918 -0.0963537177939192 0.298337996390175
0.142175803539892 -0.0922242365563945 0.305837081912771
0.140917717362554 -0.0959304389223658 0.319878689969941
0.139464483162871 -0.100211528823986 0.313709234741395
0.140720805053993 -0.0965105238776115 0.328972655337698
0.142081391979778 -0.0925023640438197 0.343567934771904
0.13959095182787 -0.0998389641508488 0.348737389997365
0.142672370560682 -0.0907613972847586 0.361584251563846
0.140726116676151 -0.0964948763433134 0.362752172483666
0.140954361208553 -0.0958224896330505 0.384584804192425
0.142662133498338 -0.0907915546979465 0.397011503142334
0.142745691972797 -0.0905453993698659 0.397145433207913
0.13955396058646 -0.0999479368340435 0.408190652900873
0.142045351729779 -0.0926085351966583 0.421259245063466
0.140664442544655 -0.096676562475937 0.426952955080272
0.142516268911357 -0.0912212579147223 0.444214209240562
0.142585691417686 -0.0910167458058996 0.446051253613714
0.141698408304425 -0.0936305975697054 0.461307124618071
0.14206914730628 -0.0925384356887601 0.469514377806218
0.142633334502647 -0.0908763938034803 0.479856422477527
0.142379086596837 -0.0916253839816021 0.481486729179086
0.141861132997281 -0.093151226082655 0.492503607833194
0.14026913168693 -0.0978411107100603 0.50885988531362
0.140073061571827 -0.0984187146433845 0.505501845776841
0.141883104305318 -0.0930865006963514 0.519074717069805
0.140166856099152 -0.0981424048759384 0.52591106035524
0.142791397818421 -0.0904107542905076 0.545487460264882
0.141256679464497 -0.0949318887698977 0.551829556438207
0.140964197591154 -0.095793512584317 0.552471478347585
0.140994596302608 -0.0957039608681134 0.577343064239871
0.140872045813934 -0.0960649829660084 0.579949360614256
0.141518809947997 -0.0941596772667111 0.596379341356135
0.141608660956894 -0.0938949847299392 0.593476818684826
0.140970707516515 -0.0957743349626185 0.608382180243428
0.141717390804556 -0.0935746769275687 0.613090099679247
0.141374496775511 -0.0945848101637593 0.628734646722198
0.142461315291927 -0.0913831460572167 0.642772898297108
0.139796959388571 -0.0992320854468047 0.645613420220063
0.141800399399734 -0.093330141491612 0.654939749718206
0.141372401805263 -0.0945909817470979 0.658927532879297
0.142167285170231 -0.0922493308642106 0.675810974937484
0.140906934617358 -0.0959622038654027 0.678429552013128
0.142550977229618 -0.0911190105062573 0.699031810971742
0.140964210791645 -0.0957934736969256 0.704312147161799
0.14126449483903 -0.0949088654189503 0.718750430950038
0.142674874114715 -0.0907540220524032 0.715684452021009
0.140393585690558 -0.0974744810379365 0.729847655842274
0.14103811313166 -0.0955757644236262 0.741187037687406
0.140426195370972 -0.0973784160172084 0.756168777287869
0.139621829496758 -0.0997480014715427 0.763008376881868
0.141142160937976 -0.0952692494702899 0.776591193943507
0.14105260127717 -0.0955330837232623 0.778819987703125
0.140667359890051 -0.096667968253536 0.781548731678006
0.13996750241463 -0.0987296818928468 0.796726576480092
0.139885466572762 -0.0989713516899577 0.800825644130153
0.141978653118611 -0.0928050229690939 0.815559426073229
0.14229124435211 -0.0918841588899531 0.835905195557115
0.139844174858102 -0.099092993158823 0.833644973753361
0.140443614531401 -0.0973271008253257 0.842643588562625
0.140372064050643 -0.0935415731979999 0.856493874331955
0.13611450208631 -0.0938083531703245 0.862928678681239
0.12714950213871 -0.0911637830063076 0.867911235340347
0.118498274959781 -0.0941689186267548 0.867910209781675
-0.439246298325446 -0.115865857917337 0.461389033021547
-0.440493122058434 -0.113337549497197 0.478769403984482
-0.437153549919919 -0.120109531882577 0.494859509309558
-0.439796216898553 -0.114750733363648 0.504228543189535
-0.442027482116787 -0.10962810248736 0.512360553489044
-0.4403459689748 -0.113635946432191 0.524068236791581
-0.442173043304255 -0.109199293056732 0.5362709326611
-0.437642972509203 -0.119117081048707 0.545347292065909
-0.438880578207269 -0.116607464954272 0.552540382320313
-0.439719724341899 -0.114905844924289 0.569426959886745
-0.437454207442187 -0.11949985873872 0.577725676391557
-0.439048029713352 -0.116267906890375 0.594242631663371
-0.43740742770078 -0.11959471867037 0.611718868638963
-0.437357129441947 -0.119696713449553 0.618422935956783
-0.43778702964756 -0.118824962069695 0.629923918767
-0.44074740692801 -0.112821910790737 0.635482054676467
-0.438551923731876 -0.117273910302933 0.64607141874301
-0.441945717399565 -0.109868973577021 0.665049016904466
-0.442090733810793 -0.109441769005441 0.677884139087309
-0.439464564335167 -0.11542325823335 0.679401788770299
-0.441967514955127 -0.109804760049003 0.692490127841968
-0.440617649609373 -0.113085032603872 0.700468665027585
-0.441697672613811 -0.110599689952725 0.714105818652842
-0.441013390270878 -0.11228254992713 0.731635875343124
-0.441856586127395 -0.110131545837768 0.732512227659783
-0.441959848846422 -0.109827343677002 0.750456028223735
-0.441876993316724 -0.110071428196594 0.762103723552585
-0.437503405963947 -0.119400094005714 0.782285484542528
-0.441651355200052 -0.110736136653715 0.787684653765416
-0.437131519837855 -0.120154204469813 0.80445932159269
-0.442181062137238 -0.109175670336517 0.804658120488894
-0.441256618252364 -0.111789332371724 0.82742063959848
-0.440763590451091 -0.112789093852309 0.833567394069125
-0.438532861820353 -0.117312564035721 0.84666240496174
-0.442310280709554 -0.108898681883516 0.850423173815899
-0.447494217301381 -0.116358476643093 0.864813021310602
-0.458977868146003 -0.116051048235194 0.86837903592502
0.143301512219345 -0.0889080057239319 0.129414560894084
0.144466059274553 -0.0854773607259685 0.149001680187413
0.14472278189036 -0.0846140284474194 0.159774093177401
0.144743885016507 -0.0845079358679332 0.161837513792458
0.145389786043761 -0.0812607721256124 0.172448327116916
0.145060920809589 -0.0829140893049495 0.181134918257505
0.144965014251687 -0.0833962441310516 0.190897870483408
0.144323330669347 -0.0858978256383366 0.198041986299425
0.144121795490986 -0.0864915291288624 0.208485329288249
0.143262856372047 -0.0890218821779438 0.224352914899397
0.145400884523916 -0.0812049762980289 0.233691638141448
0.142925161247464 -0.0900166999354602 0.243263974035684
0.143787644810172 -0.0874759052917444 0.244808955486968
0.144281825858715 -0.0860200948676893 0.261708211593574
0.144928197807112 -0.0835813328968235 0.263876838051305
0.143664962150315 -0.0878373167533857 0.27593521240316
0.145349544800993 -0.0814630785145939 0.287778470089371
0.143582488022692 -0.0880802776986978 0.294372176067302
0.14525848778177 -0.0819208530633671 0.30672681941545
0.143374284484672 -0.0886936255433139 0.316264563264027
0.144029738273215 -0.0867627209473935 0.322517776698136
0.143474062944933 -0.0883996876778869 0.337713313583239
0.144163303081558 -0.0863692517100684 0.34617630194953
0.144431662980713 -0.0855786889401283 0.360793339727813
0.143810587372523 -0.0874083186824976 0.356096258134308
0.143542370595688 -0.0881984598276756 0.370512055090534
0.14487274484024 -0.08386011378713 0.384505004847919
0.14531353310192 -0.0816441215515204 0.395979729809522
0.14446619366843 -0.0854769648143723 0.406629690097265
0.144026230942545 -0.086773053210371 0.409926561894368
0.144267763296361 -0.0860615218405027 0.423424078508829
0.143410994334997 -0.088585481811526 0.425294219707468
0.145001241246589 -0.0832141187288957 0.43630991060993
0.143842192672411 -0.0873152124713842 0.439708705781408
0.144199588157385 -0.0862623593235986 0.457169598236592
0.144284527885795 -0.0860121349525923 0.46648576902834
0.144418346455316 -0.0856179181589385 0.480261470062555
0.144302345469028 -0.0859596460449779 0.482858647058686
0.145300350825396 -0.0817103933308851 0.504091073153437
0.145178420351891 -0.0823233792156308 0.509160763290093
0.143920717001325 -0.0870838872578616 0.514509045267981
0.144765049443536 -0.0844015351081016 0.527999378835637
0.145241518810723 -0.082006161841653 0.534281451118898
0.14529774687547 -0.0817234842711816 0.549928997018404
0.143307825355461 -0.0888894078246555 0.548510203125441
0.143388114746224 -0.0886528829065956 0.564963970099066
0.144723597267775 -0.084609929268336 0.576586528739516
0.145137755659502 -0.0825278144296147 0.579383660234378
0.143828117253591 -0.0873566773181303 0.598384797133156
0.144549052997213 -0.0852328691030345 0.602548311518373
0.145023664936285 -0.0831013872281255 0.610390536405299
0.145244602714917 -0.0819906580083083 0.619994353108834
0.143625008371959 -0.0879550167889984 0.630352297199182
0.14350199207145 -0.0883174111243079 0.63484112768826
0.145117692774505 -0.0826286773636844 0.6448528135324
0.142963044243717 -0.0899051002272138 0.654730888547665
0.145110086232726 -0.0826669180315691 0.666167899895609
0.144925527818887 -0.0835947558340659 0.674580758582322
0.144671350129956 -0.0848725933676487 0.688137698988536
0.145013064807419 -0.0831546776746001 0.69830258293461
0.142884841052229 -0.0901354794003892 0.704444693429992
0.143260220049267 -0.0890296485344149 0.718442173282723
0.144977899926502 -0.083331463469167 0.72676912709053
0.143551521384129 -0.0881715024742133 0.734877976567556
0.144599471101952 -0.085084342155968 0.748345794407536
0.144695206369324 -0.0847526599533354 0.756720531535436
0.145442646217179 -0.08099502608823 0.767833607299769
0.142992066409802 -0.0898196036828994 0.769120859597529
0.143238432085755 -0.089093833805165 0.775388614532009
0.143577331280833 -0.0880954689703446 0.79673463117032
0.145223083060108 -0.0820988446187852 0.799197825256256
0.145332959185205 -0.0815464600358426 0.811030991873609
0.143532818464403 -0.0882265994990355 0.817526457513919
0.143769496888297 -0.0875293673456179 0.822310179118567
0.145372534056562 -0.0813475037221737 0.836791184502836
0.144164879836563 -0.086364606739608 0.844669488306177
0.143349469661942 -0.0868745045191038 0.854799413006318
0.138386910947535 -0.0813890175123005 0.864219438414225
0.134071290520742 -0.0903574583761738 0.865319967304689
-0.444825971375044 -0.101384018976294 0.455526089410459
-0.445763882952715 -0.098621020565811 0.466995369220681
-0.446014897920053 -0.0978815543173147 0.478454611600182
-0.443298942921723 -0.105882499739017 0.487255163989309
-0.445663064666313 -0.0989180216602727 0.50160241251543
-0.44593865276296 -0.0981061653071655 0.508221040314639
-0.445684676237694 -0.0988543560239871 0.512488972811821
-0.443891969722643 -0.104135499118356 0.529762502863104
-0.443068123367857 -0.106562472217897 0.548509948544608
-0.445058976113382 -0.100697609151543 0.551076117396184
-0.442622276607988 -0.107875894419058 0.571157199935318
-0.444405140262143 -0.102623747457857 0.58140173450208
-0.444213567379542 -0.103188102971446 0.591302197182931
-0.446104460753967 -0.0976177107166674 0.596934557119256
-0.443639811848129 -0.104878332262824 0.613119336872715
-0.444207677642861 -0.103205453576209 0.624690897306318
-0.442867743196292 -0.10715277316812 0.637423872645865
-0.442781322961039 -0.107407358971648 0.644562972354851
-0.445438036123347 -0.0995809343711625 0.655256346225992
-0.444783327720833 -0.101509643130646 0.66363898882689
-0.445514822096251 -0.0993547301893065 0.684384085975556
-0.443183467906099 -0.106222678165444 0.693711444601225
-0.443604520089373 -0.104982298431562 0.705419744782593
-0.445408199285757 -0.0996688308603389 0.718612426567391
-0.443605269626172 -0.104980090367352 0.732825880774715
-0.443299482185984 -0.10588091111773 0.732346807055302
-0.444695953243387 -0.101767040041024 0.748892769390908
-0.44548739182104 -0.0994355371743254 0.758203371402083
