ply
format ascii 1.0
element vertex 863
property float x
property float y
property float z
end_header
0.146277304703492 0.194574137546097 0.636880270491988
0.145121017628558 0.196081040200439 0.642751523966175
0.145764761863565 0.195242096379758 0.650203594561444
0.14096991625565 0.201490860834849 0.661244511373293
0.146173938533332 0.194708846961743 0.677147547128447
0.145002583565777 0.196235386476065 0.689671969095808
0.14459614995425 0.19676506107098 0.694388544361641
0.145553764419583 0.195517073602359 0.69915651250159
0.144831826431763 0.196457921505705 0.711724979188614
0.146320535663877 0.194517797861632 0.71291737355124
0.14567412888072 0.195360211582619 0.725351771405467
0.143966662367332 0.197585425266142 0.744689431140882
0.141718768406983 0.200514937710725 0.748075032243347
0.145883429894673 0.195087445190673 0.757166288945505
0.142660379571204 0.199287806150162 0.770255148760357
0.143044265398018 0.198787516400383 0.775299941458558
0.147974526567509 0.192362274949569 0.78478529037983
0.143663290502866 0.196873488967012 0.792786436777786
0.14057599507925 0.194092850161468 0.799381566314711
0.135856275762682 0.189247027736729 0.802873945951736
-0.326861955170056 -0.259687843533777 0.310759835402378
-0.322726248861835 -0.262861282598429 0.305989469759962
-0.322548694063148 -0.262997525187307 0.320188547619618
-0.321452980885602 -0.263838295479523 0.336711915198817
-0.32690228460901 -0.259656897666857 0.351014799741791
-0.323789202106582 -0.262045649886775 0.366866599276406
-0.32565523328004 -0.260613793806971 0.369150241653515
-0.324315160996717 -0.261642067435808 0.381607819426995
-0.324492138912601 -0.261506267504673 0.398023270304956
-0.325675996722733 -0.260597861457029 0.401089654390921
-0.326426464015035 -0.26002200765005 0.419975011963958
-0.326337411242784 -0.260090340245553 0.425900043680658
-0.32824854106792 -0.258623878753195 0.432281353122295
-0.324447863994693 -0.261540240844075 0.450164486095473
-0.325549726976882 -0.260694751640786 0.457501831452593
-0.325083704315035 -0.261052343406231 0.476315777684801
-0.329592914343403 -0.257592304856998 0.486306373349803
-0.326445678673895 -0.260007263723742 0.495200906014833
-0.328094931947199 -0.258741747177124 0.506553833771883
-0.324192086102989 -0.261736506123308 0.51747085318685
-0.323226847468138 -0.262477159777668 0.53157848614402
-0.326778406537714 -0.259751952654182 0.542058483386146
-0.323133410521171 -0.26254885646875 0.545814548604491
-0.325900156214028 -0.260425857829748 0.564538719486516
-0.328873373933821 -0.258144427632213 0.570596313318933
-0.326251806352067 -0.260156027188503 0.595615943495943
-0.322701812660339 -0.262880033155322 0.60246469045162
-0.330605891012755 -0.256815020520412 0.605018234381605
-0.323210809969927 -0.262489465782865 0.623116985477042
-0.329003518070139 -0.258044564524089 0.633437709339443
-0.322262038302261 -0.263217483888896 0.645854596901777
-0.325074771757851 -0.26105919759843 0.659819903488377
-0.321310090777549 -0.263947938915748 0.669463781209261
-0.324087527620412 -0.261816736668811 0.674358599491589
-0.323522370318491 -0.262250397119028 0.681460804215264
-0.321575776589208 -0.263744071022138 0.696313777209752
-0.323471892855376 -0.262289129838761 0.707440009937766
-0.325729422740482 -0.26055686623175 0.723086394049539
-0.326787727993469 -0.259744800049614 0.734526755921194
-0.324310812711927 -0.261645403992078 0.746081902809058
-0.32562384747992 -0.260637876978442 0.757932815567274
-0.326956562814525 -0.259615248534907 0.770176555730787
-0.32610255286986 -0.26027055341345 0.782005419275131
-0.326492831078583 -0.26097853810604 0.788541689118006
-0.332470217890955 -0.263795937924751 0.79558984152372
-0.341552988628517 -0.282111329437373 0.801329263306018
-0.344925887578434 -0.277362184117391 0.802045543567647
0.149942756683199 0.189797227523211 0.24060609955536
0.147568655191032 0.192891216825503 0.238911577206491
0.147153883606881 0.193431757677903 0.246569663160144
0.148682784181478 0.191439255656537 0.261123923519195
0.147960524552098 0.192380522731323 0.269718919955416
0.146881106353482 0.193787247915666 0.273650488397795
0.15003335917924 0.189679152051528 0.27620810583934
0.148172082000611 0.192104815696609 0.298997900332191
0.151575153412281 0.187669846687329 0.302048938159752
0.15193320298564 0.187203227398593 0.320349211749694
0.150766260692555 0.188724016203583 0.31995281122705
0.153426353344996 0.185257315964814 0.330370243214666
0.150544759356865 0.189012682364373 0.344294756615511
0.151233406070853 0.188115220493779 0.346939719563552
0.150385738097602 0.189219922904265 0.360730808997061
0.149812444397592 0.189967053800208 0.363951183669644
0.151042424297271 0.188364112786861 0.380152874963532
0.146551821312174 0.194216380536397 0.388599226607578
0.148202506350377 0.19206516591204 0.402193273802097
0.149782661036778 0.19000586823171 0.41209490118162
0.152178847157914 0.186883097680595 0.413543425151527
0.148363968014988 0.191854744973978 0.422347399353185
0.149160347631583 0.190816882851218 0.435613745334837
0.151689823164482 0.187520406156764 0.435098267359856
0.151009646847592 0.188406829190941 0.452292764785881
0.14993030829552 0.189813450577887 0.463689614623164
0.150718487509005 0.188786275428527 0.476009605058292
0.151212800155592 0.188142074645379 0.479836514305317
0.150267074287021 0.189374568593053 0.491427936699593
0.150562119783158 0.188990057816343 0.502071632107965
0.151105952139303 0.188281321691243 0.514784857147523
0.147569712791679 0.192889838533507 0.512512412420908
0.148848900939648 0.191222768082436 0.527676102631892
0.150139894400793 0.1895403126477 0.543436374594441
0.151704903934649 0.18750075251444 0.541526437969808
0.153373971575708 0.185325581215624 0.550059234209108
0.151835525414885 0.187330523287159 0.561848453518774
0.14848490044901 0.191697142757561 0.569190477803167
0.148903314658424 0.191151854743495 0.582513587304015
0.149166302062852 0.190809122885309 0.589120133952859
0.151577743769845 0.187666470867627 0.604507029974939
0.14750854778536 0.192969550321672 0.61237871243122
0.148988174096135 0.191041263771146 0.620740157103076
0.15045892154445 0.189124548379461 0.627728064231224
0.148829513260092 0.191248034598352 0.63147338591421
0.150207002037369 0.189452856273002 0.644266158971521
0.150049194997484 0.189658514411394 0.65343551068557
0.14639875520572 0.194415860170049 0.665846137156792
0.152226955970273 0.186820401055672 0.672620318663581
0.152003830409814 0.187111183947391 0.679660349566433
0.150940385698222 0.188497092078151 0.69065844725394
0.149622729993519 0.190214294425189 0.701180501649906
0.150179270697162 0.189488996459182 0.707692123763026
0.150401784664188 0.189199010611544 0.717901668688058
0.153638038838622 0.184981442058457 0.731146704246071
0.147707887805225 0.192709765349961 0.73774083715191
0.151565200205602 0.187682817958814 0.750230593765604
0.149480740537528 0.190399338686914 0.754345537331318
0.149187104233817 0.190782012968297 0.767683705822684
0.149255601066833 0.19069274615755 0.772380451680537
0.153108708546958 0.185671278725168 0.785353213681739
0.149647410664376 0.187270560546869 0.795461019667054
0.148978226952827 0.18711574054029 0.796491303267722
0.147005525782495 0.181499625339128 0.801341362411911
0.1351357890646 0.174263566364905 0.801614078000238
-0.315536127699541 -0.268378456613096 0.315969789872106
-0.313055605381716 -0.270281828331848 0.325447125202221
-0.318703902665605 -0.265947737389792 0.337669725136779
-0.316242313797454 -0.267836580961633 0.346368702541564
-0.315978934248798 -0.268038679197398 0.365701266370683
-0.320210267338711 -0.26479186312238 0.372727545643151
-0.316465971079199 -0.267664962693291 0.379504635988518
-0.31799439182754 -0.266492164204103 0.39398876260852
-0.316012516363779 -0.268012910734258 0.403938383025172
-0.314606797413857 -0.269091556822048 0.414796061561007
-0.318921114852568 -0.265781064616617 0.430454154019999
-0.31773235456892 -0.266693232464497 0.446554030083781
-0.316626859503348 -0.267541508663389 0.450181808472823
-0.316757551218392 -0.267441225383331 0.461069404644917
-0.315486707251629 -0.268416378256538 0.475690172025253
-0.318426293315764 -0.26616075453604 0.489762672946742
-0.315595897487816 -0.268332593641487 0.499550728205893
-0.313515276173028 -0.269929110528088 0.512564603671809
-0.314345448473628 -0.269292096917165 0.519548638990981
-0.317687770588187 -0.266727442956145 0.52513923176352
-0.315620248340916 -0.268313908574724 0.548118517920258
-0.316424445182812 -0.267696826634289 0.545715953807964
-0.318226488443822 -0.26631407020661 0.562421412642013
-0.311226156754379 -0.271685613636724 0.576079571492039
-0.312305053385315 -0.270857747134567 0.5890336568699
-0.312832896078132 -0.270452719190962 0.592392620925837
-0.311437849321273 -0.271523176216991 0.616396051642965
-0.318917279361834 -0.265784007692169 0.621549148893814
-0.313439245760844 -0.269987450715264 0.635058844139514
-0.31483745529564 -0.268914566804366 0.646016763867257
-0.314790141784315 -0.268950871738501 0.661054711614689
-0.313451858287972 -0.269977772782813 0.67491075020374
-0.320711853301765 -0.264406982676136 0.680394301296569
-0.317368721865874 -0.266972257651256 0.689968165739227
-0.312666308480479 -0.270580546350503 0.696002400601982
-0.315957407603241 -0.268055197173495 0.716660486060503
-0.313166725864423 -0.270196562586549 0.719971021113171
-0.319237859416393 -0.265538017964498 0.738993938858144
-0.31299089975949 -0.270331478702055 0.749580694377799
-0.315655247433391 -0.268287052826513 0.763632138760771
-0.314891154268786 -0.268873362133044 0.768413454582059
-0.321416523589862 -0.263866270146452 0.785375938478963
-0.315694968752164 -0.274528037088529 0.789519090586494
-0.321405488891388 -0.274486382926813 0.7980335399689
-0.325660885617832 -0.278904160279038 0.802295895608705
0.157831536616107 0.179516369353886 0.226218707445741
0.152478348399623 0.186492780063202 0.238476062725624
0.155979991112812 0.18192935043275 0.251540878144382
0.155172043983032 0.182982287632194 0.249643837459611
0.153772698262728 0.18480595048027 0.261789564351367
0.157000655140992 0.180599195174079 0.275017543710241
0.156821411359142 0.180832790218511 0.284634343057927
0.15347178192797 0.185198112282829 0.291043934071333
0.156202770993532 0.181639018039638 0.299425954684685
0.15729753816258 0.18021228968758 0.317492845128763
0.155970765231246 0.181941373835693 0.318360566992466
0.153865319958502 0.184685243536261 0.332412519875105
0.153708953243139 0.18488902460719 0.338466395998077
0.154745857173098 0.18353770509647 0.346647471683633
0.156867149501025 0.180773183111502 0.359759600822065
0.157844610255743 0.179499331454997 0.373744720759871
0.156759782711147 0.180913106236272 0.372335141901942
0.155653501596604 0.182354839854239 0.389690634956549
0.154275488659495 0.184150701277983 0.393772099390699
0.15675537811475 0.180918846418053 0.402177302376779
0.155604895054669 0.182418185132975 0.411926410209453
0.153105441477667 0.185675536452763 0.426179459895478
0.155221427174472 0.182917930204116 0.427555200025819
0.154090774955688 0.184391424863495 0.442398226747965
0.156060317992063 0.181824666405589 0.44476551988681
0.156375737197588 0.181413604093867 0.452251594912807
0.158026608897898 0.179262146206717 0.465521226700311
0.153393591479406 0.185300012059311 0.47685338333743
0.156955826223692 0.180657617356541 0.487236682277175
0.155783453736245 0.182185482928604 0.490930897132177
0.155525193514182 0.182522054202791 0.507689405106818
0.155130027352298 0.183037044771448 0.516200137288222
0.156383851324562 0.181403029557716 0.531386041999599
0.156516480581683 0.181230183744655 0.52656631449422
0.157891940306557 0.179437649731878 0.542977160879619
0.155525870713482 0.182521171659482 0.554233164018716
0.155843896774134 0.182106712028014 0.56048343805132
0.156773539937331 0.180895177470048 0.568175487580396
0.154611199145444 0.183713194854764 0.57830457818356
0.153804692432346 0.184764254866641 0.582219598189086
0.155933617093718 0.181989786231074 0.600264121403724
0.153219136793942 0.18552736583182 0.608609996455749
0.159627253756163 0.177134754257012 0.617322294637142
0.155286739367259 0.182832813697322 0.625963222868073
0.158944651773437 0.178065729437959 0.639560772523246
0.154724761951332 0.183565196924719 0.641859059388432
0.155734191748269 0.182249682401251 0.660817051860673
0.153829756703338 0.184731590472732 0.662404333316463
0.158094719568119 0.179173382653125 0.675277896747875
0.153714289480298 0.18488207028753 0.685932090224202
0.158777494273144 0.178283573333601 0.690024045309827
0.155471812927442 0.182591621137848 0.702734160107918
0.157114167801219 0.180451262595132 0.713074885223311
0.157272222093145 0.180245282231608 0.723524768713098
0.1551417357371 0.183021786107298 0.733981917073264
0.158206518322671 0.17902768367954 0.732496860414014
0.159042042328561 0.177938807595448 0.743998558979722
0.157579153676676 0.179845281204224 0.753159690590129
0.158018679759324 0.179272479661292 0.758481171933668
0.15546530881658 0.182600097460151 0.772014193425577
0.155397950077378 0.182687881078162 0.780670660129561
0.159511634321139 0.177326823395837 0.787541698819679
0.15110229252147 0.184274876014466 0.796549500458494
0.152958992090324 0.171624524369413 0.801869258669895
-0.306153549394688 -0.275577962163236 0.313191907493055
-0.30746844460722 -0.274569007580295 0.316940088590105
-0.307365470385566 -0.274648022479638 0.334256256451587
-0.309875357913036 -0.272722118043017 0.333964566903439
-0.3065512629081 -0.275272785850912 0.348734295041946
-0.303460113204574 -0.277122550099484 0.370276494884493
-0.307299033230485 -0.274699001501735 0.370990794566075
-0.302495507706753 -0.277522102779022 0.383600975925153
-0.309351961851591 -0.273123733966366 0.390085015379115
-0.303536076438912 -0.27709108509758 0.410174774484742
-0.306983788486423 -0.274940897301673 0.412352763770132
-0.309215053869446 -0.273228787155935 0.423614046964088
-0.307016355328257 -0.27491590788502 0.441204135288339
-0.309191311165484 -0.273247005573454 0.453855003513475
-0.310235714531848 -0.272445606684106 0.469939626438911
-0.308858160004527 -0.273502641450332 0.479165292783722
-0.305920955710203 -0.275756437574575 0.478916716474588
-0.311358787004208 -0.271583842866609 0.49845951914333
-0.311167540400115 -0.271730591547287 0.513739867648434
-0.302142173700699 -0.277668458516378 0.518158701105024
-0.304365761743728 -0.276747418191824 0.527024660443316
-0.304938840165831 -0.276510041337085 0.539320692423758
-0.307153758696196 -0.274810474572562 0.555235533494568
-0.306560569765209 -0.275265644448278 0.565064609956427
-0.310543640736897 -0.272209326596666 0.571996082835752
-0.306340011564758 -0.275434884707904 0.592733246863106
-0.308232139784339 -0.273983003660303 0.602659693232695
-0.303493644101744 -0.277108661147118 0.608815175862456
-0.306922273191539 -0.274988099647611 0.632999719356951
-0.305703433701383 -0.275923348082422 0.638128970141707
-0.304041680846965 -0.276881656894569 0.651878065020644
-0.304453614180343 -0.27671102852109 0.656011639787467
-0.310252032916677 -0.272433085147026 0.67284612278531
-0.303337767556041 -0.277173227326404 0.679686899624704
-0.307184865031697 -0.274786605841834 0.690502770512757
-0.305851022546595 -0.275810099178366 0.702943768662929
-0.299955061270473 -0.278574390147412 0.714389827530661
-0.303599159721748 -0.27706495514627 0.72151986790573
-0.305921414297602 -0.275756085688087 0.743803144038026
-0.305237262360362 -0.27628105393341 0.75238845246844
-0.305051636128205 -0.27642348995102 0.765080999156973
-0.305687517201205 -0.275935561242563 0.774895467306954
-0.310792238402563 -0.272018570898652 0.781938593520004
-0.310654777067548 -0.279597687935765 0.79377809987412
-0.315732498879494 -0.283224562790287 0.801110333584213
-0.321471291548289 -0.295338070256824 0.802052656021626
0.160761450856428 0.174396560235147 0.236429713330235
0.161511650168496 0.172585418881471 0.238772105252798
0.161980021739141 0.171454669883389 0.240156356470541
0.15976173127455 0.176810096808288 0.252012180345531
0.162246767860295 0.170810687779988 0.262514835568933
0.159773868530839 0.176780794879544 0.277968780841144
0.160436511725391 0.175181032692244 0.287585297391361
0.162540126000609 0.170102458579012 0.293633270687683
0.160367748503663 0.175347041794732 0.304727610579973
0.160352406673676 0.17538408024876 0.310138679141054
0.161223030759563 0.173282207772881 0.325176307733
0.159419551693335 0.177446827812788 0.325360393981649
0.160060273202111 0.176089352837834 0.341836897169053
0.162555482754343 0.170065384095873 0.349410136168037
0.161517911421976 0.172570302878401 0.362003804447936
0.158381120702902 0.178800137427464 0.369674620806407
0.159589997772799 0.17722469815733 0.374878320751037
0.160525760841152 0.174965566266545 0.381052181459273
0.1596121479236 0.177171222962858 0.392907914786735
0.1601576508355 0.175854262434633 0.407560961663692
0.160074595031678 0.176054776882654 0.409825073296319
0.162108944218504 0.171143423485217 0.421648875460291
0.15929216828313 0.177612837105047 0.43406146895801
0.158399726119212 0.178775890376858 0.44241664672462
0.160269487984858 0.175584263671876 0.453120487837998
0.161367826352546 0.172932640288529 0.46237646596845
0.159566515353777 0.177255301041613 0.467511944752496
0.159954091558804 0.176345698001181 0.476265990614797
0.160492369105583 0.175046181047426 0.485866949196731
0.161464271818593 0.172699800336369 0.496735006858183
0.163249042503639 0.168390982742805 0.50258481264412
0.158563464503347 0.178562502360144 0.517820489201074
0.158526405471223 0.178610798631101 0.520869366050503
0.162423321933417 0.170384448542166 0.534005771457352
0.161902112845909 0.171642758590061 0.542444284888187
0.16046823132966 0.175104454793425 0.546950767002425
0.162336852687359 0.170593203768728 0.55469993242679
0.16171813081237 0.172086930510663 0.569347594974128
0.160852941167708 0.174175683084832 0.575827623338003
0.161125070076967 0.173518705781384 0.583809092586888
0.160255831641087 0.175617233002222 0.595612557841323
0.159856871951815 0.176580406894901 0.608134383758882
0.163164723774324 0.168594546162679 0.615535056421462
0.161368148449356 0.172931862678043 0.622277677590734
0.161093189316467 0.173595672745763 0.626068904518204
0.161384189486786 0.172893136187924 0.644841376560127
0.157738025660506 0.179638235203863 0.653267100167972
0.16182695285978 0.171824210847921 0.661225273468541
0.160777807301412 0.174357072283837 0.667675694036096
0.16107726683134 0.173634113025302 0.680684312877195
0.160778623787539 0.174355101111955 0.690532076612711
0.160709181068953 0.174522750664973 0.703710940211989
0.160259290821952 0.175608881800863 0.70670615426913
0.162223554783695 0.170866729104341 0.715076163189034
0.159589997772799 0.17722469815733 0.729169335180589
0.160384725305873 0.175306056168592 0.741636355820854
0.162969292371023 0.169066359307045 0.743020622446792
0.161035366378401 0.173735269667058 0.752427708572285
0.159897971232399 0.176481184454313 0.766802297479681
0.161899150204698 0.171649911038651 0.773395434634538
0.162326124796284 0.170619103188857 0.776541318944964
0.156422641402559 0.17490253726387 0.788541689118006
0.157611333235953 0.172109143832475 0.798809787922174
0.155634383987501 0.172200233854905 0.800261450057333
0.144790665939236 0.160511849731444 0.801922629798219
-0.29314663822139 -0.281394531312715 0.319100020785819
-0.290102260100326 -0.282655554019452 0.333714880576002
-0.303516879198162 -0.27709903685506 0.336032858158806
-0.295188508486925 -0.280548760956125 0.356503530620143
-0.297672271490672 -0.279519952634252 0.368527711799915
-0.296057734357478 -0.280188715811776 0.375970032440011
-0.293823993992857 -0.281113961365622 0.388486145423649
-0.301697875291195 -0.277852492943334 0.391085394525584
-0.293629426063747 -0.281194554040662 0.41036242623047
-0.288705734916062 -0.28323401369097 0.429373393994612
-0.296723192360141 -0.279913074081883 0.438620664404541
-0.294501725820359 -0.280833235651019 0.44485726395701
-0.294337891764533 -0.28090109793892 0.449436426026804
-0.299414324016608 -0.278798370851643 0.465600938361336
-0.29723132321608 -0.279702599389892 0.480807168115422
-0.295747101478548 -0.280317384163147 0.490503033994658
-0.296428999511973 -0.280034932749547 0.501561080179397
-0.296510604254973 -0.280001130958243 0.520342301238857
-0.292586299822889 -0.281626631076892 0.520124519823464
-0.290140715933077 -0.282639625091974 0.539468752219185
-0.296634030193914 -0.279950006260385 0.546558075923597
-0.301206676425643 -0.278055954175268 0.559891536412241
-0.294815244619 -0.280703371912563 0.565594146639448
-0.297604538244965 -0.279548008663246 0.579638306428059
-0.288445129623962 -0.283341959937383 0.598666002320857
-0.299474000573493 -0.278773652012425 0.601388898350087
-0.29646081193726 -0.280021755611542 0.608154526949171
-0.298276192343946 -0.279269800426226 0.621846790747579
-0.295869463601207 -0.280266700112422 0.640402360137082
-0.293310092392136 -0.281326826378365 0.646084659901047
-0.29877437792138 -0.279063445203474 0.659794019059495
-0.297636013425187 -0.279534971216721 0.665027159185184
-0.29971798216117 -0.27867259152984 0.678762585178432
-0.296227565681821 -0.280118369373917 0.699112053972168
-0.303232916098245 -0.277216658222258 0.705544044768037
-0.298873544549021 -0.279022369041371 0.71730904256839
-0.300530247652503 -0.278336140147083 0.729003561623499
-0.2962853386495 -0.280094439027166 0.736127447504316
-0.29408481783608 -0.281005924592369 0.744188334060978
-0.301940379168172 -0.277752044548562 0.759990243602446
-0.295905421365823 -0.280251805918645 0.767854609225568
-0.301251079422712 -0.278037561851672 0.782875373075683
-0.299481036523212 -0.284220988599156 0.789977916526302
-0.300880515593357 -0.286088525628488 0.79655808266628
-0.315359196372333 -0.295291382115452 0.803038039769212
0.164322384150254 0.165799706782488 0.230905311111154
0.165814590222151 0.162197202645858 0.236162407435429
0.164358771364254 0.165711860276953 0.2421587589426
0.164928652230477 0.16433604616078 0.24790096880204
0.16399033693803 0.166601339665588 0.264608666281692
0.164524062025478 0.165312813320891 0.269560764307109
0.166396503730221 0.160792339162549 0.277450644826957
0.164082167942812 0.166379640008396 0.29476238885628
0.164992286240712 0.164182420070243 0.294673243766183
0.165000891832196 0.16416164433457 0.304663231372347
0.165972792603439 0.161815268311353 0.317038580465859
0.164228227354918 0.166027021394776 0.323585863504481
0.16547269784704 0.163022603854726 0.335470646092831
0.164933896546332 0.164323385262318 0.344448515739212
0.164634658109711 0.16504581075439 0.352929827526244
0.163441870795787 0.167925454064694 0.365873156595042
0.164413821947823 0.165578956411484 0.378303232544878
0.164411822858616 0.165583782639759 0.380226448695981
0.162911775641816 0.169205216974756 0.388810416139235
0.164810804922152 0.164620554730826 0.400979436246638
0.164731190354968 0.164812761298683 0.404704134116274
0.163026943228204 0.168927177825754 0.42387064139469
0.162513963460511 0.170165620538142 0.428448516653295
0.165607874497927 0.162696258550835 0.429870681139512
0.165032223524163 0.164086002938891 0.448151800625142
0.163667365826249 0.167381060903904 0.45603988976994
0.163285325784967 0.168303387152936 0.46647803825199
0.164475445728823 0.165430183443629 0.467401535257031
0.163460718521762 0.167879951629023 0.480204542706186
0.163987422621098 0.166608375449049 0.494333194730854
0.166768817781618 0.159893493530203 0.49917507858621
0.16418766744506 0.166124941679246 0.513706632484982
0.164252085992276 0.165969421548889 0.520083464626126
0.166427893991616 0.160716556367761 0.523469965614756
0.164014934869034 0.166541955006952 0.533610745483631
0.165603537462858 0.16270672907972 0.547862259809393
0.166421626187885 0.160731688184535 0.549747497576421
0.166097897613679 0.16151323809891 0.565939709755146
0.166321050718655 0.160974498846393 0.578609281374061
0.163825195509093 0.167000026343036 0.58361436443121
0.163164562016735 0.168594936680045 0.596898841795605
0.163208654628113 0.168488487699655 0.603433360694825
0.163610928641319 0.167517312321184 0.613493231183339
0.164280691131605 0.165900362633565 0.616560102708511
0.163773761905044 0.167124198047493 0.635696829800756
0.16569069193289 0.162496319576148 0.640857235746627
0.163848602387716 0.166943517139212 0.646094036356195
0.164223550965961 0.166038311196421 0.658974300723972
0.164532397222701 0.16529269037471 0.672729120143305
0.16519399218711 0.163695458838837 0.678914241068603
0.166037561299547 0.161658902846792 0.687002312672008
0.165233456911013 0.163600182567153 0.694491537305017
0.163863157194043 0.166908378728381 0.705037981702783
0.164892649929107 0.164422963405023 0.709742994434462
0.16461731401395 0.165087683105602 0.716621539756535
0.164567587457169 0.165207733633393 0.730725939320351
0.163626712910661 0.167479205724066 0.74852262976263
0.16387150904598 0.166888215574163 0.755384322323863
0.165719001614619 0.16242797395857 0.756533083045561
0.163728759903964 0.167232842488835 0.770337563748411
0.16338033269273 0.168074020187695 0.776656861279325
0.167185057765783 0.158888601315229 0.786598339670953
0.161859045276628 0.166486687897301 0.796479555144381
0.162007891038876 0.166033782037452 0.796526618479505
0.155538536637616 0.154370939580329 0.803053748092888
0.148910693098732 0.147680060243498 0.801466232355599
-0.281718616536945 -0.286128172885506 0.335804120470793
-0.287061640882542 -0.28391501973747 0.35032760662876
-0.28744926368189 -0.283754461116895 0.348301294262791
-0.287045503208554 -0.283921704180901 0.365699394638407
-0.288215594440921 -0.283437036523241 0.377210098159775
-0.288215724036696 -0.283436982842914 0.386823068718629
-0.28904126546364 -0.283095032387572 0.404064955503424
-0.29202789217695 -0.281857931097173 0.415750480418476
-0.292427478379741 -0.28169241707264 0.423093851797381
-0.287659108986236 -0.283667540345835 0.438529824663116
-0.281457720956841 -0.286236239373149 0.450304684061519
-0.287656510139503 -0.283668616823399 0.461035406522672
-0.282213976657625 -0.285922988005262 0.471126552638198
-0.283241183960734 -0.285497504808945 0.478650909740836
-0.290380365496975 -0.282540358992391 0.486604652969009
-0.286861384979674 -0.283997968448383 0.506625229064117
-0.285182362241248 -0.284693442438172 0.51122545333557
-0.285834916413779 -0.284423145649727 0.527871601015967
-0.27995035473014 -0.286860610907711 0.542328060854023
-0.283018027534059 -0.285589939227404 0.551395611881248
-0.282609279421874 -0.285759248239066 0.564726845529935
-0.28514856183678 -0.284707443024117 0.564483480303653
-0.288062057348874 -0.283500633669094 0.583176276532232
-0.290929483085387 -0.282312907039933 0.593831610680791
-0.288896478996716 -0.28315500490582 0.607974883727877
-0.278741130509927 -0.287361487979674 0.61368531974243
-0.284503789149306 -0.284974516615916 0.62689368563359
-0.283172095092892 -0.285526122355014 0.649209129012241
-0.283152047434383 -0.285534426367063 0.647573604477947
-0.291668356336468 -0.28200685571846 0.665353807429851
-0.288069491463803 -0.283497554357866 0.674933839424354
-0.290254440786783 -0.28259251871519 0.680133577490424
-0.280284884567435 -0.286722044112085 0.693250683153754
-0.284994726229543 -0.28477116381901 0.70981632226227
-0.285021767476853 -0.284759962967631 0.719965915612328
-0.280346939216219 -0.28669634023495 0.727683259117972
-0.286748085312262 -0.284044898707238 0.748255439009646
-0.283840336052236 -0.285249327886721 0.761336381237256
-0.280162926903866 -0.286772560630371 0.764662705010935
-0.292247182886041 -0.281767097911366 0.775049511974466
-0.286897220968498 -0.283983124695792 0.788541689118006
-0.294958674811115 -0.288780772975581 0.796848740911475
-0.292998394255527 -0.298525972719995 0.802795899556955
0.168690716041259 0.155253620686276 0.225711513474125
0.167546736355603 0.158015431958464 0.230396593608908
0.169758964371664 0.15267464107903 0.235522372641223
0.167382928828215 0.158410898312706 0.25163735213144
0.168302815298835 0.156190095919493 0.262624456123737
0.16996050155004 0.152188087289674 0.265599029616814
0.168758264063954 0.155090545333775 0.2682351938163
0.167240908730503 0.158753765158731 0.281531567908566
0.169867785755786 0.152411923017608 0.286045987809887
0.166881681690989 0.159621015949497 0.307518701463237
0.169056056416367 0.154371610997807 0.306429799088789
0.16836028493996 0.156051351932461 0.328447920495568
0.168476379693238 0.155771074404578 0.32514386243627
0.169907275465068 0.152316586425883 0.337518129115965
0.17022189701985 0.151557022801315 0.347988106567326
0.16987669260427 0.1523904199832 0.357627840396855
0.169709637704886 0.152793726186955 0.370684080072253
0.169742674707165 0.152713967807989 0.369927043060912
0.168412540229693 0.155925196503283 0.383384029767432
0.170213876785533 0.151576385359775 0.392442678340809
0.170281307982838 0.151413592048716 0.397732822592392
0.167657683392541 0.157747582117185 0.410341896242139
0.168480072502064 0.155762159175426 0.423617382995987
0.167945016220712 0.157053899306499 0.438032892480012
0.168561697961651 0.155565097883856 0.441490303238521
0.16993381413999 0.152252516396959 0.452219401383237
0.16898370817512 0.15454627510304 0.463971389039333
0.168440632847953 0.155857374923278 0.467193694521637
0.168583724875607 0.155511920209448 0.477539479949688
0.170613181415482 0.150612378706633 0.48076901323073
0.170282890109643 0.151409772456726 0.498504231138511
0.167345468915322 0.158501334542457 0.514470440596576
0.166982559290773 0.159377475879959 0.518828701267172
0.169026695726436 0.15444249397364 0.522275500789692
0.168174103414602 0.156500833896044 0.535002210184833
0.168614158720592 0.155438446408128 0.547950559572551
0.168495450194097 0.155725034142764 0.55919844156227
0.167828920009456 0.157334180354256 0.564989137135159
0.169696219727927 0.152826120048908 0.569511524243915
0.169867295157919 0.152413107425632 0.574361062261885
0.170626930683779 0.150579185036641 0.591232597659988
0.167032859712547 0.159256039919519 0.604347286719696
0.168349617342239 0.156077105791561 0.613608826757079
0.171052542832773 0.149551666414228 0.615804673773853
0.168581546748296 0.155517178673943 0.625120658632486
0.170068987746872 0.151926178441951 0.637339625099083
0.169004903424539 0.154495105244436 0.648211521185021
0.167769779293193 0.157476958673547 0.653733455437611
0.168813672501922 0.154956777531363 0.667139771461489
0.168489535945075 0.155739312402963 0.673735545776027
0.169623928916063 0.153000645507344 0.678495549589007
0.168884829980523 0.15478498818146 0.686880423445292
0.167521683488828 0.158075914929212 0.699373623487973
0.168142801576518 0.156576403218076 0.707910346623238
0.168818722173145 0.154944586546611 0.722221718709066
0.167328584947642 0.158542096046217 0.72679457488809
0.168355233492611 0.156063547205163 0.741242818602246
0.167629267168467 0.157816184950736 0.751250808862515
0.17023356462728 0.151528854705215 0.758662221392823
0.169296555061743 0.153790995906409 0.770921668476238
0.168105493637851 0.156666472549588 0.770862919100208
0.16949842363986 0.153303642047303 0.783273882744221
0.169571216415153 0.152109268015992 0.793009155999496
0.167359891958233 0.15403798710716 0.796061279853588
0.165198555260238 0.147566116214796 0.800718796654715
-0.270261363742087 -0.290873922380674 0.332290093966082
-0.271447977303286 -0.290382410950329 0.337402944001301
-0.274180107748831 -0.289250725465612 0.348901525240406
-0.271202627849236 -0.290484038021718 0.369081557227594
-0.273616071442519 -0.289484356953357 0.375669138670049
-0.268586745466313 -0.291567571982297 0.388651689841906
-0.275517032801027 -0.288696952977116 0.393227148215516
-0.274790628993417 -0.288997839285987 0.406261700921406
-0.272904350889734 -0.289779161258941 0.416419707327403
-0.276980320010889 -0.288090839569144 0.430603961087637
-0.279420345407678 -0.287080147957259 0.433848512730641
-0.275543475530619 -0.288686000039893 0.458050830829282
-0.276507294838462 -0.288286773010907 0.463384849663853
-0.266797302717966 -0.292308783437752 0.480690447724607
-0.273475175209095 -0.289542718084129 0.491396301881752
-0.276114097930303 -0.28844964050295 0.504061907647223
-0.273657442576591 -0.289467220468533 0.505977224897634
-0.272333382905492 -0.290015663941694 0.513957092494037
-0.266943822493676 -0.292248092959497 0.531494098624633
-0.273755156009104 -0.28942674623956 0.53483715141201
-0.272026622681146 -0.290142728187015 0.550843029328515
-0.276162450097819 -0.288429612379394 0.559474765802195
-0.26974481085555 -0.29108788559196 0.583477512534621
-0.270711141607443 -0.290687618288788 0.589236553076216
-0.271682801279624 -0.290285143674559 0.591891251692254
-0.278737655416834 -0.287362927410363 0.61112082638577
-0.274769615522906 -0.289006543350465 0.620030164094212
-0.269969873990522 -0.290994661389064 0.636993673335911
-0.270673887113299 -0.290703049605522 0.643655658645463
-0.273403972224366 -0.289572211326085 0.645478750913236
-0.275687281153093 -0.288626433800719 0.665342448577928
-0.27243707534104 -0.289972713128574 0.680259756052698
-0.279265905122043 -0.287144119218146 0.689419196797025
-0.278736652093964 -0.287363343000303 0.693726232086422
-0.275197194523468 -0.288829434329446 0.714920201756023
-0.275136167623119 -0.288854712499241 0.721225882902257
-0.278378607862288 -0.287511649776993 0.735734988741447
-0.267743808935107 -0.291916727725742 0.741772774094569
-0.275033050381741 -0.288897425059134 0.749888718771322
-0.27603206140885 -0.288483621142746 0.768987076001457
-0.276763705738456 -0.288180564138589 0.773465938766705
-0.27546076070742 -0.288720261641471 0.787199116044139
-0.279826750678515 -0.295332477958578 0.797193460198021
-0.287252510822791 -0.298609005812513 0.801934238225996
0.170308815356798 0.151347183373435 0.221835097457328
0.172892352308183 0.145109973426508 0.217216023114275
0.171476427020243 0.148528319459963 0.23744239440609
0.173565430253 0.143485019523597 0.240114170506313
0.172963557240577 0.144938069513017 0.247417819644185
0.172059920996004 0.147119640390117 0.267440280794704
0.17178811672491 0.147775833947702 0.279629611798873
0.171989812734739 0.147288896705299 0.276956943469956
0.1729183491682 0.145047211454477 0.297086159816019
0.174248864702781 0.141835062805945 0.301428757556217
0.17122061734856 0.149145898638726 0.312344790335967
0.172987798629032 0.144879545624237 0.321240971027184
0.1722790653558 0.146590579104579 0.328392900723279
0.173592303695819 0.143420141293477 0.339535496186585
0.170425657169051 0.151065102285643 0.345719607051571
0.172429631515568 0.146227080239632 0.351944609423373
0.171880686283665 0.147552351263493 0.3688997464622
0.17161663575842 0.148189825622693 0.374635691029151
0.1721267087582 0.146958400468823 0.38019268933588
0.172207847058546 0.146762515283701 0.384179415288773
0.173752772014135 0.143032736503068 0.399182649585163
0.172563361002759 0.145904228697969 0.412534438647532
0.172419217015306 0.146252223067411 0.423367184670259
0.172699707997583 0.145575057933874 0.430639651224145
0.174421545236434 0.141418175119641 0.438442669234604
0.17138196086275 0.148756380938566 0.445141076003705
0.172219142582028 0.146735245477714 0.461292734937605
0.172480895537638 0.146103317942291 0.468567055416078
0.172958884547891 0.14494935039107 0.477846375952913
0.172734251427829 0.145491662716082 0.481310137433957
0.172055092782954 0.147131296727546 0.491492212209317
0.171526799333466 0.148406709938211 0.503036393480076
0.171226587098247 0.149131486388067 0.509187065179142
0.173847592630839 0.142803819284229 0.521256924685905
0.171086215936653 0.149470372350152 0.53193956013135
0.171368040408241 0.148789987888637 0.538037111840307
0.171589769988928 0.148254685327764 0.543672758097842
0.172353515728991 0.146410840003899 0.557176547021437
0.172130356751225 0.146949593434586 0.576151104149852
0.172910327501055 0.145066577472094 0.577828303627411
0.171614251132096 0.148195582619904 0.584361481985304
0.171353582071344 0.148824893401662 0.600873290186051
0.173847528350118 0.142803974471616 0.606369963517347
0.172385256664168 0.14633421060771 0.610296885784301
0.171978785400141 0.147315519046039 0.623616789992961
0.173796869207948 0.142926276459701 0.627192324348711
0.170364767564381 0.151212102795046 0.639940067458519
0.172250969154597 0.146658409334576 0.652100575860139
0.173402021755769 0.143879522533822 0.663552599813532
0.171518956086133 0.148425645212296 0.67460207200806
0.174300222003889 0.141711075313082 0.677965088389868
0.170891926700261 0.149939428059675 0.686183027968556
0.171732416273221 0.147910306733601 0.700010851792936
0.173001634809719 0.144846142129173 0.705598163725337
0.172809223162525 0.145310664937385 0.713627963913096
0.174700758298813 0.140744095157654 0.720070820473353
0.172082368468314 0.147065447398024 0.737437398737943
0.172039918452123 0.147167930802836 0.748054374451449
0.17379837479105 0.142922641660557 0.747624581343994
0.172547182671857 0.145943286643848 0.762239410847189
0.170993474630975 0.149694269668114 0.771372339860372
0.170925275405682 0.14985891716276 0.781955517551632
0.172417208602733 0.14693608192924 0.789429504791605
0.16850490740719 0.141786062766982 0.800066559233283
0.165231990323953 0.138172742736578 0.802480344654401
-0.267400285415256 -0.292059019826658 0.331468751829915
-0.258760396801936 -0.295637778867689 0.34354289539341
-0.264331712310036 -0.293330064423973 0.355107547624418
-0.259529558366713 -0.295319181715902 0.362512822285673
-0.258363940787929 -0.295801996325575 0.370392462615291
-0.266970235986097 -0.292237152132707 0.383108909284727
-0.264561117199125 -0.293235041807639 0.398386120283267
-0.266759024655205 -0.292324638730489 0.405171429418056
-0.26641874143429 -0.29246558865564 0.416381866224907
-0.261195151543775 -0.294629270432567 0.432272156976449
-0.261208433560178 -0.294623768841237 0.444544939320066
-0.264111675672155 -0.293421206583603 0.454287428720395
-0.259342252072592 -0.295396766523244 0.465651389716516
-0.265583025548684 -0.292811753509749 0.468042759425619
-0.263513396879765 -0.293669021773492 0.493280245836631
-0.263696577207305 -0.293593145997465 0.50626115212381
-0.261692258512004 -0.294423361984376 0.512514703736134
-0.265346009223159 -0.292909928886286 0.513745991113112
-0.26262671531752 -0.294036297302079 0.537281635387758
-0.262038494394634 -0.294279946386011 0.546585913988756
-0.263074356862383 -0.293850878103116 0.563364893333205
-0.261081521784322 -0.294676337420021 0.574115230460578
-0.260707599160349 -0.294831221242149 0.583308090423878
-0.265667403442042 -0.292776803041956 0.590010429527201
-0.263649013297787 -0.293612847613866 0.606583625393045
-0.257350343354565 -0.296221842129261 0.613518419835135
-0.26710895034379 -0.292179694764454 0.619178174814174
-0.263556084155612 -0.293651340124895 0.625933827661735
-0.26573761464211 -0.292747720610657 0.6495495357745
-0.25696071807323 -0.296383230205033 0.661720792805438
-0.26292525112575 -0.293912639721457 0.674498070164371
-0.262408252042113 -0.294126787753634 0.685884818027345
-0.26428019988173 -0.293351401570409 0.686091744973172
-0.261035583067903 -0.2946953658594 0.70198377436522
-0.267701616369997 -0.291934204458442 0.715687478965386
-0.26269239409066 -0.294009092263484 0.731825747249002
-0.261219357541199 -0.294619243980143 0.734475726184684
-0.25663969812262 -0.296516201022367 0.754570290903605
-0.263824405883888 -0.293540197625964 0.76105266041825
-0.265180876823846 -0.292978328965667 0.774149639529045
-0.257239021031028 -0.296267953345464 0.781847178128663
-0.265168798550775 -0.298480014261533 0.790306562929558
-0.266735882305254 -0.306030747956847 0.801518715610149
-0.28182780275403 -0.309785381653249 0.802963837448239
0.174850257604186 0.140383171907057 0.213552024370657
0.175798116920686 0.138094837089941 0.217131709086423
0.175426780003627 0.138991323711314 0.22895405085378
0.174408004389204 0.141450865616669 0.240916771907334
0.174211593468369 0.14192504352555 0.24816505795206
0.176733551976073 0.135836497092506 0.252594686074062
0.177460550928427 0.134081366361903 0.268199576608232
0.175587326228379 0.138603730838132 0.275523071946917
0.17449196611498 0.141248164079581 0.285296943471596
0.176341530365942 0.13678292098043 0.291729336861047
0.177293482327154 0.134484705644944 0.302432066964552
0.176094070566426 0.137380341784562 0.315499382490372
0.176376083983017 0.136699501169457 0.324723681234284
0.176352413167561 0.136756647573165 0.337256183016656
0.177167844110168 0.134788023132341 0.345081448246221
0.176083543884977 0.137405755441685 0.34827674477904
0.177661030078742 0.13359736687824 0.359059909974605
0.174756030383065 0.140610656542233 0.368852003769157
0.175120838973077 0.139729930696555 0.378260031942004
0.175664304742313 0.13841788826578 0.388429910569471
0.175401061061962 0.139053414729093 0.393224343380889
0.17750536515256 0.133973175254213 0.41033509312283
0.176954352641766 0.13530343713081 0.417091479772451
0.177103847285388 0.134942525134675 0.419831225110751
0.176029050644456 0.137537313762006 0.432686024237398
0.176084765423567 0.137402806386652 0.443144031966768
0.177350263324534 0.134347624190984 0.457975473846079
0.17824637906935 0.132184209406392 0.464129705705482
0.176315225335612 0.13684642694141 0.468004826509836
0.177543771690905 0.133880453668458 0.483272440674221
0.175724145364791 0.138273420223413 0.488283943814071
0.175658621173282 0.138431609615216 0.497161884692009
0.17679871758467 0.135679173396431 0.505435231656641
0.175515762476253 0.138776501019087 0.517082107453884
0.175944450471301 0.137741556647416 0.527652429561324
0.176162681640605 0.137214699998748 0.537745561405195
0.176499788391403 0.136400852309005 0.545842067856828
0.176547897246065 0.136284707259611 0.554848879812709
0.176430820737868 0.136567354953535 0.555955358875511
0.176285042150174 0.136919295597051 0.580890894807673
0.177258148657273 0.134570008669979 0.583041882655204
0.175014076535232 0.139987678021954 0.587766681328991
0.177084204655775 0.134989946637489 0.595823048777883
0.174957074556376 0.140125292972388 0.612108090858537
0.17433860870965 0.14161840160742 0.61889346314694
0.175534354056909 0.138731616972922 0.634033686943903
0.176007585005233 0.137589136399346 0.642300860868337
0.176182203133763 0.137167570945209 0.640595042105435
0.175577721857948 0.138626917839485 0.658038126462293
0.175015905685351 0.139983262062928 0.666405662568251
0.175815955945046 0.138051769875394 0.668022173598205
0.178629872004963 0.13125837556016 0.685258598871786
0.177708550568501 0.133482642267373 0.687823696661192
0.175374448000923 0.139117664341989 0.707296542305926
0.175599724892389 0.138573797815323 0.71737104185888
0.174987097575487 0.140052810992466 0.719003459178926
0.176928079381557 0.135366866391934 0.724287559788895
0.176557068599658 0.136262565653382 0.742240355161234
0.174108891808725 0.142172987265139 0.745823232195843
0.175303741986019 0.139288363762111 0.759973245840016
0.174583326256417 0.141027601187065 0.771837759059523
0.176619529509382 0.136111771678007 0.773065443873622
0.175972324583225 0.137674262588372 0.777666561624185
0.174043208444756 0.141030495862383 0.793272337319444
0.172154023755885 0.130484849418048 0.800804474909149
0.168033978940732 0.128984233814055 0.802810849775925
-0.245347663091703 -0.301193515078966 0.346867486089
-0.24775474290819 -0.300196469973262 0.360515450478862
-0.250039045889235 -0.299250280697944 0.371389070985502
-0.248545216924002 -0.29986904491521 0.387647424402684
-0.253501335579169 -0.297816153351509 0.389795392153855
-0.244058091988264 -0.301727672919655 0.398363232800248
-0.255027539244101 -0.29718397909455 0.412340641173118
-0.251287346148401 -0.298733217800684 0.420410170059239
-0.255049723454451 -0.297174790093753 0.43020992554587
-0.246968783574968 -0.300522024988557 0.452118081623937
-0.2464404287867 -0.300740876707602 0.463852576692731
-0.257795391653407 -0.296037497087969 0.463461812355206
-0.244887974611956 -0.301383924281744 0.477945101835317
-0.249502462121388 -0.299472540971936 0.484749138915228
-0.249757180035807 -0.299367033357204 0.509295786310946
-0.252979835063174 -0.298032165938019 0.515418924032559
-0.249128478004948 -0.299627450265077 0.521629412213536
-0.254251974534067 -0.297505228515944 0.535734735646008
-0.249048081806601 -0.299660751460796 0.542311107613871
-0.250485292780194 -0.299065439183542 0.554621845557915
-0.251153466088854 -0.29878867273708 0.56928173471071
-0.254166674539227 -0.297540560930678 0.581307573538792
-0.256111326200809 -0.29673505983836 0.589544366761677
-0.250618979108097 -0.299010064493421 0.605260197888546
-0.25050835548526 -0.29905588629832 0.61090877998085
-0.251676063458941 -0.298572205818729 0.622458826903917
-0.252358777684422 -0.298289416327309 0.632979527740146
-0.251165134194053 -0.298783839649659 0.647561105934448
-0.2496968187651 -0.299392035814172 0.66593611752494
-0.253974157511263 -0.297620304094647 0.673082773580491
-0.253728604456913 -0.297722015500042 0.685677859302794
-0.255439261982644 -0.297013437952309 0.700376374324058
-0.256333953778674 -0.296642844476249 0.702652960554354
-0.251835154201857 -0.298506308275365 0.715293382322727
-0.248682515013603 -0.299812174184409 0.733653693309865
-0.250749034628907 -0.298956193732839 0.746821402343296
-0.250506463583312 -0.299056669949764 0.756062686972908
-0.250063513120176 -0.299240146039055 0.764607309816713
-0.250642075184448 -0.299000497785358 0.774374602467057
-0.248436874574184 -0.299913921785884 0.783771021923299
-0.259233095264977 -0.30486721291742 0.798413414994344
-0.256974022705278 -0.308328771419856 0.800447509907419
-0.264832264798143 -0.312669933703484 0.80309980002712
0.180359885390104 0.127081753782665 0.206506830695855
0.181378139217467 0.124623471582707 0.218611108065713
0.179222035744754 0.129828765828412 0.230595384652418
0.178707156089866 0.131071795274233 0.241867626940748
0.180483368482632 0.126783639225962 0.243078713908687
0.181224221190523 0.124995062570849 0.249700607393125
0.180212194434612 0.127438311290457 0.268120723066201
0.179858195566742 0.128292940158333 0.273201936947859
0.181258182633013 0.124913072395793 0.276121475138143
0.179384992378294 0.129435353713642 0.286788255605745
0.180848357888903 0.125902476851221 0.299350835726405
0.181452942303973 0.124442880956758 0.313167779843672
0.180638259105587 0.126409700183338 0.322546085700914
0.180062294410059 0.127800201962732 0.33357165716009
0.178964586403073 0.130450303520723 0.340347214180893
0.180695489798591 0.126271533068105 0.345781585836445
0.181852550694854 0.123478140959855 0.35193571321744
0.178229220288257 0.132225634368423 0.364038694129818
0.178958755877324 0.130464379655061 0.377920220480791
0.180347968959597 0.127110522590812 0.385974971085215
0.178663042574582 0.131178294721115 0.391870081231167
0.180403912380237 0.126975463225978 0.400230602702442
0.180038776524849 0.127856979160163 0.408613578658963
0.181412405127184 0.124540746358741 0.413782109890943
0.180711475852593 0.126232939319725 0.433974489798652
0.178913743274533 0.130573049691198 0.435145012157822
0.179767087356333 0.128512894835545 0.45622724527948
0.182139890556207 0.122784441169568 0.461948869516251
0.180371755693524 0.127053096335161 0.467420639177749
0.17859266202769 0.131348208391949 0.474257767374941
