ply
format ascii 1.0
element vertex 850
property float x
property float y
property float z
end_header
-0.195146224276214 -0.361897965416525 0.455117951106863
-0.187126355899214 -0.362647941268496 0.453593094888525
-0.195870957891491 -0.36168098891112 0.468388554550982
-0.190913273796181 -0.362537726794543 0.480731442020896
-0.196247387360961 -0.361568290467036 0.495028402477451
-0.189190323657219 -0.36258787154243 0.489612690564262
-0.192680178687268 -0.362486302787371 0.513164869405083
-0.194864797199577 -0.361982221289757 0.520127310740447
-0.191250225227302 -0.362527920158715 0.518999844494458
-0.185711808414348 -0.362689110264277 0.520864559430415
-0.186601445771181 -0.362663218255008 0.535898084830984
-0.187081295381959 -0.362649252709974 0.539016242894234
-0.185882082365982 -0.362684154610493 0.554531756183262
-0.184592136711883 -0.362721697194082 0.560256603586765
-0.187453735270915 -0.362638413217924 0.572500539691869
-0.186868622783153 -0.362655442334159 0.576993151092405
-0.192647056597162 -0.362487266772817 0.597812175894261
-0.194553464730898 -0.362075430476759 0.598167485846832
-0.193235028315419 -0.362470154441525 0.60528621948002
-0.190492665527699 -0.362549968179309 0.619929478143713
-0.189171617368303 -0.362588415970339 0.624414229442823
-0.191568128412364 -0.362518667903117 0.631416204010291
-0.192324782489659 -0.362496646239759 0.650277659634235
-0.191748500680982 -0.362513418347874 0.65176773489516
-0.194032283446827 -0.362231465868683 0.664513238541395
-0.193523146829211 -0.362383895232708 0.673997888050203
-0.188829051090938 -0.362598386020676 0.681770352378901
-0.191414015804195 -0.362523153197095 0.684509024565184
-0.187844327496459 -0.362627045420195 0.690989022625561
-0.193709357934715 -0.362328145873098 0.705843000407436
-0.188534172209568 -0.362606968176845 0.708320762794044
-0.192426186938591 -0.362493694964263 0.717734782332011
-0.186055538373644 -0.362679106346137 0.725615840548675
-0.190316662910406 -0.362555090560202 0.740440062397659
-0.187307866707207 -0.362642658577198 0.749722618980538
-0.184366851711701 -0.362728253889649 0.756411556611782
-0.187928164898443 -0.362624605416105 0.768552535840976
-0.195841462672346 -0.361689819424072 0.775718126683492
-0.194154202990639 -0.3621949646274 0.781250660371875
-0.1859329246281 -0.362682674897088 0.791470412558347
-0.189614779985633 -0.362575518163713 0.793554958689163
-0.193512207646563 -0.362387170292086 0.811048084281988
-0.189744129707609 -0.362571753568876 0.814320511024008
-0.190324009294312 -0.362554876751015 0.830353015837926
-0.191186017456594 -0.362529788861936 0.841551904205488
-0.188587629514218 -0.362605412355232 0.842105429031034
-0.189934817931733 -0.362566203778022 0.850805733659004
-0.1892723040857 -0.362585485583705 0.86143215921362
-0.189207994328748 -0.362587357255134 0.863928506774534
-0.185901423249177 -0.356372458692898 0.872003847556387
-0.176044249608195 -0.352511465170956 0.872003847556387
-0.166123723770443 -0.348808121144313 0.872003847556387
0.201730789368081 -0.00521126483866075 0.479534751819284
0.201582445740096 -0.0103082826764625 0.492935277854514
0.201460295971299 -0.014505291735088 0.507960889725438
0.201802550757933 -0.00274557696848442 0.508968654519489
0.201880008260982 -8.4173306758057e-005 0.512036031037613
0.201749803444869 -0.00455795003251136 0.5251179454627
0.201840880799713 -0.00142857461839881 0.537483700039259
0.2015000955935 -0.0131377952874784 0.556735016487001
0.201911047976398 0.000982336831268018 0.560625033349671
0.201554079776249 -0.0112829239581768 0.576697663343291
0.201541099943741 -0.0117289049465374 0.586262566334549
0.201906101029163 0.00081236203257968 0.59199153580243
0.201713523641605 -0.00580450714387845 0.597753895519933
0.201655240367942 -0.00780709323092501 0.609242075959267
0.201751908883902 -0.00448560812979462 0.626193006745494
0.201681917449602 -0.00689048115309407 0.635192541125253
0.201697430612088 -0.00635745612878091 0.642196131035105
0.201817815286927 -0.00222109487495133 0.662612300559949
0.201808587556547 -0.00253815538495823 0.664175160714655
0.201812239194422 -0.00241268681153029 0.672540101926143
0.201825171444517 -0.00196834073264064 0.682352240400823
0.20151012021716 -0.0127933538961492 0.704538067424232
0.201805617884269 -0.00264019193874739 0.703092732668646
0.201610725807655 -0.00933659275113308 0.71676597393855
0.201785697766204 -0.00332463790041918 0.724311841064691
0.201696007021327 -0.00640637004306026 0.746188289937769
0.202000364146198 0.00405119874906813 0.741454042438103
0.201837072270342 -0.00155943391044418 0.763616692733644
0.201851991506234 -0.00104681592679687 0.763223881516162
0.201695611121721 -0.00641997296880405 0.779917507610265
0.201752324628398 -0.0044713233429183 0.796422656280568
0.201575486428311 -0.0105474013820608 0.807017484726322
0.201735304752796 -0.0050561183268028 0.813265803709893
0.201688419531809 -0.0066670726424401 0.825386203352019
0.201631099830463 -0.00863655083429564 0.838188919183442
0.201878120792465 -0.000149025844294114 0.839003617496089
0.201589686971223 -0.0100594773537986 0.859972620972062
0.201521698773348 -0.0123955201082784 0.866735838666468
0.211053705277854 0.00324832049894663 0.872003847556387
0.217538095120094 0.00672701264172608 0.872003847556387
0.223637999997206 0.0135575357346136 0.872003847556387
-0.200631711380476 -0.360255676722804 0.389812308543182
-0.202999517473042 -0.359546784130253 0.399323512038658
-0.199013597813776 -0.36074012041308 0.412363291561732
-0.205583709050683 -0.358773108332698 0.414464642085613
-0.202331737520051 -0.359746709395931 0.4220168607925
-0.198002500148073 -0.361042830862138 0.432976103247546
-0.20551244085428 -0.358794445171332 0.439979655730512
-0.203142525091391 -0.359503969373739 0.455977993993725
-0.200557360943932 -0.36027793634697 0.454062695231305
-0.198450852688442 -0.360908599517892 0.465019052057293
-0.200413425730074 -0.360321028814395 0.472962248369164
-0.202765884159135 -0.359616731127231 0.48414201280543
-0.196426694731955 -0.361514608002291 0.486550509556078
-0.200156984182018 -0.36039780432165 0.501066810181991
-0.200077688743718 -0.360421544419714 0.510809243105449
-0.201802042818409 -0.359905293602419 0.512659896059413
-0.203075120699857 -0.359524149435787 0.526515025262253
-0.198817022419056 -0.360798972715907 0.528300626992438
-0.205499470022077 -0.358798328482089 0.551497088502242
-0.198232454396343 -0.360973985333048 0.558889622915295
-0.199709046877126 -0.360531911349402 0.567273296319122
-0.200291861133945 -0.360357423788621 0.568112223079272
-0.20328472773217 -0.359461395617803 0.57384648387892
-0.20109268569689 -0.360117666571006 0.588550187858209
-0.200356671231 -0.360338020427058 0.596507107122133
-0.202928206047485 -0.359568133911175 0.608626038647011
-0.202201710822419 -0.359785637821309 0.613566415723592
-0.202226328108128 -0.359778267702809 0.619784771870871
-0.203801897735862 -0.359306561154855 0.629932402409305
-0.204903870887896 -0.358976643680988 0.647455618088419
-0.203213442066614 -0.359482737686491 0.656661147003573
-0.200445095834054 -0.360311547167149 0.658590425935762
-0.20406275542798 -0.359228463507318 0.662884390549967
-0.203753761260672 -0.359320972635086 0.678741497587939
-0.200938418816808 -0.360163852214717 0.680815062369957
-0.204745658135918 -0.359024010671163 0.697504342348232
-0.198441879068035 -0.360911286111636 0.700901509643917
-0.202999019138928 -0.359546933325478 0.715219965802597
-0.203781790632199 -0.359312580979236 0.718239708478595
-0.202175783447187 -0.359793400164815 0.719490355211359
-0.193992390821057 -0.362243409239804 0.730796951583507
-0.201328478224801 -0.360047073131392 0.7473955945122
-0.201895510155256 -0.359877310608818 0.751297087911579
-0.205532273587698 -0.358788507490095 0.759835437362785
-0.204394037009038 -0.359129281796621 0.777759208581317
-0.204044007228009 -0.359234076492319 0.77499923305607
-0.204454882666915 -0.359111065340344 0.785538743120354
-0.201239559124106 -0.360073694437933 0.798281832469001
-0.203619757513601 -0.35936109174111 0.81082375140323
-0.202293050385567 -0.359758291857497 0.814412349930283
-0.20070388478398 -0.360234068876079 0.823703070542737
-0.201310189179 -0.360052548651172 0.829157471860073
-0.202273457403628 -0.359764157760032 0.840473786935568
-0.204045260221727 -0.359233701361109 0.848239753134504
-0.204213204505684 -0.359183420867604 0.857267748177729
-0.200398642037432 -0.360325454873707 0.863683594929313
-0.200811378087665 -0.360201886677124 0.872003847556387
-0.195887173663409 -0.349330469657229 0.872003847556387
-0.182007247350558 -0.342752433295607 0.872003847556387
0.202270377401499 0.013328728208204 0.457873268286731
0.20226746585741 0.0132286889119056 0.462453326903774
0.202017985299643 0.00465665335907352 0.482642358458387
0.202065299780053 0.00628235682817617 0.49326672324982
0.202339411653139 0.0157007128819541 0.500759255868468
0.202126698725114 0.00839199593067523 0.515019494045533
0.202066891339077 0.00633704205360567 0.523071177905496
0.202194482211294 0.0107210048868214 0.532627354387533
0.202067932961927 0.00637283172870093 0.54004874544356
0.202224961695016 0.0117682657252516 0.545418702496025
0.202157919575049 0.00946472976620311 0.560601982199963
0.202159250641629 0.00951046459279761 0.568058221329142
0.202210271637221 0.011263522194041 0.582866515480563
0.202110859480854 0.00784776688876735 0.591240728056737
0.202169122514292 0.00984965753113168 0.601396519938076
0.202295581748543 0.0141947378118595 0.617163371617772
0.20204048441323 0.00542971240346407 0.632493268350618
0.202126410001214 0.00838207551217575 0.635143691443053
0.202401540618544 0.017835435142812 0.642033377374212
0.201976109598026 0.00321782379147273 0.656846966209206
0.20239285442016 0.0175369814194586 0.662504027442297
0.202194292184508 0.0107144756551413 0.686996039520965
0.202100070278847 0.00747705494224014 0.689876495313386
0.202168808762799 0.00983887717620385 0.708144654717218
0.202119021803022 0.00812822046975769 0.710994696827034
0.202335338595431 0.0155607645196751 0.723127405309529
0.202069282744726 0.00641920963584092 0.734750031914055
0.202070986747392 0.00647775837231542 0.738167006509004
0.202036134442613 0.0052802494428307 0.759585022807882
0.202280702924848 0.0136835083724416 0.759661700336848
0.202105125576751 0.00765075261932916 0.770039894399427
0.202340449919337 0.0157363872240442 0.786796238717077
0.202117359043442 0.00807108882647946 0.791313852229458
0.202244292401324 0.0124324597739309 0.805582255175046
0.202149129171625 0.00916269560634478 0.813206846249504
0.202359732299173 0.0163989207977459 0.822596095703673
0.202135581430015 0.00869720152622436 0.840134105350821
0.202134629613955 0.0086644975705378 0.850287469190754
0.201963901474361 0.00279835835886612 0.864465108946763
0.20795453176717 0.0093710276644538 0.872003847556387
0.207693800182783 0.0150414513643763 0.872003847556387
0.219972218997879 0.0338163967144896 0.872003847556387
-0.211695447881725 -0.35694332742347 0.394409513086629
-0.212140898519858 -0.356809964873761 0.401415105084489
-0.2117940765073 -0.356913799202259 0.410275397380527
-0.206145667944311 -0.358604864616178 0.41522056049813
-0.207908567720749 -0.358077073680574 0.421804505522276
-0.206952261050779 -0.358363380366191 0.434518362465269
-0.208672125530975 -0.357848473679351 0.443691070795645
-0.212228410903686 -0.356783764721288 0.452363737691297
-0.205724513642476 -0.35873095313577 0.464891340237697
-0.209729991120002 -0.357531761477989 0.470328032061646
-0.207562530186785 -0.35818067314564 0.481424185171423
-0.206934055108997 -0.35836883100563 0.486041711779853
-0.212119059247441 -0.35681650328858 0.494104081731624
-0.206459315331291 -0.358510962370551 0.505580240212298
-0.214280604025424 -0.356169362846468 0.513825129380213
-0.204907857197731 -0.358975450227891 0.521221980361398
-0.207374137003285 -0.358237075793091 0.528714641921218
-0.21315429635411 -0.356506565781976 0.541010834046416
-0.206732544195602 -0.358429160943234 0.548681086468341
-0.213697674651438 -0.356343884871939 0.564391381269915
-0.210745315540856 -0.357227785589407 0.56335654535115
-0.213069283323682 -0.356532017658178 0.577471027875822
-0.208588227796132 -0.357873591649505 0.581003065235993
-0.21398267610267 -0.356258558874055 0.595942821069064
-0.216060150035989 -0.355636588229089 0.606482008175021
-0.208871934370601 -0.357788653322109 0.612824200933004
-0.212436279578046 -0.356721531346714 0.61998592927163
-0.20926705819705 -0.357670358012967 0.629253122428965
-0.208211039786414 -0.357986517191393 0.629344870752961
-0.214464236412046 -0.356114385524195 0.649858908515284
-0.213459770640773 -0.35641511046403 0.65829022921083
-0.209993429915618 -0.357452891079189 0.663372773851646
-0.203991915043368 -0.359249672264261 0.669236691158644
-0.21159416986202 -0.356973648841335 0.670814635994542
-0.212233490716263 -0.356782243886656 0.690724328681285
-0.205405170668367 -0.358826560571505 0.693738517934987
-0.207529207614413 -0.358190649521997 0.703878386682186
-0.20837184060283 -0.357938375365932 0.710971854073352
-0.21069766999543 -0.357242050091186 0.7142651464621
-0.210058175657613 -0.357433506984755 0.729099172907544
-0.208342501223117 -0.357947159222437 0.738193565538207
-0.2128336167714 -0.356602573382209 0.746132809866888
-0.212702909874464 -0.356641705451057 0.750724945582203
-0.212381757524952 -0.35673785459197 0.764683044608765
-0.207259109916895 -0.358271513515732 0.771013629094449
-0.215856301178846 -0.35569761811886 0.787543062225792
-0.212974911294803 -0.356560271505665 0.786215763979144
-0.213841383573832 -0.356300860153451 0.799651353658888
-0.210412847249106 -0.357327322586975 0.814281146706203
-0.213017561751062 -0.356547502473351 0.815857042922602
-0.212319282462695 -0.356756558872272 0.833309984650048
-0.209068159665586 -0.357729905834922 0.830237282006748
-0.210103679468668 -0.35741988369242 0.845386654897996
-0.205825388103232 -0.358700752538588 0.848223200151207
-0.211954440367494 -0.356865788196222 0.857893128408944
-0.20803595037779 -0.356882708343796 0.872003847556387
-0.208362676025047 -0.357941119130011 0.87062337554193
-0.200559901097942 -0.348826513082178 0.872003847556387
-0.186646701481134 -0.33511327749733 0.872124776176918
0.202414734975129 0.0182887870783752 0.455975241059776
0.202453626027342 0.0196250654851396 0.462842299354403
0.202406790616757 0.0180158226316656 0.475253907146936
0.202801805189166 0.0315883390188455 0.473964470537918
0.202611260560943 0.0250413145045646 0.490133873863094
0.202736885549354 0.0293577304875292 0.493968188998627
0.202695067966026 0.0279208978372015 0.512545712860049
0.202554202222323 0.0230808166140397 0.527271527146567
0.202587096480965 0.0242110479919347 0.533293178440393
0.202576909452394 0.0238610264436736 0.543832127604324
0.202537211280055 0.0224970157659945 0.550305559746717
0.202757560255009 0.0300681037266739 0.567565171713042
0.202500522227146 0.0212363970277856 0.579398696916532
0.202392441771459 0.0175228030026709 0.591385945948864
0.202587141764362 0.0242126039083322 0.603650481815084
0.202432882158785 0.0189123158409658 0.612893906164445
0.202520946768406 0.021938174735047 0.619676559414231
0.202711171767227 0.0284742169321698 0.630998276432628
0.202494412477859 0.0210264688931969 0.644832713737947
0.202501383066492 0.0212659750660541 0.654416462131579
0.202617529195857 0.0252567018751764 0.661456875488612
0.202646564972685 0.0262543576183752 0.664817132296136
0.202527936944012 0.0221783539071076 0.688499728835981
0.202744993719295 0.0296363234233071 0.694632766284725
0.202678029500745 0.0273354641206229 0.700663712649273
0.202670164895962 0.0270652399700366 0.708658240917078
0.202779835300478 0.0308334638950552 0.725625075083117
0.202782448095282 0.0309232383053312 0.731320182645874
0.202591637904401 0.024367089182084 0.750083181413259
0.202646122932994 0.026239169340875 0.749146533654458
0.202553640341377 0.0230615106469467 0.768537970776591
0.202661562344105 0.0267696603023383 0.776568675479436
0.202546033969173 0.0228001592472501 0.788811520159938
0.202570840081171 0.0236524856805551 0.796505077228617
0.202629525198545 0.0256688789300122 0.808153150034654
0.20255998644074 0.0232795596598342 0.826834738858411
0.202611551077921 0.0250512965324106 0.832738395248813
0.202549241751264 0.0229103771430837 0.840524280101094
0.202611303895451 0.0250428034580718 0.847270639951705
0.20244658727753 0.0193832173259953 0.856591822601117
0.208119774839103 0.0239920676715604 0.872003847556387
0.22229595459458 0.0373878151381713 0.872003847556387
0.228408871684191 0.0430143214876587 0.872003847556387
-0.219700678233737 -0.354546657985029 0.39676016239348
-0.222103051556873 -0.353827416380465 0.408852704618856
-0.216246405909959 -0.355580825466339 0.416188235595756
-0.22298294727682 -0.353563986211903 0.421645452703262
-0.221530679911835 -0.353998777549198 0.432526433823326
-0.216857069810263 -0.355398000058118 0.438180970236119
-0.222157011754293 -0.353811261348023 0.456449942343991
-0.222457740853857 -0.353721226681875 0.458683469229544
-0.222805786331776 -0.353617026062601 0.463501831198486
-0.219605405259032 -0.354575181564832 0.471785938284763
-0.219586043676494 -0.354580978189177 0.483056593468222
-0.222145130053411 -0.353814818585994 0.4997874106065
-0.21961612150927 -0.354571973248729 0.5062080007919
-0.21805687808143 -0.355038791929301 0.509011504738661
-0.225451750704689 -0.352824856235012 0.522400033968397
-0.216586878683749 -0.355478892023368 0.52374816414761
-0.220165387628929 -0.354407529595684 0.538914746902125
-0.218613864321809 -0.354872036965203 0.544604941560827
-0.220501000202948 -0.354307051237918 0.545676840975863
-0.221184948954133 -0.354102285229028 0.567624378757842
-0.214737063277467 -0.356032704450499 0.565570421691414
-0.215718870961357 -0.355738763068811 0.580619713148838
-0.21934138281702 -0.354654226700326 0.587058623184746
-0.218043134508677 -0.35504290658926 0.590888571380006
-0.217288976301942 -0.355268692462539 0.602722988383265
-0.219119931679876 -0.354720526500477 0.620847782492087
-0.219705057177012 -0.354545346982215 0.615986404622766
-0.223920476609386 -0.353283301234682 0.631237646734405
-0.221002086523038 -0.3541570320359 0.641201956699362
-0.224558576631326 -0.353092261782474 0.648719828328332
-0.2158062948248 -0.355712589418273 0.657817776473324
-0.218693797698455 -0.35484810587609 0.665055645931082
-0.223668286997419 -0.353358803763544 0.67851040858024
-0.219735117764858 -0.354536347204691 0.67414081074069
-0.219310591652215 -0.354663445203781 0.698753967318638
-0.220760378971728 -0.354229396362196 0.699263861147289
-0.221743270497637 -0.353935130491276 0.709909618722925
-0.217754709325323 -0.355129257611257 0.713384358527597
-0.218779219648091 -0.354822531574407 0.721378558316683
-0.222920517382863 -0.353582676969359 0.736020638117284
-0.217186980311386 -0.35529922883222 0.745327989383225
-0.217529029296298 -0.355196823490645 0.755586264829675
-0.215239051424177 -0.355882415252466 0.758890075827735
-0.218723297778026 -0.354839273907985 0.772303439989634
-0.214146311174696 -0.356209568506641 0.775262429317383
-0.220586131382173 -0.35428156398939 0.789474934900687
-0.219808013110839 -0.354514523217094 0.797390507721277
-0.22129681934352 -0.354068792583406 0.806882734981803
-0.2224755243513 -0.353715902517178 0.81624885658967
-0.223469928458795 -0.353418189918153 0.824788146355359
-0.217783390736305 -0.355120670742656 0.831087830456861
-0.222942696431289 -0.3535760368297 0.840878673363328
-0.223548151028753 -0.353394771023934 0.84884871307433
-0.221490362519729 -0.354010848090238 0.857534553724597
-0.226631523601791 -0.352471646455599 0.86767329685812
-0.217026763127417 -0.3515751044647 0.872003847556387
-0.212746536543118 -0.347678547891275 0.872003847556387
-0.209570234245706 -0.337926065339245 0.872003847556387
0.201119441283963 0.0419461969614358 0.431306520700211
0.202118723148045 0.0377297642790322 0.444716968855756
0.202435239341246 0.036394235966659 0.457174584150552
0.200853023651563 0.0430703362586581 0.461444798169879
0.202852975052368 0.0333465116417012 0.474169711353387
0.201996126811458 0.0382470549643811 0.492112716320313
0.202343009362545 0.0367833969336199 0.48913102910507
0.20219604964148 0.0374034880141921 0.502629274116414
0.202813026838962 0.0319739096695998 0.522853863350162
0.202751047367002 0.0350616957404984 0.527757360235856
0.202827642324368 0.0324760909283274 0.537931485343592
0.202811723804048 0.0319291379979702 0.554041031860803
0.201361219318622 0.0409260235310288 0.558226718303121
0.202853075931331 0.033349977795774 0.568983217676612
0.202381451745338 0.03662119072832 0.583443432088785
0.201068950728643 0.0421592399828833 0.586724178530897
0.201815677090739 0.0390084558536776 0.593698472832085
0.202493139475726 0.0361499285013595 0.613705966398133
0.201168351180404 0.0417398234713719 0.618454903185604
0.200352000102663 0.0451843865003059 0.629428976641688
0.202151505870011 0.0375914388022192 0.637429143000314
0.202139745396596 0.0376410616826621 0.653024544820177
0.2028511654585 0.0332843348407666 0.664177602833464
0.20284209478615 0.0329726707713434 0.677930446896666
0.202394618001763 0.0365656361987196 0.689511829775387
0.20202159435772 0.0381395955995523 0.69529116957892
0.201128466872253 0.0419081138271209 0.704655735859946
0.20280420854819 0.0316709173134224 0.715673590331746
0.20280211832462 0.0315990982068929 0.728040997458951
0.201501094582981 0.0403358250521964 0.739090003481286
0.202503744569411 0.0361051807027392 0.741526191773966
0.20143694537778 0.0406065002391341 0.754863070485134
0.201449033502281 0.040555494847115 0.769837809099782
0.202084154033188 0.0378756273742471 0.781617138583312
0.200750132597901 0.043504481235149 0.788313586808992
0.202842174838293 0.0329754213256564 0.809504586220913
0.201255803533504 0.0413708215180537 0.807725666620599
0.202301069155858 0.0369603620768281 0.825054076152557
0.202827536810091 0.0324724655069886 0.841097439548719
0.202820986826267 0.0322474111191328 0.844431463056159
0.201299587443028 0.0411860769392506 0.861034769161056
0.202073694053456 0.0379197628699281 0.864128376139944
0.211265138497248 0.041278519837469 0.872003847556387
0.221910814873069 0.0546745064989573 0.872003847556387
-0.226908680666666 -0.352388668972401 0.403087660544269
-0.234948273006585 -0.349981711969126 0.415758786272986
-0.230766061770413 -0.351233815583148 0.421073151282755
-0.227814387196039 -0.352117511358729 0.426763408443503
-0.225903153367208 -0.352689711720973 0.439739641712109
-0.225802185946542 -0.352719940149232 0.442371974967226
-0.230968670624632 -0.3511731569353 0.460927138243311
-0.227052478947992 -0.352345617500925 0.462732889957886
-0.226521606392051 -0.352504554342787 0.476512469816952
-0.229160287543722 -0.351714565023816 0.483002506416799
-0.22468228479538 -0.353055225049858 0.490326108326766
-0.231348496863928 -0.35105944153929 0.502253266735626
-0.229129989566073 -0.351723635872984 0.5064058356393
-0.230260909219461 -0.351385052165655 0.520009541031839
-0.227575536319287 -0.352189020431108 0.525132616890073
-0.230132765452729 -0.351423416864226 0.530525336468917
-0.22790000880236 -0.352091877282242 0.543024289063148
-0.225714254276957 -0.352746265830805 0.54390345668244
-0.228388153763601 -0.351945732567013 0.554600482307842
-0.226467930869187 -0.352520624147101 0.569702280678402
-0.231325151453555 -0.351066430873651 0.575779492836499
-0.231991656052081 -0.350866887433721 0.586786009016095
-0.223767413284409 -0.353329126548507 0.593403831234217
-0.229616460663792 -0.351577992292309 0.602471705191411
-0.235943388472484 -0.349683786397972 0.610027241083693
-0.231530141836375 -0.351005059224856 0.61926064942466
-0.233231569114975 -0.350495672413854 0.624816192306326
-0.228879569596277 -0.351798608592318 0.630742846270877
-0.235039373574915 -0.34995443755748 0.645375238012414
-0.230470349644999 -0.351322348227731 0.651834516935605
-0.227055871305147 -0.352344601870099 0.655281508694726
-0.229603318662263 -0.351581926849098 0.667434711131659
-0.232241166255382 -0.350792187087505 0.679465198891782
-0.224701049442289 -0.353049607140842 0.682358226231803
-0.231628055694866 -0.350975744996292 0.697852217302437
-0.225949160767012 -0.35267593766024 0.705628770021912
-0.230535593776497 -0.351302814921489 0.718471996462704
-0.22700177862444 -0.35236079656644 0.724782378915264
-0.231513147907368 -0.351010147002284 0.733001227878907
-0.229709826302064 -0.351550039746036 0.737565476355313
-0.233122827138416 -0.3505282284504 0.748845845766953
-0.228880311907109 -0.351798386353405 0.76186142745453
-0.228100655041273 -0.352031806217751 0.768382935598947
-0.23343489631098 -0.350434798703138 0.776007320258658
-0.2297054889699 -0.351551338290985 0.790035470907004
-0.228326612565286 -0.35196415725971 0.786621273711239
-0.226125041005974 -0.3526232812375 0.793933442763126
-0.227959553333929 -0.352074050367492 0.810347639385775
-0.235222195333532 -0.349899702927457 0.821638960076967
-0.225538302992228 -0.35279894352379 0.828295183472748
-0.229283258085051 -0.351677749126549 0.834984267820886
-0.231001567185676 -0.351163308101598 0.839910717536701
-0.231903838137448 -0.350893179058433 0.849138106841696
-0.230025164674253 -0.351455631239826 0.853918798959168
-0.227418889683266 -0.352235918545051 0.867215572382758
-0.226666148552697 -0.345510590674276 0.872003847556387
-0.217029673390445 -0.340825422573152 0.872003847556387
-0.211049407536041 -0.333600221516124 0.872003847556387
0.199860845755431 0.0472567940123473 0.42865377377713
0.19864041498477 0.0524063562860021 0.43407496612917
0.198240774463561 0.0540926246106935 0.448332649258563
0.201019760227074 0.042366797475852 0.461626983922012
0.198932083295142 0.0511756726916366 0.477476461394343
0.197501159858041 0.0572134009473681 0.477622042984262
0.200391414284173 0.0450180798264413 0.488925505907697
0.198407299073219 0.0533899802099246 0.500711837861138
0.200592701656348 0.04416875524136 0.51682780111614
0.199234498310271 0.0498996437760042 0.528058185106496
0.20024633226853 0.0456302479987819 0.532611845843244
0.198161987035606 0.0544250652344374 0.53985206198017
0.200148762985367 0.0460419379624572 0.556418796101191
0.1985607721709 0.0527424061788226 0.564675922282309
0.198791704039751 0.0517679977418914 0.572402190746722
0.200776004714649 0.0433953148001915 0.5917985783935
0.200234436648903 0.0456804411236393 0.598787449923452
0.199244605802628 0.0498569955876936 0.606736017715793
0.199636294243916 0.0482042807686578 0.616712349319722
0.199415379501921 0.0491364223111469 0.635788764201874
0.198639283311656 0.0524111313386469 0.635455154858035
0.19863481312869 0.0524299931095111 0.644217587471249
0.200148809064343 0.0460417435339279 0.664778446695488
0.199838132606503 0.0473526313000083 0.669538803204871
0.198935752904058 0.0511601889132148 0.679814030212494
0.200251137884638 0.0456099708802346 0.695172333772963
0.199010332007803 0.0508455051570528 0.711627231450353
0.19842047782793 0.053334372944274 0.706719827161661
0.199875570812093 0.0471946621830886 0.719065010209535
0.199626136278879 0.0482471419245598 0.736056426888697
0.198755960413885 0.0519188166426538 0.739426742540769
0.19907081678284 0.0505902918969899 0.756258231345927
0.19890858428313 0.0512748258993676 0.772871365265751
0.199761425135587 0.0476762956223393 0.780724160530139
0.199499705341654 0.04878061256477 0.785863025044285
0.199028472822122 0.0507689606653235 0.80270173502488
0.198423650827124 0.0533209845921117 0.806384551012181
0.19985031936822 0.0473012097119233 0.820164125411872
0.199288863098423 0.0496702535731243 0.834541781026058
0.198919788336894 0.0512275508109632 0.842306923685673
0.198865109410456 0.0514582665086666 0.85266712012179
0.197620877487261 0.0567082568607547 0.864009525974393
0.198702382458204 0.0521448868351642 0.870312947357963
0.21378804060688 0.0576401694773235 0.872003847556387
-0.23811721309203 -0.349032969519369 0.407047882994018
-0.239220379312672 -0.348702694855147 0.423226957154663
-0.237340299627303 -0.349265568042502 0.427735448800523
-0.237666807629974 -0.349167815483614 0.435298478501002
-0.243156106659754 -0.347524385545358 0.444682431936805
-0.235318798083891 -0.349870781228859 0.45003181262953
-0.241258135333191 -0.348092615274345 0.460998982839245
-0.239116447313347 -0.348733810842508 0.466418984933323
-0.244825137548415 -0.34702469782286 0.481872691620168
-0.237872687131404 -0.349106177643429 0.485666880770653
-0.244193190013785 -0.347213895294555 0.490707502129892
-0.240973399523717 -0.348177861742291 0.507168820953308
-0.244017395226924 -0.347266526133967 0.51290827332443
-0.234030615904822 -0.350256447440068 0.51979412936821
-0.23729102181246 -0.349280321226064 0.520889462606064
-0.24359514964563 -0.34739294136947 0.535493336737134
-0.244532256982506 -0.34711238273267 0.550544491956903
-0.241888874636734 -0.347903779532468 0.553560357185809
-0.23800578109011 -0.349066330917071 0.559389933281213
-0.23392164961462 -0.350289070633413 0.567627441971335
-0.237172043860406 -0.349315941790244 0.580200799389288
-0.236317244173899 -0.349571858509009 0.585640295626938
-0.241100215657269 -0.348139894521083 0.590387957277312
-0.238023889448173 -0.349060909493022 0.609984140330549
-0.234993962712261 -0.349968033022183 0.609595582929091
-0.23584279855465 -0.349713901806434 0.627665423506343
-0.242103936823574 -0.347839392506998 0.630118605378622
-0.234352024456108 -0.350160221595433 0.638661881588085
-0.236588910117939 -0.349490525001175 0.64178305277653
-0.24068708237408 -0.348263581644412 0.65283948430453
-0.235743295804749 -0.349743691729928 0.66884013560008
-0.237571357463201 -0.349196392112585 0.679081277866428
-0.233957667080948 -0.350278287438302 0.682418246591762
-0.239671791862896 -0.348567547380849 0.695141111006025
-0.234278268361712 -0.350182303280727 0.700305308249603
-0.236840621190786 -0.349415165741155 0.703872001001462
-0.23727964438622 -0.349283727490288 0.715311547850521
-0.241991669490816 -0.34787300399268 0.727704457009341
-0.237133018245852 -0.349327625588661 0.735757815447624
-0.235661637769917 -0.349768139160904 0.738142729781813
-0.237585463478517 -0.349192168941693 0.757357886658832
-0.236377947273601 -0.34955368473293 0.756750503933799
-0.238289440656508 -0.348981406663324 0.767360852502783
-0.241254432464158 -0.348093723868684 0.775439732145738
-0.238525847780364 -0.348910629221095 0.787164783507417
-0.239011137998621 -0.348765339181493 0.802602929525884
-0.234016759800621 -0.350260595790586 0.798824715084014
-0.240927209148197 -0.348191690583747 0.812736292133981
-0.238934997790312 -0.348788134641744 0.824762850442969
-0.235617085579797 -0.349781477549406 0.823728621157015
-0.241867666099628 -0.34791012911274 0.841179867013048
-0.237159951488099 -0.3493195621007 0.844539612886884
-0.241691299584675 -0.347962931120648 0.859348284579145
-0.240132070172897 -0.348429745604978 0.858712718695892
-0.23646762561813 -0.349526836117941 0.867428690298684
-0.230622957152738 -0.341583891387783 0.872003847556387
-0.223138690092334 -0.334470907495588 0.872003847556387
-0.21475242572567 -0.332337685308278 0.872003847556387
0.197222318166262 0.0583899631013456 0.428454734947328
0.19572520210097 0.0647069886913591 0.431405263559303
0.196344315860656 0.0620946611946913 0.444330581028573
0.196322335046239 0.0621874084241004 0.456482201548691
0.196655050933759 0.0607835261036879 0.461612881603885
0.19681167360953 0.0601226625449082 0.474111023494261
0.195792077293806 0.0644248113009272 0.477445638746855
0.196404850761895 0.0618392364289823 0.494518342864587
0.195979396272929 0.0636344258311247 0.499883442603511
0.195433686591261 0.065937027549007 0.516174273693739
0.196265494670519 0.062427244276711 0.529952336508971
0.195316410089935 0.0664318713872146 0.534994201618734
0.195383091936812 0.0661505098128669 0.549159530549581
0.196495680404704 0.0614559841272669 0.56233529686667
0.196368584749311 0.0619922595210797 0.575672796941932
0.195549467583614 0.0654484939553342 0.582150822197936
0.197285003546065 0.0581254644712675 0.588618572724008
0.19786912328121 0.0556607929604277 0.604367855056612
0.195885218655836 0.0640318047858857 0.612853734782523
0.196715876857267 0.0605268733803336 0.62705579737248
0.195814026306488 0.0643321982577554 0.633720664519917
0.19661366190415 0.060958165575705 0.645816420110297
0.197069161938251 0.0590362001126493 0.651836652371041
0.196828611757046 0.0600511926610511 0.66422884828646
0.196881741472643 0.0598270138009053 0.681172469445022
0.19564274234089 0.0650549245840038 0.683508780207399
0.197854244547917 0.0557235732225196 0.704082015279441
0.197010448483194 0.0592839393538984 0.708528913093337
0.197860659772288 0.0556965044217376 0.724947385190658
0.19502224987091 0.0676730694975152 0.723928712539813
0.19663960676305 0.0608486922079407 0.74470721620041
0.1958980383186 0.0639777126953586 0.748337465142408
0.197202208019738 0.0584748171171157 0.760542849913648
0.196203264229901 0.0626898233078016 0.773301490313421
0.198004279878073 0.0550905047237029 0.789362285040179
0.196841952772417 0.0599949007425733 0.789293567777569
0.195981761291569 0.063624446722878 0.802200837770054
0.196149541142638 0.062916505877632 0.811956790441846
0.197449329155728 0.0574320986692388 0.820349923459311
0.197051019139281 0.0591127529785427 0.83158094686979
0.197233546079434 0.0583425873390538 0.844662205147732
0.196571415915276 0.0611364209554817 0.858317072940661
0.19729981847428 0.05806295343233 0.867322567963555
0.202550766767793 0.0650390122414495 0.872003847556387
0.217434105774182 0.0802800800762243 0.872003847556387
-0.246721744199357 -0.346456876661297 0.409863529929757
-0.244520209260414 -0.34711598967539 0.421211718029795
-0.253192231807595 -0.344519690694053 0.43391000298093
-0.244717243802419 -0.347056999909403 0.432437714688585
-0.254107514677986 -0.344245666039355 0.449906329054105
-0.24354208858775 -0.347408827210377 0.447447726412108
-0.248525786532474 -0.345916768140329 0.471644385532226
-0.252405986373478 -0.344755083096296 0.478420483541889
-0.249286778638701 -0.345688936279947 0.484900655428528
-0.245194849906982 -0.346914010400784 0.486095803194932
-0.246940388578681 -0.346391417170593 0.498962350002441
-0.244355158454991 -0.347165403896312 0.503348117599951
-0.24632852059332 -0.346574603067362 0.517756594962366
-0.249660953324878 -0.345576912890792 0.527484530676679
-0.247549550742292 -0.346209041364228 0.536099417563752
-0.249588667533591 -0.345598554385064 0.537112208636939
-0.247072022515304 -0.346352007557241 0.552293591018404
-0.248526014528956 -0.345916699880932 0.556096233921406
-0.249438540262285 -0.345643500679823 0.568372035197969
-0.24500592820546 -0.346970571280157 0.570570163992909
-0.247963504058453 -0.346085108732917 0.584151510765982
-0.244539603748398 -0.347110183199551 0.589143157268761
-0.246555696215016 -0.346506589425563 0.605471376373209
-0.24969783809835 -0.345565870034379 0.607680391162073
-0.248851661535671 -0.345819205093849 0.624971284081053
-0.247415041272521 -0.346249311877531 0.624063857759488
-0.25197756812429 -0.344883346354134 0.6347562098948
-0.24784443823092 -0.346120755605956 0.638026337910855
-0.24811068656795 -0.346041044064334 0.649713939940515
-0.248040066146812 -0.346062186966865 0.661548729105127
-0.251330835350492 -0.345076970348154 0.668484808860404
-0.245486371705931 -0.346826732289416 0.681866488481362
-0.249645240632326 -0.345581617081474 0.694296396863124
-0.250712115442908 -0.345262207627814 0.695957955685627
-0.244351741983497 -0.347166426746681 0.70418492354543
-0.249424975265444 -0.345647561876307 0.710218077559101
-0.245494045846593 -0.346824434744239 0.715631543232632
-0.253322192102875 -0.344480782148739 0.731834153501918
-0.251504912023846 -0.345024853891209 0.738920140883901
-0.250360550373604 -0.345367461970309 0.745139973861305
-0.252373540696611 -0.344764796940712 0.758681213816632
-0.248423292008463 -0.345947453764915 0.763859223176243
-0.250374264867471 -0.345363356016217 0.774295318872281
-0.24957735891754 -0.345601940048347 0.784050713896812
-0.245853057521893 -0.346716950977701 0.790645006431336
-0.250105075140207 -0.345443948174608 0.79830014706307
-0.251353064437259 -0.345070315227619 0.808175819804242
-0.244279272743637 -0.347188123163244 0.81682506893896
-0.243862336996828 -0.347312948698329 0.825442470212553
-0.251981050927365 -0.34488230364489 0.831948511703456
-0.252887131384078 -0.344611034081882 0.846912698904396
-0.243913464634333 -0.347297641700169 0.84960541801733
-0.249474881891973 -0.34563262043411 0.86023197991846
-0.249375765643373 -0.345662294643774 0.868428311392077
-0.245560192548685 -0.341546806827411 0.872003847556387
-0.235253776874613 -0.332727360287171 0.872003847556387
-0.227211216026565 -0.325942838861544 0.872003847556387
0.193546996312597 0.073897847051958 0.413338730137337
0.192858298005993 0.0768037839579097 0.412809585003289
0.192516960754655 0.0782440438024939 0.4266422822432
0.194729746370037 0.0689072771471554 0.434388097029583
0.194623887344782 0.0693539453694631 0.446004146824635
0.19410203837473 0.0715558677015855 0.4561185345992
0.192741452289721 0.0772968101145866 0.469800327631144
0.194147325725348 0.0713647794089725 0.485366335979646
0.193590410160866 0.07371466393287 0.487711950855403
0.194244395829878 0.0709551957109813 0.499896179251901
0.195093625588806 0.0673719023088737 0.515073991249493
0.193252396974808 0.0751408980075649 0.517887255268098
0.193413182235134 0.0744624705779734 0.53613397420818
0.19306215738194 0.0759436068985084 0.53946122814058
0.193420604811629 0.0744311512923534 0.559772095269062
0.192455827703119 0.0785019924411484 0.56170346233385
0.193184454632705 0.0754275781946649 0.575876668593325
0.193501330709033 0.0740905313688163 0.588878905912137
0.19427249524394 0.0708366312777946 0.597361592546937
0.194558668031762 0.0696291358365606 0.602232659518501
0.194268196391683 0.0708547701251067 0.61168710260557
0.193314608704095 0.0748783979282382 0.628285725205738
0.194098139359166 0.0715723194528343 0.643217740761516
0.193855053364026 0.0725980117738701 0.648301602532383
0.194541782634848 0.0697003831412144 0.664034394672306
0.193427367706932 0.0744026155069937 0.669478486891566
0.193129049027968 0.075661360084443 0.683176667990877
0.193217874662109 0.0752865636228116 0.690659573429926
0.193834292806559 0.072685610174435 0.699424762553774
0.193946021625453 0.0722141745760495 0.715241762109463
0.194769460097172 0.0687397065516632 0.728145674538481
0.193302239680927 0.0749305885617383 0.735152004087001
0.193670147638644 0.0733782146092124 0.744307055101827
0.193611319631776 0.0736264371975686 0.753493467452419
0.194605895351833 0.0694298619149561 0.767092337606428
0.192383220252414 0.0788083568805957 0.775602840973618
0.193572687515688 0.0737894439754501 0.790295683524553
0.192254441854933 0.0793517325420998 0.794379956605652
0.194942623706912 0.0680090491368181 0.809484169455978
0.193379269469441 0.0746055642322846 0.817991043329684
0.193040255449816 0.0760360212870128 0.833015116094917
0.192180330302028 0.0796644434848728 0.846192050319108
0.19510536921374 0.0673223505199714 0.857138511712345
0.192033304732145 0.0802848124120853 0.857789308322912
0.194868338841086 0.0768053123810721 0.872003847556387
0.211265306367414 0.0846419680781044 0.872003847556387
0.215419803014169 0.101016058739392 0.872073003651904
-0.260605144545397 -0.342300354007002 0.416239706620325
-0.259438960849282 -0.342649495343502 0.425891393571999
-0.262430652002871 -0.341753819086633 0.441586312243198
-0.261078608922191 -0.342158604481735 0.444635854741349
-0.253559880173624 -0.344409621206455 0.44507315654987
-0.259152785948063 -0.342735172658162 0.469294868263773
-0.256832968910139 -0.343429697906417 0.46662682359055
-0.254169639676669 -0.344227066563867 0.474554829123388
-0.256591439167912 -0.343502008998817 0.485507231890059
-0.257227283827702 -0.34331164477484 0.491010888844977
-0.25670550307827 -0.343467859639466 0.503884004944088
-0.257930884509215 -0.343100995214978 0.509498510208877
-0.254630851434381 -0.344088985325008 0.514484735674119
-0.254011497602007 -0.344274412394106 0.522252489388666
-0.26146087086779 -0.342044159864627 0.542668866766122
-0.259399501562733 -0.342661308978085 0.545792902555101
-0.256835629446465 -0.343428901373922 0.551989405448923
-0.258955749384412 -0.342794163029406 0.555466428366912
-0.260182577113705 -0.342426865600633 0.575840177278626
-0.252818993773697 -0.34463143366081 0.576389028370122
-0.26227819145295 -0.341799463936874 0.586762827498186
-0.25476323476389 -0.344049351352462 0.595516742273319
-0.261805825209739 -0.341940884694189 0.608838791220134
-0.261528394742645 -0.342023944030715 0.618982689031219
-0.2524159348973 -0.344752104628225 0.62474333390937
-0.255233918572884 -0.343908434295666 0.63030195500884
-0.256429047127737 -0.343550627217484 0.636484972685223
-0.253816800868389 -0.344332702248453 0.645903721766705
-0.256046519390352 -0.343665151409447 0.656242483427169
-0.253365916916843 -0.34446769146668 0.665437595750799
-0.253352138447632 -0.344471816574218 0.673862964252201
-0.260263639911544 -0.342402596376435 0.684097915249335
-0.257651499406301 -0.343184639745899 0.693427315266761
-0.257458543494644 -0.343242408419142 0.704399868727904
-0.263944938256814 -0.341300460041823 0.708644638795344
-0.26035625081987 -0.342374869787206 0.716873882937656
-0.253045994805186 -0.344563472289215 0.724003066974915
-0.255381797282142 -0.34386416119327 0.729706616862077
-0.258922078585361 -0.342804243660631 0.738151561643908
-0.257638892382698 -0.343188414136747 0.754879865526948
-0.256203041848734 -0.343618290472793 0.755858497279886
-0.262543677518022 -0.341719980610285 0.768594425621606
-0.257063071670986 -0.343360807914453 0.775199495512522
-0.258512650028604 -0.342926821633539 0.783295138141468
-0.259639669759111 -0.342589405516094 0.794955006317376
-0.263786084575161 -0.341348018918614 0.810149437744149
-0.25247046945887 -0.344735777638082 0.810465991471488
-0.263652179012298 -0.341388108629471 0.82138359461839
-0.260818442849506 -0.342236495066753 0.831052595150447
-0.263152139169341 -0.341537814528854 0.838158691976688
-0.255520044264259 -0.343822771713839 0.848629227936873
-0.263630844759487 -0.341394495847509 0.853429434117543
-0.258365998631126 -0.342970727293586 0.857808772272362
-0.252602503730101 -0.344696248169375 0.870245873505688
-0.247432911051576 -0.335295050850167 0.872003847556387
-0.240087350546749 -0.325353668342892 0.872003847556387
-0.233499421457856 -0.325375238563456 0.872003847556387
0.190445078250043 0.086986275019277 0.404020060552446
0.191329628924053 0.0832539463288503 0.407639616392107
0.192551359086359 0.0780989013204491 0.422885995355908
0.192147474644982 0.0798030767085413 0.434055203250647
0.189466589018193 0.091114973962835 0.43884487445027
0.190231468674705 0.0878875926825929 0.455059276376342
0.191273468843486 0.0834909117013454 0.466926572069838
0.189467760914408 0.0911100291903131 0.470050946561055
0.189591004804304 0.0905900061778463 0.488932695158638
0.191136038893294 0.0840707922679407 0.498491208326235
0.190134858471355 0.08829523584465 0.507865220251242
0.191835926943565 0.0811176406545062 0.520321176437377
0.190940862195283 0.0848943330905213 0.535226009186191
0.19134696025826 0.0831808174083678 0.543497932367941
0.189972830896116 0.0889789051758406 0.54585868116477
0.192026291404446 0.0803144048876286 0.564954287542747
0.190884735838166 0.08513115616817 0.572000227834712
0.191095558159862 0.084241599217997 0.579508169477994
0.189914826739599 0.0892236515582635 0.593017303883858
0.190056739276625 0.0886248568831403 0.595741568156977
0.191089754486641 0.0842660876014299 0.612192133313714
0.191611636307522 0.0820640266564607 0.619860319561987
0.19136834886005 0.083090568998125 0.642276952204733
0.192021709011778 0.0803337401231632 0.64721985755247
0.191035106352292 0.0844966733730559 0.657541650435169
0.191347709691384 0.0831776552031558 0.674624759646621
0.191552882810135 0.0823119348548268 0.675626001665604
0.189742975821547 0.0899487701193187 0.682889852623572
0.190038073854368 0.088703614938563 0.702113660790873
0.191357691475803 0.0831355374348224 0.710139594295161
0.189186305945882 0.0922976179683918 0.720229496316205
0.191304910486786 0.083358244856118 0.725645116651431
0.191934810114582 0.0807004067898713 0.74116772004592
0.191509037930057 0.0824969366966124 0.755930438337386
0.191016014227157 0.0845772318854149 0.765666763303418
0.191736461193105 0.0815373326914561 0.767346269026224
0.190665645055706 0.0860556015812032 0.786840055535595
0.189153400457934 0.0924364614516958 0.795008803452168
0.189331011151892 0.0916870397302912 0.804787092685252
0.190690784139623 0.0859495281510337 0.812775422159381
0.190823660672911 0.085388860557813 0.830721317927047
0.191178322103691 0.0838923798333251 0.838051856496431
0.190898560071494 0.085072825329487 0.841231663288748
0.189758367937713 0.0898838236572777 0.8555333169244
0.19193815513999 0.0806862925794946 0.867022786859785
0.205462605016859 0.0939206409457829 0.872003847556387
0.207479918967893 0.106925488625188 0.872003847556387
-0.26901663857281 -0.33978205412297 0.419070876062273
-0.272668130857391 -0.33868884136352 0.435233088089532
-0.273104775189794 -0.338558115315558 0.440092898621571
-0.271911310493518 -0.338915424254546 0.446403653426918
-0.26880472734321 -0.339845497789837 0.45589628832112
-0.268720671408868 -0.339870663123012 0.465995126273748
-0.266212486848422 -0.34062158333613 0.479559684839953
-0.27090565057967 -0.339216506706267 0.486072369025404
-0.264350550161726 -0.341179024728456 0.489650728100216
-0.266113645998291 -0.340651175094813 0.492769333635894
-0.27330569896955 -0.338497961158686 0.507981827027802
-0.268656998516608 -0.339889726019172 0.516934700071095
-0.267018941268166 -0.340380140607276 0.52323072992995
-0.266561831658803 -0.340516993712384 0.526094141623435
-0.270854620402047 -0.339231784526114 0.543013018174258
-0.262428341953978 -0.341754510687417 0.551602699222243
-0.267731116323818 -0.340166923983188 0.554648084324283
-0.271105672948881 -0.339156622420842 0.565393334670948
-0.266107727720017 -0.340652946955964 0.571937496500408
-0.264212006285856 -0.341220503094297 0.588348463344929
-0.268949428163523 -0.339802176109072 0.590120879977522
-0.268710149299911 -0.339873813315556 0.603448466674868
-0.263493495235675 -0.341435616638745 0.613241549516055
-0.264578695071577 -0.341110720893471 0.6133352622309
-0.262152274755032 -0.341837161877898 0.627267827125333
-0.267439070450845 -0.340254358995999 0.640498486530374
-0.267136732270048 -0.340344875401664 0.642962239395371
-0.270728875351098 -0.339269431078105 0.651506935211294
-0.267834242541054 -0.340136049237268 0.66418396667989
-0.266835851758069 -0.340434955398863 0.670116851541613
-0.264634532392107 -0.341094003873005 0.675517504516047
-0.267765796629817 -0.340156541117755 0.682186243438774
-0.268869392701211 -0.339826137761401 0.69101822743516
-0.266008021384629 -0.340682797830497 0.705944097870718
-0.272143871140566 -0.33884579840109 0.716374021963443
-0.266650242277534 -0.340490524639212 0.721291469597114
-0.266087780733396 -0.340658918843233 0.726955471630696
-0.263058674259137 -0.341565796795947 0.737287920821278
-0.26329224638668 -0.341495868117428 0.745748440219387
