ply
format ascii 1.0
element vertex 839
property float x
property float y
property float z
end_header
-0.198101897627172 0.362807565248229 0.615921052079544
-0.213728858271986 0.358116777740263 0.644359798796494
-0.216685598807593 0.357229244848617 0.661679184328757
-0.199611713031019 0.361180661323902 0.695850609607172
-0.189854316083634 0.363216038611331 0.699339029761793
0.464298164907189 -0.04436533182542 0.200174746015247
0.466341623522388 -0.0441147608026739 0.209674936266842
0.476378885500291 -0.0398731520265946 0.20624424408745
0.466133885587938 -0.0442198100112122 0.225113368363219
0.470863249089562 -0.0422608435074474 0.243405898773148
0.463728537435478 -0.0445633788057415 0.267720152113278
0.458460564197187 -0.0452569206397859 0.285653138794778
0.465814443208918 -0.0442887641009359 0.307915484580844
0.472195146439271 -0.0417091535615091 0.31042920590899
0.457552231485454 -0.0453765049099259 0.352667405728387
0.46761759441625 -0.0436052376919132 0.363170917105488
0.466900381204911 -0.0439023171311628 0.39114795379484
0.470890444857564 -0.0422495786515023 0.423163061306549
0.463371477644822 -0.0446103866189694 0.452151209431803
0.465350383452185 -0.0443498587269399 0.469065857737185
0.465647637898501 -0.0443107244366631 0.475893721069949
0.470045705831886 -0.0425994810126037 0.500484514103407
0.467398800716136 -0.043695865009862 0.499907464792753
0.470628346849506 -0.042358143201111 0.511123676091022
0.469763904095632 -0.0427162071136604 0.529431781437226
0.457083456793892 -0.0454382202688759 0.540117016636769
0.474991757342847 -0.0405507593965676 0.540597154847241
0.468299340504958 -0.0433228492158756 0.555975299733244
0.480882967457324 -0.0363853325993212 0.567571518070475
0.460130481832145 -0.0439626860569027 0.587929594932528
0.476736067092814 -0.0333583484462031 0.596256314881736
0.454759789030381 -0.0413314247482517 0.162213368614842
0.447144083824821 -0.0456888187396471 0.186215818385274
0.449462316792645 -0.0457950086989166 0.188216165519881
0.444411315729723 -0.044534537715541 0.211674490264887
0.45866712319881 -0.0452297266313233 0.210920087023632
0.455511028909696 -0.0456452343271064 0.224171358847991
0.446736973707439 -0.0448407163968418 0.249359929370404
0.444320751713337 -0.0445226147365922 0.25146481344231
0.45946583959152 -0.045124573623359 0.256985135230546
0.456179989077297 -0.045557164050255 0.271363650813671
0.446324113013957 -0.0447863622553891 0.292861214642272
0.452560369963639 -0.0456073810584112 0.296032883577795
0.453995890142399 -0.0457963708752822 0.307907963286959
0.456213730503916 -0.0455527219071682 0.315637948377852
0.452966820259742 -0.0456608912550382 0.323685935848145
0.450642760887216 -0.0453549230341045 0.33955111499827
0.452884244862369 -0.0456500199977355 0.35072007807112
0.455880077743469 -0.0455966481264086 0.360126798682118
0.453275001867482 -0.0457014641334083 0.368730840260965
0.462146521729638 -0.0447716551246376 0.370982858921255
0.450711814272092 -0.0453640140846902 0.396685824064919
0.442442005586716 -0.0442752731166906 0.405758729041117
0.46100102494966 -0.0449224626367004 0.412105260138729
0.45232937470735 -0.0455769699559905 0.422219979939019
0.450505571639401 -0.0453368617269868 0.444299379288284
0.451221115286939 -0.0454310648353182 0.44774485029317
0.461557553952646 -0.0448491942034769 0.457338766131186
0.445057217884925 -0.0446195723474708 0.473079033551364
0.449873201835322 -0.0452536086628813 0.479617614670936
0.452536407242189 -0.0456042263062836 0.487505618020842
0.447838212587918 -0.0449856972458971 0.496510654261583
0.45435686469167 -0.0457971829290356 0.510397701740309
0.451290750339349 -0.0454402324638879 0.519707631547993
0.444550989567344 -0.0445529261251114 0.534922878132839
0.45689554049056 -0.0454629599195469 0.542343307612922
0.452352421862465 -0.0456116363856745 0.562624444044029
0.443389842858863 -0.0446800080604151 0.572556286275556
0.44192434132572 -0.0449145240231006 0.580856277531587
0.451447726323536 -0.0444843715270499 0.597834478390335
0.465404533018338 -0.0407573775039522 0.59473091429769
0.462718475580618 -0.0399871148935846 0.602608983171142
0.474921876630272 -0.0332099936603208 0.600372263887903
0.471309071651554 -0.0279215084487288 0.614345784853346
0.427625455988958 -0.0451644261107229 0.158062386276908
0.429315425977788 -0.0452489234918464 0.159690647228928
0.431357701840595 -0.0455852617384531 0.168426479648974
0.437252006282146 -0.0449657834310506 0.18080310411435
0.436084072086642 -0.0437409044916597 0.191168851006029
0.433689757960757 -0.0408929029225537 0.205400045804647
0.433258224449629 -0.040510730538904 0.21127125736834
0.437298132685149 -0.0421790192549986 0.227603653374554
0.433238934779804 -0.0404976444302482 0.241929080181549
0.440446325851563 -0.0434830435614979 0.239154580571311
0.443127804297399 -0.0443655602297933 0.251722747920036
0.440960468726417 -0.0436960085132602 0.267040991865914
0.440881251548503 -0.0436631956837953 0.273694040984788
0.439426910950327 -0.0430607880837206 0.292381319065936
0.435320741062956 -0.0413599568269635 0.305378853701062
0.435172358205615 -0.0412984946350293 0.30960405654995
0.432350261000924 -0.0401295436985109 0.327125765137763
0.43895259661811 -0.0428643206544884 0.335469276448164
0.434082061270637 -0.0408468788575476 0.338465926049915
0.43302259138238 -0.040408032060905 0.363482225045396
0.437881279564125 -0.0424205666011264 0.359604795285249
0.440681562156505 -0.0435804816293672 0.372963358897895
0.439774428180888 -0.0432047344337771 0.38548416784413
0.43542126932354 -0.0414015969958993 0.404862538221685
0.434223828828356 -0.040905600902659 0.411238974986989
0.433950492858868 -0.0407923814370129 0.422779641201609
0.435666000292322 -0.0415029678823012 0.432392821178927
0.436721216014213 -0.0419400525455376 0.441561656678923
0.440788636425201 -0.0436248332436424 0.457746541061954
0.445027158770842 -0.0446156149900263 0.45653855993906
0.438995067818953 -0.0428819128018877 0.477759224573384
0.440945277115486 -0.043689715941978 0.482797678120821
0.439027477332627 -0.0428953372620018 0.487814552480779
0.429632820693601 -0.0384261183038355 0.514690420655077
0.434192003386809 -0.0408924183731418 0.515485147240328
0.436391891474187 -0.041803641854637 0.531965583660072
0.439982489332655 -0.0432909161846425 0.543848551698568
0.436249569172388 -0.0417446900270035 0.548608608485913
0.431523477258264 -0.0400363952893536 0.5646764756824
0.437593306047085 -0.0439567665867491 0.576734045965381
0.427325807067473 -0.0426629058872975 0.586316115413724
0.4309078260314 -0.0454831432248088 0.600726277687778
0.428789622254605 -0.0455388521067297 0.607797135177225
0.435517333709917 -0.0444229084779585 0.613496341879161
0.440809811309529 -0.0401503162162074 0.623385643976865
0.45331316441299 -0.0301361904577871 0.629894076665059
0.455944598562232 -0.025462833158778 0.632393604767345
0.471931625229208 -0.0143042021911692 0.624874323980227
0.405604282262221 -0.0451475285420758 0.151086942684801
0.417614880982876 -0.0423253962981872 0.141644884700643
0.411590263436181 -0.0449047000427642 0.164391028006533
0.418828342441144 -0.0446952386795037 0.168811185837719
0.423849302230776 -0.0412190152095011 0.184955009616588
0.419065699227374 -0.0385629214646839 0.187635531734773
0.42864743576814 -0.0410346207796447 0.191454129912013
0.429426558176471 -0.0398482047635568 0.199166820658956
0.430825069132107 -0.0393409627070777 0.212755717347622
0.422960591045346 -0.0333063364247372 0.221000319413679
0.425304250729236 -0.0351046897508243 0.235509498992434
0.425666383813043 -0.0353825642392697 0.252985932524897
0.428042304017795 -0.0372056719336594 0.261962854583269
0.427167717708537 -0.0365345782552485 0.264595438525153
0.4266084927542 -0.0361054698554347 0.272725533755006
0.429536093736727 -0.0383518970993615 0.295496350909894
0.426128155160085 -0.0357368938561299 0.310765556751175
0.424450357286149 -0.0344494742670848 0.313791426906767
0.426269349364515 -0.0358452359797349 0.321485246800404
0.425207191204559 -0.0350302133580986 0.332802852896863
0.422660210637741 -0.0330758464313211 0.344983034275729
0.429464235683593 -0.038296758475888 0.354819049191921
0.426922843262952 -0.036346679484486 0.361154379717979
0.427071220465832 -0.0364605333166561 0.380105780629812
0.422918212715319 -0.0332738183884013 0.395147206595241
0.430780078126353 -0.0393064398941461 0.397335502558301
0.42877428890232 -0.0377673436903478 0.416644868571717
0.429517606400816 -0.0383377112675804 0.413381152789609
0.425522622674738 -0.0352722524380246 0.43654499529806
0.430101456486591 -0.0387857151953305 0.443236517602797
0.423423227209925 -0.0336613296394337 0.458238416194652
0.42522385085013 -0.0350429967537552 0.470408625173467
0.428520811026965 -0.0375728432757328 0.477233416925651
0.426176343103295 -0.0357738697654501 0.480378124638334
0.429859615304671 -0.0386001439296381 0.495216904582292
0.425631293556597 -0.0353556385384834 0.505887194450182
0.427134640723319 -0.0365091973918102 0.522846332294233
0.427781916105291 -0.0370058692610521 0.536353962868006
0.427492783212682 -0.03678400978944 0.542032892838293
0.424580977414183 -0.0345497026164986 0.557802484301182
0.433283239820898 -0.0409030241427052 0.566553954324518
0.427656789683566 -0.0384306731802652 0.569509324091299
0.421306336285368 -0.0438194423736251 0.594684056141667
0.422903331374022 -0.0454482046461312 0.605341284208045
0.414569824120553 -0.0448650441763662 0.619294003397047
0.418020981883565 -0.0409554466617372 0.631431529480904
0.434710903516593 -0.037269274282905 0.631721916590902
0.4362870287966 -0.0339652445335741 0.635745668065461
0.442732062634418 -0.0287081206797623 0.638000360543729
0.451850564034045 -0.019823596193612 0.639077531259443
0.0899655317659087 -0.293355077664065 0.443531071489694
0.0990042372206292 -0.287770845276027 0.482110675429163
0.0954026765423274 -0.289995937341258 0.496635636385385
0.395954897124587 -0.043524246139091 0.169423494733159
0.40409977835318 -0.0449814562858121 0.162498456724095
0.405879312833708 -0.04040071091753 0.177751658758361
0.408527853768931 -0.0381204278552311 0.182343774817675
0.41307272248222 -0.032127076070845 0.193341063830491
0.419492440589342 -0.0314445935780512 0.202955418786278
0.416971786366995 -0.0274620029194348 0.205036886488507
0.417949082894991 -0.0274237690874764 0.211777694296893
0.42033305974544 -0.0305150436146383 0.22111347369497
0.418403411110377 -0.0280002765527573 0.236577386299107
0.419723777167344 -0.0297210110996342 0.247556169187685
0.101224597377618 -0.286399077254171 0.595333651448303
0.417102599256817 -0.0263050255399034 0.268215684024376
0.419016032235132 -0.0287986599464759 0.283646938677327
0.41958908041628 -0.0295454708760079 0.284412304422226
0.419018920804264 -0.0288024244030597 0.304760669497693
0.419017544474677 -0.0288006307354218 0.315551255240723
0.418690104057183 -0.0283739020752496 0.327416178588108
0.421092759911637 -0.0315051041469785 0.333529094196206
0.420318458395418 -0.0304960147648125 0.346935693648893
0.418187987565964 -0.0277195311237702 0.358465020962659
0.420189769781388 -0.0303283044978127 0.373090911651523
0.419592094023846 -0.029549398285853 0.384500608551796
0.420646587392303 -0.0309236407991174 0.384195930631433
0.419764834489512 -0.0297745180436247 0.409275667624541
0.420459374936348 -0.0306796607764052 0.415522453468067
0.420612162779793 -0.0308787777706444 0.425301389636574
0.418918560484004 -0.0286716322872702 0.437091021242278
0.419193089885692 -0.0290294059691407 0.438233536803665
0.415387701030202 -0.02407012665914 0.457322481023497
0.420022109424587 -0.0301098052668111 0.45898763410793
0.415646077686215 -0.0244068496730058 0.472119573008766
0.417441281762571 -0.0267464051747397 0.484672659062491
0.41761059315318 -0.0269670560748933 0.500815719663463
0.418653148749444 -0.0283257409805412 0.508683499185286
0.419813379850414 -0.0298377835896848 0.525066370117074
0.4202542933706 -0.0304123932764216 0.535769828144636
0.421053458550999 -0.0314538856166075 0.544375843247616
0.420222477855171 -0.0303709304894629 0.554464286696718
0.41941291249868 -0.0310335173438731 0.566082606085691
0.415069530751866 -0.0406441675129496 0.589403871681582
0.386811347447531 -0.0457446421575129 0.613418725959777
0.403978116822758 -0.045727063598597 0.61439323762933
0.404986485788534 -0.043827222410075 0.626545508102252
0.408614639652921 -0.0410385496218372 0.633054603625742
0.411751791505908 -0.0360808699322231 0.640598461504711
0.413950923919996 -0.0344370128706085 0.642345313558297
0.419076735154345 -0.0268387479356521 0.648383314308247
0.435004089252516 -0.0211754771820267 0.647461373158447
0.0833942139537769 -0.297414925165725 0.136862456162614
0.0515571445865782 -0.317084289854189 0.192440345204797
0.0716585537571795 -0.304665372045883 0.169693698419822
0.0866829363344682 -0.295383108759546 0.164210558764772
0.0930701175047096 -0.291437023323108 0.167496537988054
0.046964063628579 -0.31992195632922 0.235531190309612
0.072937074704388 -0.303875484808385 0.210547447764814
0.0480928236901005 -0.31922459335778 0.243368027665168
0.0354186014184343 -0.327054896364906 0.267792177040166
0.0886035076851716 -0.294196554247525 0.221670209381954
0.0770097255228133 -0.301359346992041 0.24255551458165
0.036002864131826 -0.326693931093542 0.304146960830102
0.0507622296306228 -0.317575398881363 0.29694774205913
0.0586639447691881 -0.312693614225489 0.289360642303138
0.0586695328682404 -0.312690161823608 0.306758050441164
0.0493368082133448 -0.318456043182125 0.329855161873956
0.0734833860855447 -0.30353796637459 0.306719462720578
0.0959911719615314 -0.289632357047974 0.290561307710882
0.0840452590647976 -0.297012700841319 0.317385215918744
0.0560618164856638 -0.314301243671041 0.354166067102881
0.0556653811703012 -0.314546166678977 0.364140621156089
0.0555787412336095 -0.314599693983633 0.366751175722009
0.058050151285235 -0.31307282399948 0.385714506913375
0.0441306933803005 -0.321672450134665 0.404274318983511
0.0549781364996328 -0.31497075557256 0.402678897334121
0.083850744086438 -0.297132874780779 0.378647314627781
0.0806335037599059 -0.299120528623635 0.395774015833038
0.0425731531461458 -0.322634719196846 0.439369578222497
0.0952885082704792 -0.290066472017328 0.392067573411205
0.0437051696641896 -0.321935344343276 0.457147995117767
0.0587184453389263 -0.312659943048989 0.452066038809351
0.0744756941375883 -0.302924905268563 0.447548356658102
0.0799153168653964 -0.299564234034446 0.447553526896233
0.0740865773607805 -0.303165306786088 0.464969458344267
0.0578753752820313 -0.313180802937684 0.494412894764707
0.049637600663264 -0.318270209607911 0.502431453400663
0.0539925999922024 -0.315579633128308 0.514453151494649
0.0420092134824197 -0.322983128617957 0.530007082302223
0.077773011054329 -0.300887779043759 0.505094904032059
0.0830691846630574 -0.297615732582384 0.512158933665512
0.0800134949815312 -0.299503578289144 0.527318284637115
0.0618197205756267 -0.310743933980239 0.549293688675054
0.0432455581659699 -0.322219298436828 0.582418925056494
0.0752842613029226 -0.302425361724945 0.556232489225056
0.041239373228992 -0.323458746160574 0.60079823964558
0.0494372592190726 -0.318393983215418 0.601963088336639
0.0826023128363983 -0.297904172203361 0.57932302423988
0.0343937231399277 -0.327688079789822 0.633852624845969
0.0615083632740562 -0.310936294660249 0.613834755652844
0.0700813978212264 -0.3056397599494 0.618685430264358
0.0433005575290088 -0.322185319099195 0.658785668344005
0.0537546330238029 -0.315726652284853 0.65588120901411
0.0536585320584982 -0.315786024738759 0.664239685599919
0.0362618418168495 -0.326005446471479 0.690724649867148
0.0610600389448945 -0.311213275390708 0.675537757373556
0.0506457499082239 -0.316025106196387 0.697795708007044
0.0773004232796904 -0.301179750053385 0.672430717180115
0.0907695754582391 -0.292858328782203 0.677496945091981
0.0685072678462918 -0.301579097920887 0.705740022682005
0.078196555972233 -0.297986460380036 0.700821865106507
0.0891423583211589 -0.290469938151779 0.702371284021353
0.0950909823396673 -0.286171203253021 0.703652629338411
0.41528381560087 -0.0239347405317663 0.387596019250491
0.112011177349994 -0.269198890506207 0.704971945412839
0.123672049882707 -0.255177787405827 0.707693539838758
0.413307161684946 -0.0200360286127223 0.418435458733756
0.413135970116775 -0.0196227356070819 0.435355668268169
0.414260292367431 -0.0223370896330945 0.43981560528722
0.413352230845224 -0.0201448351907112 0.450756886936066
0.414228030659401 -0.0222592029800208 0.458658517460021
0.413500267290908 -0.0205022267856096 0.470895154726377
0.413482546552023 -0.0204594451374568 0.487432457040367
0.413083726678533 -0.0194966087899341 0.496209354468384
0.413400160632499 -0.0202605479331934 0.513470833433802
0.410692128028572 -0.0137227788934439 0.517477108135333
0.413506207932117 -0.0205165687621817 0.527274174681466
0.413730418551864 -0.0210578610812037 0.541586088686481
0.412152717782665 -0.0176415909252719 0.560121416482455
0.382264773331766 -0.0411721717856701 0.594683142307576
0.381332237634118 -0.0452029087966037 0.609303852555651
0.375814552711617 -0.0452082013161736 0.618646378638002
0.386405575725852 -0.0447192380739269 0.622360423196271
0.388901972491296 -0.0411984802283311 0.633243775364294
0.391046904324922 -0.0392375171745132 0.637484421143465
0.402031543362089 -0.031768149022185 0.646764707193192
0.406241589909764 -0.0271775873524307 0.65001878606661
0.413018289245083 -0.0251031834400534 0.65094625003988
0.422980365448567 -0.0105665878880817 0.655521000632417
0.43113371488563 -0.00297926586894957 0.654084963242128
0.0124906411827331 -0.339083231207314 0.218075284122795
0.0342975943486046 -0.327747469435012 0.202297872941368
0.0235667162104512 -0.334377148602162 0.231200910786669
0.0141639342631758 -0.338580954247814 0.254316474519917
0.00188809518381537 -0.342265826431989 0.269012384027375
0.0120051646376481 -0.339228958029367 0.267529596411192
0.00448583424082557 -0.341486055995847 0.284018876082654
0.00730857576846061 -0.340638745952838 0.294390555974851
0.018644498452979 -0.337236011043062 0.288885298499287
0.0181939326898958 -0.337371258600218 0.295496089632692
-0.000491009456574241 -0.342979968777448 0.326703734046099
0.0153182271296385 -0.338234467001727 0.321020458054779
0.0121888233168727 -0.339173828701417 0.329281670576117
0.00321197411734292 -0.341868434072425 0.349113820709109
0.0208976531302457 -0.336026131254916 0.341825039466394
0.0245777119316523 -0.333752542005699 0.352178362988647
0.00365594008245453 -0.341735167594673 0.373744011217111
0.0141728451872094 -0.338578279431381 0.385629513591256
0.0276428150847366 -0.33185888053107 0.373410434254837
0.015564275850605 -0.338160609884346 0.393220818886008
0.0342880029300918 -0.327753395140875 0.383426447743568
0.0135572812007624 -0.338763054956424 0.410984857239408
0.0118498081404834 -0.339275591813936 0.417009185622532
0.0268589273550429 -0.332343176791266 0.424213167498643
0.00667842165193286 -0.340827901037125 0.448256545468348
0.0145179776984203 -0.338474680061741 0.442562073282746
0.0126845229969934 -0.339025033172967 0.457288746939395
0.0119600431573569 -0.339242502267488 0.466690282191057
0.0319383776259631 -0.329205024889051 0.463696068914399
0.0132922420873241 -0.338842612471842 0.494530397952884
0.0184516018076979 -0.337293913356543 0.49396849164672
-0.000612516624271322 -0.343016441916232 0.516564616023544
0.014585469866023 -0.338454420753238 0.515759151599814
0.0144411867761433 -0.338497730602862 0.521881304858905
0.0368101662074971 -0.326195169139136 0.50966732220712
0.00586055975768235 -0.341073400878328 0.553836394472056
0.0164678530850481 -0.337889380635092 0.551694084415557
0.0128475808253244 -0.338976087658763 0.560236136558032
0.013872133994421 -0.338668544732401 0.575597851621231
0.0294679734413063 -0.330731273435218 0.565435710601471
0.0176299429290106 -0.337540552948948 0.583101239271701
0.00831360670441111 -0.340337063068583 0.610693161945928
0.0152874185347047 -0.338243714901913 0.602250044177602
0.0103765598772591 -0.339717820773638 0.621960028852431
0.0187056381316742 -0.337217658578525 0.619861538495253
0.0316216544791388 -0.329400700659591 0.618431399771579
0.0130854889733961 -0.338904674119407 0.647246316415582
0.0242763125841403 -0.333938750529313 0.649480461010593
0.00671526471700502 -0.340816841753536 0.669463158957043
0.0121945460085635 -0.339172110905404 0.672549530990309
0.0131539034107384 -0.338396714317903 0.690855694038182
0.0101645256722188 -0.338818055739452 0.694320080357869
0.0157095659918152 -0.337162639835967 0.69425418252578
0.0114168184750948 -0.333197772610073 0.709758579636185
0.0357035875046503 -0.323046723965074 0.703272088846543
0.0316237347946563 -0.325332609569769 0.703754346414059
0.038684467671644 -0.316533457198671 0.711650407697005
0.0395231297994293 -0.311688962901521 0.716449169552908
0.0537717166289539 -0.303153752789863 0.716152176431837
0.0606148122135117 -0.299114491463509 0.715943100265713
0.0679997646017413 -0.294447925142194 0.716058505674413
0.0700082647723583 -0.28893079254232 0.720351993981315
0.0863356514172226 -0.278806154596506 0.720376394055771
0.0925455559387999 -0.273666210584428 0.720978217469911
0.113807087209936 -0.258622718526101 0.715137415661646
0.129290949628579 -0.247073482784335 0.710768601400038
0.115961928908393 -0.24806120160695 0.721372450869267
0.12252111921897 -0.239993021144161 0.721954496647421
0.150943364735117 -0.224242649087657 0.710631957211749
0.409727033617802 -0.010391831892048 0.468946798698477
0.409032164080934 -0.00511377374957431 0.467862962099628
0.408744433772598 -0.00292824507667783 0.476367471419197
0.409538595810766 -0.00896050464425851 0.489571160779763
0.409690337079724 -0.0101130940120228 0.504408071856806
0.409362108083778 -0.00761994726614808 0.513566193137479
0.408444439899511 -0.000649565381382268 0.522703894493442
0.40957675056915 -0.00925031880718123 0.536032973255423
0.408617185573635 -0.00196169904607133 0.545607762760535
0.360196460698071 -0.0452997268747867 0.610039258871193
0.369111051866376 -0.0449810643505046 0.607618776691808
0.362141508756967 -0.0450775373757061 0.619638869801197
0.371368011894457 -0.0431620698405765 0.628503250691476
0.371528400681175 -0.0391418485369426 0.637609098939332
0.374295312650044 -0.0327399640624315 0.645952197220513
0.383146896370274 -0.0269455223678085 0.650580607674245
0.397683952748163 -0.01969680165281 0.6550080281554
0.396369439355241 -0.0169439340495105 0.656148303252104
0.412278606495899 -0.0157121046532193 0.655849019975227
0.41842358085671 0.00113281764847468 0.657693712672119
0.00430398297059395 -0.341540642788897 0.230016243826663
-0.000282366036466021 -0.342917339711508 0.244841783813066
0.0063689719453696 -0.34092078940172 0.248891337162655
0.000745098526127316 -0.342608922864199 0.262470813138795
-0.0114540490794443 -0.346270774358978 0.276164724666548
-0.00048160754996205 -0.342977146581431 0.278344438143682
-0.00734923108873652 -0.345038619918269 0.291215411594544
-0.000804869657791889 -0.343074181052284 0.30166468887251
-0.00148071399937414 -0.343277051096362 0.304904673779927
-0.0166269579694697 -0.347823540565581 0.328317192517575
-0.0137190865505283 -0.346950676850315 0.340361141084699
-0.0145653431104721 -0.347204699995964 0.347164961582697
-0.00894269703387062 -0.34551693494828 0.359277011284779
-0.00965496568433423 -0.345730738576756 0.357140004925155
-0.00865052497092141 -0.345429232861214 0.369163828089383
-0.0135059364569355 -0.346886695003872 0.3802731500433
-0.00907195379632843 -0.345555734304114 0.387725264623187
-0.0122598191795314 -0.346512644573263 0.395254019245498
-0.0185738544167487 -0.34840794579586 0.413282662354688
-0.00514217268155111 -0.344376121161084 0.408823652697926
-0.0164523748769371 -0.347771135481306 0.43364976567544
-0.00870776491024885 -0.345446414730321 0.437326904228781
-0.00525724576247312 -0.344410662962446 0.441150217784965
0.00398208532189335 -0.341637267686322 0.440301771640875
-0.0108852081443368 -0.346100023820017 0.464018588694639
-0.0152126221053018 -0.347398995501797 0.478949049451038
0.00687975740657865 -0.340767465533109 0.470794021202585
-0.0131567823492032 -0.346781888460608 0.494865245286094
-0.00894520768671143 -0.345517688577809 0.499890521650028
-0.0109896478230263 -0.346131373763955 0.509837307009652
-0.0139162896350769 -0.347009871839447 0.521032360556224
0.00425070964848218 -0.341556633987669 0.512937528960372
-0.00860459264106839 -0.345415445228162 0.541019684239284
-0.00297210716483822 -0.343724726660987 0.541828158242247
-0.00955340448049196 -0.345700252672484 0.557043451195202
-0.0124779673015983 -0.34657812669158 0.566474937353414
-0.013047743351874 -0.346749157926618 0.573119149470723
-0.00520590543104317 -0.344395251994773 0.573476774696381
-0.0179478373190046 -0.348220032531815 0.594034823427643
-0.0195030610822241 -0.348686868301509 0.605972985285662
-0.00651680043562037 -0.34478874693288 0.607796302034909
-0.0193684356154353 -0.348646457407016 0.623582930384315
-0.0168300197707483 -0.347884494181734 0.629622434287733
-0.00871038833262706 -0.345447202210191 0.632284571216094
-0.00167855979182821 -0.343336439008884 0.639730031053448
-0.00125182021981655 -0.343208343424653 0.650614661690149
-0.00519108474946746 -0.344390803230258 0.65529470842714
-0.0153378435225035 -0.34743658355701 0.683012727240613
0.00333569206320382 -0.341831297318315 0.673860823695127
-0.00795862756309725 -0.345221544124345 0.685304680781265
-0.0125153064538475 -0.345276477520336 0.69686344980711
-0.00515673572658748 -0.341114474680077 0.702953330809079
0.000366651768748463 -0.337278849186353 0.707990934096328
0.00608374827384153 -0.335025213145886 0.709234386361646
0.00841776343407824 -0.32874233059377 0.716658108519102
0.0181923304482199 -0.32422410246267 0.717162725981281
0.0309251046686981 -0.313525457443476 0.720059041617757
0.0269005017898532 -0.309933600021785 0.724028676924311
0.032229628875211 -0.307933015053306 0.723185012134599
0.0531070837544941 -0.300504155477251 0.719546544281224
0.0576967474626859 -0.293055651953908 0.722625607346051
0.0666316134059459 -0.283419207231346 0.725313931783386
0.0707036906710566 -0.27712672811531 0.72741660232506
0.0716788639818357 -0.272119057569793 0.728969621262891
0.0916805754686797 -0.266832393247577 0.725058857647805
0.101661521988833 -0.256502634878888 0.724919441701543
0.106034515335388 -0.243773961449524 0.728170136412851
0.11032330016884 -0.24132298049221 0.727572981198007
0.133301715169819 -0.230202768969749 0.721084269077768
0.13611594107896 -0.223426671643809 0.723078715650785
0.150011240909259 -0.206663742335909 0.724138517804149
0.408649535668869 -0.00220742241498542 0.475411253306309
0.409323032944019 0.00732314211261484 0.484656020708349
0.40915609683722 0.00605513649284016 0.494687324680187
0.40905194800687 0.00526404758637293 0.50015389958364
0.408388071915358 -0.000221408033929006 0.521411237427959
0.409504954413846 0.00870497286524942 0.531969556369216
0.409304752357448 0.0071842872719865 0.534770515106557
0.347596540093359 -0.0452487788354657 0.609652270091985
0.357821718675119 -0.0449499558276803 0.620607947869317
0.348062316713001 -0.0425955215265868 0.62987101931485
0.360593182618346 -0.0365644970144031 0.640967968838237
0.362693693446097 -0.0385006114580323 0.638444775370575
0.360756596843057 -0.0311122459539205 0.647383368215173
0.377681335594843 -0.0193423392025879 0.655154851309634
0.382425753139332 -0.0164710712307659 0.65634416944477
0.392055753398408 -0.0144242592768636 0.657191986715704
0.399762489268062 -0.00365483141983767 0.659334586753439
0.411373620782702 0.00975985461574298 0.657828162916799
-0.0228948892108704 -0.349705002625685 0.254608887828722
-0.029456374406177 -0.351674581578843 0.262024631751465
-0.0291853928423489 -0.351593240301841 0.276829952518177
-0.0326894096383737 -0.352645050605079 0.28806140387113
-0.0334476158153671 -0.352872643426507 0.295012300620297
-0.0275278864109063 -0.351095702063939 0.303740915101223
-0.0261556737304601 -0.350683801231397 0.312064845144744
-0.0219608183204394 -0.34942462001233 0.318878055427156
-0.0152323453222442 -0.347404915873758 0.317079325730872
-0.0386140278441065 -0.354423459452492 0.345593108281795
-0.0285730071854844 -0.35140941882468 0.351049094565857
-0.0294505727779115 -0.351672840088222 0.363331106360907
-0.0381406613937174 -0.35428136775068 0.377892021866341
-0.0338562984831303 -0.352995318820414 0.381716058620019
-0.0405292242818303 -0.354998349204221 0.397036229386786
-0.0269403223225542 -0.350919331344872 0.400680529224311
-0.0294386305956937 -0.35166925537073 0.406884410573387
-0.0282359395191846 -0.35130824030159 0.417418118970242
-0.035369365559286 -0.353449500302076 0.428030182769069
-0.0245085666849705 -0.350189384605613 0.422786688982545
-0.0267442577871174 -0.35086047811714 0.432592779012463
-0.0442834272805306 -0.356125258584039 0.467910716688198
-0.0323797747984744 -0.352552106668504 0.460675347555518
-0.0326471073551945 -0.352632352613063 0.472118990762547
-0.0302866999830121 -0.351923822677729 0.477114030058768
-0.0326491237646658 -0.352632957884208 0.49489575816386
-0.0351239607998038 -0.353375836484375 0.496382418931915
-0.0269267967035029 -0.350915271322816 0.501717592900406
-0.0412040911840905 -0.355200925847665 0.525945569201419
-0.0167423140685544 -0.347858167321279 0.511697532145849
-0.0305633961426149 -0.35200687932057 0.537189726313916
-0.0180293399182686 -0.348244497389902 0.530636831697609
-0.0295342166352324 -0.351697947693594 0.551439690281819
-0.0248962285268073 -0.350305750120721 0.559346460953864
-0.0199844121247025 -0.348831356760163 0.565030854772778
-0.0296800668213914 -0.351741727942794 0.582021458101776
-0.038905557850989 -0.354510968811834 0.597943283154134
-0.0400195951720701 -0.354845372440787 0.604771250422629
-0.0286094083986934 -0.351420345476386 0.602899441859554
-0.0260220780004963 -0.350643699435822 0.61411002046101
-0.0335999096674391 -0.352918357888524 0.62612709358492
-0.022428638383462 -0.34956504683988 0.624025137868198
-0.034560851671266 -0.353206806477465 0.646155391731448
-0.0356893649340834 -0.353545555389433 0.656363507371294
-0.0313352215028962 -0.352238560249487 0.661101694368017
-0.0297704314238281 -0.351768852932606 0.668556702952358
-0.0369674737131539 -0.353558767561866 0.690004260682455
-0.0233436365244101 -0.349839704333869 0.678330117138645
-0.022226529018053 -0.348632809218117 0.693651626406054
-0.02489594220845 -0.348495596053077 0.699585259706654
-0.0182261482745395 -0.341139523034156 0.711164296627408
-0.0192568433635946 -0.338653877907961 0.714654618119454
-0.0112908117708894 -0.336892090412721 0.713868651598127
-0.00788052688843252 -0.330928012408788 0.719902353556652
-0.00204372753023137 -0.326882414345734 0.721588704117799
-0.00116325778766309 -0.323720384983785 0.723719287379191
0.0176760766672612 -0.314237816346091 0.724939567073173
0.0257073603027831 -0.308559394326436 0.725407557952451
0.0216482994101207 -0.308513725489463 0.727035882960107
0.0318398298078514 -0.298487079019378 0.728350931432782
0.0409394464217839 -0.287927522548677 0.730091678176984
0.0515406931409674 -0.275516637720764 0.731755070169998
0.0547404922900059 -0.27633648073697 0.73117207033267
0.0668748986110626 -0.266146559833508 0.731743461882754
0.0753925526224356 -0.256755836287265 0.732206054296893
0.0885129358673956 -0.255795005321199 0.730039274251052
0.101817369841114 -0.236700207090061 0.731452210635593
0.0991831869248825 -0.236736473118675 0.731779993937348
0.123329702718005 -0.219531979380754 0.729841959386707
0.122439985303889 -0.221876218054346 0.729444190051658
0.141607594384281 -0.205269937294445 0.728381493143978
0.148722196553446 -0.197282213480413 0.728035642659635
0.172211004553445 -0.185154599877342 0.715893484883557
0.410075463049114 0.012234017936596 0.488523977441486
0.411833045189034 0.0164771965757773 0.501296266166278
0.421394340101562 0.0318981311024361 0.500238111424837
0.410909318628429 0.0142471233852406 0.520640279727401
0.327118016875592 -0.0454795047585666 0.616585624399653
0.33327854221848 -0.0450965112015752 0.619494749285315
0.329165898358429 -0.0429687512497913 0.628969963055209
0.342395961923605 -0.041038523235437 0.633629945705936
0.346500635554841 -0.0360171472871144 0.641681288890657
0.351792202630004 -0.0329168102299194 0.645721726807953
0.353591210799365 -0.0289739137388553 0.649024168233057
0.360068966752429 -0.015652911534218 0.656683062287267
0.373921806686589 -0.0103142989325551 0.658457851222787
0.372751339731268 -0.0114592672219697 0.658307113287828
0.384284509691391 -0.00343527813685054 0.659363491491498
0.410930469399384 0.0194969147268569 0.654409806269213
-0.054992842083797 -0.359339932909943 0.279433816628684
-0.056049486722101 -0.359657108820369 0.297968703510957
-0.0478243253257287 -0.35718813963269 0.292415583713139
-0.0518515216587672 -0.358396994168163 0.301253944560656
-0.0466982943900275 -0.35685013584764 0.312788881906786
-0.0566128423265518 -0.359826212812627 0.332892475219601
-0.0577360268445874 -0.360163362180703 0.347407827633524
-0.0414130040016436 -0.355263635779373 0.33162821272623
-0.0553483821878423 -0.359446656355182 0.362923112174609
-0.0499393065580101 -0.357822999332504 0.363474985087107
-0.0599106917794736 -0.36081613730073 0.378311822644269
-0.0517157387926946 -0.358356235853962 0.37885315986452
-0.0507875387881959 -0.358077615520491 0.392371928402892
-0.0499096039399446 -0.357814083416419 0.401663672099189
-0.0444737838394931 -0.356182398432864 0.396897257263672
-0.060568329835545 -0.361013542314302 0.423334404781673
-0.0411967486524921 -0.355198721819878 0.412730970387829
-0.0559754803052206 -0.359634894111847 0.443537601608903
-0.0538604360065023 -0.359000015481208 0.445616323839939
-0.0545275364525056 -0.35920026084624 0.453785228620441
-0.0532220725129299 -0.358808396165766 0.461132941769559
-0.05611192982202 -0.359675852536419 0.476659646807622
-0.0575673188824649 -0.360112720650388 0.484644037558957
-0.0603066454257017 -0.360934991789435 0.494806336861084
-0.0461359037627364 -0.356681321515215 0.495332238656217
-0.0599877581608131 -0.360839270527151 0.517753814348542
-0.0496731803399413 -0.357743115497916 0.51565636768825
-0.055961820025769 -0.35963079366841 0.527399375236427
-0.0622834865919436 -0.361528385607888 0.543140068884131
-0.0481021498926971 -0.357271534992656 0.546714888732845
-0.0560793164807141 -0.35966606290058 0.557010114776542
-0.0508487372124213 -0.358095985618835 0.562151114685917
-0.040728529436845 -0.355058175177593 0.559408042076073
-0.0538975832344649 -0.359011166066203 0.584160274893679
-0.0571754843978831 -0.359995102621698 0.596812067032261
-0.0488367988749995 -0.357492056586537 0.589996209883467
-0.0466077294791367 -0.356822950730693 0.595951938095615
-0.0485116902922401 -0.357394467854256 0.614873663513448
-0.0578429720355294 -0.360195464211105 0.631599655360999
-0.0431602326592888 -0.355788106183256 0.624799508404657
-0.0478836733219308 -0.357205954282995 0.640682945382171
-0.0551137748624295 -0.35937623363279 0.656118257667363
-0.0476780237827421 -0.357144223898477 0.660772034221466
-0.0482287780468672 -0.357309545311952 0.666032360128516
-0.0633903157765697 -0.361800233360168 0.687747630135665
-0.0407562235120091 -0.355066488183864 0.674860749015993
-0.0479122665175215 -0.356296391946691 0.693990615741649
-0.0467927040942654 -0.355877277254949 0.694595097476229
-0.0354601675527497 -0.349678178535944 0.704185310393244
-0.0373012204636666 -0.34616309643093 0.712041229250586
-0.0348024853554653 -0.346255574776976 0.710989111555639
-0.0373431866220752 -0.34165699362668 0.71768399725183
-0.0219861682788574 -0.332338911788617 0.721978155123681
-0.0121647228563531 -0.330186215793668 0.721393305970634
-0.0153752628918387 -0.319710640941746 0.728509028809154
-0.00786330007104393 -0.319238370795278 0.727801504525484
0.00325126841448402 -0.311908675988064 0.729386495430485
0.0125988655765437 -0.302332709718227 0.731185970459212
0.022239580837044 -0.297513168885732 0.730785263096689
0.0255180286420669 -0.28838405970403 0.732114723696421
0.041508011407689 -0.285124759063466 0.730955935041006
0.042225056142669 -0.27970606555874 0.731930530691503
0.053090179249603 -0.270799369267763 0.73217637976289
0.0617884529983923 -0.257822930601713 0.733028252003181
0.0752733566958357 -0.251899170702769 0.732702768316747
0.0747633489385804 -0.252849476957266 0.732665834377692
0.0900389993133513 -0.242114041014013 0.732170956479751
0.0961856117102106 -0.227623744220831 0.732890392457815
0.109172659462399 -0.223188940514021 0.732045872806334
0.113387740331981 -0.214469743251229 0.732429260277801
0.138726172369126 -0.204496674223681 0.729470341350522
0.140937111506425 -0.200981119844819 0.729802430780465
0.140443202631349 -0.193942334242985 0.731613493708723
0.163124409180886 -0.176386737129241 0.726794464224782
0.189812939623443 -0.156345217361062 0.713488207504775
0.183475275562951 -0.156886276908166 0.720133073787141
0.320639533530369 -0.0451733632528347 0.609079431870053
0.317605234876019 -0.0456124108694915 0.615576102260987
0.317172850009624 -0.0430483113665384 0.628777887942334
0.316851410310073 -0.0391285647012288 0.637626410771083
0.322894984203982 -0.0377734847229867 0.639392385380957
0.327693808100153 -0.0305922070393676 0.647782408109108
0.333185471010279 -0.0319887639864483 0.646710792273364
0.337066346036531 -0.0218268748163933 0.654125722962197
0.347575024960183 -0.0133902739237618 0.657620277472254
0.36080286550748 -0.0134471873040207 0.657596703178271
0.367978164608987 -0.00292265598520771 0.65943097947808
0.395228759270124 0.0227514967354671 0.653742732023249
0.404372884913129 0.0289357534381465 0.648789284476797
-0.0744366288700384 -0.364837850950127 0.3039558713844
-0.0721651709956064 -0.364494597836352 0.310153588488255
-0.0760221725976057 -0.364885139331299 0.320055718791653
-0.0649234862483097 -0.362320841523698 0.316690194509866
-0.0689660504197708 -0.363534309065254 0.330533854545448
-0.0754465776613512 -0.3648679723795 0.352882877373163
-0.0739674229686523 -0.364823857020393 0.354506765132985
-0.079243117218698 -0.36498120306914 0.366021638630914
-0.0736768669635522 -0.364815191271929 0.377047875979479
-0.0699807252211319 -0.36383888677496 0.377003490110963
-0.080201521792301 -0.36500978720719 0.39614235742765
-0.076677954573715 -0.364904697838273 0.403517435610534
-0.0757655271035347 -0.364877484953978 0.411224104848848
-0.0713723356420784 -0.364256610280311 0.41790647782385
-0.0816370763124318 -0.365052602203814 0.434367323540324
-0.0713898344297229 -0.364261862939248 0.442068746668436
-0.0768872055975099 -0.364910938689283 0.450903766423026
-0.0629331142448307 -0.361723386116832 0.439876130960822
-0.0793368822621836 -0.364983999584328 0.462069059391482
-0.0756443405518693 -0.364873870600272 0.469747976670744
-0.0628896546655927 -0.361710340736095 0.465468664357074
-0.0741872603649432 -0.364830413606888 0.496799912424368
-0.0787472826963225 -0.364966414948519 0.504200815359654
-0.0665695224608326 -0.362814936714623 0.499416007211479
-0.0690117181793985 -0.363548017281537 0.515862782048514
-0.0791290888270527 -0.364977802205477 0.527147787687641
-0.0637478277774654 -0.36196794090572 0.527040253435041
-0.0788541701565097 -0.364969602835975 0.543891689968545
-0.0719633003437924 -0.364434001770791 0.545524924075238
-0.0667630094895066 -0.362873016245101 0.552783076943239
-0.0764779975455273 -0.364898734177983 0.575492514241483
-0.069651027770486 -0.363739920589657 0.575691358409127
-0.0703675593947733 -0.363955003846643 0.579363558043598
-0.0675290919978957 -0.363102973326462 0.585725751206855
-0.0785131916140687 -0.36495943324998 0.608223381512515
-0.0757797333217348 -0.36487790865031 0.612857044114148
-0.0763669080485506 -0.364895420965999 0.625164188897057
-0.0797792092588754 -0.364997191858537 0.637755888489502
-0.069623078804783 -0.363731531072197 0.639851513943241
-0.0750830750192937 -0.364857131018776 0.660574705949014
-0.0629574020444314 -0.361730676652052 0.652974124031476
-0.0643232582364188 -0.362140669440073 0.661464887073643
-0.0756228534153974 -0.364873229752668 0.684392513311712
-0.0668517155748261 -0.362899643393294 0.678051946890106
-0.0626945979018416 -0.361651790013945 0.685953101234404
-0.0691469866527753 -0.362377920125132 0.696119925394757
-0.0714513536934754 -0.35986991703252 0.705600676033176
-0.0589594602961532 -0.35412406450234 0.710218346791033
-0.0596171582169118 -0.354741834082395 0.709245952524592
-0.0597897162362727 -0.349159442182905 0.716729180516391
-0.0428652773999936 -0.340449643699276 0.720622786307854
-0.0433874307187136 -0.333978626241447 0.72549589388827
-0.0381332955873079 -0.331287062665866 0.726315276554562
-0.0254674920470435 -0.324513469208337 0.727805156037532
-0.0256724404639936 -0.315640260714724 0.731351369216203
-0.0177255324732795 -0.31729191681683 0.729749034951501
-0.00186878951083728 -0.308726128390026 0.731259655175414
-0.000366950710146676 -0.303517819976209 0.732069691709875
0.0141501226439923 -0.291727197173706 0.732527083835118
0.0164413076085681 -0.287324119034803 0.732861842678521
0.0310840164940214 -0.274967375086705 0.733024468277456
0.032759134123456 -0.270130449834804 0.732598448056629
0.0394270009323071 -0.264165527283206 0.732391665957991
0.059784095550659 -0.25588950856461 0.732873582859687
0.063201992889467 -0.249880910037496 0.732436922170891
0.0694469051131082 -0.247499092984308 0.732602351446615
0.0848046928852387 -0.22735083294003 0.732251116057447
0.0942995368340254 -0.217977026455985 0.73231477164367
0.0989873110689633 -0.210029593630442 0.73204640334637
0.117407040204275 -0.204746097275773 0.732922134754163
0.118705203194538 -0.203654708927369 0.7328962511349
0.130712110186389 -0.197324623378572 0.732316870552949
0.143071097599414 -0.181546174592138 0.732082556820258
0.149813718946049 -0.170948455360649 0.731962134524872
0.16076616955014 -0.161114992508059 0.730744374997119
0.188737451695871 -0.144335488583862 0.721142546730723
0.188734754725558 -0.136817989520028 0.723879568519602
0.193673439528181 -0.13201244366948 0.722289649177023
0.296110221063331 -0.0401216778727865 0.635843406215045
0.312483557752911 -0.0397258406502078 0.636799041806287
0.308179381357091 -0.0322314670475138 0.646524559664542
0.315571982202263 -0.0274757896378273 0.650173719287118
0.326576100475429 -0.0211650339053043 0.654399866443704
0.339254535860205 -0.0146731270055573 0.657088902327242
0.353123407744525 -0.00610860607361357 0.659011541191752
0.356221310785338 0.00102621002818935 0.659680651324861
0.35726917419 0.00949035597435248 0.658566325371104
-0.0836092505004656 -0.365111421726178 0.306817653173708
-0.0864279704310985 -0.365195489229447 0.315244405136683
-0.0844308941341495 -0.365135927008917 0.326041845203643
-0.090921693171726 -0.36532951320504 0.337985837127471
-0.0913032533336528 -0.36534089312605 0.346932295004309
-0.0904890178993826 -0.365316608790707 0.353637880207964
-0.083902143751626 -0.365120157182327 0.361169509183451
-0.0884991187561392 -0.365257260626702 0.381291620192346
-0.0866419156811683 -0.365201870084392 0.378611906548739
-0.0885274055629643 -0.3652581042725 0.398013039748117
-0.0863563865570406 -0.365193354261194 0.397202904714467
-0.0868249669133718 -0.365207329534228 0.411879063114433
-0.0891546669809076 -0.36527681216211 0.424848357098531
-0.0877326369177084 -0.365234400528486 0.429185956415202
-0.0855939961195651 -0.365170616187823 0.435453453537694
-0.0804540602585792 -0.365017319093601 0.445036778088408
-0.088202410865067 -0.365248411400026 0.450177445451911
-0.0829840396393726 -0.365092774993831 0.456851197161258
-0.0869659935441105 -0.36521153561253 0.469405810590684
-0.0909684935066991 -0.365330909011438 0.485454545342453
-0.0877706846181225 -0.3652355352901 0.492011374901672
-0.0835349578246279 -0.365109205968699 0.500795616998548
-0.0826694115404182 -0.36508339130216 0.504694961887377
-0.0957679678903732 -0.365474051940982 0.525395112160723
-0.0878013171742167 -0.365236448897189 0.522955479339003
-0.0901573028867063 -0.365306715486796 0.534917095781087
-0.0951539046915217 -0.365455737684424 0.54986083130362
-0.0818096665167301 -0.365057749656531 0.550218987098405
-0.0895878727663674 -0.365289732398842 0.570246486257266
-0.0879012337393372 -0.365239428879724 0.567919568278522
-0.0849876579513307 -0.365152532328059 0.58315278319279
-0.0865354809040402 -0.365198695698077 0.590696892403281
-0.0881836785245983 -0.365247852713412 0.599250385667168
-0.0888077492919016 -0.365266465442793 0.611605761265728
-0.0913264453693157 -0.365341584821777 0.615253194528394
-0.0879551702052514 -0.365241037519155 0.629755004826996
-0.0918840141761955 -0.365358214149504 0.636368878013566
-0.086008071178816 -0.365182965856202 0.639472825889005
-0.0879612699249961 -0.365241219441525 0.65902720240486
-0.0891739900140083 -0.36527738846596 0.661927067773959
-0.0906523925375009 -0.365321481391839 0.666226881512718
-0.0879249975941135 -0.365240137629791 0.682083347904535
-0.0837305783524231 -0.365115040294125 0.68202485328538
-0.0859243690903726 -0.363825925701394 0.697596858908484
-0.0827424289692452 -0.363111695294733 0.700163353928473
-0.0846782188048809 -0.360353250235027 0.706962212500829
-0.0784462946131743 -0.359211726468338 0.709269376062019
-0.0730306213826513 -0.353025723600863 0.716864392772316
-0.0728478663761069 -0.351431512103769 0.718786674501899
-0.065283167971386 -0.343117819467978 0.723608715111564
-0.0554204531354728 -0.338405182935082 0.72489697387342
-0.0444901187857267 -0.332345565965118 0.726939982245541
-0.0386586082330111 -0.32883084275229 0.727663160263213
-0.0316861736669295 -0.322566071848004 0.729318971123412
-0.0338369677140517 -0.312454395359322 0.732209745173301
-0.0205770817232617 -0.307327983386858 0.732354333057727
-0.0111300295645717 -0.293900503441434 0.732566748849874
-0.00444571163885819 -0.28915813200115 0.732221611551295
0.00419011825614849 -0.286647974733401 0.732471517300479
0.0150868527383504 -0.279138491446826 0.732384415916135
0.0182116151296584 -0.274925537320588 0.732128666499231
0.0300878315243872 -0.261608142513412 0.731225223029073
0.0480328565210275 -0.255050484770617 0.731966069826812
0.0398331680582547 -0.256090942316195 0.73140276285476
0.0648479624286242 -0.233000929693069 0.729304721915141
0.0659768428168872 -0.236653590442897 0.730683156519723
0.0792809254579775 -0.226432886801514 0.731638653803856
0.0918310725249987 -0.210616732007011 0.731082958078722
0.0979818064457349 -0.212599209134726 0.732182083988136
0.101935764737639 -0.201506708302178 0.731542139029394
0.114299225722558 -0.188152273803502 0.731476547130612
0.122582982807239 -0.180640025795827 0.731741944666721
0.127503657268924 -0.179667027283384 0.7322518927447
0.146157489379571 -0.163951186434898 0.732822985586233
0.147054063782378 -0.156020664049646 0.733043159874443
0.156935424998556 -0.149507075031526 0.732474671116709
0.17624937581061 -0.135405001659189 0.73014425914876
0.195689982736703 -0.118748323487847 0.724666390148206
0.288223337564509 -0.0383893706152214 0.638589747259422
0.297025400934734 -0.0369377196131623 0.640481575677816
0.300697145596659 -0.0331026965647887 0.645479475019887
0.310685915841666 -0.0281860634455327 0.64962870702561
0.315025827133705 -0.0171495569561878 0.656063131455424
