ply
format ascii 1.0
element vertex 854
property float x
property float y
property float z
end_header
0.221195057073337 0.0438213306045388 0.746799146334965
0.218283488480091 0.0413015895079796 0.764736389534567
0.218775225061164 0.0380717586421832 0.769492019122952
0.220438281957247 0.0313355948740649 0.775301254366175
0.218053294471474 0.0282853203411982 0.777865004695885
0.216204399185275 0.0176714359283531 0.783228368979788
0.214450404014094 0.014530392891677 0.78467653819269
0.218091645681898 -0.00999595981923993 0.78610886296706
0.223154224868975 -0.0275863336621327 0.780900564907232
0.222960740230989 0.0442600437049649 0.179494711525354
0.22525696959609 0.0388538905680371 0.192813508523485
0.231940738512836 0.038880791947714 0.193656579112541
0.228058214019243 0.0305328162025967 0.200963740205216
0.224263524381328 0.0242489554551885 0.204050630681306
0.22907906020571 0.0180325514531273 0.207227484954334
0.224014971776749 0.0141624428944818 0.207806492541133
0.23287201918616 0.00533161763452204 0.210688775260848
0.230394033910968 -0.00898175263018221 0.210815659682033
0.235391231859922 -0.0181393398798856 0.210198487186041
0.237300525596752 -0.0386200158009879 0.202017228208099
0.224130253392402 0.0439517199235788 0.746401011663905
0.224266413360842 0.0441285015962748 0.754746612633615
0.228547050620317 0.0412981397922578 0.761751665255238
0.224026282931558 0.0371692648970101 0.768940596488015
0.227553929279946 0.0319982960509631 0.772699683336547
0.233113800144019 0.025389727566938 0.775417018242585
0.227947925705098 0.0193310461548385 0.779633982523574
0.228475852777668 0.0055566482278906 0.78295456088385
0.227513743810221 -0.00558802170815646 0.783889426396414
0.232750888633823 -0.0325956480384933 0.775834946467482
0.23321392216524 0.0441903490460921 0.181563150562669
0.233781416609637 0.0431379432845505 0.186155429606419
0.232599972658348 0.0421922915840197 0.188331394714614
0.24020790850289 0.0388368282790866 0.194805218264593
0.239138401571359 0.0327571656227398 0.20070843316013
0.242513687446947 0.0308962581987762 0.202809569699258
0.24053579102861 0.0212695000526637 0.207663835325868
0.24383940284752 0.0177990394570966 0.20969136302078
0.238802269401007 0.00123983563215699 0.21195767582979
0.243391397204296 -0.0100813679409766 0.21293159954206
0.245384233842312 -0.0141396593279384 0.2128353878679
0.240991775521693 0.0435689420378485 0.739654447437213
0.234750149405829 0.0443339085085216 0.749503510520588
0.241045342541414 0.0398542938834415 0.760422281311823
0.237364593829374 0.0337771243461593 0.768424320057089
0.237750328458783 0.0296047475588704 0.771506194937322
0.242934696387753 0.0175896280327592 0.775864680631779
0.236815794389172 0.01620614346326 0.778124472042945
0.241876095035137 -0.000164135189145605 0.779605701092409
0.235503435862116 -0.00824112012844212 0.781439082820953
0.241964295478278 0.0438674414904712 0.174946798843721
0.249985825682952 0.0444321674458111 0.181827654926341
0.250174849975421 0.0433130284887832 0.188385102996091
0.24793413076236 0.0360272955675387 0.199614056478192
0.251133611433977 0.035118974904992 0.201256274584257
0.245085082559688 0.0282096840686725 0.205105992109613
0.249017282468937 0.0246185904721401 0.208008414201973
0.245409048158023 0.0165483487977555 0.210462615707277
0.248082548349973 0.0116677558725564 0.212399208245579
0.251881813536268 -0.00390492184755031 0.215088753862075
0.255686512848736 -0.0103283686911827 0.215639616171506
0.254231791928489 -0.0406001087143741 0.203976501344496
0.242778065998794 0.0402993015183775 0.731345240229863
0.24216397781209 0.0431985218951942 0.73790187532829
0.248652234131338 0.041759354613428 0.754270446991079
0.248357915636383 0.0389057963826768 0.759139995768142
0.244324263298183 0.0339724885856602 0.766089966561302
0.242746082510833 0.0258297145558028 0.772360367626022
0.246962850758522 0.0234956229853284 0.772069480883594
0.245005566678597 0.014656644369864 0.77627043672696
0.247879068351563 0.00240651174270218 0.777598832429055
0.25035553338062 -0.0231989888247389 0.774113838579703
0.252573928929184 0.0436981850686656 0.176460512097681
0.25237040590599 0.0415497394390992 0.193142623233813
0.25263557385721 0.0373335681638219 0.199314705888558
0.261729826008159 0.0390652880466834 0.199157725989045
0.256530430442397 0.0291851511937897 0.207056289271646
0.256023037651887 0.0208913902623885 0.211270657157712
0.254104707110093 0.0173220730624787 0.212128545716841
0.255279798960202 0.00669629951598854 0.214970218886438
0.263881904126741 -0.00616780053352567 0.217976639512745
0.264271550355592 -0.00632502419388124 0.218092255096575
0.263270431377641 -0.0367957521150391 0.208770498386076
0.253508597694669 0.0388698695066504 0.725205625374737
0.261018001246811 0.044270383330159 0.740512037047388
0.254180751421818 0.0426618279063455 0.750369721539015
0.260068989021262 0.037246815546563 0.757009973410469
0.258628045192246 0.031204291758764 0.763150060958574
0.253032910096691 0.0244444598999859 0.76941528410943
0.253495661981969 0.0181606397355321 0.771977404838897
0.26062733164742 0.00136680762002948 0.773024565972328
0.26447634497717 -0.0150577703371504 0.77089994233527
0.257731770394064 -0.0328470140988768 0.767459355789194
0.266461431977562 0.0419303024312097 0.174709067932798
0.264285974053822 0.0442274737494044 0.187141149501829
0.270584269403182 0.042978655269626 0.194423529697656
0.261186980617487 0.0396731174714025 0.1981915171176
0.264547355975862 0.0330211519977158 0.206141601477578
0.267350817276275 0.0297565721820289 0.209541914674101
0.265727822615259 0.0291541854827242 0.209401310057713
0.266400225875738 0.0152302238002334 0.216061787034
0.266019132658091 0.00807838045694823 0.2176660644311
0.268196478588775 -0.0021772385250121 0.219358648835749
0.269113240401551 -0.00481879494612104 0.219688188782237
0.273383278316821 -0.0199944358876173 0.219074948408527
0.274715834167912 -0.0263207297947832 0.217569806625721
0.266761563942549 0.0410338712850561 0.722784017812993
0.26728140822302 0.044158117226707 0.739024108728684
0.262872052757833 0.0434642117224594 0.744283140265208
0.269679374621563 0.0378242607264846 0.752389270800629
0.26730185716613 0.0318681472613705 0.759271822130207
0.270672511693099 0.0252472232088142 0.762304000828777
0.264516119362676 0.0179910699420117 0.768038583491401
0.273190658881433 0.009256614575772 0.767007876558514
0.266389969035516 0.00348837902156226 0.770729363039921
0.276443255261073 -0.0366674961025711 0.757548552584079
0.275891207983189 0.0431126055947279 0.180096373509282
0.272606323821196 0.0442284739414855 0.189393600300505
0.271491715883425 0.0392891123734201 0.201615202304919
0.280632958908962 0.0389327442508863 0.205005092401745
0.275808965065713 0.0352682364670524 0.207691315453685
0.278948987236126 0.0256672877523559 0.215718165517495
0.275403711973137 0.0154484235140269 0.218824981790398
0.280789490924565 0.0144144837402121 0.220862743002826
0.27961644801454 0.00995523752291955 0.221556287322891
0.282907801047005 -0.00608709506361332 0.224073556391463
0.28255565601409 -0.027380272856604 0.219674622932965
0.283822306350916 -0.0364627390414512 0.215455645263785
0.276470363962233 0.0440563624356244 0.726834978166946
0.274225048645585 0.0443383673501104 0.733974660891374
0.278542878613849 0.0429110602213607 0.739460028651043
0.277490239053749 0.03611769779667 0.75083944082911
0.273847083635399 0.0343089497981389 0.754372483404059
0.273576956406501 0.0255752837643638 0.760865913806903
0.277706845280885 0.0222813426507662 0.760675395598836
0.283197245919415 -0.00209783076367572 0.763912814176033
0.282965200965552 -0.0150821975460841 0.763097591357414
0.290284513795853 0.0407981878875232 0.179405692996582
0.285444659076288 0.0441702314509994 0.194065772357972
0.283915495340784 0.0416679775971729 0.201573105066591
0.282327036911219 0.0393091419476045 0.205003032601719
0.281611704184844 0.035887974739692 0.208869327139682
0.286749292984213 0.027822181787583 0.217054964713433
0.292081503417768 0.018757011675654 0.223811943973592
0.291227835161609 0.0120538048391133 0.225573330926819
0.284326078048859 0.0048299740030141 0.224109544387942
0.292434166741179 -0.00251128091532497 0.228053875702223
0.295296111708771 -0.0205946155474125 0.227094635496809
0.291649479335347 -0.0313982105350236 0.221515055871841
0.290060087210042 0.0326059387311781 0.700395503720325
0.288746359841017 0.0442233951217124 0.722414639717061
0.281505541434892 0.0433682981661186 0.736336694265268
0.281213214061635 0.0426535609411755 0.738938126540665
0.289710640121689 0.034794735792769 0.746583594091624
0.291582281135632 0.0292120405639219 0.750291727210601
0.292067125505559 0.0215972389706352 0.75445808887982
0.284299639429267 0.0153110729043002 0.760562598365655
0.287842175748096 -0.00574349745963727 0.761882028701823
0.291708554305792 -0.0220915035458324 0.757521228029366
0.29602011520278 0.0396995021229139 0.179648979016723
0.292821602996636 0.0420413418524261 0.182787860278383
0.291644997786096 0.0436580669763327 0.198716486184265
0.297518312787707 0.0427436115739649 0.20436976601702
0.295284047769362 0.0345872171807146 0.215435733063231
0.293277431177304 0.0294299630021444 0.218736482126183
0.295534350188652 0.0280705691777557 0.220535883709661
0.294443742168908 0.0194863447303126 0.224529583607168
0.298768485078671 0.00473314388018587 0.230105753172577
0.298725340071838 0.00447160818400013 0.230125608920707
0.301420660200589 -0.0144002924554406 0.23094584277032
0.304226371835092 -0.0189901181589307 0.231264913306937
0.298319536568963 0.037435187746998 0.700562371424659
0.298985405726907 0.0443967373222144 0.71887149028421
0.299910582766348 0.0437074414886568 0.725468991250941
0.295987051534991 0.0428658663717945 0.730759922002228
0.294426168105819 0.0372318835605027 0.741396734330686
0.295140974123987 0.0299362819426081 0.747974205718482
0.296772047285608 0.0289509234978827 0.747783212039978
0.30270967770078 0.0102261831731933 0.752859099209066
0.294729147038016 0.0123270652023937 0.756444295899139
0.296382777486334 -0.00545727870566768 0.757715204977187
0.306236665795336 0.0438951685169962 0.193573505429604
0.307987911804916 0.0435204634563392 0.205987623312093
0.306235906677999 0.0414039851632496 0.210842660675161
0.30633677439611 0.039007287657789 0.21482206403798
0.308534423817722 0.0337299580164257 0.221729022858021
0.303800687792687 0.0271451730725798 0.224548451605236
0.311412273710369 0.025596438273705 0.229299020188205
0.30908280081214 0.0170039665430044 0.232002352429402
0.311978006646713 0.00475776040908584 0.236523246326645
0.308702717251606 -0.00133788234453818 0.235359498036544
0.3075535329608 -0.0193655443466635 0.232900662464967
0.314769048970382 -0.0241367486518117 0.235239010540311
0.316396631206752 -0.034347176867047 0.23131380427724
0.302598680752698 0.0316781751263604 0.692030741544842
0.305354885400896 0.0431711211436215 0.707485201716668
0.30368588548028 0.0426638556845941 0.727048722384193
0.301493375830561 0.0415400526442753 0.730934490462975
0.302754239221951 0.0384118770569564 0.73559059600372
0.310539959176354 0.0308524399527826 0.739034263439456
0.310443987463644 0.0209476878547965 0.745250140505957
0.305765404280208 0.0111042836071902 0.751055620714337
0.311417893278795 0.0026309639884074 0.749672814867771
0.306035924142383 -0.0150238007312715 0.751775661124633
0.311646329319072 0.0437038209818717 0.206834497162185
0.31070511460065 0.0439610066612218 0.205506975282954
0.316246464665184 0.0385222052632137 0.220307812014405
0.317374246217346 0.0396628053742711 0.2191478521771
0.318439117607926 0.0334576414685648 0.227119628220639
0.313197250360823 0.0252792523618057 0.230398791387626
0.31439924230784 0.0111702697263923 0.236546356269177
0.319844252605527 0.00328240517077517 0.240839823430059
0.316125903164839 0.00244967411296801 0.239029289106685
0.318537323641654 -0.0218901050466977 0.23797115102744
0.320213391224675 -0.0211610912565682 0.239030579646578
0.313367814121279 0.0423839426081751 0.699998343600592
0.315867513241662 0.0442998094294149 0.707427970058001
0.313208204631507 0.0437543368894209 0.717290645945853
0.316070090966949 0.0407447725927072 0.723995559240631
0.315604624289786 0.0367706600616072 0.730071812965909
0.319569725299125 0.0302301646642063 0.73414819750275
0.317241257178526 0.0197049045454759 0.741736361852383
0.314786448061476 0.0221941173593422 0.741988543221186
0.318210528674969 0.00240356399283237 0.745680092037488
0.319884420276928 -0.0117674644202503 0.744442333456457
0.321422503271535 0.0380383369166311 0.187554300355994
0.328403569455981 0.0425109847081146 0.19903250390752
0.324738805639123 0.0435689841309115 0.213887401561383
0.329147637375283 0.0408169490741072 0.223485710682583
0.329954460437717 0.0392511350596433 0.226327248482302
0.326517316758554 0.0347246675723313 0.230163760304105
0.328057049397978 0.0314925458404764 0.233818957086186
0.32694555180171 0.0251843305762652 0.237699782438215
0.329837584250506 0.0146705077049103 0.244345098695641
0.325837602580733 0.00465649240514383 0.244068287689753
0.330308766605234 -0.00302260284338203 0.24755770484085
0.33236330312195 -0.0103780140492774 0.248565953922335
0.329282664003613 -0.0323706574171969 0.239554400483737
0.32706410666945 0.0318553594214821 0.674665309466459
0.328588931731357 0.0409531507377418 0.685783338002381
0.327090963342154 0.0441257713511756 0.706006737676195
0.327942005172865 0.0424634041959982 0.712223302347343
0.328602050049687 0.0408353465596331 0.715674906322372
0.326906642515993 0.033272341393913 0.727000696131684
0.326351762600687 0.0247476987917781 0.733702043945209
0.327046805058466 0.0209889226785029 0.735247598634346
0.323326286219198 0.0161661522075799 0.739442511436766
0.327317426889067 0.00347065318403687 0.740039428125105
0.327946113393476 -0.0189473883139899 0.738206839504308
0.332007837774476 0.0441200849429394 0.215068542481505
0.3300358874115 0.0423481219932565 0.220540973192742
0.338433315871041 0.0401076565313631 0.230131604424247
0.333418719384089 0.0365437782503049 0.232070687197278
0.333988921901672 0.0299508664577626 0.23892348133019
0.336860335364525 0.0270223458045048 0.242793016186956
0.339535026317383 0.0172850761366766 0.249498766065347
0.340036009956564 0.0136307532902656 0.251132860974999
0.343820986526782 0.00275750747309161 0.256184526003278
0.337507321945387 -0.00823236974942285 0.251967715943538
0.341335807930839 -0.0164334921642031 0.25332519351747
0.335988645974695 0.039261175909424 0.67685366264397
0.334625070597357 0.0443937990081365 0.695438224451149
0.339521534377939 0.0432705977677015 0.701296565979727
0.336446548185836 0.0391504062177096 0.71306581487837
0.337621794015261 0.0390580453666713 0.71240457813551
0.338055703106617 0.0308165410549996 0.7215620036605
0.33777810797246 0.02294844532271 0.727051275761612
0.335919085045601 0.00928331599287671 0.733549196451069
0.342216236611486 0.00493620652805393 0.729972372902475
0.344413314449292 0.0396624319002762 0.20180556698361
0.343779169762008 0.0436259460376619 0.211003700262745
0.347418945711894 0.0444232392797513 0.220596313659091
0.346681908005712 0.0428187943053409 0.229534701520784
0.340749506931244 0.0377598803542812 0.235295064516026
0.345509618396657 0.0314880731178285 0.244941521398663
0.342059231128438 0.0225895793920198 0.248705575096028
0.350767881054819 0.0256519938135222 0.253514924357171
0.348277776514938 0.0201499327367443 0.254672760326159
0.346047701240835 0.00747686210471756 0.257177936621169
0.348814102253518 -9.47619291192467e-005 0.260431176125853
0.348201588979645 -0.0101376737190342 0.259802138939518
0.354161220472796 -0.0151598430549494 0.264089710330894
0.349769555407053 0.0418560243181315 0.670634809109389
0.346352598847612 0.0443607311064363 0.685714001540604
0.349924189149152 0.0426363490182395 0.695454593645111
0.347394041801727 0.041445722465098 0.700457849214427
0.342633503959968 0.0368563945167303 0.712084626997037
0.347552285546669 0.0266931941797279 0.718045400490975
0.34424452257115 0.0253633546927396 0.721258170433845
0.349160811201891 0.0155269914752783 0.722534042855047
0.348148995193931 0.00968976952743314 0.724967387373771
0.353129969080444 -0.0137650968890699 0.722173963763024
0.356940613905798 0.0382729412941753 0.207357488626361
0.353670414360333 0.0442294093243988 0.221140173910287
0.35533079092892 0.0435404303707344 0.232162594013225
0.352518268993794 0.0421967977304342 0.234708508044464
0.358117898896781 0.0389145103728363 0.245688300049572
0.352781404565384 0.0354146369639176 0.246309933867839
0.358342577448396 0.0296251010137941 0.256860620264342
0.360907443122537 0.0226986324302948 0.264076555705883
0.358910583957317 0.0225110238716021 0.26240589298388
0.362771189934849 0.0139182735864416 0.270157776968465
0.356663974208732 0.00441606378064879 0.266837295675845
0.361439605737105 -0.0106409244665733 0.271636542492845
0.36559195775184 -0.0276960466748908 0.270294006050946
0.356729022370547 0.0379830311027439 0.656248117199465
0.355379836260757 0.0428281034148781 0.668153616442412
0.354786547806326 0.0442388150183428 0.676815566824342
0.349746732951591 0.0442583184690596 0.687163068463431
0.355877684305977 0.0418914407586289 0.69261292672181
0.357142403179285 0.0376788589709422 0.699644535292707
0.357237301208713 0.0321438960504173 0.705943508534062
0.35421362630888 0.0293349688103193 0.71086246775388
0.360531858209714 0.0196469294099244 0.711976242587518
0.35505810756375 0.0174219205844679 0.717251647407695
0.359195902325578 -0.00625769250653269 0.718188020698232
0.360805766606821 -0.017130063833225 0.715439673488279
0.360344870598898 0.0420378916848849 0.216506115320229
0.366894063149307 0.0439343058825856 0.227592152837903
0.36918843862511 0.0430382501092896 0.245538773371543
0.363742430604311 0.0386957060292536 0.250855193401657
0.366102061471914 0.0379149389782529 0.254352127234352
0.364004712931482 0.0294506378715929 0.262054548275691
0.369114805448622 0.026475861977467 0.269468202983896
0.362822600995072 0.0199114950322758 0.267526675391896
0.371449426089536 0.0211836675552583 0.275384568963198
0.366478248786856 0.0124741424025885 0.274266620334301
0.37103871005565 0.00547741335962222 0.280936563948379
0.373929980570252 -0.00589706269735658 0.284962472051145
0.372719375572144 -0.032082213302242 0.27476518849285
0.369796966030514 0.0382956648728303 0.643431163919228
0.362257005061654 0.0360010131889723 0.647719306387986
0.361253587355193 0.0432958039437451 0.664989444887287
0.360667986433668 0.0443184089081481 0.676726421645226
0.359474747018954 0.0434550417479959 0.684163597155996
0.361022604480406 0.0390378173826303 0.694261859226682
0.368269223041638 0.0342633726737423 0.694609289719855
0.368580396392147 0.0274626190400104 0.700656829425459
0.370345941342911 0.0184742222373586 0.704565599582786
0.370613336523158 0.0128471743178025 0.706587932851904
0.369810734558618 -0.00100155113886859 0.709742271664525
0.374836897615664 -0.0163566409710851 0.704097844733171
0.379118940676785 0.0412894459058984 0.228843203814109
0.377804406599083 0.0443766753336236 0.241716128806424
0.375883809707638 0.042327134853321 0.253948334947853
0.378869813233455 0.0426463530929194 0.25600282229794
0.377478246753569 0.0396881699399953 0.261879847036197
0.37394813073386 0.0353257921868146 0.265394460249312
0.373730699399366 0.0250689138447713 0.27529250762666
0.3757751344568 0.0164798972788588 0.282525881783618
0.375982888523098 0.0083539799302028 0.285763677933278
0.378687430867632 0.00455801327094281 0.289785456544028
0.377353161896492 -0.00128581740564734 0.288893565354242
0.378617495788527 -0.0141978240613351 0.28933533085154
0.388192300763808 -0.0328463898408456 0.292069008673714
0.378576035834421 0.0295587502790574 0.62161632897768
0.378970606299324 0.0406782065916621 0.637810481137968
0.378317412747116 0.0438249435658888 0.650141696134475
0.379656141527691 0.0444124114634437 0.65675936293429
0.379241648045267 0.0402132462745741 0.675272695585269
0.378633345088724 0.0354176097134301 0.683755395431864
0.370750632431224 0.0379338560379945 0.687474268018144
0.37684927450784 0.0285097062802773 0.692360593970139
0.375222869356136 0.0229681340760521 0.697733712981785
0.373526789746467 0.0179870981993585 0.701909982181627
0.37724217438221 -0.00100763482543607 0.703221747062796
0.379902149060246 -0.00574627912393129 0.700885995602774
0.381749634715895 0.0439448422925556 0.240324711120246
0.380821580439729 0.0442704357746002 0.248505264381202
0.386843559656499 0.0426864182655126 0.264020674862323
0.386665338060638 0.0415968947914986 0.266999320188123
0.385198975039922 0.0373000347508097 0.274399572375321
0.383708449786055 0.0313476760122242 0.280608674483125
0.384933276277148 0.0258122438693714 0.287432965570591
0.384654428123531 0.0230109067031887 0.28911579375003
0.385644361203648 0.0196161136099449 0.29254933909554
0.389200955028664 0.0141646494084567 0.300157206983036
0.390032593579704 0.00929362329159465 0.303090355295646
0.39402757598282 -0.00329161911882574 0.311055002171592
0.391730511928904 -0.0200388019904042 0.304348315827969
0.394349576492957 -0.0219659353509537 0.307402151551215
0.386180886754821 0.0232876985351614 0.605845790404579
0.385281753577504 0.0414679477401385 0.632729066542796
0.380176133471995 0.0433747256812333 0.645683108708635
0.382540475211097 0.0440870065476322 0.65856507080443
0.387032966511543 0.0407369347613685 0.666247858486493
0.387034908520202 0.0387865977214262 0.670044889249317
0.383777983614978 0.0364088853581186 0.677219315271977
0.39100596687751 0.0279870772595773 0.679100761640196
0.384491179468233 0.0199661439240165 0.691127473486703
0.391754793920006 0.0114259516773174 0.687501123423993
0.392748725297159 -0.00339913764846996 0.688954951217023
0.389851771903366 -0.00998080751178821 0.69158468951615
0.391774803084476 0.0409356050352075 0.239456372515079
0.394250473913533 0.0444044966987861 0.258324921590686
0.39071225358125 0.0436391217342521 0.263754321205167
0.392746464310661 0.0417113724641478 0.273419118479474
0.396920848990659 0.041850679903273 0.277981064883869
0.399385181184663 0.038827189340502 0.2887757646161
0.392686858086416 0.0334905229809991 0.288906758410682
0.398930437816685 0.0316486138129675 0.299607879912013
0.399192028613101 0.025295572271438 0.306970370269854
0.395127262694135 0.0232565683194267 0.302642917689699
0.396468397935954 0.0114426125382684 0.311567912609433
0.402464746174443 0.0137253772431238 0.320146075473828
0.396303511360573 -0.0033042132671107 0.314412694317543
0.402139754000464 0.00288235801926336 0.323299310148844
0.4035534565991 -0.0164660018262294 0.324212739627855
0.398632880776307 0.0311092456458929 0.595228355692365
0.396926148630003 0.0401898955771042 0.614045730195477
0.39061733654488 0.0394038244182161 0.62068406041493
0.393981357280009 0.0441939638816617 0.635260735828147
0.395870712684277 0.0427767441013342 0.650407548042462
0.390766729349505 0.0441191234523154 0.648823069996597
0.393395644011003 0.039978814963401 0.661037326385279
0.394954175535693 0.0337351554601668 0.669330870718001
0.399805145665475 0.0246741909628514 0.672679720277421
0.392811729342753 0.0274783682112922 0.677674075708395
0.396206035250867 0.0173183294603579 0.680603264774793
0.402143675555139 -0.000927763373317305 0.679147037159738
0.40031129381545 -0.00819491107919814 0.680951080091763
0.403372022204168 0.0415540060212373 0.253111973267789
0.40783088190206 0.0443725240863146 0.273438907847167
0.400642325586188 0.0433980162561439 0.276411069831424
0.403124991278425 0.0411529396935478 0.288103731336971
0.404579870455553 0.0390645802638984 0.295204923441943
0.406384818151837 0.0371947538746379 0.301848389943355
0.405797024507793 0.0342066724833155 0.306187745973463
0.406127837979684 0.0272855249184923 0.315678400113598
0.403300671867108 0.0217611684947299 0.316271109277548
0.403120738791849 0.0141895605986771 0.321011304954538
0.409154499124811 0.0135946796068672 0.33203361497701
0.411229331744249 0.00435764267380612 0.339988798091059
0.407976409108981 -0.0094063286794398 0.334047805122235
0.410173449917103 -0.0174377031681444 0.336039309749872
0.416057020190302 -0.0153923692078919 0.34950608946094
0.415862133919778 -0.0257561442074677 0.34259978165433
0.408891067488046 0.0399916425820806 0.59565284114595
0.402133142309231 0.0386019085134466 0.602545427081157
0.408015854154941 0.043918816408926 0.61307997298517
0.401697346148543 0.0436528753162618 0.620407578933322
0.407307581013568 0.0425093288592292 0.637250122168656
0.400191586621739 0.0431931724084007 0.643286819956814
0.407546631779856 0.0383002100136409 0.647998478138135
0.402478013696178 0.0341162653441838 0.660426291579136
0.407498523512095 0.0288739139012172 0.660333352697563
0.4018651673198 0.0262519506685301 0.669291335704172
0.404883186891136 0.0166044604855892 0.671902387898575
0.412599588610545 0.00436306843263276 0.666869973023626
0.409734402719944 0.0419462597675468 0.261471599199705
0.415844662122198 0.041425316804779 0.267173869683518
0.415072695703885 0.0443468463554321 0.282475845130577
0.415513729415897 0.0434657470760304 0.296080117249023
0.414725014234457 0.0436585861524248 0.293775839045712
0.409881122190029 0.0373138810962946 0.306869340579907
0.418326279784833 0.0410710455059807 0.310974842363176
0.417594250609228 0.0360015206057197 0.322508039816709
0.419928415427281 0.0327294646655945 0.333142549336277
0.416256650594181 0.0282267172851185 0.332634464863253
0.415670392777657 0.0214641928136566 0.339190142060471
0.420062011627619 0.0244067650676516 0.345562300627776
0.416934945017276 0.00845218349116384 0.351232431883972
0.416584168044678 0.00477669513019257 0.351656696165757
0.420937460726131 0.00567087703919611 0.362387650072178
0.423389738089432 -0.00461318415145113 0.371626853085238
0.422827826260819 -0.0219259965071078 0.362787072498853
0.427984016680199 -0.0185123710358628 0.381638014722441
0.420795307825206 0.028451586324721 0.55056470578416
0.419211901671246 0.0353579764341412 0.565890716672903
0.417802366176682 0.0388931239843094 0.577204094252335
0.412261635943975 0.0416879900134323 0.595724608546192
0.415559704848352 0.0444460798512789 0.609692075846325
0.418828389262586 0.0440669586414223 0.61260085637387
0.409408380933102 0.043743693081241 0.62823269027192
0.414189239513079 0.0415299174562004 0.631290045037489
0.417135401275128 0.0330504993690302 0.64384485985076
0.416231895780178 0.0332753109061827 0.644764196875192
0.419124984093178 0.0284571222733793 0.646502526466819
0.4181221486058 0.0166092920726653 0.656418545018044
0.416360308746432 0.0186471059372268 0.657442818286217
0.415581096842246 -0.00088100211754946 0.664010360852465
0.423358634152116 0.0395654239748438 0.272172719734931
0.418877038480237 0.0442525317742151 0.293893716826829
0.423410318191021 0.0443368624943965 0.299194991882573
0.425160549703624 0.0442504273600647 0.30372797482902
0.422296094901864 0.0411512181946205 0.317533103723264
0.428965808969781 0.0428340394424082 0.322722498788227
0.428847647901011 0.0380579047443004 0.340379105467117
0.422981653615795 0.0351442094764134 0.334819910442649
0.424995045211634 0.029402308830046 0.35000216983718
0.430263765291879 0.0324178092782103 0.357610796506409
0.429979977834665 0.0285993912548482 0.364403850106127
0.429675717298877 0.0266116755527688 0.367289241941284
0.429040216155095 0.0180410474242571 0.37768568932166
0.425103417171458 0.00639781037828124 0.374417340366274
0.427637307236055 2.77773285301294e-005 0.385754046874753
0.433172952087757 0.0151594135317714 0.398833412635837
0.432049414226143 0.00310995349952978 0.405629478372445
0.433087819789624 -0.00729789208147151 0.413762816834191
0.434552095768124 -0.00244269352290789 0.429432110174137
0.431172920921651 0.0188983698393984 0.507251951196043
0.42842385854392 0.0216387550616496 0.519730224174274
0.423891241335123 0.0273935010167624 0.541280510655697
0.421240407017727 0.0303739456981555 0.552442619644485
0.425616822231967 0.0425995544758031 0.575673316697992
0.427816888695381 0.0437204538421618 0.579040516123223
0.42589380117496 0.0442361605361109 0.59815694640745
0.420241746137632 0.0441020495331536 0.609781412184808
0.425927179994771 0.0413970923481387 0.614713853054986
0.422248652203172 0.0412425999387677 0.620902475772474
0.420472661656467 0.0383576519982413 0.630857623149001
0.424562922204677 0.0278971910091935 0.639794071509891
0.42468325398462 0.0253513152239872 0.642086397000004
0.425054206048504 0.0167153035580025 0.647344417984421
0.426212110602311 0.0159726132247216 0.646208376041954
0.4366661583498 0.0366247525966236 0.284861947352098
0.434596899289298 0.0401769216358568 0.289556914399714
0.429248555870809 0.0440927084256562 0.313890681302625
0.432231761715109 0.0430189157224552 0.32791448696805
0.436005002658785 0.0438644755857835 0.329149303185798
0.429345174138082 0.0387117168374652 0.339287418579643
0.438231650624493 0.0414244759277307 0.349904420247041
0.431552955154462 0.0376895194202145 0.347673628533538
0.433804318401892 0.0352132263878698 0.360473855159692
0.434184865684139 0.0326653842526101 0.368338417788424
0.435112392032388 0.0316700174729749 0.373740443116201
0.433815031165902 0.0262850088519263 0.381865742547243
0.435041568090795 0.0251406777380014 0.38914172393143
0.436746241640564 0.0229872403064291 0.402228759531161
0.435047344242765 0.0172592557608305 0.405510251819945
0.439893221049098 0.022747184722301 0.42851665711903
0.439445964340295 0.0215722416932273 0.429705425106223
0.439891692753918 0.0214245237766302 0.442409094348649
0.437005307170712 0.0133487113039639 0.434293215165136
0.440300584155096 0.0227058685362289 0.455959408060446
0.43952741430513 0.0230505469051192 0.469886765630458
0.434687170173921 -0.00202167276758957 0.461143475081598
0.4357348987121 0.0191334395387193 0.486134869558614
0.434777691752228 0.0162861459959867 0.486145364429382
0.434117131928272 0.0236606588091596 0.503697389320674
0.439279795218418 0.0404143483778434 0.533888219077889
0.431783532860328 0.0350409492031112 0.536374856370529
0.431431019770397 0.0380355788423372 0.545280398872743
0.430374372076611 0.0427056092921846 0.566301905350737
0.432079452783692 0.0444448230824338 0.582871630985307
0.432772949548787 0.0440848497303339 0.589124993325667
0.437187083097125 0.0419295337249126 0.593978672648397
0.437732827189922 0.0399750165840804 0.599844395578342
0.43355207732894 0.0381776919632573 0.611729527231367
0.433968893173815 0.0355048630005511 0.616118672322417
0.431495835868801 0.0338093998302526 0.622726668455189
0.440305763859625 0.0197173813570989 0.623911280107733
0.435717651954166 0.0142492935736967 0.634174749891401
0.443141185478043 -0.00694689495440512 0.626943032069435
0.436176523120639 -0.00930272879401143 0.637398332257386
0.445036499237314 0.0321769220987385 0.290771972723845
0.442624134227349 0.0423373170865222 0.310855207855886
0.438677037340423 0.0442353060903069 0.328943145897023
0.440826977752579 0.0443820064352881 0.329927390288309
0.43962981972321 0.0439863933954018 0.3359545473147
0.445592597731167 0.0432691167625592 0.357406498036992
0.444335604422332 0.0426170642528712 0.35960777866527
0.446483392741182 0.0429188031358199 0.363915275796752
0.443908568777265 0.0393826749372518 0.377135496528579
0.44671106254121 0.0392627097803936 0.389048687232485
0.440308474665204 0.0324119819578906 0.39178077450102
0.448059652362832 0.0375113749034412 0.408246076112657
0.447188202367616 0.0362546138659787 0.410910060534893
0.448482813086449 0.0365389746968388 0.419590533728684
0.448242081880271 0.0351213449220042 0.435275306573541
0.446062362723919 0.032318529135428 0.441612758591036
0.44569675261454 0.0317607815704853 0.444848920332331
0.444973043696069 0.0313460250649449 0.460719321805462
0.447877270370899 0.0353740463165022 0.46583130089171
0.449480670888772 0.0376736127794799 0.473904997266079
0.443454311541809 0.0334599471646332 0.48813349966522
0.442000776981574 0.0346839139274479 0.500785640889074
0.447832924382872 0.0415959497772543 0.513392319349088
0.446296262880711 0.0420883754289876 0.521637258479453
0.4411060142504 0.0402062581710032 0.527037690041058
0.447412056648736 0.04439539823782 0.546854890205273
0.442634105867456 0.0439628604478196 0.54853331071741
0.441262136696684 0.0442824545204291 0.567937868026034
0.446566776736414 0.0412173389940451 0.579159429188301
0.442744637387904 0.0425636392241106 0.58096389485676
0.446413838064236 0.0396995811544301 0.58483217896876
0.439934541387215 0.0387886538691415 0.599224079349586
0.447100598314276 0.0310915683636246 0.601176068611892
0.448692978830212 0.021886962267167 0.608603963081945
0.444341372882975 0.0243685410703528 0.614043772158335
0.450390808032383 0.0110022869616561 0.612546460498048
0.445876929553792 -0.00351131224702175 0.622962571110143
0.454701443839115 0.0362502686803663 0.315421003013814
0.448790420569697 0.0435636086591418 0.331066692215864
0.450920083008279 0.0441176528810798 0.341847668770242
0.448853875866998 0.0443117798137535 0.351055088206468
0.454353514302492 0.0443745676328393 0.358929619102999
0.455001393090968 0.0443800649196814 0.361142185187877
0.454552722665603 0.0439771443425676 0.378927592963813
0.448861050720943 0.0410890558347283 0.386356106845116
0.452412679129724 0.0413499862625083 0.4015002256229
0.457811798373006 0.0430392198221432 0.413123424062001
0.453646093739291 0.0408582911212586 0.417235338491535
0.452816918267366 0.039957097349634 0.4211099982972
0.453396279541045 0.0396643737858402 0.435248213780119
0.458189392927272 0.0423306516732247 0.446901867188748
0.455365448933299 0.0410388604324936 0.456931770285532
0.452585306514805 0.0390719418004906 0.455232510869319
0.45022799708457 0.0386968328172697 0.478173508560393
0.455378064381342 0.0426341944551248 0.488198343551344
0.457506817571922 0.0436734755557451 0.494787344561837
0.457653036373197 0.0441627911288668 0.505926837116699
0.452958631515761 0.043651835664896 0.514485182077677
0.457476449192697 0.0444387032736478 0.519804031686445
0.448701026452516 0.0442141960157541 0.538339167821185
0.45414737940312 0.0438477851346875 0.545341078424956
0.452946035604419 0.0426796970373189 0.558251211877512
0.454514216912696 0.0402943615350384 0.566108522479112
0.458202768405543 0.0349881515446343 0.572687236567269
0.453771201362107 0.0365505476276841 0.578261987594315
0.450585022987366 0.033973567847113 0.590533182153173
0.456641044515703 0.0232952739017263 0.593196066549342
0.453436654123202 0.0222460516480518 0.599880584229246
0.45298052416727 0.0153880522193975 0.605766851031639
0.454612124398273 0.0107792242259193 0.60517764246612
0.45968322396667 -0.00670137752141424 0.599213351213605
0.463376681602554 0.0349768204777254 0.331205872552775
0.465060083681479 0.0366604746912212 0.339742651103182
0.461652249729683 0.0419090114975488 0.351626515213899
0.460825616885088 0.0439116574668712 0.366846074339584
0.467541860466675 0.042402732559927 0.374438240756385
0.463873184049386 0.0443245256738966 0.392989043770206
0.458125371452391 0.0435903692327389 0.402346130301819
0.461778781116557 0.0442110746437562 0.405026461462373
0.466567180671247 0.0444424390419887 0.419908439115622
0.460141516897226 0.0432659948490699 0.430225095444722
0.463741114072884 0.0441125278449461 0.437757957472657
0.463887091625063 0.0441148757617011 0.444273969571722
0.458644182245461 0.0426554626348969 0.454018846667432
0.458740433583802 0.0429776742592771 0.467665976665815
0.462708122077678 0.044130184117055 0.473408371396695
0.461241759449194 0.0441547834496441 0.486937531184777
0.462132274527007 0.0444489824512763 0.501187478105941
0.467517015889978 0.0431208726848121 0.509896489596621
0.464844783236657 0.0436845191930813 0.513089340540493
0.459050080925976 0.0435595786401221 0.533640244364974
0.460151765864841 0.0429844455337334 0.536630614548434
0.461027919837163 0.0418819998001936 0.541936441099579
0.465241217956912 0.0362205868318529 0.552722768430202
0.468312365854547 0.032249562119179 0.554337403680358
0.465617543173902 0.0308510407116745 0.563821266207953
0.465416293764004 0.0250944692895003 0.573170267959463
0.472981235996501 0.00950118153953748 0.568587054929999
0.46283637188152 0.013088634963443 0.58858377635354
0.476129294721011 0.0336475392416377 0.363363381154289
0.468808132390208 0.041738299092111 0.374097046885354
0.47480359778444 0.0405357621367924 0.390169065288062
0.468537748036641 0.0437447555986905 0.397461051259397
0.475697743730598 0.0412693998774447 0.402894117594367
0.469198500992154 0.0441656084618901 0.418034577346899
0.472770030201464 0.043629688003822 0.430966448350708
0.469429685356572 0.0442709927362427 0.439695552188849
0.477572515457291 0.0419975742381208 0.447663962802328
0.470801238401988 0.0440962137489693 0.463016839966545
0.476364562137403 0.0424190115420566 0.460311444770866
0.470532435049446 0.0438178844179871 0.47922590554421
0.477026847733033 0.0410112580225341 0.483111722935017
0.471633735285225 0.0424233961380117 0.499258704735619
0.471532846214279 0.0424755145843395 0.499238481308302
0.469954554759041 0.0417750539622057 0.513059135447676
0.475701642396373 0.0375192696502257 0.515869627331496
0.469859462522245 0.0391172688930931 0.528405105630597
0.473725885665283 0.0339770829318579 0.534312465155379
0.469597009607284 0.0347293132069781 0.545485527787978
0.480963417686703 0.0175574115448303 0.540908624838342
0.474651771683986 0.0183002220306688 0.558129618044815
0.480254815899151 0.00748640249246174 0.551602069526565
0.48604645720545 0.0257441824831626 0.381316522742007
0.483602846384736 0.0368987175871337 0.418884934383274
0.481548708534556 0.0389511568442279 0.423825050669108
0.484603669471327 0.0365799686502723 0.428682611090879
0.479232453085711 0.0411254931869558 0.44400294090295
0.483338189314709 0.0382266035471729 0.451267422337534
0.49006977168991 0.03057964290916 0.454575147932934
0.483636614097094 0.0363356415613502 0.477955638429948
0.483339475161938 0.0361941491278722 0.481415463119371
0.484650006106054 0.0342721205272083 0.486019947871729
0.480188395986765 0.0363081268008767 0.500964627653594
0.49087643581564 0.0193163228832313 0.500850301090291
0.486605506643642 0.0265956837919828 0.505892626423889
0.490198064997871 0.0175087143201228 0.507655738236085
0.488252786957995 0.0168434342692569 0.517211098552331
0.48640457369556 -0.00197407251885288 0.534713024511585
0.49018031310774 0.028018928444713 0.415149561327605
0.49132923902026 0.0269544429222667 0.420339362270305
0.492527554364676 0.0263670673562068 0.456916084088134
0.492071475010421 0.0216243865057065 0.487806036647524
0.495233213674353 0.0107967224155807 0.489471826468047
-0.459690528524755 -0.156612888514772 0.221602401893984
-0.457364078902001 -0.161330461668551 0.209009922992124
-0.458753057000169 -0.158513892711709 0.229061331579304
-0.459494470567048 -0.157010454724166 0.241909727163239
-0.458402082474685 -0.1592255986446 0.255394822700596
-0.437130808195152 -0.192300843796215 0.225637554615866
-0.448912240910916 -0.174668683701346 0.262250609890855
-0.43265918271345 -0.198993104260613 0.235990979798418
-0.455176627504842 -0.165293366625313 0.305389276857896
-0.432295530238677 -0.199537348649966 0.276273064377304
-0.45776352100964 -0.16052047320155 0.3291033819952
-0.4555481790604 -0.164737300426138 0.333478367919354
-0.472190364818413 -0.131265727953531 0.389357430036739
-0.441272276179251 -0.186102698945318 0.370947838155934
-0.469065922897426 -0.137601469412457 0.424297681775641
-0.470797740167759 -0.134089691387322 0.444948140457271
-0.463149856692936 -0.14959806492405 0.443061945978268
-0.458723378636184 -0.158574074480451 0.449982854933396
-0.469136568883208 -0.137458213524736 0.479708458463152
-0.470539584268968 -0.134613179764509 0.489960119901028
-0.459681137880497 -0.156631930857583 0.478817730194293
-0.459038629798875 -0.157934808361269 0.484112817614264
-0.458657358460783 -0.158707950152647 0.49854300885207
-0.467802683915515 -0.140163064664546 0.529753118806572
-0.450732871659197 -0.171943917231785 0.509343864819752
-0.458857237121082 -0.158302636324823 0.546206059892028
-0.458178924056188 -0.159678119152178 0.542557093664964
-0.452946071617302 -0.168631629420553 0.545487002447278
-0.436206855519339 -0.193683636695267 0.529482401053512
-0.466818572005431 -0.142158646207304 0.591422966003407
-0.457738005146907 -0.160572214252743 0.580304444505672
-0.451137625088199 -0.171338160917481 0.581656550095084
-0.466538178301013 -0.142727228393445 0.617121707767603
-0.466649077470916 -0.142502347123034 0.62516550632551
-0.438515969243396 -0.190227803789195 0.604569880175931
-0.448599695594733 -0.175136440822641 0.615230518673036
-0.461441259749318 -0.15306275678456 0.673487702608475
-0.458478014314374 -0.159071624105487 0.678419822004224
-0.461752684529774 -0.152431249800985 0.699435943035255
-0.459763396752732 -0.156465126365656 0.700332594965989
-0.459040541048355 -0.157930932730717 0.707827153199249
-0.437377402958945 -0.19193178865168 0.694176181932085
-0.465401171523119 -0.145032850057716 0.742612627555274
-0.463340822018719 -0.149210825550627 0.748911471192432
-0.454458026748529 -0.166368828658267 0.744712357952653
-0.460018206754272 -0.155948422796913 0.765935946650136
-0.456990172434009 -0.162088668980745 0.778811940768453
-0.467703518607686 -0.140364152016459 0.799836066403739
-0.45617977721245 -0.163731987926397 0.792360828631308
-0.440780762135944 -0.186838301694962 0.784486895779636
-0.460715139062803 -0.154535183878447 0.815419923820748
-0.463766737571237 -0.148347154247933 0.837396051153144
-0.462425230073571 -0.151067462349465 0.846635229832602
-0.465134925970582 -0.143695036871307 0.855395268162663
-0.458211865881358 -0.15505078416783 0.858266085087083
-0.454911567813255 -0.16013117660734 0.859663087990434
-0.445772088964328 -0.172080455287428 0.86138555167084
-0.443977727546514 -0.179692508339763 0.856559776695878
-0.438341833796877 -0.182694341473392 0.861752899208061
-0.431401094348802 -0.194723037603032 0.860562105778865
-0.411548607078217 -0.221555326779732 0.8560350065778
-0.396157983804901 -0.237295147284661 0.855964900484794
-0.47997088144551 -0.110959847923155 0.253834238209736
-0.480295793417586 -0.110002688118579 0.264365811307423
-0.478917200749642 -0.114063891158305 0.27184763281598
-0.475509060052728 -0.12410394989354 0.267248491908137
-0.483361082435502 -0.100972637860321 0.295196451736919
-0.475301289306607 -0.124716022774336 0.284906699802876
-0.481697621002845 -0.105873037219654 0.316386428762532
-0.479731068558864 -0.111666313906078 0.318914544857967
-0.476438347309418 -0.121366357913398 0.313221500690986
-0.477465433835758 -0.118340658575349 0.329785004521555
-0.480577844290376 -0.109171793040891 0.346633647455795
-0.481963080103573 -0.105091019926317 0.355567614060788
-0.476996264425682 -0.119722787088473 0.351043988737587
-0.48097322752204 -0.108007031600019 0.37580047960282
-0.479365084561058 -0.1127444679968 0.374961556504087
-0.482722415488045 -0.102854090017072 0.397196157728966
-0.477984651397802 -0.116811092960876 0.393484089139596
-0.476246128333358 -0.121932616756942 0.394404305342826
-0.475069834891116 -0.125397865495255 0.39863267725089
-0.477562704737621 -0.118054107738757 0.415893865685888
-0.4729391391545 -0.129747363802587 0.416273437442637
-0.476090260974473 -0.122391787189527 0.435897556584424
-0.471616676776948 -0.132429052220941 0.437971507397169
-0.478575805278542 -0.115069609785149 0.46096355614814
-0.478020377156037 -0.1167058482709 0.474098249249835
-0.47339038681056 -0.128832324075479 0.463187508215477
-0.478790968555104 -0.11443575921193 0.492957890072387
-0.477262298828941 -0.118939075008531 0.493507255838012
-0.479623590457404 -0.111982934183049 0.508554082417269
-0.479706994517929 -0.11173723374375 0.518178171728807
-0.478996598973447 -0.113829991533445 0.527935141116699
-0.478461145615439 -0.115407386260503 0.53256866490192
-0.481292636014759 -0.107066084522822 0.5459312986334
-0.473163365496838 -0.129292677759685 0.539602956716169
-0.471745949252337 -0.132166913572653 0.540328279277704
-0.47748884587585 -0.118271688929276 0.565472684309893
-0.475736399819877 -0.123434228535763 0.567812062035936
-0.477139602749986 -0.119300526001562 0.580054376095291
-0.476101992185296 -0.122357228156853 0.584753353281477
-0.473432575726698 -0.128746773416563 0.591688150541235
-0.469690009823353 -0.136335946317272 0.59181479026465
-0.477826973072704 -0.117275598327892 0.621013721074384
-0.478749893814832 -0.114556761494858 0.629714737922783
-0.476968296071916 -0.119805179201803 0.645227363608973
-0.478082524651284 -0.116522767653633 0.644816539257893
-0.480578301542089 -0.109170446020781 0.668908134822075
-0.47205577598078 -0.131538647117995 0.660460664377145
-0.479073192222726 -0.113604355097079 0.681218670522714
-0.473444477065838 -0.128722639888174 0.678412868794889
-0.478876805054218 -0.114182893039618 0.697202142240358
-0.479466047592745 -0.11244704049648 0.703764896047168
-0.478390191351923 -0.115616410780489 0.721728598981991
-0.48016555982275 -0.110386343917366 0.728952607855106
-0.469346240913612 -0.137033040706868 0.714742113767264
-0.481057964453518 -0.107757404649508 0.745227969879768
-0.478564404024253 -0.115103196797216 0.754745185761501
-0.476077061570428 -0.122430671379957 0.748922240603061
-0.47085980459447 -0.133963837179952 0.754651558436697
-0.474438879864689 -0.126706190487328 0.772798764830947
-0.480528809714635 -0.109316244242962 0.797262742173016
-0.482425130131262 -0.103729864437396 0.808402269424266
-0.476865150861954 -0.120109035192023 0.802274922333083
-0.475921201407703 -0.122889820613338 0.802194728975991
-0.478082680816516 -0.116522307605695 0.827395840210138
-0.476094180204594 -0.122380241509898 0.826975156374288
-0.480926327915517 -0.108145193385586 0.843745215016702
-0.469363408848182 -0.136998227579413 0.830959875483606
-0.475834117904053 -0.122281503845905 0.852285637977359
-0.468263220183092 -0.138936898824508 0.851153557212837
-0.467512215439615 -0.127020242075711 0.863627434742871
-0.462950432680891 -0.134930055351484 0.864083372659643
-0.452706955483682 -0.145627581499594 0.866790410542846
-0.447431026370334 -0.166560740359099 0.863368046017024
-0.437883298457031 -0.173253524278539 0.866306566275237
-0.434714289048658 -0.180841783276287 0.865397719297722
-0.423709425411273 -0.186785893315683 0.867865544292042
-0.417911044509587 -0.192420031926509 0.868036821719638
-0.410059441430461 -0.217854871460436 0.862176372794634
-0.401316138051851 -0.226808422291788 0.863051508211083
-0.38789550256064 -0.230670657477111 0.866944939229604
-0.48227695015959 -0.104166388557519 0.259591953562638
-0.488652624596276 -0.0853842573271321 0.290923985869117
-0.488873776381357 -0.0846339693165028 0.293573265789441
-0.490069992960846 -0.0786201824652998 0.315569569825113
-0.487033057978701 -0.090155346731041 0.3065650018231
-0.481719001191468 -0.105810053214993 0.304412719612317
-0.488915876051002 -0.0844223199846917 0.332930469480317
-0.487140590456134 -0.0898385662676217 0.333357702793887
-0.486274335124926 -0.0923904721830401 0.346001421572194
-0.486683387815721 -0.0911854418141034 0.350529738125143
-0.489224362221221 -0.0828714552783725 0.370678598472569
-0.489090975651531 -0.0835420348478948 0.374726629853516
-0.489130678010304 -0.0833424376117076 0.389476031343112
-0.482488153111884 -0.103544204723382 0.377781357799185
