ply
format ascii 1.0
element vertex 835
property float x
property float y
property float z
end_header
-0.273890405433599 0.0587659237950292 0.363843295173311
-0.288038866802896 0.0711242613693319 0.363843295173311
-0.292094278965318 0.0716090267565925 0.363843295173311
-0.310497126480239 0.0947876779955274 0.363843295173311
-0.320845740838517 0.109782773260726 0.363843295173311
-0.326716902739735 0.107378233056823 0.363843295173311
-0.343140360425509 0.121224472936277 0.363843295173311
-0.355625994418399 0.132971353044773 0.363843295173311
-0.355707808210975 0.136960649137385 0.363843295173311
-0.369318491309957 0.148373158053293 0.363843295173311
-0.372278540144666 0.149598149846283 0.363843295173311
-0.388853743455152 0.164272844067372 0.363843295173311
-0.404477875487437 0.179248239922517 0.363843295173311
0.0122949330433475 -0.216459903043751 0.363843295173311
0.0150271684691957 -0.213145741435263 0.363843295173311
0.00283403167452749 -0.207021383118711 0.363843295173311
-0.00624512394860688 -0.201687634510297 0.363843295173311
-0.0118207720070716 -0.189653406117655 0.363843295173311
-0.0232848845075934 -0.182036222884157 0.363843295173311
-0.028819604469144 -0.17204492959272 0.363843295173311
-0.0353353383386566 -0.165518771481391 0.363843295173311
-0.0470056509985435 -0.163048416588731 0.363843295173311
-0.0544256153192749 -0.150932192466125 0.363843295173311
-0.0559308737193127 -0.145362821056788 0.363843295173311
-0.0738969909521026 -0.132837826564507 0.363843295173311
-0.0757467258767984 -0.136096738634373 0.363843295173311
-0.0812116116768428 -0.126116849162196 0.363843295173311
-0.0909571757997698 -0.122577073403069 0.363843295173311
-0.103827316401582 -0.111945924017843 0.363843295173311
-0.10518177924531 -0.104818363396516 0.363843295173311
-0.124649309674036 -0.0937480465547541 0.363843295173311
-0.128681957203382 -0.0918436295981579 0.363843295173311
-0.134383859004049 -0.0771019723742402 0.363843295173311
-0.149777131735431 -0.0697859566070039 0.363843295173311
-0.159412623025477 -0.0653504824249571 0.363843295173311
-0.157052049192668 -0.0515433363925739 0.363843295173311
-0.171371919211219 -0.045399710723767 0.363843295173311
-0.183713412550143 -0.0373842597774007 0.363843295173311
-0.189447149962106 -0.0294915269466855 0.363843295173311
-0.200026794651096 -0.0207075811010143 0.363843295173311
-0.203556223681202 -0.0154286586050849 0.363843295173311
-0.221963774115437 -0.00232975061844094 0.363843295173311
-0.228116444797006 0.00129155054416555 0.363843295173311
-0.237977070759229 0.0185179907263434 0.363843295173311
-0.249082318545729 0.025364315115632 0.363843295173311
-0.248814918775019 0.0234107466805238 0.363843295173311
-0.265683617785524 0.0434981493713985 0.363843295173311
-0.281578528345473 0.0459035472998255 0.363843295173311
-0.276959761718664 0.0502709860139556 0.363843295173311
-0.298963529440614 0.0669925281174586 0.363843295173311
-0.308317990926363 0.0802835657027536 0.363843295173311
-0.31302114913007 0.0816481785716644 0.363843295173311
-0.324551421445158 0.095039732269416 0.363843295173311
-0.342137918022236 0.107390752608103 0.363843295173311
-0.339743184609988 0.105005340785559 0.363843295173311
-0.358626601756586 0.118966865498277 0.363843295173311
-0.366159846176483 0.129375533064459 0.363843295173311
-0.3795095432161 0.139038997928958 0.363843295173311
-0.387196671096789 0.14655278794993 0.363843295173311
-0.39903383794783 0.158124687452925 0.363843295173311
-0.409605254990113 0.164181303986699 0.363843295173311
0.00860284331059019 -0.218305977103983 0.361680844695731
0.00460471670939958 -0.218305977103983 0.356601904837767
-0.00190197636413825 -0.214001539613651 0.363843295173311
-0.0158547732040885 -0.202634327573437 0.363843295173311
-0.0212688053687639 -0.193691169914416 0.363843295173311
-0.0313155996471103 -0.191224726967824 0.363843295173311
-0.039732389293512 -0.181639825905251 0.363843295173311
-0.0442854862974712 -0.179058406337306 0.363843295173311
-0.0553000633380247 -0.173169457323721 0.363843295173311
-0.0589059227307482 -0.156750175046714 0.363843295173311
-0.0719811115899623 -0.150267675855001 0.363843295173311
-0.0755023402712924 -0.14302639485385 0.363843295173311
-0.0919607918696301 -0.137602888989292 0.363843295173311
-0.0975586801011438 -0.127860562880739 0.363843295173311
-0.101303548097298 -0.122913957008935 0.363843295173311
-0.109475590238561 -0.114715581558359 0.363843295173311
-0.120421350989514 -0.105307889786248 0.363843295173311
-0.118488326755051 -0.106341346555833 0.363843295173311
-0.132355315154715 -0.0916453880571884 0.363843295173311
-0.150767461314487 -0.085169143747135 0.363843295173311
-0.157668159895786 -0.0772713008192128 0.363843295173311
-0.159853707937545 -0.0753522206695909 0.363843295173311
-0.167910286802909 -0.0688460138321407 0.363843295173311
-0.17604321734233 -0.0559159877782013 0.363843295173311
-0.185365745575446 -0.0508464678660461 0.363843295173311
-0.193912340350309 -0.0432270175848052 0.363843295173311
-0.202226854114569 -0.0319603934244375 0.363843295173311
-0.209492792354342 -0.0263201324694777 0.363843295173311
-0.224712990092738 -0.0190518635588161 0.363843295173311
-0.241454586267212 -0.00649934334652664 0.363843295173311
-0.244389088129082 0.0115565177396332 0.363843295173311
-0.258316673505523 0.0137579585919139 0.363843295173311
-0.263493325163597 0.0212181426929469 0.363843295173311
-0.272972846132913 0.0324265231541711 0.363843295173311
-0.290530015893155 0.0390494567203578 0.363843295173311
-0.292805433837992 0.0447792055950444 0.363843295173311
-0.303408916937802 0.0596848416462951 0.363843295173311
-0.320041924824995 0.0652306107511052 0.363843295173311
-0.325685098656951 0.0797674633026799 0.363843295173311
-0.332563330747634 0.0870623003578701 0.363843295173311
-0.34424515855737 0.0856873481979131 0.363843295173311
-0.346009586455064 0.100995719095088 0.363843295173311
-0.366679750133322 0.114271491765616 0.363843295173311
-0.379652855633618 0.123447784180322 0.363843295173311
-0.382403398214675 0.122768222317757 0.363843295173311
-0.394832065169252 0.148131419505492 0.363843295173311
-0.397927895130667 0.143128304760944 0.363843295173311
-0.417451273565565 0.154728740019785 0.363843295173311
-0.272882471379978 0.0128783898499911 0.0144105517705681
-0.272882471379978 0.015891838855441 0.0250636983536001
-0.272882471379978 0.00731916928238266 0.0333486311646177
-0.0138130414737372 -0.21577942270175 0.363843295173311
-0.0172379874087994 -0.206700925299514 0.363843295173311
-0.0239366679651454 -0.207805902382091 0.363843295173311
-0.0353070723896549 -0.191259957532131 0.363843295173311
-0.0416562486408752 -0.187941790859265 0.363843295173311
-0.0578052596385308 -0.180698961309149 0.363843295173311
-0.0572479589210995 -0.178949026713204 0.363843295173311
-0.0655442338961037 -0.163825694740074 0.363843295173311
-0.0785707040690158 -0.164146020095584 0.363843295173311
-0.0843702249913271 -0.154244485505653 0.363843295173311
-0.0900148513012412 -0.14719948768739 0.363843295173311
-0.0998586885803576 -0.140741803074832 0.363843295173311
-0.0998782618732732 -0.136669123433801 0.363843295173311
-0.125456474443144 -0.122006663774017 0.363843295173311
-0.130440907662813 -0.113567725862783 0.363843295173311
-0.135122475587239 -0.111472799992069 0.363843295173311
-0.145366934119185 -0.103223167952953 0.363843295173311
-0.152014979144832 -0.0884494548059269 0.363843295173311
-0.162278275314766 -0.0838045096525574 0.363843295173311
-0.178010642870489 -0.0748029842293272 0.363843295173311
-0.184653316459408 -0.0664432900741583 0.363843295173311
-0.190685959080964 -0.0566640296402697 0.363843295173311
-0.193462584207417 -0.05486297583148 0.363843295173311
-0.206371894863756 -0.0408653581664441 0.363843295173311
-0.214249569670761 -0.0380763226730374 0.363843295173311
-0.216558516173372 -0.0337802300466291 0.363843295173311
-0.234828243885233 -0.0236087899140302 0.363843295173311
-0.246652510994536 -0.00397193566955741 0.363843295173311
-0.258516321073143 0.00323212954701859 0.363843295173311
-0.267303120024124 0.00419662223947404 0.363843295173311
-0.26853107662699 0.0103734768545577 0.363843295173311
-0.28510128096896 0.0303960174557955 0.363843295173311
-0.296032297475701 0.0277718863622784 0.363843295173311
-0.302437342831191 0.0474604564178354 0.363843295173311
-0.305393562624751 0.0474142535852104 0.363843295173311
-0.314543161096754 0.056673446366285 0.363843295173311
-0.330323811557234 0.0748306990311549 0.363843295173311
-0.335557829042587 0.0692402280015717 0.363843295173311
-0.350883363358305 0.0840448877481154 0.363843295173311
-0.361321845008154 0.0880234266392113 0.363843295173311
-0.377740789992394 0.109828763991649 0.363843295173311
-0.392452276776474 0.118315644752759 0.363843295173311
-0.395919994291458 0.118649555883115 0.363843295173311
-0.40458963339817 0.137585584069489 0.363843295173311
-0.416473208698732 0.149247509109338 0.363843295173311
-0.427414445543292 0.156608274210542 0.363843295173311
-0.272882471379978 0.000592529570997032 0.00987788157757166
-0.272882471379978 0.00390557598042935 0.0151064292183156
-0.272882471379978 0.00624352206248035 0.0254826675969727
-0.0255572752385323 -0.218305977103983 0.354851964851483
-0.0251043627942431 -0.218305977103983 0.360473752094208
-0.0322622623513764 -0.218305977103983 0.358512975057811
-0.0334395604043621 -0.211754654764446 0.363843295173311
-0.0417224482122106 -0.198409273770505 0.363843295173311
-0.0563158654869509 -0.188452662970739 0.363843295173311
-0.0621005049920951 -0.186549153006876 0.363843295173311
-0.0610251400367227 -0.180841092791589 0.363843295173311
-0.0699219864845654 -0.178353979648274 0.363843295173311
-0.0760110069910968 -0.173767832616509 0.363843295173311
-0.0939154696550441 -0.163626284566291 0.363843295173311
-0.0988795714675557 -0.156609083119727 0.363843295173311
-0.110378465343999 -0.141979946944319 0.363843295173311
-0.11328525734223 -0.140231080399268 0.363843295173311
-0.123327096094694 -0.12426914456753 0.363843295173311
-0.135011380325042 -0.124430288150872 0.363843295173311
-0.148933580806211 -0.108894019408554 0.363843295173311
-0.143991621110142 -0.109720259255789 0.363843295173311
-0.156144873298694 -0.100260362346647 0.363843295173311
-0.160729261863458 -0.0961124221350228 0.363843295173311
-0.174023109746954 -0.0863416384703766 0.363843295173311
-0.182662576503395 -0.0764183576786774 0.363843295173311
-0.190381201004295 -0.075570435966536 0.363843295173311
-0.203432951911305 -0.062054269361918 0.363843295173311
-0.21089799364279 -0.0562065597520217 0.363843295173311
-0.219427116866589 -0.0453686015722089 0.363843295173311
-0.237059001465362 -0.027192954946258 0.363843295173311
-0.241015928652016 -0.027292491467238 0.363843295173311
-0.247851897995879 -0.0215223525041323 0.363843295173311
-0.259564686045072 -0.0114401579071441 0.363843295173311
-0.26972910197388 -0.00336008542198654 0.363843295173311
-0.27870442804937 0.0113816058072005 0.363843295173311
-0.292362317521601 0.0127382256786246 0.363843295173311
-0.299225351414053 0.0241988020575656 0.363843295173311
-0.307651076191268 0.02788695350522 0.363843295173311
-0.315255321208538 0.032817259271859 0.363843295173311
-0.32304491707439 0.0516729854736447 0.363843295173311
-0.329253830570445 0.0513601508516503 0.363843295173311
-0.347901080642631 0.0694393405018474 0.363843295173311
-0.35579960247906 0.0747245077523502 0.363843295173311
-0.378331227057075 0.0922096558796443 0.363843295173311
-0.376018851576319 0.0975750294629832 0.363843295173311
-0.393909021291117 0.10636841460232 0.363843295173311
-0.399537779502376 0.114745842585623 0.363843295173311
-0.407806210773727 0.119215808340316 0.363843295173311
-0.418410482528106 0.133728630008811 0.363843295173311
-0.441369698888738 0.145825093559688 0.363843295173311
-0.272882471379978 -0.0188856728720459 0.000405911606530323
-0.272882471379978 -0.0146210303748761 0.0136120964866534
-0.272882471379978 -0.00715496342355493 0.0197098329032854
-0.272882471379978 -0.0151664776666981 0.0322877205434011
-0.272882471379978 -0.00303572467558385 0.0283506009510499
-0.272882471379978 -0.0082758179060693 0.0451108190046617
-0.272882471379978 -0.0118550442290341 0.0605823445875027
-0.0470583122144744 -0.218305977103983 0.354401086646006
-0.0427678945520482 -0.218305977103983 0.360384459398365
-0.0540878690867718 -0.203690389480799 0.363843295173311
-0.0543475042986927 -0.201989990190661 0.363843295173311
-0.0629464330112325 -0.200249757548102 0.363843295173311
-0.0728068767436613 -0.188471837879149 0.363843295173311
-0.0808183447359115 -0.184556397106239 0.363843295173311
-0.089507063770675 -0.17757800746984 0.363843295173311
-0.102854578962622 -0.165274913099779 0.363843295173311
-0.102732205674107 -0.158218612926225 0.363843295173311
-0.113757665222043 -0.154270479787818 0.363843295173311
-0.127261380787232 -0.148821215597443 0.363843295173311
-0.131275186051246 -0.137864051125346 0.363843295173311
-0.141950664459123 -0.128666428423085 0.363843295173311
-0.150520093171748 -0.121239604740492 0.363843295173311
-0.161617460550026 -0.117041901326234 0.363843295173311
-0.163883899111734 -0.105723016105177 0.363843295173311
-0.171693087424424 -0.0987068558801878 0.363843295173311
-0.187761797973621 -0.0836764243585381 0.363843295173311
-0.185597135502521 -0.0838031541471826 0.363843295173311
-0.204205534655039 -0.0715306523444894 0.363843295173311
-0.211765925668819 -0.0608731831978029 0.363843295173311
-0.220641331305641 -0.0520793241292705 0.363843295173311
-0.223604877611503 -0.0546834976416088 0.363843295173311
-0.229587580806474 -0.0484797020897285 0.363843295173311
-0.24668140544714 -0.0378568251909789 0.363843295173311
-0.259642774394258 -0.0293429919687667 0.363843295173311
-0.264385224985502 -0.019235264264083 0.363843295173311
-0.279191081002573 -0.00978208652960432 0.363843295173311
-0.284505132209665 -0.00105224554045949 0.363843295173311
-0.303308431084844 0.0125027533509794 0.363843295173311
-0.305919207591338 0.0163838703602537 0.363843295173311
-0.318434163517447 0.0281843870669169 0.363843295173311
-0.322081233834415 0.0326796242450464 0.363843295173311
-0.33959336145698 0.0472989694601981 0.363843295173311
-0.340238077997111 0.0520021367650434 0.363843295173311
-0.350542562357096 0.055623960163624 0.363843295173311
-0.362333566664316 0.0680276471904995 0.363843295173311
-0.377207343921559 0.0772548132578189 0.363843295173311
-0.391394170079739 0.0845472962360462 0.363843295173311
-0.40218643213066 0.104113646631463 0.363843295173311
-0.406667816060303 0.106491490907683 0.363843295173311
-0.418592667236732 0.115504877997392 0.363843295173311
-0.436219556066271 0.124884948025129 0.363843295173311
-0.445028738645487 0.141683505811924 0.363843295173311
-0.272882471379978 -0.0209172267676279 0.00561025092140404
-0.272882471379978 -0.0307351662482636 0.0208034640811727
-0.272882471379978 -0.0241957483656846 0.0321922439387472
-0.272882471379978 -0.0237493267769831 0.0385308066002723
-0.272882471379978 -0.0247118914872365 0.0487305788192587
-0.272882471379978 -0.0243479884179947 0.0561978879831851
-0.272882471379978 -0.0175097301330267 0.0604694650989703
-0.272882471379978 -0.0232222823715315 0.0791419602062753
-0.272882471379978 -0.0323403452735992 0.0887218429081988
-0.0571151299125078 -0.214474508983832 0.363843295173311
-0.065042125333602 -0.201649627124116 0.363843295173311
-0.076933957804579 -0.205422576584372 0.363843295173311
-0.0846013632477846 -0.197309124398603 0.363843295173311
-0.084193347941162 -0.187748479619068 0.363843295173311
-0.0917633113071488 -0.187881969487233 0.363843295173311
-0.10553826567514 -0.168607820415022 0.363843295173311
-0.109110465441828 -0.165788021669421 0.363843295173311
-0.116483092210456 -0.162756574099507 0.363843295173311
-0.136544049835294 -0.149203772384175 0.363843295173311
-0.136714284986301 -0.140409991248372 0.363843295173311
-0.148897759563711 -0.137964475626243 0.363843295173311
-0.154333669000326 -0.133965966486848 0.363843295173311
-0.158254949140524 -0.12209511120463 0.363843295173311
-0.168974599254343 -0.111330335992419 0.363843295173311
-0.181725237535556 -0.09890456221374 0.363843295173311
-0.196947638895893 -0.0993188302313508 0.363843295173311
-0.198094834401914 -0.093655295839414 0.363843295173311
-0.213509275782817 -0.0858860788747288 0.363843295173311
-0.224765336942115 -0.0683913097513435 0.363843295173311
-0.226717522479812 -0.0650332751862598 0.363843295173311
-0.239036699767288 -0.0563604471081557 0.363843295173311
-0.24461628052476 -0.0538433255839354 0.363843295173311
-0.251004943305367 -0.0459455935013344 0.363843295173311
-0.264449836000102 -0.0398226628777552 0.363843295173311
-0.279927009592037 -0.0259145396978191 0.363843295173311
-0.291575491330251 -0.0105002929923477 0.363843295173311
-0.292837848426751 -0.00754691282951652 0.363843295173311
-0.301243597986993 0.000852205851199672 0.363843295173311
-0.31221851837872 0.00172683702248682 0.363843295173311
-0.323472122315386 0.01303963330517 0.363843295173311
-0.326639955940149 0.0198955029217892 0.363843295173311
-0.34579445700464 0.0322964824354091 0.363843295173311
-0.351420243697183 0.0454879598112766 0.363843295173311
-0.362951895785744 0.0527000747509641 0.363843295173311
-0.372595618689802 0.0637518358641135 0.363843295173311
-0.380006190753279 0.0640044206395915 0.363843295173311
-0.399179862595468 0.0812912998799312 0.363843295173311
-0.413063022215915 0.0875873952119705 0.363843295173311
-0.422049190517335 0.0994275342512515 0.363843295173311
-0.428587861206534 0.10855160075921 0.363843295173311
-0.443962290243962 0.125800205831192 0.363843295173311
-0.455076851243341 0.129533885119486 0.363843295173311
-0.272882471379978 -0.0430990682444474 0.00847965680490123
-0.272882471379978 -0.0384408443350457 0.0142799531987927
-0.272882471379978 -0.0468127572249783 0.02554864647844
-0.272882471379978 -0.0341206957816921 0.0308700845465695
-0.272882471379978 -0.037651704119616 0.0392138681658998
-0.272882471379978 -0.0444496773468255 0.0518111994866359
-0.272882471379978 -0.0374223390311788 0.065508823328912
-0.272882471379978 -0.0466472276625651 0.0813021199549808
-0.272882471379978 -0.0426104951004811 0.0904862971705142
-0.272882471379978 -0.0429833284644934 0.0957997807798522
-0.0586173336341321 -0.218305977103983 0.362650730801601
-0.068532964466034 -0.216170872753319 0.363843295173311
-0.0770046852050757 -0.211361667895575 0.363843295173311
-0.0896930013394255 -0.20444500427418 0.363843295173311
-0.0883666954550542 -0.20005248441554 0.363843295173311
-0.100611965757968 -0.182210467337244 0.363843295173311
-0.111699103247428 -0.179424115960169 0.363843295173311
-0.126695692680724 -0.166429147399287 0.363843295173311
-0.125045252195797 -0.170624823997981 0.363843295173311
-0.141138118668483 -0.155972205604816 0.363843295173311
-0.15120942029019 -0.14778915927275 0.363843295173311
-0.152030403376531 -0.1459035592013 0.363843295173311
-0.153360443618134 -0.142351029879204 0.363843295173311
-0.167286354389314 -0.128340263318419 0.363843295173311
-0.181945187800422 -0.118289706263095 0.363843295173311
-0.189189350497098 -0.110887570414786 0.363843295173311
-0.197107484853069 -0.101433937155756 0.363843295173311
-0.209693290140056 -0.101164248839465 0.363843295173311
-0.212616936614597 -0.0871020403487683 0.363843295173311
-0.221528809094038 -0.0810465459461186 0.363843295173311
-0.230801851871498 -0.0700725585361284 0.363843295173311
-0.238920681343281 -0.0640760415164762 0.363843295173311
-0.246818822908726 -0.0629148811435784 0.363843295173311
-0.267355813269843 -0.0507470592855995 0.363843295173311
-0.267779277380205 -0.0424969746198546 0.363843295173311
-0.278887129567182 -0.0329213185844644 0.363843295173311
-0.294975026020919 -0.0246091218002518 0.363843295173311
-0.296459062970893 -0.0220258839825529 0.363843295173311
-0.313297585044808 -0.0115628992111667 0.363843295173311
-0.326579507383552 0.004316565501541 0.363843295173311
-0.33847451748273 0.00985079120470934 0.363843295173311
-0.341959256493227 0.0187575462346999 0.363843295173311
-0.350722058046471 0.032692117451346 0.363843295173311
-0.358006670875075 0.0348853860538739 0.363843295173311
-0.381088241160356 0.0466817926210037 0.363843295173311
-0.384125997150372 0.0510351315854966 0.363843295173311
-0.390334224698636 0.061249711917975 0.363843295173311
-0.408609942730194 0.0731254313478462 0.363843295173311
-0.416295428670117 0.083715177042003 0.363843295173311
-0.422161660213841 0.0986097733951907 0.363843295173311
-0.442990486882497 0.110125514678714 0.363843295173311
-0.450924141527384 0.113353083734393 0.363843295173311
-0.452033393827199 0.117840099154598 0.363843295173311
-0.272882471379978 -0.0569489452864981 0.0128486342632718
-0.272882471379978 -0.0554602728024212 0.0207610372954298
-0.272882471379978 -0.0623639734897846 0.0408344485433708
-0.272882471379978 -0.0514626425350682 0.042083646491638
-0.272882471379978 -0.0478094150312678 0.0483768323424706
-0.272882471379978 -0.0514064480030676 0.0681641360462696
-0.272882471379978 -0.0495620076135881 0.0786630507779962
-0.272882471379978 -0.0593366259390747 0.0860661942287921
-0.272882471379978 -0.0542140772508171 0.103604926463516
-0.272882471379978 -0.0550311717665451 0.106965150126989
-0.272882471379978 -0.0535431451351225 0.112548984859758
-0.0792192106491073 -0.216320698139688 0.363843295173311
-0.0786369967237928 -0.213147426030508 0.363843295173311
-0.0886545335155101 -0.208590628383193 0.363843295173311
-0.104001401388282 -0.199001285439962 0.363843295173311
-0.113067886092587 -0.190815226786638 0.363843295173311
-0.116941724169392 -0.193043568655691 0.363843295173311
-0.126289221259542 -0.181747171206327 0.363843295173311
-0.138257982558261 -0.166026351194319 0.363843295173311
-0.144088522831739 -0.161184848181078 0.363843295173311
-0.152482747283648 -0.155889381245995 0.363843295173311
-0.164083606240551 -0.154350704634965 0.363843295173311
-0.166077760703764 -0.142523333386857 0.363843295173311
-0.179851469297682 -0.135564498961528 0.363843295173311
-0.186791719456551 -0.12692881960763 0.363843295173311
-0.194685154553425 -0.120045152913687 0.363843295173311
-0.203925578106614 -0.114425925852323 0.363843295173311
-0.21742988113209 -0.0990908746974555 0.363843295173311
-0.222990676604142 -0.0948116480132044 0.363843295173311
-0.235980703374729 -0.0850975163054753 0.363843295173311
-0.240540938920501 -0.0782239241578851 0.363843295173311
-0.250398802603913 -0.0748873830072598 0.363843295173311
-0.253926044763656 -0.0687469672740259 0.363843295173311
-0.266087939923718 -0.0612832556272669 0.363843295173311
-0.278582962369957 -0.0506545051626933 0.363843295173311
-0.280362725697288 -0.0395932434449896 0.363843295173311
-0.295581280932565 -0.0316529688432432 0.363843295173311
-0.30869818827508 -0.029742062691982 0.363843295173311
-0.31412852631905 -0.0194729681704433 0.363843295173311
-0.330483728619148 -0.00897842247087576 0.363843295173311
-0.34149445173358 0.00786070337959299 0.363843295173311
-0.346135371720444 0.0031083407508794 0.363843295173311
-0.357055753142922 0.0149441121571132 0.363843295173311
-0.378210490319315 0.0378204292878279 0.363843295173311
-0.382156909646992 0.0355588187611599 0.363843295173311
-0.392024834358066 0.0479145648235139 0.363843295173311
-0.401186034894104 0.0522481221940325 0.363843295173311
-0.415414644650835 0.0716404343455836 0.363843295173311
-0.420679265909138 0.0749020616749989 0.363843295173311
-0.430538301513055 0.0815156308516386 0.363843295173311
-0.438161512912415 0.0870357984337189 0.363843295173311
-0.450752647806144 0.105062812084876 0.363843295173311
-0.464044578078172 0.110218682547154 0.363843295173311
-0.272882471379978 -0.0684728435213278 0.00619309770797816
-0.272882471379978 -0.0694506294053347 0.0121720262825951
-0.272882471379978 -0.0681779811422101 0.0299817790513161
-0.272882471379978 -0.0687048159307484 0.0369003599017432
-0.272882471379978 -0.0730428337691535 0.0445901145994246
-0.272882471379978 -0.0624226371187223 0.049117206059743
-0.272882471379978 -0.0667895865414862 0.0649136924856283
-0.272882471379978 -0.066588218075647 0.0665154256534726
-0.272882471379978 -0.0662986187944557 0.0833111048510539
-0.272882471379978 -0.063748431743348 0.0964645228007832
-0.272882471379978 -0.0675762108430286 0.10581123691199
-0.272882471379978 -0.0629596632293287 0.112387103517496
-0.272882471379978 -0.0705159748743217 0.124168792724453
-0.0966648076140472 -0.218305977103983 0.357108273128968
-0.0999421300449089 -0.218305977103983 0.355685828265787
-0.103354527927588 -0.218305977103983 0.358223327260204
-0.109574680872997 -0.209791993231833 0.363843295173311
-0.115715174096833 -0.199092936859382 0.363843295173311
-0.122212905865064 -0.200639713197358 0.363843295173311
-0.139860137397907 -0.181460195461002 0.363843295173311
-0.144360947989282 -0.173607076929701 0.363843295173311
-0.159532926584946 -0.171192988951301 0.363843295173311
-0.16558909060512 -0.160190982496634 0.363843295173311
-0.16084325931845 -0.166145509079497 0.363843295173311
-0.171588092266244 -0.150382370877006 0.363843295173311
-0.193040219708435 -0.138887073952965 0.363843295173311
-0.198247425289831 -0.127845750661709 0.363843295173311
-0.200564631073606 -0.122580050972054 0.363843295173311
-0.206828090575923 -0.126132634053444 0.363843295173311
-0.224355509150382 -0.112208964928396 0.363843295173311
-0.23487040940435 -0.103046236069507 0.363843295173311
-0.241509449783697 -0.0977606224632527 0.363843295173311
-0.254975653451373 -0.0887352885155627 0.363843295173311
-0.260228525289811 -0.0769597207320294 0.363843295173311
-0.263416461738287 -0.0779809955310194 0.363843295173311
-0.277529744035659 -0.0699257765935946 0.363843295173311
-0.289799415594807 -0.0624886824337467 0.363843295173311
-0.297245129855794 -0.0442319019078045 0.363843295173311
-0.30445673790988 -0.0365492206784784 0.363843295173311
-0.32366926619084 -0.0237306091399665 0.363843295173311
-0.334148446587323 -0.0137346534470395 0.363843295173311
-0.330330705561186 -0.0157171211258459 0.363843295173311
-0.348342765417742 -0.0109795250912843 0.363843295173311
-0.36086026555526 0.00394248459944651 0.363843295173311
-0.36425600640625 0.00903344168187015 0.363843295173311
-0.381722531073473 0.0224861189789311 0.363843295173311
-0.379745396041244 0.0253906249044473 0.363843295173311
-0.393836762763452 0.0422613553397769 0.363843295173311
-0.407814015801761 0.0499076227544091 0.363843295173311
-0.425704571687489 0.0585908213070647 0.363843295173311
-0.426026655565027 0.068440541696882 0.363843295173311
-0.442020537912965 0.0753833673404447 0.363843295173311
-0.457018908586192 0.0831921780447154 0.363843295173311
-0.461773383498783 0.0912990224523895 0.363843295173311
-0.272882471379978 -0.0810547531230014 0.0130813625866133
-0.272882471379978 -0.0867821670461073 0.0265463809871317
-0.272882471379978 -0.0887402171029517 0.0430899704152936
-0.272882471379978 -0.0789455073115221 0.0348021096883756
-0.272882471379978 -0.0758116588843277 0.0497995581539911
-0.272882471379978 -0.0860821481012138 0.068934732884872
-0.272882471379978 -0.0827000371451125 0.0697247669870835
-0.272882471379978 -0.0764940430913172 0.081514851484829
-0.272882471379978 -0.0824328394782874 0.0927750011957519
-0.272882471379978 -0.084711286997461 0.10903730995162
-0.272882471379978 -0.0783510883963566 0.115391302080901
-0.272882471379978 -0.0817841342130185 0.123943372125771
-0.272882471379978 -0.0768597642831652 0.134276691477493
-0.272882471379978 -0.0856616451999856 0.155754239182186
-0.272882471379978 -0.0799416430486109 0.153483519132978
-0.107731959970841 -0.216698022128157 0.363843295173311
-0.110911525761598 -0.21823283167831 0.363843295173311
-0.125357708218462 -0.208514611560384 0.363843295173311
-0.134055591601814 -0.202424717976864 0.363843295173311
-0.139400484150481 -0.196763391908578 0.363843295173311
-0.14322736966745 -0.191441509611511 0.363843295173311
-0.159774787790607 -0.176803303346361 0.363843295173311
-0.172076942370875 -0.172459126632364 0.363843295173311
-0.177975135784822 -0.164351767393458 0.363843295173311
-0.175044917464307 -0.163653922826714 0.363843295173311
-0.184443943602702 -0.151671559903011 0.363843295173311
-0.199819062939221 -0.141233151744054 0.363843295173311
-0.213758155710292 -0.136112906671484 0.363843295173311
-0.219760170157907 -0.125801201478664 0.363843295173311
-0.231599349546468 -0.122223302813035 0.363843295173311
-0.239928876189106 -0.111896290753247 0.363843295173311
-0.244038325061674 -0.0999899895793219 0.363843295173311
-0.259071880498094 -0.0999430332326253 0.363843295173311
-0.265003849831079 -0.085212938413304 0.363843295173311
-0.279373429783191 -0.0799204867315791 0.363843295173311
-0.284040210520445 -0.0726355143291592 0.363843295173311
-0.299049944782479 -0.0643991602987463 0.363843295173311
-0.306734874093244 -0.0550352455196935 0.363843295173311
-0.307597542559185 -0.054787495534525 0.363843295173311
-0.314891504559314 -0.042493950695545 0.363843295173311
-0.335121557304042 -0.0213755667768892 0.363843295173311
-0.337219730515785 -0.0265073192821873 0.363843295173311
-0.350329421007868 -0.0163939113133937 0.363843295173311
-0.364840333262849 0.00388732499482809 0.363843295173311
-0.374451794138002 0.00685132599015584 0.363843295173311
-0.381888810616602 0.0202676890363925 0.363843295173311
-0.394574272448941 0.0211149781184463 0.363843295173311
-0.401522285796002 0.0325599686512239 0.363843295173311
-0.419102082104857 0.0392476276595665 0.363843295173311
-0.425959437527667 0.0478334451710041 0.363843295173311
-0.432239019900919 0.0516580979939525 0.363843295173311
-0.444987340044565 0.065609691489463 0.363843295173311
-0.458897954019026 0.0795829279145582 0.363843295173311
-0.477402069097223 0.0908910465264196 0.363843295173311
-0.272882471379978 -0.100404475632414 0.00997898503054705
-0.272882471379978 -0.102862245399071 0.0152709370441598
-0.272882471379978 -0.0929000953932054 0.0206579327519179
-0.272882471379978 -0.095484137801661 0.0291351738383492
-0.272882471379978 -0.0934042102156543 0.0407317540402041
-0.272882471379978 -0.0998525515684049 0.0546769954931316
-0.272882471379978 -0.0973241408424011 0.062480530805932
-0.272882471379978 -0.0928314224161962 0.0674696441763333
-0.272882471379978 -0.0887267029074507 0.0775239990116671
-0.272882471379978 -0.0953841414690942 0.0893351564154942
-0.272882471379978 -0.0958166064530847 0.100557487519953
-0.272882471379978 -0.0966822997348154 0.119834836378866
-0.272882471379978 -0.0971286371306837 0.127774122909591
-0.272882471379978 -0.0923660534811296 0.130331073594392
-0.272882471379978 -0.0924354509908402 0.141066957636092
-0.272882471379978 -0.094652474995795 0.162347971589957
-0.272882471379978 -0.0891260198951374 0.164457576351793
-0.272882471379978 -0.093596867116596 0.171944173734642
-0.128606483884897 -0.218305977103983 0.36213386419505
-0.129091435139112 -0.213119903477395 0.363843295173311
-0.134626897333575 -0.208965077761557 0.363843295173311
-0.146962753583876 -0.202874901765924 0.363843295173311
-0.160950605042935 -0.193143155472327 0.363843295173311
-0.170226056408101 -0.184947513761104 0.363843295173311
-0.177849241145449 -0.182722410020758 0.363843295173311
-0.180214240592874 -0.174228769751544 0.363843295173311
-0.188199661067875 -0.172978104540014 0.363843295173311
-0.194904791965809 -0.154006380653393 0.363843295173311
-0.214366326280856 -0.149245959522523 0.363843295173311
-0.219485708884271 -0.138725540404294 0.363843295173311
-0.22295891460144 -0.136429272801512 0.363843295173311
-0.242274171341709 -0.123045323969312 0.363843295173311
-0.236649381140357 -0.127351476202876 0.363843295173311
-0.251848395623626 -0.113488015889109 0.363843295173311
-0.258815232333938 -0.107126521978176 0.363843295173311
-0.277795848559767 -0.0936965955206768 0.363843295173311
-0.284062442257952 -0.0869334184274045 0.363843295173311
-0.289950079518823 -0.0821714922347721 0.363843295173311
-0.300744457577164 -0.0746957741354315 0.363843295173311
-0.307429057746202 -0.0638307587609341 0.363843295173311
-0.322404456789103 -0.059585039448753 0.363843295173311
-0.324429057883159 -0.0519251193215586 0.363843295173311
-0.34648841429009 -0.0346232523621988 0.363843295173311
-0.355717279662558 -0.030831497445931 0.363843295173311
-0.360657983082734 -0.0142887224606015 0.363843295173311
-0.369924614636538 -0.0110469215719387 0.363843295173311
-0.388534734634042 0.00103835764964503 0.363843295173311
-0.394790330437144 0.00753071065311072 0.363843295173311
-0.400227431729631 0.0127688557586687 0.363843295173311
-0.407761686959428 0.0149871425409874 0.363843295173311
-0.431041665460691 0.033071815282737 0.363843295173311
-0.436817946496246 0.0456500990773741 0.363843295173311
-0.441488850061777 0.0413902561814438 0.363843295173311
-0.45148012680136 0.0587699521747688 0.363843295173311
-0.461137241099687 0.0645511320426393 0.363843295173311
-0.272882471379978 -0.108490945807608 0.000446082104749476
-0.272882471379978 -0.114654687917449 0.0122004954751073
-0.272882471379978 -0.108971463370682 0.028829689733805
-0.272882471379978 -0.101893239597557 0.0227291930824809
-0.272882471379978 -0.109106311827434 0.0294444118119156
-0.272882471379978 -0.106862959615003 0.0441825450636614
-0.272882471379978 -0.111325857981466 0.0559348154015945
-0.272882471379978 -0.106796369869027 0.0747916674313924
-0.272882471379978 -0.116488105582188 0.0860191457251939
-0.272882471379978 -0.11192311897945 0.0974915820656298
-0.272882471379978 -0.107944650017912 0.103350307052392
-0.272882471379978 -0.106278803524716 0.114664497106187
-0.272882471379978 -0.103392072555698 0.11576580833003
-0.272882471379978 -0.112232145070671 0.134633703946142
-0.272882471379978 -0.115718295205003 0.146631358014026
-0.272882471379978 -0.108612979602236 0.151780372360775
-0.272882471379978 -0.110839354721888 0.163192313258271
-0.272882471379978 -0.114931780679247 0.178466662591084
-0.272882471379978 -0.113949926278088 0.191403018418595
-0.272882471379978 -0.110551296350405 0.191818265038874
-0.272882471379978 -0.111059338869379 0.199975876120023
-0.147055675838218 -0.213127139456235 0.363843295173311
-0.160574556113549 -0.205843585245759 0.363843295173311
-0.164712208175587 -0.193518532604801 0.363843295173311
-0.173874154013432 -0.189824762373083 0.363843295173311
-0.177716262567511 -0.181871645742914 0.363843295173311
-0.189322085286625 -0.179714069220644 0.363843295173311
-0.192700622768061 -0.179678031380063 0.363843295173311
-0.206691798547216 -0.162059676565035 0.363843295173311
-0.216921794432038 -0.158283599146662 0.363843295173311
-0.22297131870125 -0.145580025815354 0.363843295173311
-0.227574343788644 -0.145409826652701 0.363843295173311
-0.243667189458242 -0.13741688385772 0.363843295173311
-0.253712159684219 -0.127017602846644 0.363843295173311
-0.265305207736127 -0.114507866704748 0.363843295173311
-0.269142234336466 -0.110996874490224 0.363843295173311
-0.278167756364389 -0.104154221966776 0.363843295173311
-0.285835389849597 -0.099065372245475 0.363843295173311
-0.290080229629611 -0.089732630077521 0.363843295173311
-0.302233168482521 -0.0785264389272078 0.363843295173311
-0.315795344610791 -0.0710391365208988 0.363843295173311
-0.32351179913235 -0.0669200775995378 0.363843295173311
-0.339898359396369 -0.0496799071242953 0.363843295173311
-0.347831378823555 -0.0418722295082094 0.363843295173311
-0.357073129727908 -0.0309316460242504 0.363843295173311
-0.367997350279292 -0.0343555553984664 0.363843295173311
-0.379063868843795 -0.0111079606109347 0.363843295173311
-0.392806425456611 -0.011926575421618 0.363843295173311
-0.404898235849986 0.00115052413833951 0.363843295173311
-0.415133402341087 0.0116841340189086 0.363843295173311
-0.422150648500472 0.0196874037294884 0.363843295173311
-0.427353050388072 0.0249510943747837 0.363843295173311
-0.448463431200918 0.0423816669567879 0.363843295173311
-0.457197685760072 0.039795412102821 0.363843295173311
-0.466421345356093 0.0543969824443292 0.363843295173311
-0.47347707319092 0.061900050517381 0.363843295173311
-0.272882471379978 -0.129174785134779 0.0117056476919276
-0.272882471379978 -0.125580800971358 0.0107615821141335
-0.272882471379978 -0.122130809270087 0.0372127177280236
-0.272882471379978 -0.120779532403157 0.0367906330664064
-0.272882471379978 -0.125975550921347 0.0454686918086465
-0.272882471379978 -0.123017463634583 0.056089416066245
-0.272882471379978 -0.121212334299143 0.0672875207485908
-0.272882471379978 -0.12817944916256 0.0898367113932381
-0.272882471379978 -0.122945087246402 0.085034379796227
-0.272882471379978 -0.116284133419662 0.0944066814414355
-0.272882471379978 -0.128259238497012 0.120030674109838
-0.272882471379978 -0.120901084990439 0.121572524889198
-0.272882471379978 -0.119766752153576 0.133473205057256
-0.272882471379978 -0.123195177665701 0.136937840708904
-0.272882471379978 -0.121070894639428 0.161393069011272
-0.272882471379978 -0.12083518263286 0.158872467201348
-0.272882471379978 -0.119616686795758 0.169928235502069
-0.272882471379978 -0.11656740100725 0.179213217375371
-0.272882471379978 -0.116806309682376 0.190758525082361
-0.272882471379978 -0.119251207151941 0.209015136144986
-0.272882471379978 -0.124490967611996 0.210269514783542
-0.156655658641215 -0.218305977103983 0.355461226524403
-0.159310220719682 -0.214514147480577 0.363843295173311
-0.174095643503383 -0.210206252410714 0.363843295173311
-0.182406996569558 -0.197160451483962 0.363843295173311
-0.18706288722158 -0.190818031133005 0.363843295173311
-0.192075220647477 -0.187283364162391 0.363843295173311
-0.204748122482164 -0.180576523144535 0.363843295173311
-0.214681986570423 -0.175423759135521 0.363843295173311
-0.227786115251488 -0.16497709601531 0.363843295173311
-0.241173930784926 -0.151504598076717 0.363843295173311
-0.240896224128447 -0.155775004622383 0.363843295173311
-0.244306846683565 -0.141531696308812 0.363843295173311
-0.258813025871473 -0.138070665385126 0.363843295173311
-0.262617461338601 -0.127219867093304 0.363843295173311
-0.274754351907753 -0.112658803556965 0.363843295173311
-0.287915335975769 -0.10863048396434 0.363843295173311
-0.305335804133061 -0.0982529161011131 0.363843295173311
-0.302480936108196 -0.0983833529047273 0.363843295173311
-0.314939802436585 -0.0865362486556343 0.363843295173311
-0.334399618554397 -0.0773277740098401 0.363843295173311
-0.328663487854315 -0.0724790417938973 0.363843295173311
-0.346024129028936 -0.0607563779356518 0.363843295173311
-0.354791470975856 -0.052252320779568 0.363843295173311
-0.375175966454315 -0.0400632096954573 0.363843295173311
-0.372608213357977 -0.031928949485228 0.363843295173311
-0.386448130989841 -0.0255396910319708 0.363843295173311
-0.401651395898079 -0.0122960613508549 0.363843295173311
-0.411388712255105 -0.00959305095577897 0.363843295173311
-0.420168308431162 -0.00443677054995755 0.363843295173311
-0.428689298639022 0.00282998696075411 0.363843295173311
-0.446757525183238 0.0245322633476294 0.363843295173311
-0.443863441305877 0.0209505105126663 0.363843295173311
-0.454391894550421 0.0295998472499975 0.363843295173311
-0.480338730540188 0.0506943663146135 0.363843295173311
-0.483511563407836 0.0488325733756626 0.363843295173311
-0.272882471379978 -0.129748937405006 0.000968815639654673
-0.272882471379978 -0.142247484183109 0.0201553453952515
-0.272882471379978 -0.136756099206785 0.0212641799708329
-0.272882471379978 -0.140496523921254 0.0432260762800712
-0.272882471379978 -0.13399648781989 0.0367095012449223
-0.272882471379978 -0.133138167603554 0.054235095894061
-0.272882471379978 -0.136603316438825 0.0656594893946976
-0.272882471379978 -0.133226957129415 0.0754170076753724
-0.272882471379978 -0.139826470920366 0.093761360539132
-0.272882471379978 -0.143971422622417 0.109566128631434
-0.272882471379978 -0.143466045104765 0.11229013117513
-0.272882471379978 -0.135281120135297 0.124849219447705
-0.272882471379978 -0.138396232187073 0.133991239356643
-0.272882471379978 -0.133629636406317 0.138429345811216
-0.272882471379978 -0.129577648727231 0.145296667270787
-0.272882471379978 -0.126533261764257 0.151626500008566
-0.272882471379978 -0.135555759616388 0.171632881305756
-0.272882471379978 -0.134995508328932 0.178729574573187
-0.272882471379978 -0.12930512486944 0.188858946723633
-0.272882471379978 -0.141474170208357 0.202957210692804
-0.272882471379978 -0.134948456605076 0.207969846458725
-0.272882471379978 -0.138800090716122 0.222531249536499
-0.272882471379978 -0.13814593879032 0.23055606973757
-0.174771331804032 -0.218305977103983 0.353192873183587
-0.183890299705906 -0.213897155724855 0.363843295173311
-0.184243828091121 -0.211107626735379 0.363843295173311
-0.199759854598194 -0.199241490626673 0.363843295173311
-0.202695075206186 -0.195839343602089 0.363843295173311
-0.210161952447889 -0.189654199003306 0.363843295173311
-0.22733282233154 -0.176933467754433 0.363843295173311
-0.229940422804425 -0.167102291601125 0.363843295173311
-0.236644159501278 -0.167147731299348 0.363843295173311
-0.251248776188931 -0.150922611202414 0.363843295173311
-0.260336480437369 -0.146015501335889 0.363843295173311
-0.263718333175218 -0.145610681905353 0.363843295173311
-0.275461762161426 -0.13614071424572 0.363843295173311
-0.291429339859713 -0.121330833016204 0.363843295173311
-0.297665665336462 -0.10939485810646 0.363843295173311
-0.304478060618579 -0.108441059182774 0.363843295173311
-0.312629249619259 -0.102566803888226 0.363843295173311
-0.331126604843399 -0.0903888888232869 0.363843295173311
-0.330511670891318 -0.0893319929867971 0.363843295173311
-0.341588438952889 -0.0811100643304681 0.363843295173311
-0.354196124424057 -0.0680169822788794 0.363843295173311
-0.362337032951253 -0.064143435600834 0.363843295173311
-0.383116290996817 -0.0477049240209862 0.363843295173311
-0.387479117669985 -0.0423335034537709 0.363843295173311
-0.395569178701252 -0.0323896441538328 0.363843295173311
-0.408475221532763 -0.0217545948491926 0.363843295173311
-0.415547105030246 -0.0253976793271798 0.363843295173311
-0.420290826222508 -0.0123845356748503 0.363843295173311
-0.435798598919651 0.00104949876513132 0.363843295173311
-0.446815613574797 0.00820583705698621 0.363843295173311
-0.461004663150841 0.0202022874346332 0.363843295173311
-0.468905207502019 0.024173602858714 0.363843295173311
-0.478608164575927 0.0360948485833317 0.363843295173311
-0.4918175116228 0.0395347073556105 0.363843295173311
-0.272882471379978 -0.155933758564625 0.0111250016601868
-0.272882471379978 -0.153362336157538 0.0217387243631057
-0.272882471379978 -0.155476347873736 0.0339102482736503
-0.272882471379978 -0.142989954580247 0.0349576000285283
-0.272882471379978 -0.154043621549574 0.0499104494373642
-0.272882471379978 -0.150092422261297 0.0523459583108454
-0.272882471379978 -0.150637100983477 0.0671762501108031
-0.272882471379978 -0.146760862596649 0.0697390865076763
-0.272882471379978 -0.154182504924083 0.0842871155818703
-0.272882471379978 -0.149987275902364 0.0977603680727661
-0.272882471379978 -0.1503359550896 0.11209432770352
-0.272882471379978 -0.14862326082406 0.111424645040575
-0.272882471379978 -0.148780514516078 0.131761861038771
-0.272882471379978 -0.149151962558749 0.136484514164421
-0.272882471379978 -0.14619835318233 0.142137168446203
-0.272882471379978 -0.149893848596506 0.154049024773696
-0.272882471379978 -0.155490041723709 0.17168817373808
-0.272882471379978 -0.147615180140573 0.17507490779327
-0.272882471379978 -0.146799816914654 0.182067065654703
-0.272882471379978 -0.146282228569703 0.207882475386731
-0.272882471379978 -0.152591085168072 0.213128351196632
-0.272882471379978 -0.146675609810906 0.220704168646343
-0.272882471379978 -0.143462626071231 0.230150596276787
-0.272882471379978 -0.146368214740786 0.239170700427454
-0.272882471379978 -0.154659703810211 0.257237886706133
-0.190542960595231 -0.218305977103983 0.356146201346367
-0.194110529204494 -0.217044796905357 0.363843295173311
-0.203302669729479 -0.207970908547382 0.363843295173311
-0.208189069349489 -0.198773285518741 0.363843295173311
-0.219022736792955 -0.190910378213739 0.363843295173311
-0.235241439039379 -0.181670209549769 0.363843295173311
-0.235114116727523 -0.172838299948291 0.363843295173311
-0.24355834487043 -0.176313047979572 0.363843295173311
-0.252590474977734 -0.161058007220346 0.363843295173311
-0.266063364993376 -0.155879912946766 0.363843295173311
-0.268705849333608 -0.14838629771972 0.363843295173311
-0.292359049817866 -0.133647920262249 0.363843295173311
-0.289447753660469 -0.133846009358396 0.363843295173311
-0.303424203332912 -0.121686541790743 0.363843295173311
-0.31901772436461 -0.111881940724313 0.363843295173311
-0.317442999892233 -0.113342235361719 0.363843295173311
-0.333194272957043 -0.0958624106998709 0.363843295173311
-0.339341369944958 -0.0917524974058512 0.363843295173311
-0.341997341700358 -0.0938135301015538 0.363843295173311
-0.363053348082412 -0.0730657064214125 0.363843295173311
-0.373805595279891 -0.0603389423761138 0.363843295173311
-0.384585472038693 -0.056212072386673 0.363843295173311
-0.390633131260848 -0.0581263387510736 0.363843295173311
-0.403550630042838 -0.041395357532109 0.363843295173311
-0.412982452926644 -0.0400917223634068 0.363843295173311
-0.42435119483903 -0.0167196096976819 0.363843295173311
-0.437264042547373 -0.0139235975744336 0.363843295173311
-0.4492230066351 -0.00835279611311705 0.363843295173311
-0.454654574855506 0.000291938966943076 0.363843295173311
-0.462325570324974 0.00737290280163797 0.363843295173311
-0.473882270223422 0.0101338096058023 0.363843295173311
-0.483892753720212 0.028362767394616 0.363843295173311
-0.495024772018552 0.0423912748668402 0.363843295173311
-0.272882471379978 -0.162503685296473 0.00166319312235004
-0.272882471379978 -0.16250496305273 0.00690533022109387
-0.272882471379978 -0.160462696692927 0.00634196522259336
-0.272882471379978 -0.154794727657331 0.0183063864985857
-0.272882471379978 -0.162569786860459 0.0359977660560301
-0.272882471379978 -0.162047966891317 0.0407080412162419
-0.272882471379978 -0.159958408014372 0.0522355633543386
-0.273529463869995 -0.16330397060246 0.0598749791021201
-0.275528695504628 -0.16330397060246 0.0736610903561559
-0.273938078477496 -0.16330397060246 0.0874152534315857
-0.272882471379978 -0.158273458864261 0.0989412317996772
-0.27886137763159 -0.16330397060246 0.0995683660746957
-0.27630782363011 -0.16330397060246 0.116376547124979
-0.273793786422098 -0.16330397060246 0.122197430276603
-0.274192671653373 -0.16330397060246 0.139976110313555
-0.273527717202897 -0.16330397060246 0.139688392720485
-0.272882471379978 -0.157866716567147 0.151857685312565
-0.272882471379978 -0.158305381611401 0.165827430655174
-0.274161982971178 -0.16330397060246 0.177861338268512
-0.276549741961771 -0.16330397060246 0.184971253810172
-0.274309945220374 -0.16330397060246 0.191276899964672
-0.272882471379978 -0.15650319436175 0.202672378618738
-0.272882471379978 -0.159692106568805 0.218089198028266
-0.272882471379978 -0.157579782533705 0.23342401855349
-0.272882471379978 -0.160177536544633 0.236129912528689
-0.272882471379978 -0.163034586909351 0.246684253807019
-0.272882471379978 -0.16306111335024 0.253990062593802
