ply
format ascii 1.0
element vertex 863
property float x
property float y
property float z
end_header
0.191595763365817 0.020653598101815 0.759310344827759
0.168475840027526 0.0159674959504686 0.759310344827759
0.160625272378527 0.017150100434969 0.759310344827759
0.155297874126254 0.014810340895423 0.759310344827759
0.141628395057538 0.0205322698618269 0.759310344827759
0.133455370471861 0.0177084068713714 0.759310344827759
0.125244375055061 0.0240632549506871 0.759310344827759
0.106234676457863 0.0207851985223724 0.759310344827759
0.088124752593564 0.0157600580771028 0.759310344827759
0.0708349933150971 0.0203818109070838 0.759310344827759
0.0577020209516556 0.0196238968546516 0.759310344827759
0.0585539684123759 0.0244661475971184 0.759310344827759
0.035094823819218 0.0172352419864273 0.759310344827759
0.0282479188202518 0.0247457134321169 0.759310344827759
0.0163354974893462 0.0210861834308957 0.759310344827759
-0.00277851762919682 0.0248308154363648 0.759310344827759
-0.0190866961740937 0.0214551150301726 0.759310344827759
-0.0330952344010344 0.0245600607348477 0.759310344827759
-0.0325672197686269 0.0200140207759855 0.759310344827759
-0.0526586226704386 0.0214567748337862 0.759310344827759
-0.0775245318624707 0.0169741280742556 0.759310344827759
-0.088997573346604 0.0176942872971185 0.759310344827759
-0.0946653780417351 0.0199663276802318 0.759310344827759
-0.120513098844494 0.0225318481909335 0.759310344827759
-0.12393250308947 0.0236417431638096 0.759310344827759
-0.140183607800777 0.0172635457489381 0.759310344827759
-0.164106156285718 0.0229139082049051 0.759310344827759
-0.168866929401773 0.0211493216888302 0.759310344827759
-0.181865125733813 0.0229624753701057 0.759310344827759
-0.197350202088937 0.0261252642467345 0.759310344827759
-0.215246989410891 0.0240033143514621 0.759310344827759
-0.231791972362923 0.0223235656321406 0.759310344827759
-0.251165777457825 0.0215578265496229 0.759310344827759
-0.261750543638533 0.0224715430704923 0.759310344827759
-0.282828458799048 0.0211780861635809 0.759310344827759
-0.293066087961379 0.0205313914303891 0.759310344827759
-0.320523328239746 0.025260456588591 0.759310344827759
-0.325461479631304 0.0215468611895066 0.759310344827759
-0.343513520619801 0.0226780201721063 0.759310344827759
-0.364702683407591 0.0272878094659385 0.759310344827759
-0.382988800796308 0.0237082780880984 0.759310344827759
-0.384504606031663 0.0197743317478662 0.759310344827759
-0.407711475345957 0.0186873032322991 0.759310344827759
-0.429019541840164 0.0239057342104424 0.759310344827759
-0.444523797127046 0.0217658688743459 0.759310344827759
-0.475260455259722 0.01730698026386 0.759310344827759
-0.489256093399886 0.0255584672375787 0.759310344827759
-0.496479483388785 0.0186815052080553 0.759310344827759
0.45912926285358 0.0230237700610921 0.661163978429666
0.459129262853579 0.029536576123407 0.677228674802426
0.45912926285358 0.0268290804039409 0.68004300377452
0.45912926285358 0.0222914072976337 0.683368125410799
0.5 0.0243429043907787 0.729424972371865
0.5 0.0255463951326831 0.746477606700602
0.5 0.0249183023405866 0.748429530105526
0.5 0.0233735309463541 0.75629067392749
0.487827306729764 0.0244267706118201 0.759310344827759
0.485448615532159 0.0235474428054433 0.759310344827759
0.480396082729615 0.0265487567316107 0.759310344827759
0.459142843608552 0.0217836912153056 0.759310344827759
0.451717543481783 0.028429273415784 0.759310344827759
0.445918024044621 0.0258223100534392 0.759310344827759
0.434874974247673 0.027486629972904 0.759310344827759
0.422258684375835 0.0230216126470813 0.759310344827759
0.415741451294816 0.026766084252082 0.759310344827759
0.405126175222198 0.0272906633173566 0.759310344827759
0.393534041867303 0.0228405386853352 0.759310344827759
0.38202387444648 0.0298841970112027 0.759310344827759
0.368155708138991 0.0234524784138152 0.759310344827759
0.360209368897547 0.0291939123644947 0.759310344827759
0.353512871675794 0.030054673291246 0.759310344827759
0.342904195665261 0.025428261851527 0.759310344827759
0.327820791638028 0.0262795469502194 0.759310344827759
0.318798353274684 0.0264966185219686 0.759310344827759
0.3187168560819 0.0229433626173593 0.759310344827759
0.299905767400835 0.0260442179357329 0.759310344827759
0.289974740886109 0.0225186018299181 0.759310344827759
0.280262167029525 0.0277071974986964 0.759310344827759
0.268469148217013 0.0292432714629969 0.759310344827759
0.261988119737621 0.0288028541293413 0.759310344827759
0.239248191719119 0.0248930927300063 0.759310344827759
0.233603299580308 0.0235574307412811 0.759310344827759
0.220548227869231 0.0308248843949399 0.759310344827759
0.216877771424051 0.0283169045488373 0.759310344827759
0.191318480022606 0.0295848178792633 0.759310344827759
0.189256099336317 0.0239862689419411 0.759310344827759
0.176394674260594 0.0260818328467265 0.759310344827759
0.160468042452434 0.0326114353533492 0.759310344827759
0.153589889837111 0.0308802408891263 0.759310344827759
0.140067399134511 0.024504986389564 0.759310344827759
0.125614685172418 0.029972661348423 0.759310344827759
0.119246606753727 0.0320048160852617 0.759310344827759
0.104595889097779 0.0303117497567174 0.759310344827759
0.0900118614807593 0.024704062739222 0.759310344827759
0.0723459639361678 0.0288874052408451 0.759310344827759
0.0681126894388226 0.0315502835966062 0.759310344827759
0.0486982375318978 0.0298971350247202 0.759310344827759
0.0390624649708443 0.0290163412632574 0.759310344827759
0.0289412529737687 0.0345268893571148 0.759310344827759
0.0147561419159039 0.0337858440151198 0.759310344827759
-0.000404811428499539 0.0344960989172242 0.759310344827759
-0.0109281495938533 0.0320852545121889 0.759310344827759
-0.0288927837871218 0.0257488786008181 0.759310344827759
-0.034316870524063 0.0311857051241035 0.759310344827759
-0.0472159806313301 0.0308536412145328 0.759310344827759
-0.0746758607603011 0.0306925387541334 0.759310344827759
-0.0853169395657685 0.0268467185124947 0.759310344827759
-0.0977741568987619 0.036005999348552 0.759310344827759
-0.11263759131535 0.0303708697016672 0.759310344827759
-0.121310782110713 0.03517212548556 0.759310344827759
-0.152736672357147 0.0300183346195188 0.759310344827759
-0.146722600778898 0.0329357042086766 0.759310344827759
-0.172227913291462 0.0357887096531393 0.759310344827759
-0.18269175437374 0.0293401040330729 0.759310344827759
-0.202868393085293 0.0305907807301301 0.759310344827759
-0.213055470924717 0.0371168916309461 0.759310344827759
-0.230455819234533 0.0357968768198242 0.759310344827759
-0.256409230426843 0.0279644131696245 0.759310344827759
-0.257270448202961 0.0355533736804231 0.759310344827759
-0.289493099609063 0.0353865714872224 0.759310344827759
-0.295773188788456 0.0280725357339274 0.759310344827759
-0.30254907372278 0.0276892719102743 0.759310344827759
-0.325590719622943 0.0338726313477284 0.759310344827759
-0.345884692263555 0.0345234624635058 0.759310344827759
-0.358805927916155 0.0337039759512202 0.759310344827759
-0.381340325195144 0.0393127631533749 0.759310344827759
-0.390725725449442 0.0283744461337948 0.759310344827759
-0.413363405023816 0.0338826523723718 0.759310344827759
-0.416259103731838 0.0307691043055586 0.759310344827759
-0.451245622226695 0.037340607022489 0.759310344827759
-0.463822482980085 0.0363777313272503 0.759310344827759
-0.482996576704871 0.0341482422436471 0.759310344827759
0.45912926285358 0.0327630571904208 0.661713666174853
0.45912926285358 0.0324621039882461 0.670566816498253
0.45912926285358 0.032034371953922 0.676075505367834
0.5 0.0371640676774971 0.725243306452517
0.5 0.0324285943121361 0.73415318772652
0.5 0.0334624713429656 0.742415408372982
0.5 0.0326783013000892 0.74636130625442
0.5 0.0300055329002355 0.757311175522838
0.490665310663368 0.0341921442023996 0.759310344827759
0.487893449833989 0.0300843349205102 0.759310344827759
0.479223911637776 0.0306914694857035 0.759310344827759
0.461271882553956 0.0338155629839559 0.759310344827759
0.448698732026127 0.0354613482514905 0.759310344827759
0.443999339228615 0.0347925730655098 0.759310344827759
0.438687893480428 0.0313018332648968 0.759310344827759
0.425998120537434 0.0379029467865278 0.759310344827759
0.414245044808749 0.0344378210120256 0.759310344827759
0.399490939288185 0.0349321976137225 0.759310344827759
0.397341589289263 0.0313134187417904 0.759310344827759
0.389704390610331 0.0390715567092028 0.759310344827759
0.368604217417075 0.0343960979221362 0.759310344827759
0.363352808180267 0.0320126433881388 0.759310344827759
0.353451457816121 0.0392526891381703 0.759310344827759
0.345017237415462 0.0352328543384942 0.759310344827759
0.328766302784738 0.0362602307954761 0.759310344827759
0.319367547175676 0.0342815905857439 0.759310344827759
0.314329232727269 0.0395190174223099 0.759310344827759
0.294788833166023 0.0403834122169752 0.759310344827759
0.28534349424203 0.0331680852025586 0.759310344827759
0.282548050862832 0.0380857979374561 0.759310344827759
0.27309561362008 0.0335263774496447 0.759310344827759
0.260165382985966 0.0377945962340145 0.759310344827759
0.246658107835265 0.0357359499288728 0.759310344827759
0.236601625359273 0.041419353025093 0.759310344827759
0.219417902514208 0.0345155750308406 0.759310344827759
0.213215076054447 0.0387282842121633 0.759310344827759
0.195422516720041 0.0399805748447847 0.759310344827759
0.185458464858009 0.0374054466103584 0.759310344827759
0.174139277057799 0.0415271571482834 0.759310344827759
0.157127692522715 0.0345944625194733 0.759310344827759
0.146304491893483 0.0395625975239547 0.759310344827759
0.139369227555655 0.0355077811281534 0.759310344827759
0.130525358178957 0.0346501129512922 0.759310344827759
0.117656703595599 0.0404480538866763 0.759310344827759
0.106419661347671 0.0339227900660654 0.759310344827759
0.0855469504217798 0.0370643862724836 0.759310344827759
0.0850718434857972 0.0368563419741181 0.759310344827759
0.0642480401005492 0.0376676714337922 0.759310344827759
0.0551661903696026 0.0392977854692114 0.759310344827759
0.0373669876345401 0.0422302745400932 0.759310344827759
0.0330211442272645 0.0424295672761841 0.759310344827759
0.0181605596382447 0.0357136460082612 0.759310344827759
0.0053594964396657 0.0447086846670698 0.759310344827759
-0.00806773626596752 0.0362572358157926 0.759310344827759
-0.0304963230356568 0.041179191779839 0.759310344827759
-0.0382120427904708 0.0431664310518271 0.759310344827759
-0.0579682578360047 0.0417273512023292 0.759310344827759
-0.0770451123993452 0.0416530166844391 0.759310344827759
-0.0897625569661451 0.0391122722448228 0.759310344827759
-0.107679134862979 0.0440422366348667 0.759310344827759
-0.108641975338074 0.0401427695553409 0.759310344827759
-0.127445737932043 0.0431796731354865 0.759310344827759
-0.144241991507542 0.0390799219071708 0.759310344827759
-0.154873224757987 0.0444535211247627 0.759310344827759
-0.173158683783219 0.0372737831094932 0.759310344827759
-0.189744538005332 0.0439087905206195 0.759310344827759
-0.208096320933084 0.0467853162974492 0.759310344827759
-0.217563295613902 0.0397688667571537 0.759310344827759
-0.234355975546483 0.0443351972761974 0.759310344827759
-0.245588569856797 0.0476760054693021 0.759310344827759
-0.260441301970594 0.0431048933508601 0.759310344827759
-0.272392108325442 0.0385797258055472 0.759310344827759
-0.297713627564961 0.0385496853597725 0.759310344827759
-0.315019263034638 0.041888600368878 0.759310344827759
-0.3222333539878 0.039962495827529 0.759310344827759
-0.332413557393268 0.0440499624512 0.759310344827759
-0.359442065924575 0.0492728787214168 0.759310344827759
-0.38454526223056 0.0442073804732493 0.759310344827759
-0.382718075160482 0.0504926850781763 0.759310344827759
-0.412622470419551 0.0456694858252001 0.759310344827759
-0.431794630318433 0.0501506160260734 0.759310344827759
-0.442723526481259 0.0496720696458155 0.759310344827759
-0.478738752194472 0.0521278151388813 0.759310344827759
-0.481928515843884 0.048189571575115 0.759310344827759
-0.49540773164606 0.0480534378699763 0.759310344827759
0.45912926285358 0.0404941284141901 0.656283874619477
0.45912926285358 0.0397110900368607 0.661897350863287
0.45912926285358 0.0451626252127974 0.669205955279592
0.45912926285358 0.0396849482877258 0.6786044552652
0.5 0.040584736590763 0.728485372552816
0.5 0.0433535632346717 0.73481261207904
0.5 0.0443082431971368 0.741314632640249
0.5 0.0442494179179301 0.74889935949068
0.5 0.0389585587767651 0.757139817282553
0.491268450988506 0.0402022105126266 0.759310344827759
0.484790014564455 0.0434903363411846 0.759310344827759
0.469894097096781 0.042695361637224 0.759310344827759
0.463481876171835 0.0463826425572509 0.759310344827759
0.458512437036376 0.0423233810413943 0.759310344827759
0.445304750434522 0.0468720871416388 0.759310344827759
0.430938985231187 0.041774614672811 0.759310344827759
0.431143298028504 0.0388644882448753 0.759310344827759
0.408184536327598 0.0415492796840505 0.759310344827759
0.404395766337579 0.0394407310960676 0.759310344827759
0.391443171218327 0.0431840288555912 0.759310344827759
0.379996880429559 0.0456950722866824 0.759310344827759
0.369652971499385 0.0402205864322158 0.759310344827759
0.361856750658403 0.0455563604165187 0.759310344827759
0.353662608050824 0.046567346087015 0.759310344827759
0.346083607746186 0.0461957089293937 0.759310344827759
0.333739143822969 0.0477324086034337 0.759310344827759
0.321860277571662 0.0476408329662764 0.759310344827759
0.31380457493922 0.0453186621735682 0.759310344827759
0.300750624071458 0.0479973837825184 0.759310344827759
0.288629635574384 0.0480226044574447 0.759310344827759
0.28146516773461 0.0470538771464666 0.759310344827759
0.265630903309621 0.0434410798790675 0.759310344827759
0.254385663568782 0.0439887009550722 0.759310344827759
0.236834799212555 0.0458458181312474 0.759310344827759
0.241317286598507 0.0464587889071793 0.759310344827759
0.216650610317194 0.0487251007236549 0.759310344827759
0.206703401871197 0.0428962127013213 0.759310344827759
0.202084703479741 0.0446204119318724 0.759310344827759
0.1796659820344 0.0508858612457376 0.759310344827759
0.17511439027511 0.0424914827307197 0.759310344827759
0.16971599594946 0.0457516783656093 0.759310344827759
0.160682845788896 0.0496012570240191 0.759310344827759
0.140897421048634 0.0465361961898607 0.759310344827759
0.119232768859725 0.0456669978314247 0.759310344827759
0.112174379503166 0.0445777997441091 0.759310344827759
0.0989839916755183 0.0505319772287255 0.759310344827759
0.0919898895841451 0.0462590367129779 0.759310344827759
0.080267565424085 0.0520898072371596 0.759310344827759
0.0638178445426624 0.0537186502231959 0.759310344827759
0.0436371818346077 0.053906709114548 0.759310344827759
0.037842368930196 0.0535861209300941 0.759310344827759
0.0352322431983376 0.0448655443283928 0.759310344827759
0.0160605616024586 0.0537091199702855 0.759310344827759
-0.00420702978539398 0.0520538113407 0.759310344827759
-0.0206736990224774 0.0497543884537526 0.759310344827759
-0.0210815265292905 0.0491164446828581 0.759310344827759
-0.040165381538215 0.046730133800524 0.759310344827759
-0.0519842875146779 0.052178998100969 0.759310344827759
-0.0770313793929555 0.0476736344345264 0.759310344827759
-0.0775871120308061 0.0464075996927881 0.759310344827759
-0.102033103945844 0.0482214801526021 0.759310344827759
-0.116064710225497 0.0569404316976324 0.759310344827759
-0.121652029615494 0.0512424703969424 0.759310344827759
-0.145864766881685 0.0557919438723268 0.759310344827759
-0.160172863936783 0.0488710671836464 0.759310344827759
-0.167100965664362 0.0480714575955446 0.759310344827759
-0.176672923570857 0.0507058136192868 0.759310344827759
-0.209014991102051 0.0514443066964491 0.759310344827759
-0.213355376990542 0.0572167762329138 0.759310344827759
-0.22584793362987 0.0570201792634323 0.759310344827759
-0.249041456133488 0.0538907066534769 0.759310344827759
-0.267852716748984 0.0535154293914161 0.759310344827759
-0.275428523657101 0.0598663475969678 0.759310344827759
-0.303596796505515 0.0600181734466273 0.759310344827759
-0.3104598706525 0.0554624564837517 0.759310344827759
-0.316011923783904 0.0512726668464966 0.759310344827759
-0.346981749370201 0.0539713534875726 0.759310344827759
-0.358190031115474 0.0589379019989318 0.759310344827759
-0.368834020050676 0.0587388482767066 0.759310344827759
-0.393435566825145 0.0560616652012066 0.759310344827759
-0.409279803862008 0.0577588116792753 0.759310344827759
-0.430782779105402 0.0567709936369209 0.759310344827759
-0.433578085925704 0.0553876210777587 0.759310344827759
-0.460835797290876 0.0598462707942855 0.759310344827759
-0.487191653278539 0.0548163449330129 0.759310344827759
-0.499383183518271 0.0527057736942632 0.759310344827759
0.459129262853579 0.0491383332857701 0.660312806729546
0.45912926285358 0.0471841915698916 0.662029356785415
0.45912926285358 0.0549066130152826 0.671785752161012
0.45912926285358 0.0551724971182542 0.678801738610541
0.45912926285358 0.0542444524463125 0.687038820654525
0.5 0.052336290809518 0.733766641744024
0.5 0.0517408668625095 0.745317494726018
0.5 0.0463688851333288 0.750495054894201
0.5 0.0468419663588751 0.753250744235912
0.485613109662012 0.0491520290769262 0.759310344827759
0.476526616969792 0.0533491685593674 0.759310344827759
0.468304338480546 0.0469400232260871 0.759310344827759
0.459751463119749 0.0536842625974027 0.759310344827759
0.451535909909115 0.0528261157602788 0.759310344827759
0.44765164470698 0.051960926531277 0.759310344827759
0.430374933412809 0.0525885740111137 0.759310344827759
0.424205749106343 0.0528105136075104 0.759310344827759
0.417206991369548 0.0478311272635715 0.759310344827759
0.406254744891726 0.0485406196221556 0.759310344827759
0.397954366432812 0.0483668708333931 0.759310344827759
0.390910613344279 0.0541371345139138 0.759310344827759
0.36723729107155 0.048205020538721 0.759310344827759
0.362024118843744 0.0571188998998815 0.759310344827759
0.350023527426232 0.0500015074210549 0.759310344827759
0.338416991373504 0.0492909660797526 0.759310344827759
0.333538750801691 0.0569681161335899 0.759310344827759
0.316703314058345 0.055312530114239 0.759310344827759
0.3112043088893 0.0528019833968854 0.759310344827759
0.29854908955941 0.0571010801542077 0.759310344827759
0.285008239319544 0.052903574175918 0.759310344827759
0.285693444238213 0.0550801301004674 0.759310344827759
0.266023746214838 0.0506124666174189 0.759310344827759
0.255044956755816 0.0560560020338177 0.759310344827759
0.246141573997062 0.0576828270534352 0.759310344827759
0.239093385337191 0.0555801664043189 0.759310344827759
0.223746950018806 0.0519850130360092 0.759310344827759
0.208789734647678 0.053572525192755 0.759310344827759
0.191829000782671 0.0578730456037591 0.759310344827759
0.189787081147108 0.0589129950870606 0.759310344827759
0.178417370590976 0.0576698202902403 0.759310344827759
0.168593405490749 0.0554835297024888 0.759310344827759
0.150619906045197 0.0587043100047455 0.759310344827759
0.143837371258012 0.0556316547784967 0.759310344827759
0.126529243062798 0.0573930314751116 0.759310344827759
0.110733413569556 0.0592782428031378 0.759310344827759
0.0974965711282947 0.0613679408199034 0.759310344827759
0.0837173472398466 0.0572072698249999 0.759310344827759
0.0697922730232337 0.059691022728668 0.759310344827759
0.0638676236969998 0.063519835026054 0.759310344827759
0.0513278562124395 0.055429628891083 0.759310344827759
0.0301585996216659 0.0567875487819972 0.759310344827759
0.0257796361787665 0.0556549207422276 0.759310344827759
0.011651342467474 0.0616552495454997 0.759310344827759
-0.00145579843211675 0.0569002642213273 0.759310344827759
-0.017835279481991 0.0627584791946993 0.759310344827759
-0.0272173158387716 0.0636962514737988 0.759310344827759
-0.0427283598099857 0.062740493227032 0.759310344827759
-0.0489327041191724 0.0611354276969561 0.759310344827759
-0.0669870630767469 0.0629263841487883 0.759310344827759
-0.0822523776801201 0.0618988775785248 0.759310344827759
-0.0989766465355197 0.0614120313993037 0.759310344827759
-0.115518158877281 0.0635640821149591 0.759310344827759
-0.126198489732491 0.0601491012891174 0.759310344827759
-0.139535626762443 0.059714992266372 0.759310344827759
-0.149884892273154 0.0646069473130516 0.759310344827759
-0.181173238212906 0.0683400238541489 0.759310344827759
-0.192840193314737 0.0628958298266467 0.759310344827759
-0.204927898187048 0.0667288233010359 0.759310344827759
-0.224214937165584 0.0641407606900598 0.759310344827759
-0.236272788257418 0.0628187603283623 0.759310344827759
-0.239962128546612 0.0596027407953393 0.759310344827759
-0.25738239246427 0.0687885151686104 0.759310344827759
-0.271626792808316 0.0659810573350308 0.759310344827759
-0.306947103187734 0.0626275301482268 0.759310344827759
-0.310930124565585 0.0671088659675641 0.759310344827759
-0.334649010692337 0.0714982924552947 0.759310344827759
-0.353391343844452 0.0705770032755795 0.759310344827759
-0.357101824526966 0.0633763030586623 0.759310344827759
-0.376697452371211 0.0629678908260453 0.759310344827759
-0.391530687395957 0.0731095011138528 0.759310344827759
-0.400426824837359 0.0730011631732181 0.759310344827759
-0.423425384489911 0.0719027349732251 0.759310344827759
-0.45035734650115 0.0681407618947898 0.759310344827759
-0.460232824807962 0.0702892427509192 0.759310344827759
-0.483901349746284 0.0756047391858481 0.759310344827759
-0.497566691138612 0.0640710684954163 0.759310344827759
0.45912926285358 0.0596201472350614 0.657498447302065
0.45912926285358 0.0617734007617488 0.665708206343597
0.45912926285358 0.0606980807624934 0.669178194811456
0.45912926285358 0.0606698359480798 0.680662234869152
0.5 0.0570706988209738 0.728284048500085
0.5 0.0542917179916865 0.727336298319893
0.5 0.0575809241222711 0.742093874599045
0.5 0.0570689284534827 0.74237089515861
0.497605076430864 0.0550647878080141 0.759310344827759
0.489884170554701 0.0549302736127323 0.759310344827759
0.480155905981185 0.0620468566793086 0.759310344827759
0.472593776131144 0.0631985746905524 0.759310344827759
0.459733008161427 0.0556679461226973 0.759310344827759
0.449223479595371 0.0623609380628942 0.759310344827759
0.438742727338356 0.0624963354325347 0.759310344827759
0.436157300204913 0.0584326883668946 0.759310344827759
0.42729304097042 0.0623209851030832 0.759310344827759
0.417968179447803 0.0604277781990767 0.759310344827759
0.40586082659289 0.0611739618725732 0.759310344827759
0.387632917869583 0.0576043504034808 0.759310344827759
0.383851835370759 0.060639782734018 0.759310344827759
0.368392799052268 0.0647892108643175 0.759310344827759
0.361931980763947 0.0624156523278209 0.759310344827759
0.354039146028756 0.063246401141972 0.759310344827759
0.343920853245746 0.0631883889055527 0.759310344827759
0.332745153904113 0.0612726140223876 0.759310344827759
0.319815545449309 0.0646924652999562 0.759310344827759
0.315544997678011 0.0588938768688143 0.759310344827759
0.305332987328287 0.059088319188923 0.759310344827759
0.286504959809314 0.0658525923645013 0.759310344827759
0.281999340399903 0.064479126028998 0.759310344827759
0.270438138624536 0.0646505813544278 0.759310344827759
0.254810604230271 0.0607405008479661 0.759310344827759
0.239449528607324 0.066246338701371 0.759310344827759
0.230141190243892 0.0667658545414477 0.759310344827759
0.218608564604626 0.0643239044156437 0.759310344827759
0.207894956646182 0.0656051543889519 0.759310344827759
0.200874984156305 0.0689942207149384 0.759310344827759
0.180312213305617 0.0630810492363753 0.759310344827759
0.179968396979728 0.0688645911512209 0.759310344827759
0.167332014510887 0.0673081477975793 0.759310344827759
0.143922584018428 0.0703696327601076 0.759310344827759
0.135810889574556 0.0659558266748018 0.759310344827759
0.123856805543446 0.0630773216121917 0.759310344827759
0.111765214937508 0.0703382350354485 0.759310344827759
0.10017354753421 0.0645134770193565 0.759310344827759
0.0895851958247616 0.0684878217178969 0.759310344827759
0.0793375910659506 0.0695487043012426 0.759310344827759
0.0659492611611872 0.0649681988439292 0.759310344827759
0.0483143722844061 0.0661978672211569 0.759310344827759
0.0432366408648116 0.0693276356585409 0.759310344827759
0.0282867474830979 0.0651305251059701 0.759310344827759
0.0129750849145325 0.0679567576717214 0.759310344827759
-0.00323943644190388 0.0711675734365131 0.759310344827759
-0.0139404750109892 0.0674969163904201 0.759310344827759
-0.0346337044584566 0.0678007333085362 0.759310344827759
-0.0434609268129088 0.0717795867744273 0.759310344827759
-0.0508641073588583 0.0725741355058081 0.759310344827759
-0.0718332183960738 0.072728158245082 0.759310344827759
-0.0899875005095772 0.071220882415086 0.759310344827759
-0.0980351743334881 0.0693519393952024 0.759310344827759
-0.113069205629445 0.0759965196146376 0.759310344827759
-0.127712283315429 0.0676295486351117 0.759310344827759
-0.140152985007483 0.0749399288597386 0.759310344827759
-0.153602883158949 0.0715874595418092 0.759310344827759
-0.172740353879976 0.0785131443836664 0.759310344827759
-0.176858808443017 0.0724988026046668 0.759310344827759
-0.20629309402259 0.078982994128948 0.759310344827759
-0.209587612766915 0.0703577906886864 0.759310344827759
-0.2275714554455 0.0708143319166322 0.759310344827759
-0.237371752188193 0.0778731869612083 0.759310344827759
-0.25177254513193 0.080129325269511 0.759310344827759
-0.287828967068806 0.0715980483229278 0.759310344827759
-0.299363753438669 0.0724920726073042 0.759310344827759
-0.308945323999828 0.0767917419587463 0.759310344827759
-0.326267227807403 0.0778530894623111 0.759310344827759
-0.336336824564976 0.0744028696681603 0.759310344827759
-0.359187651666627 0.0835086698886367 0.759310344827759
-0.369441255018672 0.0792733178100428 0.759310344827759
-0.401999228607911 0.0841345653062284 0.759310344827759
-0.416556138721988 0.0801597331986193 0.759310344827759
-0.442127521584369 0.0814819602258387 0.759310344827759
-0.442105353555497 0.0782945752241509 0.759310344827759
-0.472823175144658 0.0806762425927902 0.759310344827759
-0.486088035987599 0.0836105125489853 0.759310344827759
-0.498322447887327 0.0849986893018669 0.759310344827759
0.459129262853579 0.0684095933162559 0.661776310189864
0.45912926285358 0.0662007725344666 0.663459007248842
0.459129262853579 0.0708798133810536 0.673301768905421
0.5 0.066548976303231 0.728352822206301
0.5 0.0706024982318348 0.735998458370769
0.5 0.0651871557668124 0.741313714587942
0.5 0.0645217281148188 0.748877727133625
0.5 0.0655812266311819 0.752511239986334
0.487416224406567 0.0684060728161323 0.759310344827759
0.486400750087133 0.0704994481264934 0.759310344827759
0.471843315520667 0.0708073876238855 0.759310344827759
0.46657620044863 0.0648869389488646 0.759310344827759
0.45834460888435 0.0647082661192472 0.759310344827759
0.448781984911977 0.0669773748313332 0.759310344827759
0.435402467950937 0.0683510831842575 0.759310344827759
0.419894005997776 0.0699728680538526 0.759310344827759
0.417484127365323 0.0691774248281213 0.759310344827759
0.407463304480579 0.0680914017409185 0.759310344827759
0.398248636775242 0.0676667193349635 0.759310344827759
0.377507225239613 0.0655645229474853 0.759310344827759
0.369295171950347 0.0744037122522301 0.759310344827759
0.366129019525541 0.0696605319820751 0.759310344827759
0.358695149998448 0.0668945794740012 0.759310344827759
0.342838143619831 0.0737514378751553 0.759310344827759
0.334306342004473 0.0680488883354507 0.759310344827759
0.31992183112468 0.0732520599016931 0.759310344827759
0.313386779038358 0.0755299103511016 0.759310344827759
0.292816678470749 0.0763581914343877 0.759310344827759
0.288258009622253 0.0714314280081349 0.759310344827759
0.275333075757285 0.0756476215238436 0.759310344827759
0.270188629334064 0.0759180392555769 0.759310344827759
0.2550798300007 0.0735417883037513 0.759310344827759
0.241179454093575 0.069755900412987 0.759310344827759
0.233211489888129 0.0732663150582767 0.759310344827759
0.229831854177638 0.0693870785824323 0.759310344827759
0.207005952872346 0.076776733407706 0.759310344827759
0.201016196080944 0.0739002044193105 0.759310344827759
0.193935185054947 0.0716770828880852 0.759310344827759
0.184535323348606 0.0710855294506546 0.759310344827759
0.153386366509818 0.0773115721536446 0.759310344827759
0.157929870560477 0.0714226035800884 0.759310344827759
0.135917856297277 0.0800624301248669 0.759310344827759
0.126873065770255 0.0720509104176485 0.759310344827759
0.120770145722275 0.0762660500059773 0.759310344827759
0.0989134720418086 0.0752391022286801 0.759310344827759
0.0892660006769825 0.0788567862402232 0.759310344827759
0.0661561797753386 0.0731722367639508 0.759310344827759
0.0636839685377008 0.0800257459439592 0.759310344827759
0.050049610589767 0.0743374168657677 0.759310344827759
0.0349444067350029 0.0747417914722611 0.759310344827759
0.0222492611538048 0.0823282044498815 0.759310344827759
0.00971896601958133 0.0753514889032723 0.759310344827759
0.00758151156043317 0.0785943997282966 0.759310344827759
-0.0129654481892359 0.0769662944352492 0.759310344827759
-0.0289571724961282 0.0809002922012727 0.759310344827759
-0.0371007873375901 0.0808852355127519 0.759310344827759
-0.0573563659971667 0.0783639764707488 0.759310344827759
-0.0773570698198057 0.0814757421652988 0.759310344827759
-0.0789023122162505 0.080780107353792 0.759310344827759
-0.0935517926027566 0.08364931366442 0.759310344827759
-0.118226259743769 0.0781401939347967 0.759310344827759
-0.134904040369801 0.0829536483372083 0.759310344827759
-0.139419878893845 0.0885143385590276 0.759310344827759
-0.151746654208698 0.0809015322862283 0.759310344827759
-0.16563961311475 0.0857167362329191 0.759310344827759
-0.196155014579743 0.0888056265068313 0.759310344827759
-0.189459217564811 0.0798437335429248 0.759310344827759
-0.216205834478438 0.0858621551378384 0.759310344827759
-0.219941606977696 0.0859174333783837 0.759310344827759
-0.249576400057534 0.0818066155293262 0.759310344827759
-0.255299972300202 0.0832553486555339 0.759310344827759
-0.277364964211867 0.089351452647663 0.759310344827759
-0.299162583709022 0.0899883663795461 0.759310344827759
-0.314135387401488 0.0866451733388496 0.759310344827759
-0.330980241691844 0.0901463362171971 0.759310344827759
-0.348241606067204 0.0913828901827761 0.759310344827759
-0.354867559466934 0.0878776989835552 0.759310344827759
-0.38136659021459 0.0920967131639118 0.759310344827759
-0.389456156666439 0.0848122960513641 0.759310344827759
-0.400361956399115 0.0916235012368041 0.759310344827759
-0.429346377780222 0.0888022132820573 0.759310344827759
-0.460726869198281 0.0933953917057553 0.759310344827759
-0.471750872912156 0.0894354950868113 0.759310344827759
-0.48587833213056 0.0885551260696499 0.759310344827759
0.45912926285358 0.0723716738631264 0.656953281075476
0.45912926285358 0.0732309493452988 0.657862029951035
0.459129262853579 0.0753401038980591 0.669908896418344
0.459129262853579 0.078396772744624 0.682626603645558
0.459129262853579 0.0773390486384896 0.684599883362951
0.5 0.0757810425816604 0.728436368362717
0.5 0.0713364129985731 0.738522605274782
0.5 0.0768871915468358 0.750285911142588
0.496471818201918 0.0711519385805688 0.759310344827759
0.493863368535037 0.0748119061815248 0.759310344827759
0.479915927194249 0.0736763439747564 0.759310344827759
0.477582266412003 0.074955211362267 0.759310344827759
0.4597242262143 0.0747078563683859 0.759310344827759
0.454646138074783 0.0726006066499636 0.759310344827759
0.448642180216682 0.0741611128087954 0.759310344827759
0.438873959006335 0.0779666687059008 0.759310344827759
0.41932090836953 0.0790291356752782 0.759310344827759
0.412461521846865 0.0747329934556949 0.759310344827759
0.407111875603298 0.0801412503184278 0.759310344827759
0.389332384935355 0.0768562579236699 0.759310344827759
0.388651252592999 0.0773054021840269 0.759310344827759
0.376092570987058 0.0757802169325408 0.759310344827759
0.372539534136411 0.0763432829587678 0.759310344827759
0.359989549108212 0.079874267117158 0.759310344827759
0.341533120094796 0.0793413707455997 0.759310344827759
0.32847264812324 0.0796715718641802 0.759310344827759
0.326144167794686 0.084709839195119 0.759310344827759
0.316285505215646 0.0823971965064074 0.759310344827759
0.301143397672876 0.0852751032853429 0.759310344827759
0.286633082769155 0.0793986402461268 0.759310344827759
0.28384561877567 0.0822535902920862 0.759310344827759
0.26282078373109 0.0849590700945069 0.759310344827759
0.263839372507782 0.0810436602539414 0.759310344827759
0.251330129587942 0.0820394349642913 0.759310344827759
0.233866116091968 0.0856092659978113 0.759310344827759
0.219298611848489 0.0812992649410828 0.759310344827759
0.212493356832928 0.0801054065931707 0.759310344827759
0.199914415156452 0.0885459124709561 0.759310344827759
0.193973145909351 0.08882935996933 0.759310344827759
0.176413402608107 0.0886127110595467 0.759310344827759
0.170553818136407 0.0872683737749102 0.759310344827759
0.155474112312676 0.0815406537271483 0.759310344827759
0.137466836934736 0.0825916280673574 0.759310344827759
0.129254432116553 0.0897015071574591 0.759310344827759
0.115344346265334 0.0879336299136715 0.759310344827759
0.100454186468315 0.0898555831996809 0.759310344827759
0.0876565117089612 0.091063827213268 0.759310344827759
0.0835801670566534 0.0870895016644463 0.759310344827759
0.0632980506133484 0.0888499304987523 0.759310344827759
0.0482337114626403 0.0888745987193248 0.759310344827759
0.0411539423321109 0.088050745299655 0.759310344827759
0.0224913749229346 0.0916910915653655 0.759310344827759
0.0143280459950736 0.0852524260780978 0.759310344827759
-0.00579978810006167 0.0934267656653614 0.759310344827759
-0.0126456971381068 0.0941984584401791 0.759310344827759
-0.0261076383703042 0.0905837867090169 0.759310344827759
-0.0374866857098211 0.0957113281213452 0.759310344827759
-0.064509544007772 0.0931884649698675 0.759310344827759
-0.0638446024161726 0.0958731568197191 0.759310344827759
-0.0841523564968195 0.0963872020266101 0.759310344827759
-0.104851562566609 0.0982636902819618 0.759310344827759
-0.11984131308688 0.0974966156127726 0.759310344827759
-0.124574490050292 0.090182044750247 0.759310344827759
-0.13839588177909 0.0990537893880424 0.759310344827759
-0.153689228004103 0.0983223832689559 0.759310344827759
-0.176456727955982 0.100108158111969 0.759310344827759
-0.188112147034197 0.0964290829052959 0.759310344827759
-0.200996846976482 0.0979581632268789 0.759310344827759
-0.212777568888276 0.0948477492678069 0.759310344827759
-0.234323318817732 0.0985245495946699 0.759310344827759
-0.240837309963102 0.0963636266472401 0.759310344827759
-0.257497674986339 0.0921675477557318 0.759310344827759
-0.275075026393642 0.0991103388165758 0.759310344827759
-0.295412434598278 0.0974463372990395 0.759310344827759
-0.310590371226788 0.0972462906752664 0.759310344827759
-0.333007007856166 0.104352901610051 0.759310344827759
-0.349954630560119 0.10160135318922 0.759310344827759
-0.364375346697513 0.105268212789862 0.759310344827759
-0.373317704428713 0.103516416483764 0.759310344827759
-0.394307177310014 0.0964465676794204 0.759310344827759
-0.420365272280297 0.104480968351728 0.759310344827759
-0.43318218203894 0.108199179475512 0.759310344827759
-0.451947684077423 0.106826677269836 0.759310344827759
-0.467309928329738 0.106697631096986 0.759310344827759
-0.483125677889554 0.107960310901288 0.759310344827759
-0.498198086447664 0.101243797587926 0.759310344827759
0.45912926285358 0.0835405712767062 0.66245280276534
0.45912926285358 0.0865299254533304 0.673197862642287
0.45912926285358 0.0860098634569789 0.674243118122155
0.45912926285358 0.0875270587061582 0.685831508242891
0.5 0.082571196444282 0.737432233024588
0.5 0.0847062371480978 0.739598682650896
0.5 0.082517430332947 0.747112400084471
0.5 0.0835107479404421 0.757267094145201
0.492852764040544 0.0828093284400418 0.759310344827759
0.486783343223853 0.0798054363539305 0.759310344827759
0.469580640297512 0.088298562353558 0.759310344827759
0.456892710644407 0.0853764221178533 0.759310344827759
0.451884821353407 0.0882859093531801 0.759310344827759
0.447947333449168 0.0816995711915589 0.759310344827759
0.432029879729059 0.0861949345419185 0.759310344827759
0.423089621850978 0.0854468565068985 0.759310344827759
0.418327303991575 0.0844859238728948 0.759310344827759
0.404022107440179 0.0838337083723349 0.759310344827759
0.394430940981876 0.0872299329765025 0.759310344827759
0.382012642638712 0.0912761431425214 0.759310344827759
0.370489183395858 0.0900545939241834 0.759310344827759
0.371317222094913 0.0886505613959088 0.759310344827759
0.350430027252397 0.0889905955519372 0.759310344827759
0.348230584767025 0.090210511508817 0.759310344827759
0.326920990525622 0.0896999627173927 0.759310344827759
0.33065816955131 0.0905123377799964 0.759310344827759
0.319143537940531 0.0855774622105734 0.759310344827759
0.30174153697885 0.087530876336834 0.759310344827759
0.288748714419679 0.0892800611358697 0.759310344827759
0.279993383610124 0.0906520406138275 0.759310344827759
0.261628189640595 0.0925352218625968 0.759310344827759
0.251401057589534 0.0890919629135092 0.759310344827759
0.247474682827436 0.0929938349699183 0.759310344827759
0.235362281880549 0.0877506146966153 0.759310344827759
0.225848035656178 0.0956672705954474 0.759310344827759
0.208257008374066 0.0965334132551315 0.759310344827759
0.206944335020627 0.0890581742306408 0.759310344827759
0.191533649728418 0.0974882218189555 0.759310344827759
0.178480756209205 0.0963574058565074 0.759310344827759
0.165816796703699 0.0968991928308282 0.759310344827759
0.143766634856844 0.0965926790506127 0.759310344827759
0.131711285032458 0.0912931268586227 0.759310344827759
0.124055461091778 0.0936560279821606 0.759310344827759
0.115246848614916 0.0988009371768713 0.759310344827759
0.104813189926601 0.0923071194721654 0.759310344827759
0.0873694595941248 0.0941441664019438 0.759310344827759
0.0857876908446646 0.101100370582993 0.759310344827759
0.0600894725504011 0.0950252030274411 0.759310344827759
0.0577254480771991 0.0932122402309968 0.759310344827759
0.0448088993282902 0.102917617053934 0.759310344827759
0.0268805125700082 0.102995706339066 0.759310344827759
0.0165983781364236 0.0985140444702818 0.759310344827759
0.0076539085508717 0.0999338700440365 0.759310344827759
-0.0193586311091726 0.100188239735991 0.759310344827759
-0.032207034862278 0.104722950275339 0.759310344827759
-0.0458535147385599 0.104884252505424 0.759310344827759
-0.061751648313187 0.104417392611425 0.759310344827759
-0.072552147579069 0.0975288704841862 0.759310344827759
-0.0855562692969116 0.101765562127944 0.759310344827759
-0.0982423781284159 0.0999754942957878 0.759310344827759
-0.108763753512273 0.102278341876684 0.759310344827759
-0.132485686733808 0.108995383363052 0.759310344827759
-0.140398545772006 0.104321911474375 0.759310344827759
-0.158612123379472 0.108114841656196 0.759310344827759
-0.168213611262466 0.108245373743312 0.759310344827759
-0.194918431044146 0.110854081636995 0.759310344827759
-0.195892020862789 0.102864839621446 0.759310344827759
-0.223471812126155 0.107424722883207 0.759310344827759
-0.238316325067311 0.113123501873994 0.759310344827759
-0.257624955162684 0.105744443697808 0.759310344827759
-0.264746790384466 0.109545120746451 0.759310344827759
-0.275291016993436 0.113243255343737 0.759310344827759
-0.296881125160554 0.106365695665983 0.759310344827759
-0.308414247853724 0.109982729522553 0.759310344827759
-0.322343122050725 0.106439939930532 0.759310344827759
-0.344526533807193 0.117219325387368 0.759310344827759
-0.354606919162364 0.108895195416163 0.759310344827759
-0.375715768760777 0.113842082845394 0.759310344827759
-0.391884842354537 0.114165403932305 0.759310344827759
-0.420612303085238 0.1131664318469 0.759310344827759
-0.428244096706326 0.109948936547403 0.759310344827759
-0.454252106778617 0.113522788656271 0.759310344827759
-0.464119651788005 0.114917380649474 0.759310344827759
-0.489532311219508 0.118914903114182 0.759310344827759
-0.491724788638089 0.114409189542832 0.759310344827759
0.45912926285358 0.091125234864592 0.656827477386014
0.45912926285358 0.0913128709389412 0.660524956597829
0.45912926285358 0.0955598693377573 0.671199073445595
0.45912926285358 0.0970455533145596 0.674050480888758
0.459129262853579 0.0908359281391927 0.684799315523763
0.5 0.0896434639509629 0.731204896089257
0.5 0.0942192219960174 0.743021450671821
0.5 0.0944890931643602 0.756364317694636
0.5 0.0949818044232889 0.753534589283196
0.496312268939341 0.0921279175288666 0.759310344827759
0.480065222413973 0.091576790409795 0.759310344827759
0.478727454031664 0.0886657290405587 0.759310344827759
0.464019819361932 0.0905941068310432 0.759310344827759
0.461643937328319 0.0911403354598995 0.759310344827759
0.449064204362354 0.0900256030268975 0.759310344827759
0.430456059205789 0.0902023426695821 0.759310344827759
0.429092217642266 0.0929431601423526 0.759310344827759
0.418203731084276 0.096147772555156 0.759310344827759
0.402070321375518 0.0996223263510541 0.759310344827759
0.395347273068954 0.0952961341257585 0.759310344827759
0.391476528428813 0.0922078434776175 0.759310344827759
0.372060998599502 0.0967126728750776 0.759310344827759
0.366458544113729 0.0926991015498539 0.759310344827759
0.360973633437417 0.0986365468640776 0.759310344827759
0.345431869161443 0.0929103471937447 0.759310344827759
0.333610550761677 0.0982543580414709 0.759310344827759
0.313597312137149 0.0988225141479864 0.759310344827759
0.312275756219006 0.100553367014009 0.759310344827759
0.302764340006986 0.10141056853665 0.759310344827759
0.287300030154318 0.0983905943292129 0.759310344827759
0.274042493701095 0.104152710800041 0.759310344827759
0.273797422826261 0.0957909657336805 0.759310344827759
0.264943303486368 0.102342471104083 0.759310344827759
0.241576009496834 0.101907668529271 0.759310344827759
0.234830168413791 0.104436154959206 0.759310344827759
0.218237087334319 0.100285962919763 0.759310344827759
0.217275779884832 0.0985828211659577 0.759310344827759
0.206363754461766 0.0998483347560108 0.759310344827759
0.192948662817761 0.101879814289009 0.759310344827759
0.181547043583067 0.100759803020517 0.759310344827759
0.162599035813984 0.103717071195328 0.759310344827759
0.156772862439045 0.105039382897258 0.759310344827759
0.1421883332635 0.101972287027225 0.759310344827759
0.125938614002186 0.101690048209773 0.759310344827759
0.116694595564696 0.10419236508886 0.759310344827759
0.107423704196348 0.105014347118832 0.759310344827759
0.0910706103039459 0.102534872895134 0.759310344827759
0.0752534491082905 0.105209097413586 0.759310344827759
0.0718654981214029 0.10672717494997 0.759310344827759
0.0489095754948052 0.111407144515477 0.759310344827759
0.036292820398922 0.104062153562437 0.759310344827759
0.0317501394096924 0.108284716925964 0.759310344827759
0.0109771461269647 0.113693122124591 0.759310344827759
-0.000498670165215029 0.106378597655374 0.759310344827759
-0.0211846161630275 0.108266263882104 0.759310344827759
-0.0285085778212077 0.112152923867292 0.759310344827759
-0.0369493821625908 0.111749339036379 0.759310344827759
-0.0518406073025109 0.114344481344822 0.759310344827759
-0.0640484248480915 0.114258365605735 0.759310344827759
-0.084096723718638 0.108964130254983 0.759310344827759
-0.0944542993812859 0.118505731631702 0.759310344827759
-0.109725942177168 0.11847222859647 0.759310344827759
-0.117779193218983 0.113118446606925 0.759310344827759
-0.144273007771325 0.112327404328474 0.759310344827759
-0.151640162119751 0.11718369815571 0.759310344827759
-0.181005384973955 0.116098107830014 0.759310344827759
-0.188727799367611 0.115214483440287 0.759310344827759
-0.20452215651304 0.114924927951242 0.759310344827759
-0.210518036875366 0.120856936319992 0.759310344827759
-0.240686728961619 0.121154539016894 0.759310344827759
-0.248508888982753 0.116361480806141 0.759310344827759
-0.266252014072136 0.125160771977561 0.759310344827759
-0.272853202777755 0.115942934719845 0.759310344827759
-0.292753283981267 0.123822338532272 0.759310344827759
-0.315430714845803 0.12514621282793 0.759310344827759
-0.341169813315048 0.12470473925873 0.759310344827759
-0.343445676890631 0.125557446884529 0.759310344827759
-0.362748735002478 0.118392817389116 0.759310344827759
-0.38645468771303 0.129504743303451 0.759310344827759
-0.386228590090089 0.123567846590731 0.759310344827759
-0.419123884588713 0.1282038120279 0.759310344827759
-0.436652482385459 0.126224916679255 0.759310344827759
-0.450646759775615 0.121902129150407 0.759310344827759
-0.45795273944908 0.129817159955913 0.759310344827759
-0.473721994461089 0.131485258260811 0.759310344827759
-0.494187132024462 0.12757178936547 0.759310344827759
0.45912926285358 0.101040949194924 0.656653132003455
0.45912926285358 0.103427644008644 0.664185237154724
0.45912926285358 0.103851698202482 0.673160623727106
0.45912926285358 0.104449893325481 0.682398520406392
0.5 0.0984835986476626 0.72601740140346
0.5 0.10273597954129 0.732372211408663
0.5 0.100876508583667 0.74768267465831
0.5 0.0998419298266942 0.749286312320414
0.5 0.0988431685487057 0.757080243259388
0.491324674595347 0.0969451683921682 0.759310344827759
0.479110012264919 0.0982246951987989 0.759310344827759
0.468149800940878 0.103465732641601 0.759310344827759
0.463821971906691 0.0972659605386093 0.759310344827759
0.457482713470745 0.0989279812205488 0.759310344827759
0.441841177810911 0.105660808158099 0.759310344827759
0.427058835250662 0.0996389042437555 0.759310344827759
0.420867806665904 0.100855274309024 0.759310344827759
0.413775497073416 0.103221844392122 0.759310344827759
0.40221837832247 0.100406279817797 0.759310344827759
0.393655720710386 0.102845659279482 0.759310344827759
0.382962310000939 0.106989901347857 0.759310344827759
0.370082459831631 0.10279698076374 0.759310344827759
0.371137837967229 0.105041930957736 0.759310344827759
0.356191048198444 0.107073635984919 0.759310344827759
0.346611827871114 0.108713015952422 0.759310344827759
0.338784082597468 0.108981029128944 0.759310344827759
0.323762818135192 0.111331966671721 0.759310344827759
0.313138924328333 0.109270537223695 0.759310344827759
0.298952674198763 0.111480770109489 0.759310344827759
0.296308655220391 0.110592397364274 0.759310344827759
0.268382288322018 0.111457371181947 0.759310344827759
0.269730056648913 0.112131413901434 0.759310344827759
0.258288582017359 0.11221657195032 0.759310344827759
0.251776233157109 0.10836077186778 0.759310344827759
0.236006528028837 0.109805090676197 0.759310344827759
0.228272868150405 0.111161830780076 0.759310344827759
0.215357905671032 0.10895291875187 0.759310344827759
0.202473994430484 0.113644143998622 0.759310344827759
0.185781020769478 0.108684485026365 0.759310344827759
0.171547785808079 0.111425884470373 0.759310344827759
0.167261052296575 0.114476965763412 0.759310344827759
0.155488884566538 0.109172313085305 0.759310344827759
0.134761766017055 0.110890099296664 0.759310344827759
0.133182423429152 0.112490492029773 0.759310344827759
0.122119872950016 0.117106008181316 0.759310344827759
0.107835209473177 0.114740878348361 0.759310344827759
0.0982120034925377 0.115110909205894 0.759310344827759
