ply
format ascii 1.0
element vertex 865
property float x
property float y
property float z
end_header
0.0203378293636927 -0.5 0.614667899626722
0.0154489888675245 -0.5 0.618469877177087
0.0127258513773645 -0.498816561988341 0.62573154353207
0.0171971665787037 -0.493976311437757 0.628151668807362
0.0196218288371998 -0.487966976448163 0.631156336302159
0.0176465636215557 -0.482723892884668 0.633777878083907
0.0129607150192887 -0.472542294778183 0.63564637619895
0.0137891741084982 -0.472517696252303 0.63564637619895
0.0130435317953772 -0.465459489914443 0.63564637619895
0.0203099876475698 -0.444023484246147 0.63564637619895
0.0145665950948599 -0.44264858056836 0.63564637619895
0.0213504069631619 -0.429662550781916 0.63564637619895
0.0140529543750716 -0.415940592245105 0.63564637619895
0.0192867215508339 -0.411254206791517 0.63564637619895
0.0214622246136596 -0.393898173016481 0.63564637619895
0.0160428386556761 -0.389423687046204 0.63564637619895
0.0194144560875515 -0.380915886060117 0.63564637619895
0.0147522243292081 -0.375459243405375 0.63564637619895
0.0133711079000449 -0.364267028687708 0.63564637619895
0.018586543766933 -0.349105600607072 0.63564637619895
0.0218635635485347 -0.349629948155329 0.63564637619895
0.0195256711526937 -0.332124023284865 0.63564637619895
0.0217287979936386 -0.329133136738366 0.63564637619895
0.0192257308663932 -0.307469409279058 0.63564637619895
0.0201373343463821 -0.307379730674723 0.63564637619895
0.0218191690298012 -0.292541427476817 0.63564637619895
0.0210241995548285 -0.274561147692662 0.63564637619895
0.0190392635083916 -0.278117235739396 0.63564637619895
0.0214767117009456 -0.254553813223552 0.63564637619895
0.0202935947729889 -0.247993508257302 0.63564637619895
0.022443670054237 -0.239275057244102 0.63564637619895
0.019629977152529 -0.236193897365376 0.63564637619895
0.0216625743074832 -0.212683794363948 0.63564637619895
0.0231502151386081 -0.215681264170566 0.63564637619895
0.0197366783292139 -0.198191397022385 0.63564637619895
0.0195543019068646 -0.185230218956071 0.63564637619895
0.0174201934692226 -0.166976943743697 0.63564637619895
0.0213830257750902 -0.162397429339381 0.63564637619895
0.0233385296951227 -0.148493085003628 0.63564637619895
0.0147077642396399 -0.141051799771173 0.63564637619895
0.0157130663931265 -0.124772210825954 0.63564637619895
0.0170032997295175 -0.12662238463113 0.63564637619895
0.016262425364315 -0.105714615386878 0.63564637619895
0.0228948878032218 -0.0909486811961194 0.63564637619895
0.015351697232027 -0.0771785848782061 0.63564637619895
0.0167832138824062 -0.0667071550227362 0.63564637619895
0.0175501023092843 -0.0616256276365674 0.63564637619895
0.0207883212744383 -0.0455457665998913 0.63564637619895
0.0171323944761389 -0.0362956570665974 0.63564637619895
0.0209078574718535 -0.0158952408712863 0.63564637619895
0.0205464237622938 -0.00303718385055577 0.63564637619895
0.0176557654232942 0.0148309833309618 0.63564637619895
0.023204519310992 0.0216462008247905 0.63564637619895
0.0230995716839737 0.0285730250043245 0.63564637619895
0.0245269793347737 0.046034071136977 0.63564637619895
0.0239250608044367 0.0558978783880567 0.63564637619895
0.0214261771944994 0.065192132718535 0.63564637619895
0.0227172480033557 0.0839545537232513 0.63564637619895
0.017626373035297 0.105341099356875 0.63564637619895
0.016848168378839 0.108422985662229 0.63564637619895
0.0175439105442034 0.127370932299206 0.63564637619895
0.0232550450725181 0.132174740905449 0.63564637619895
0.0190968770274433 0.152537977200898 0.63564637619895
0.0162317681906766 0.168162730871295 0.63564637619895
0.0245447736229175 0.175966445709701 0.63564637619895
0.0192833828969931 0.198398155347507 0.63564637619895
0.01604389679791 0.203397436629101 0.63564637619895
0.0266033981299445 0.22706898097469 0.63564637619895
0.0180770175371168 0.239846275737642 0.63564637619895
0.0262043700430669 0.263128141132202 0.63564637619895
0.0185698292005265 0.277580349099613 0.63564637619895
0.024255923432084 0.278870894514482 0.63564637619895
0.0245266274289944 0.303286470865711 0.63564637619895
0.0199713199998264 0.314889221330891 0.63564637619895
0.018265593127416 0.330190492288252 0.63564637619895
0.0228723596780954 0.344928288511011 0.63564637619895
0.0258043380812433 0.37223783447157 0.63564637619895
0.0196311690111041 0.377439340151351 0.63564637619895
0.018208340306391 0.392277615968865 0.63564637619895
0.021158095664037 0.414277628011921 0.63564637619895
0.0262105121215135 0.424949391599855 0.63564637619895
0.0250371036304374 0.443521988200444 0.63564637619895
0.0172370165828069 0.455928261196101 0.63564637619895
0.018851430675749 0.480133394987763 0.635073127032359
0.0228248801251086 -0.5 0.614778675703941
0.0221199755851291 -0.497755063058478 0.626262292997002
0.0210611129817189 -0.49395719670543 0.628161226173525
0.0258320652657325 -0.488324159950499 0.630977744550991
0.0283021382952731 -0.480246542481682 0.635016553285399
0.0217374669804522 -0.478187228892734 0.63564637619895
0.0239989949100073 -0.46725615922006 0.63564637619895
0.0225226900524551 -0.457954783888124 0.63564637619895
0.0243510629697667 -0.453296523552747 0.63564637619895
0.0286622002684832 -0.442997708036426 0.63564637619895
0.027632268328358 -0.429471030092282 0.63564637619895
0.0277470803919837 -0.423786479223404 0.63564637619895
0.029965316732114 -0.419613324613498 0.63564637619895
0.0301983017053368 -0.398095771541725 0.63564637619895
0.025577171121959 -0.399259148001863 0.63564637619895
0.0270691189583811 -0.374799994058547 0.63564637619895
0.0306997604517495 -0.370266908629851 0.63564637619895
0.0296450315015578 -0.368876714004306 0.63564637619895
0.0231192227800183 -0.355611628283638 0.63564637619895
0.0232047514473076 -0.337047249112794 0.63564637619895
0.0309409817474091 -0.324109431547742 0.63564637619895
0.0282363856492898 -0.319811993484281 0.63564637619895
0.0233327316980921 -0.308155986947893 0.63564637619895
0.0261974201026179 -0.303661146797566 0.63564637619895
0.0243544735100305 -0.287707974203555 0.63564637619895
0.0247118228781786 -0.276301452145974 0.63564637619895
0.0268914941200386 -0.275579540450992 0.63564637619895
0.02545155409048 -0.265209751255266 0.63564637619895
0.0253756844085875 -0.256031812388097 0.63564637619895
0.0303851115547748 -0.240971246053529 0.63564637619895
0.03193790241833 -0.227698362649254 0.63564637619895
0.0314594866727921 -0.226088884594855 0.63564637619895
0.0296934015398108 -0.213365152949274 0.63564637619895
0.0315908435302407 -0.192294628977592 0.63564637619895
0.0266803528134399 -0.185440880909922 0.63564637619895
0.0276153892263255 -0.168411260805612 0.63564637619895
0.0306041371633128 -0.162133593663474 0.63564637619895
0.0239784004997518 -0.144495274793517 0.63564637619895
0.0315305996561406 -0.14421100140633 0.63564637619895
0.0268637672314539 -0.135178532846242 0.63564637619895
0.0265673249235197 -0.125013934516369 0.63564637619895
0.0310843655845341 -0.0994715810260773 0.63564637619895
0.0288627704571292 -0.0882019911809978 0.63564637619895
0.0304479012198286 -0.079439684349895 0.63564637619895
0.0299116136163285 -0.0692739601608462 0.63564637619895
0.0257288042100542 -0.0539205031191002 0.63564637619895
0.0290068572748345 -0.0421019329599299 0.63564637619895
0.0247995505839335 -0.0348828296406286 0.63564637619895
0.0283338373838829 -0.0225856778164105 0.63564637619895
0.0267388377429415 -0.00851575241601995 0.63564637619895
0.0288068949291581 0.0022240903359684 0.63564637619895
0.0274911430783282 0.0138517166847437 0.63564637619895
0.0255179528889114 0.0277133503710222 0.63564637619895
0.0321312495861301 0.0507695391076957 0.63564637619895
0.0323351873162154 0.0505417418697546 0.63564637619895
0.0266391919677647 0.0744957779105335 0.63564637619895
0.0277846155503111 0.0818584352163201 0.63564637619895
0.0287896976168504 0.0997907484257201 0.63564637619895
0.0324808293459061 0.11759211131637 0.63564637619895
0.0282595793059275 0.120755675399046 0.63564637619895
0.0301104260789656 0.127735047556612 0.63564637619895
0.0352308234236503 0.151064349226635 0.63564637619895
0.030509354648711 0.173025293884448 0.63564637619895
0.0287024691751072 0.175720792047358 0.63564637619895
0.0344648261014532 0.194471152829677 0.63564637619895
0.0281569350086754 0.208142059910615 0.63564637619895
0.0282861413878411 0.222501046449079 0.63564637619895
0.0356070174640589 0.2410934931063 0.63564637619895
0.0346947627494036 0.246654829773776 0.63564637619895
0.0288022574071889 0.258829310189346 0.63564637619895
0.037605722987928 0.274778471055044 0.63564637619895
0.0295503784618475 0.296215262791361 0.63564637619895
0.0299763835060461 0.308873685741038 0.63564637619895
0.0368343653787658 0.335089102943532 0.63564637619895
0.0367665360243947 0.344358410713712 0.63564637619895
0.0315931804649526 0.353492185116593 0.63564637619895
0.0345721753489794 0.372747910175596 0.63564637619895
0.0311626491573513 0.391734987394315 0.63564637619895
0.0349481618464955 0.400146723211181 0.63564637619895
0.0285513091791652 0.42406626233704 0.63564637619895
0.0324289398014309 0.444986098579026 0.63564637619895
0.032938785875996 0.461407101500056 0.63564637619895
0.0400070630065484 0.474989520889308 0.63564637619895
0.0341404099671193 -0.5 0.617049696410925
0.0360324532668693 -0.49750039341779 0.626389627817346
0.0357145034141764 -0.495959906979347 0.627159871036568
0.0297291478381667 -0.489089128587184 0.630595260232649
0.0296458735742728 -0.487134137860121 0.63157275559618
0.0309052693605814 -0.478109421571682 0.63564637619895
0.0354550773666802 -0.469802424672296 0.63564637619895
0.0309218086734861 -0.452084473419149 0.63564637619895
0.0298395752690163 -0.450852868837403 0.63564637619895
0.0329234010238108 -0.446787003212682 0.63564637619895
0.0354862994930943 -0.422531632009805 0.63564637619895
0.0381556841576022 -0.417760983208593 0.63564637619895
0.0380237650163521 -0.414726564818832 0.63564637619895
0.0378090614587989 -0.401580214281029 0.63564637619895
0.0307378681869037 -0.395105359933043 0.63564637619895
0.031208772147329 -0.377642417140038 0.63564637619895
0.0351174447927174 -0.372649998081205 0.63564637619895
0.0333644994011808 -0.366645344726262 0.63564637619895
0.0380456752662455 -0.349399678942764 0.63564637619895
0.0327142886951519 -0.339897794768273 0.63564637619895
0.0352697985469705 -0.335157687569732 0.63564637619895
0.0347682986651224 -0.315560906825652 0.63564637619895
0.0401502247764372 -0.314506351398073 0.63564637619895
0.0335817108120941 -0.298823563617889 0.63564637619895
0.0328101755948891 -0.299134767047223 0.63564637619895
0.03569944978398 -0.290092885132212 0.63564637619895
0.0367833537289508 -0.271150475009128 0.63564637619895
0.0388686374239736 -0.261503743321268 0.63564637619895
0.0330943177639519 -0.25415658346956 0.63564637619895
0.0336098024514695 -0.240139998289945 0.63564637619895
0.0329737673365965 -0.226268497494435 0.63564637619895
0.0404557276865663 -0.219445275502497 0.63564637619895
0.0330232818182706 -0.207798616126523 0.63564637619895
0.0378402966204294 -0.197447621771476 0.63564637619895
0.0418475732118838 -0.184952061931648 0.63564637619895
0.0381792366417202 -0.179891393401658 0.63564637619895
0.0418507402870397 -0.165860365093269 0.63564637619895
0.0356804933007203 -0.15252761249865 0.63564637619895
0.0401500524579021 -0.139917014899181 0.63564637619895
0.0353130631013548 -0.134119868393939 0.63564637619895
0.0400886470509455 -0.111947843385543 0.63564637619895
0.0422881676859642 -0.103006718395478 0.63564637619895
0.0380467340694435 -0.0947059366752714 0.63564637619895
0.0382673178454967 -0.0741850956059958 0.63564637619895
0.039072403680686 -0.0748096575201667 0.63564637619895
0.0380456669781988 -0.056439007715671 0.63564637619895
0.0361814695043036 -0.053976595013317 0.63564637619895
0.0345919035834547 -0.0382967781730329 0.63564637619895
0.0377357709378226 -0.0176858325973124 0.63564637619895
0.0411707850129002 -9.72954470023228e-005 0.63564637619895
0.0352671171401594 0.00813811788594671 0.63564637619895
0.0431649430998599 0.00944682902454666 0.63564637619895
0.0427270810802772 0.0354801953050692 0.63564637619895
0.0437738858114944 0.038806554673182 0.63564637619895
0.0449151831797045 0.0548956247680705 0.63564637619895
0.0371963582001022 0.0685235530420705 0.63564637619895
0.0457816773231622 0.0744373711579986 0.63564637619895
0.0399981247400775 0.0923980774639758 0.63564637619895
0.0430552013420921 0.105566592736207 0.63564637619895
0.0409025659180511 0.125544380566557 0.63564637619895
0.040487543682313 0.13206166316148 0.63564637619895
0.0367336882973826 0.153132479625516 0.63564637619895
0.0407736533839715 0.170760331346824 0.63564637619895
0.0444003215161086 0.172788284279886 0.63564637619895
0.0405836586119086 0.202096608237369 0.63564637619895
0.0437570112406323 0.214307282540346 0.63564637619895
0.0430287398885007 0.222733026360891 0.63564637619895
0.0406212869730257 0.230602448438877 0.63564637619895
0.0406015486800563 0.265557685389264 0.63564637619895
0.0451354747622345 0.270553478808086 0.63564637619895
0.0384579009620878 0.289248852102862 0.63564637619895
0.0463519196613723 0.288193467812181 0.63564637619895
0.0452136903940199 0.31151892600644 0.63564637619895
0.0401009411918584 0.32701670121691 0.63564637619895
0.0473304783006317 0.345181050701504 0.63564637619895
0.0483751560196324 0.367418131130504 0.63564637619895
0.048051901894806 0.386467729356907 0.63564637619895
0.044370603295564 0.393431902906871 0.63564637619895
0.0436240026640078 0.406490440418068 0.63564637619895
0.0448226339874096 0.421442031432581 0.63564637619895
0.0425508943256462 0.433980305770814 0.63564637619895
0.0427159888814584 0.455611655896292 0.63564637619895
0.0452721273676491 0.478092145059793 0.63564637619895
0.0430695272823349 -0.5 0.614099518237281
0.044074114479273 -0.5 0.620132814396634
0.0453006661984813 -0.5 0.619877302654576
0.0431558758247556 -0.496923418697478 0.626678115177502
0.0400640397588453 -0.486777491824981 0.631751078613751
0.0400760225634084 -0.480068351928852 0.635105648561815
0.0390328221358354 -0.470647667366133 0.63564637619895
0.038116862639525 -0.467445403867482 0.63564637619895
0.0443723963905757 -0.463561151610718 0.63564637619895
0.0454757000970545 -0.448193957695665 0.63564637619895
0.0464855966991162 -0.438166777167263 0.63564637619895
0.0435470915191052 -0.433971148421272 0.63564637619895
0.0389648115416702 -0.423326703670295 0.63564637619895
0.0391527106469568 -0.412565337812503 0.63564637619895
0.0415824541867906 -0.400409381578377 0.63564637619895
0.0416933364586059 -0.393641741121441 0.63564637619895
0.0427950912386911 -0.380221216079155 0.63564637619895
0.0414785713966759 -0.365147718548647 0.63564637619895
0.0397221194702106 -0.370509170068231 0.63564637619895
0.0452948811155312 -0.358259567264872 0.63564637619895
0.0417910171197098 -0.343110190584242 0.63564637619895
0.0416797954226049 -0.335902953509264 0.63564637619895
0.0448087235943148 -0.323720306437215 0.63564637619895
0.0404363192780973 -0.307829964709356 0.63564637619895
0.0473060304991525 -0.303920378719662 0.63564637619895
0.0455763021863322 -0.300245377466934 0.63564637619895
0.049389075997534 -0.289793227595707 0.63564637619895
0.0417018262614571 -0.265820690752544 0.63564637619895
0.0417917223701825 -0.261766836866402 0.63564637619895
0.0485400457204376 -0.25371720817471 0.63564637619895
0.045182864082063 -0.239260336873545 0.63564637619895
0.0468966795770185 -0.224278947786321 0.63564637619895
0.0469774559640833 -0.221477739047186 0.63564637619895
0.0471832015582256 -0.205670991295667 0.63564637619895
0.0443012959738306 -0.194823385018164 0.63564637619895
0.048230981771929 -0.187621908596703 0.63564637619895
0.047781935096398 -0.174752383482014 0.63564637619895
0.0479173385292355 -0.159262204326914 0.63564637619895
0.0449071818855049 -0.153090071844205 0.63564637619895
0.0466731555316046 -0.143803575683282 0.63564637619895
0.044097081963572 -0.128697791270058 0.63564637619895
0.0470226141504632 -0.115066749919807 0.63564637619895
0.0524702193073866 -0.102642208646798 0.63564637619895
0.0490454505961732 -0.0964204791266334 0.63564637619895
0.0450343876517046 -0.0847651142410672 0.63564637619895
0.0465166978463078 -0.0774321621787195 0.63564637619895
0.051990180880774 -0.0665464630644241 0.63564637619895
0.0446898760734135 -0.0475415072421347 0.63564637619895
0.0511831375940293 -0.0276191465509281 0.63564637619895
0.0532023058762258 -0.0191896998944886 0.63564637619895
0.0481803851423467 -0.0125279640734984 0.63564637619895
0.0549630241300214 0.00646934023738582 0.63564637619895
0.0459612411582456 0.0225543106445237 0.63564637619895
0.0527178220037511 0.031502185243448 0.63564637619895
0.0528365352149598 0.0396893407471325 0.63564637619895
0.055535752656488 0.0472944645641435 0.63564637619895
0.0462324231131963 0.0697285891898157 0.63564637619895
0.054333294998973 0.0809558508086435 0.63564637619895
0.0472109695929355 0.0934432572136947 0.63564637619895
0.0563880668969308 0.118084613859865 0.63564637619895
0.0539248563034917 0.12017532908875 0.63564637619895
0.0542665630387324 0.130183672473458 0.63564637619895
0.047712300570594 0.149391294680714 0.63564637619895
0.0574875501513623 0.167511377562726 0.63564637619895
0.0516195815055172 0.178999909272517 0.63564637619895
0.050572728977569 0.196218620294647 0.63564637619895
0.0519564685151668 0.211486799868903 0.63564637619895
0.0524238011794863 0.220272464953532 0.63564637619895
0.054506395266986 0.230102153337523 0.63564637619895
0.0579059855206897 0.256563678764369 0.63564637619895
0.0516451144675105 0.272087914110644 0.63564637619895
0.0550301613064561 0.275049283297088 0.63564637619895
0.0530809990241347 0.304175625444802 0.63564637619895
0.0568317276361988 0.310621432688895 0.63564637619895
0.0606765478533407 0.329209973514229 0.63564637619895
0.0604947560559223 0.335825314071092 0.63564637619895
0.0578247628812396 0.362682628866761 0.63564637619895
0.0523111655396216 0.367301331968147 0.63564637619895
0.0524055557167928 0.40401787510165 0.63564637619895
0.0522357557411571 0.419063132833074 0.63564637619895
0.0522733862257599 0.435171884304234 0.63564637619895
0.0609191264749324 0.43382106479213 0.63564637619895
0.0619590096536916 0.464600716791492 0.63564637619895
0.0583702269830344 0.488976573105355 0.630651537973563
0.0476083545569339 -0.5 0.61816127506826
0.0474425204600734 -0.497170697762089 0.626554475645196
0.0521388014821373 -0.496269586810182 0.627005031121149
0.0542214704068296 -0.486250880717758 0.632014384167361
0.0480687584739528 -0.47974356321366 0.635268042919411
0.0471306125464752 -0.472824917997423 0.63564637619895
0.0541710460773364 -0.460102280540374 0.63564637619895
0.0501340763408279 -0.451471730836199 0.63564637619895
0.0468607290270842 -0.453749508318743 0.63564637619895
0.0544573113419763 -0.435635866969685 0.63564637619895
0.055007245038699 -0.429361777143064 0.63564637619895
0.0505843394657652 -0.423434316175109 0.63564637619895
0.0533728735489838 -0.414185725361214 0.63564637619895
0.0489719913598883 -0.403515577016026 0.63564637619895
0.0535308748927043 -0.398432139651354 0.63564637619895
0.050380057485598 -0.381825513621245 0.63564637619895
0.0492146982811698 -0.370225397274744 0.63564637619895
0.0486735412487968 -0.360969969768371 0.63564637619895
0.0507731386475563 -0.35475023890672 0.63564637619895
0.0488573022728072 -0.337997371099647 0.63564637619895
0.0517973334193079 -0.332789986389369 0.63564637619895
0.0564001446251361 -0.32377369493189 0.63564637619895
0.0529828837108478 -0.321515518689007 0.63564637619895
0.0507696997225917 -0.299646437322863 0.63564637619895
0.05519191996688 -0.293538599825915 0.63564637619895
0.0517248554131161 -0.27818227697823 0.63564637619895
0.0523750606870494 -0.274162460750429 0.63564637619895
0.0538123961976641 -0.266549151344351 0.63564637619895
0.0533414558020521 -0.250837398004778 0.63564637619895
0.0526968154693331 -0.244244356933891 0.63564637619895
0.0582401294136389 -0.228538565885012 0.63564637619895
0.0593945260494673 -0.219684268060284 0.63564637619895
0.0512623762362363 -0.197751721555361 0.63564637619895
0.0545095448162115 -0.198927404209542 0.63564637619895
0.0540808308265142 -0.189317768426555 0.63564637619895
0.0539355098363499 -0.16947433867652 0.63564637619895
0.060708460952387 -0.167201727921553 0.63564637619895
0.056608757226981 -0.152416752879124 0.63564637619895
0.0524756149328234 -0.139308230079518 0.63564637619895
0.0567532881668154 -0.12220807798115 0.63564637619895
0.0604229671080741 -0.116677389232191 0.63564637619895
0.0575831449757055 -0.107500724151555 0.63564637619895
0.0624636972354036 -0.0936585143386005 0.63564637619895
0.0573818939501854 -0.0793554535663011 0.63564637619895
0.0607617664005041 -0.0715662583510262 0.63564637619895
0.0561739308657003 -0.0592743562572212 0.63564637619895
0.0617474650116224 -0.049614485668797 0.63564637619895
0.0578057721166568 -0.030417154526586 0.63564637619895
0.0611240828068007 -0.0207073552302901 0.63564637619895
0.0648146707137747 -0.00723766376843698 0.63564637619895
0.0641700746281811 0.00247589369225674 0.63564637619895
0.0580861049828968 0.0258521912571732 0.63564637619895
0.0630905508617689 0.0302957153509524 0.63564637619895
0.0568353104201619 0.0409992199186444 0.63564637619895
0.060934919782327 0.0575299094713009 0.63564637619895
0.0625750305586278 0.0680911068462447 0.63564637619895
0.0660941566407644 0.0869722796479927 0.63564637619895
0.0568580162338759 0.0888873439502554 0.63564637619895
0.0674638170380673 0.116567424647073 0.63564637619895
0.0670586887998103 0.130998059855971 0.63564637619895
0.0613313029385931 0.1409679315299 0.63564637619895
0.0638749676584951 0.15182331014399 0.63564637619895
0.0633386490958196 0.165836138932071 0.63564637619895
0.0684194314429986 0.175183669659137 0.63564637619895
0.067002612603222 0.199188786424964 0.63564637619895
0.0600994962455803 0.21000922779666 0.63564637619895
0.0636509696963427 0.22900115387449 0.63564637619895
0.0672586237944685 0.235214648275709 0.63564637619895
0.0697029905747918 0.258426423345109 0.63564637619895
0.0698550307546828 0.273267737268985 0.63564637619895
0.0632844534629013 0.280977759932674 0.63564637619895
0.0627120874678406 0.287461315703098 0.63564637619895
0.0691884004752721 0.322093039857817 0.63564637619895
0.0701446608939038 0.329464943514367 0.63564637619895
0.0700875536174282 0.346411976860733 0.63564637619895
0.0672445741882871 0.362854683753477 0.63564637619895
0.0625749389750815 0.378061058208066 0.63564637619895
0.0624299302353583 0.398828823887476 0.63564637619895
0.0665171324103069 0.415608252881039 0.63564637619895
0.0687723470003641 0.429061268252339 0.63564637619895
0.065511575933371 0.451575998765389 0.63564637619895
0.0694639754226769 0.452306704971544 0.63564637619895
0.0750531553558862 0.474139924205328 0.63564637619895
0.0569897944933338 -0.5 0.609585788237823
0.0584651565100429 -0.5 0.620057143527074
0.0613230513004506 -0.5 0.623233402184549
0.0547115068875715 -0.497967658375052 0.626155995338715
0.0589157285711184 -0.490322302542987 0.629978673254748
0.0627745138889874 -0.482780850068969 0.633749399491756
0.0618510702432633 -0.469189640568639 0.63564637619895
0.0613149366261964 -0.463820180676807 0.63564637619895
0.0631217774457235 -0.454711447769315 0.63564637619895
0.0576994512045485 -0.449884640075664 0.63564637619895
0.06359128194224 -0.440895044082442 0.63564637619895
0.0635350780633312 -0.429851862109171 0.63564637619895
0.0625967663951604 -0.414515601707441 0.63564637619895
0.0600556021971957 -0.413614897543872 0.63564637619895
0.0628423745798077 -0.395613118911375 0.63564637619895
0.0571227059350831 -0.395241858819697 0.63564637619895
0.0578589970700055 -0.379217193183303 0.63564637619895
0.0652974705495804 -0.365331397754238 0.63564637619895
0.0597609352170451 -0.359848167068776 0.63564637619895
0.0573103173076645 -0.355736715371465 0.63564637619895
0.0578445900613802 -0.339751301126871 0.63564637619895
0.0609386218051258 -0.33894757896409 0.63564637619895
0.0663357618982081 -0.317828487285232 0.63564637619895
0.0612549737839387 -0.306850554408294 0.63564637619895
0.0584928496751418 -0.298396407597504 0.63564637619895
0.0589862410282766 -0.290203499324096 0.63564637619895
0.0603194567704987 -0.2888374401282 0.63564637619895
0.0609543676554205 -0.268311607862015 0.63564637619895
0.0625332025917715 -0.25751925385675 0.63564637619895
0.0684059181686811 -0.254747732245059 0.63564637619895
0.0676345703975158 -0.234236055947706 0.63564637619895
0.0679534456678922 -0.234850665119382 0.63564637619895
0.068499736347394 -0.220548686037503 0.63564637619895
0.0630902866464018 -0.204230536988379 0.63564637619895
0.0655097661427726 -0.197685711535378 0.63564637619895
0.0639269666803725 -0.178342675216688 0.63564637619895
0.0671394107737809 -0.179928631297504 0.63564637619895
0.0699613852913544 -0.162534241701969 0.63564637619895
0.0677935902546992 -0.15238237278928 0.63564637619895
0.0689115424599002 -0.139005295557971 0.63564637619895
0.0691123283779358 -0.126987183001495 0.63564637619895
0.070876110367945 -0.113575286196828 0.63564637619895
0.0648897670349796 -0.0969528823105983 0.63564637619895
0.0658873849816177 -0.0884190658354876 0.63564637619895
0.0647339899577312 -0.0775735352798806 0.63564637619895
0.0666845695826745 -0.0730573303155206 0.63564637619895
0.0726802957998584 -0.050742087358519 0.63564637619895
0.0683498438716551 -0.0502014391635126 0.63564637619895
0.0726958813086575 -0.0320084483644826 0.63564637619895
0.0702451914054191 -0.0093969635867203 0.63564637619895
0.0660897565821119 -0.0118311200028297 0.63564637619895
0.0739119200125444 0.0117469802661547 0.63564637619895
0.0735088085925369 0.0118478759491602 0.63564637619895
0.0697230320497893 0.0239164788469997 0.63564637619895
0.0749807853806315 0.0445960963980914 0.63564637619895
0.0723548579748554 0.0539304606904854 0.63564637619895
0.0724219700490777 0.0615662947731849 0.63564637619895
0.0747259097298789 0.0908018492486207 0.63564637619895
0.0682354013299373 0.0924524648709914 0.63564637619895
0.0778677113633723 0.117011404305708 0.63564637619895
0.0682438197026282 0.130714525357172 0.63564637619895
0.0697816147642689 0.137860917447052 0.63564637619895
0.0780324673564815 0.157019771948058 0.63564637619895
0.0727352940035087 0.167396204305942 0.63564637619895
0.0768944099851473 0.176550658819472 0.63564637619895
0.0693982780775358 0.193618455352894 0.63564637619895
0.0696832056454736 0.2096493482275 0.63564637619895
0.0805181075644968 0.229001835494355 0.63564637619895
0.0717476587607698 0.241201902775372 0.63564637619895
0.0718466031286083 0.258538924541515 0.63564637619895
0.0749294641236074 0.266387856200732 0.63564637619895
0.0778521547253448 0.278336816705856 0.63564637619895
0.0722514562905381 0.296792473058612 0.63564637619895
0.0806819141633382 0.304161484440128 0.63564637619895
0.0789649963155762 0.322525439291633 0.63564637619895
0.0779165683197507 0.358536597896618 0.63564637619895
0.0838567947122529 0.367040773440288 0.63564637619895
0.084051928410788 0.374002959379963 0.63564637619895
0.0835922418305587 0.398399419034818 0.63564637619895
0.0852325993089148 0.414961220007194 0.63564637619895
0.0762071969228234 0.424930544322877 0.63564637619895
0.0820188831031277 0.448183410893816 0.63564637619895
0.0820641276747671 0.456067827920151 0.63564637619895
0.0827052614180898 0.485540343222143 0.629938997521885
0.067957304880722 -0.499428985242458 0.617010626314568
0.0652455288099314 -0.497421846390877 0.626428901330802
0.0690921693226061 -0.494082093689121 0.627575312581522
0.0635775269327733 -0.491261739533091 0.629508954759696
0.0659795936747743 -0.479123172291277 0.635202713765815
0.070696097610965 -0.474273982082169 0.63564637619895
0.0678184252376127 -0.462260172139137 0.63564637619895
0.0716106840406682 -0.451308552863509 0.63564637619895
0.0700629735954023 -0.449488387105451 0.63564637619895
0.0661492971159791 -0.441676679064941 0.63564637619895
0.0643274783475342 -0.431192774691591 0.63564637619895
0.0652200842515891 -0.423681773766699 0.63564637619895
0.0714020134851558 -0.411856286424446 0.63564637619895
0.0727128587122329 -0.400524959580717 0.63564637619895
0.0706636460865231 -0.397250506643169 0.63564637619895
0.0697158300566119 -0.382739626403688 0.63564637619895
0.0666826036937582 -0.37053788449915 0.63564637619895
0.0696156240204851 -0.363069735351976 0.63564637619895
0.0734771888385675 -0.356330092204817 0.63564637619895
0.0722066634672059 -0.345859054816515 0.63564637619895
0.0713869105138607 -0.334706984081516 0.63564637619895
0.0743207954846613 -0.323545905031793 0.63564637619895
0.0717618163895088 -0.316812538802489 0.63564637619895
0.0756526084175816 -0.303343586871852 0.63564637619895
0.071649580635422 -0.292051617257191 0.63564637619895
0.0715142520632295 -0.283991497502976 0.63564637619895
0.0717961630737348 -0.274301712206272 0.63564637619895
0.0700175300982498 -0.263602918928725 0.63564637619895
0.0722858637960621 -0.253496911728588 0.63564637619895
0.0694237039904739 -0.24008724680013 0.63564637619895
0.0764215578036581 -0.238166191509055 0.63564637619895
0.0762935475001597 -0.214829945381029 0.63564637619895
0.0711039091059664 -0.207734648547682 0.63564637619895
0.079147086466145 -0.191002386664216 0.63564637619895
0.0729992085641232 -0.18391049642417 0.63564637619895
0.0737408432050657 -0.179216159201704 0.63564637619895
0.0746113312133678 -0.162586925534862 0.63564637619895
0.0793986040527729 -0.146601022246489 0.63564637619895
0.0806039337546186 -0.149224284158168 0.63564637619895
0.0799800115717562 -0.136349913286854 0.63564637619895
0.0730911066623389 -0.117182038695396 0.63564637619895
0.0818142559488611 -0.111561369232105 0.63564637619895
0.0782423016234572 -0.0871070851235458 0.63564637619895
0.0764026198825096 -0.0751825079036674 0.63564637619895
0.0793569974510803 -0.068719167506258 0.63564637619895
0.0802569080203721 -0.0507810818294175 0.63564637619895
0.0741736571947553 -0.04415439164165 0.63564637619895
0.0749023677264172 -0.0315620106992471 0.63564637619895
0.0840227599981354 -0.0282262971862722 0.63564637619895
0.0800551022700421 -0.0100614215118725 0.63564637619895
0.0843531981021442 0.00720535559617647 0.63564637619895
0.0815656500975162 0.0252039105918633 0.63564637619895
0.0813977612040628 0.0255536990723482 0.63564637619895
0.0858299745969059 0.0385246415128875 0.63564637619895
0.0810708717919996 0.0607232750216296 0.63564637619895
0.0820799976245878 0.0681560855768909 0.63564637619895
0.0795810701339878 0.0896625567500217 0.63564637619895
0.0873699736083669 0.0992135672381265 0.63564637619895
0.0872965477903491 0.11689323978602 0.63564637619895
0.0828903741107006 0.120842757810559 0.63564637619895
0.0824377303139917 0.137446250865687 0.63564637619895
0.0863945440915284 0.155786587916521 0.63564637619895
0.0831730273315717 0.168977912058049 0.63564637619895
0.083953941577071 0.176766051023258 0.63564637619895
0.0807250085554658 0.194685529503795 0.63564637619895
0.0878497201308248 0.209824285949343 0.63564637619895
0.0880241164869849 0.220110845001289 0.63564637619895
0.0859844521275975 0.242187594851168 0.63564637619895
0.0841733362816006 0.259647152537281 0.63564637619895
0.0916521775452954 0.278368895974907 0.63564637619895
0.0911276528354928 0.279730071521206 0.63564637619895
0.0830597652617724 0.289455957897994 0.63564637619895
0.0862715921262809 0.313149134268224 0.63564637619895
0.0851186617346916 0.324710753782412 0.63564637619895
0.0842178172619925 0.345465918320923 0.63564637619895
0.0940467843471372 0.355433005794125 0.63564637619895
0.087492860012806 0.38023136171605 0.63564637619895
0.0858634649574619 0.38461950017532 0.63564637619895
0.095767395252236 0.401824439644175 0.63564637619895
0.0926888428604326 0.429410732466449 0.63564637619895
0.094858608865251 0.431277771756518 0.63564637619895
0.0978955743158318 0.46278791838642 0.63564637619895
0.0960595202379426 0.488102323916244 0.626973487604539
0.0789397488262323 -0.496486248256338 0.610070566021709
0.0758725530534335 -0.495558201638132 0.625984960965032
0.0755445356679694 -0.493502195313387 0.627020384342315
0.0757769869078768 -0.487343359465567 0.629964792240985
0.0720069979351888 -0.477115927780409 0.635392134914614
0.0716602961863188 -0.472908970645445 0.63564637619895
0.0760006262915952 -0.472337370790411 0.63564637619895
0.0751697421194944 -0.466348669863555 0.63564637619895
0.0751985381338112 -0.451412570740503 0.63564637619895
0.0806407037557633 -0.441599635562366 0.63564637619895
0.0729910801556204 -0.43332249706105 0.63564637619895
0.0754824507877001 -0.421039897798422 0.63564637619895
0.0742657319280498 -0.405135340239442 0.63564637619895
0.0738508548055345 -0.408317548806305 0.63564637619895
0.0810746319990198 -0.393882529248058 0.63564637619895
0.0754409560146905 -0.377182363253119 0.63564637619895
0.082532759759072 -0.367103703570199 0.63564637619895
0.0804847232033835 -0.363044655607885 0.63564637619895
0.0812440580546431 -0.356764187794356 0.63564637619895
0.0805663105831127 -0.340584401493447 0.63564637619895
0.0795831256421645 -0.333940735073227 0.63564637619895
0.0812096187413575 -0.3224378764034 0.63564637619895
0.0782944420233315 -0.315275818230856 0.63564637619895
0.0812571221845471 -0.301593785270377 0.63564637619895
0.0786532635849667 -0.291787171382557 0.63564637619895
0.0800043276472036 -0.287701820027379 0.63564637619895
0.0790660513740906 -0.273004726361752 0.63564637619895
0.0802055444267229 -0.261619614215918 0.63564637619895
0.0861965037120762 -0.254961973196986 0.63564637619895
0.0862877886203001 -0.238292508296018 0.63564637619895
0.0846016533856511 -0.235923443822203 0.63564637619895
0.0827846513665889 -0.220546643674355 0.63564637619895
0.0797516482449938 -0.21357774333138 0.63564637619895
0.0829369722730857 -0.195111328548344 0.63564637619895
0.0819333719102758 -0.184528445567037 0.63564637619895
0.080052050140547 -0.176295270571922 0.63564637619895
0.0872649840019016 -0.159217797031928 0.63564637619895
0.0817383881229674 -0.152907925978655 0.63564637619895
0.0846613943492829 -0.14048090034415 0.63564637619895
0.084843185795151 -0.130683404575936 0.63564637619895
0.0882446106498588 -0.121402377756614 0.63564637619895
0.0831830187178867 -0.109683387656026 0.63564637619895
0.0920939762182649 -0.0951860034443345 0.63564637619895
0.0860526970727561 -0.0756566640299021 0.63564637619895
0.0857908948494379 -0.0680421045418064 0.63564637619895
0.087541698522747 -0.0555248328051514 0.63564637619895
0.0872299772518212 -0.0448316437460624 0.63564637619895
0.0851469540620905 -0.0274017854109362 0.63564637619895
0.0886706860597118 -0.021932374157237 0.63564637619895
0.0908984195040728 -0.00818102430753199 0.63564637619895
0.094271998205136 0.00560883138605107 0.63564637619895
0.0858088433629198 0.00997348610556822 0.63564637619895
0.0906934557298628 0.0344791056770442 0.63564637619895
0.0948462016164171 0.044255461912274 0.63564637619895
0.0874950448936695 0.0588863848951833 0.63564637619895
0.0885669817263349 0.0751099508885651 0.63564637619895
0.0886847328193564 0.0820895649512317 0.63564637619895
0.0929302614960674 0.0969055133083802 0.63564637619895
0.0935157616212248 0.105056416929612 0.63564637619895
0.0908850661613724 0.11901088102712 0.63564637619895
0.0970567256485747 0.139159951209866 0.63564637619895
0.097148600506668 0.150483437376789 0.63564637619895
0.0967117921400583 0.171123645996339 0.63564637619895
0.0961763273797031 0.17916309149623 0.63564637619895
0.0993409798817519 0.193663937011393 0.63564637619895
0.0932500467050281 0.214301548363492 0.63564637619895
0.0951121765450427 0.234476808006372 0.63564637619895
0.0995477448749496 0.245403654455237 0.63564637619895
0.0977398137242155 0.253930452777202 0.63564637619895
0.0928366259685863 0.277637255604858 0.63564637619895
0.0992865032821889 0.284930721438252 0.63564637619895
0.0949945073443904 0.298230545260947 0.63564637619895
0.104672917253273 0.30909059740143 0.63564637619895
0.094866772638846 0.327992086065686 0.63564637619895
0.0988717924768708 0.351044649033295 0.63564637619895
0.100290398399144 0.363287372113924 0.63564637619895
0.101145848731088 0.382109464170228 0.63564637619895
0.0961650546841933 0.389365803248963 0.63564637619895
0.100213875186003 0.414632974086343 0.63564637619895
0.108425910249758 0.428122692140898 0.63564637619895
0.105226289982047 0.439071898991166 0.63564637619895
0.10533707708431 0.463568098690713 0.63564637619895
0.0831458625282491 -0.495359223486609 0.619485386951014
0.0830440897592959 -0.490582841438868 0.627459810279747
0.0818281540063654 -0.490322692768051 0.627742806104895
0.0838356228743582 -0.477340872124102 0.633752758433273
0.0820127947628153 -0.477478404512473 0.633922226705942
0.0871881911119443 -0.468364300371517 0.63564637619895
0.0815370309834189 -0.453006844459107 0.63564637619895
0.0808678713990446 -0.448394474017751 0.63564637619895
0.0822669641934815 -0.437396291203945 0.63564637619895
0.0874164434992582 -0.427375231043772 0.63564637619895
0.0862025651497487 -0.420105886051938 0.63564637619895
0.0848990147312044 -0.416676102733396 0.63564637619895
0.0856397163592602 -0.397071879653412 0.63564637619895
0.0837422268675874 -0.394773848530483 0.63564637619895
0.0847599629826354 -0.384147016857689 0.63564637619895
0.0875824259366246 -0.376162359051996 0.63564637619895
0.0843177021809459 -0.362666867683502 0.63564637619895
0.0900610507023032 -0.356108286672447 0.63564637619895
0.0902714492504788 -0.352473841354162 0.63564637619895
0.0858199519119573 -0.333229325354757 0.63564637619895
0.0870543992379204 -0.319551582956618 0.63564637619895
0.0886486733559424 -0.310908667797137 0.63564637619895
0.0916093432238833 -0.305683489951335 0.63564637619895
0.0889446511962281 -0.290239359436717 0.63564637619895
0.0897211901782488 -0.27620901224589 0.63564637619895
0.0943347421405944 -0.268086238115552 0.63564637619895
0.0923770876313927 -0.25826273249871 0.63564637619895
0.0958777803633314 -0.249210548940152 0.63564637619895
0.0936483321485497 -0.238709507979324 0.63564637619895
0.0964145773753842 -0.230282580296299 0.63564637619895
0.0934706356092347 -0.215774611318699 0.63564637619895
0.0964419258702555 -0.21024645682881 0.63564637619895
0.0902981118105401 -0.196281719589787 0.63564637619895
0.0922022010149343 -0.183826690404938 0.63564637619895
0.0943554896365396 -0.172844368571579 0.63564637619895
0.0947809259889833 -0.15462450617021 0.63564637619895
0.0990695728590096 -0.153411368569227 0.63564637619895
0.0945125025334883 -0.139412588923051 0.63564637619895
0.100209683010569 -0.126385360325059 0.63564637619895
0.0951727329344706 -0.119915364969274 0.63564637619895
0.099759157468589 -0.105548414617246 0.63564637619895
0.0938848897750287 -0.0872080646032146 0.63564637619895
0.0983042654217637 -0.087040432508851 0.63564637619895
0.0999370727637038 -0.0663301907384054 0.63564637619895
0.0963290324765269 -0.053516282646683 0.63564637619895
0.0966002776581816 -0.0433656427272522 0.63564637619895
0.0953873993720672 -0.0362069108058239 0.63564637619895
0.102571344008679 -0.0170727491520308 0.63564637619895
0.0991536624856183 -0.00560502061780962 0.63564637619895
0.0974027631198519 0.000853505685928472 0.63564637619895
0.101426471954051 0.0134952089330892 0.63564637619895
0.0973964710960903 0.0248425104682576 0.63564637619895
0.100337290012199 0.0524898352923657 0.63564637619895
0.105552242237646 0.0524080074847686 0.63564637619895
0.10162714508968 0.0619316235783468 0.63564637619895
0.103151269045252 0.0873347497710814 0.63564637619895
0.103841464895153 0.0910873914141397 0.63564637619895
0.100231305732847 0.106895592719966 0.63564637619895
0.103118054160017 0.122060996302551 0.63564637619895
0.103436313389413 0.14379845492066 0.63564637619895
0.109708577706988 0.149851971062783 0.63564637619895
0.100548404611747 0.16872466832612 0.63564637619895
0.109379659253968 0.177734160604112 0.63564637619895
0.109597286980137 0.197121041372331 0.63564637619895
0.105342058488514 0.207199262691144 0.63564637619895
0.108215871510799 0.224366100665692 0.63564637619895
0.109422845881082 0.23709810249113 0.63564637619895
0.106072496928324 0.252946340094557 0.63564637619895
0.105903400268694 0.26681030353686 0.63564637619895
0.109185387589202 0.290935785712309 0.63564637619895
0.107907492626677 0.307779361442038 0.63564637619895
0.10846773172235 0.311729871515629 0.63564637619895
0.113447730080565 0.328054012605935 0.63564637619895
0.111209965574915 0.355369782818838 0.63564637619895
0.11720916245582 0.361086576771939 0.63564637619895
0.112548690585211 0.368920116475064 0.63564637619895
0.116003026690497 0.389911308080514 0.63564637619895
0.114594385979002 0.416112682909005 0.63564637619895
0.116498582956503 0.431984621070676 0.63564637619895
0.119819906702148 0.444370117130023 0.63564637619895
0.121075439562369 0.475811156498903 0.62967236745041
0.0917197136183516 -0.493061867010992 0.61009948320438
0.0917492693367939 -0.493053947580103 0.619204039296253
0.0903235291130879 -0.491203645920686 0.626217955967499
0.0932818606006266 -0.483285255127974 0.629659408786814
0.0893498488898781 -0.480292557023719 0.631613610739562
0.0924769972714013 -0.473604616332898 0.634438955279537
0.0917014892392608 -0.468285662899144 0.63564637619895
0.0892550531229163 -0.454710547914751 0.63564637619895
0.0907524503045492 -0.4465387259112 0.63564637619895
0.0975231779161143 -0.438515832684051 0.63564637619895
0.0980669165667385 -0.429441810005221 0.63564637619895
0.0907901028235052 -0.424874720039883 0.63564637619895
0.095980953479574 -0.407074108704955 0.63564637619895
0.0935251750095476 -0.401536123341316 0.63564637619895
0.0951009425296713 -0.394913852567826 0.63564637619895
0.0962857694113085 -0.384627230233852 0.63564637619895
0.09630451121239 -0.375961683491108 0.63564637619895
0.0938957158084321 -0.37063469702532 0.63564637619895
0.100161182225621 -0.360362305484518 0.63564637619895
0.10101028174147 -0.337225088794499 0.63564637619895
0.0939217628707539 -0.334129053051892 0.63564637619895
0.0998607919207086 -0.327044941385883 0.63564637619895
0.102891644964144 -0.315194598166061 0.63564637619895
0.0957695711552007 -0.306562078549817 0.63564637619895
0.0948276418660513 -0.291225558150418 0.63564637619895
0.102375865118985 -0.279895652399596 0.63564637619895
0.0998097223971301 -0.273178735749101 0.63564637619895
0.101864990072452 -0.265406948637644 0.63564637619895
0.096400837074268 -0.252212156959948 0.63564637619895
0.097998926383154 -0.238791731194992 0.63564637619895
0.099592760789931 -0.232032508024838 0.63564637619895
0.100282459572077 -0.214783378305542 0.63564637619895
0.104938129320929 -0.20280454812815 0.63564637619895
0.105292278227888 -0.202228188237104 0.63564637619895
0.106518990734957 -0.178914273174904 0.63564637619895
0.102382430067283 -0.177366966991999 0.63564637619895
0.108714280135078 -0.164685135580745 0.63564637619895
0.106833943925961 -0.153880662351872 0.63564637619895
0.104443563777891 -0.146224299064364 0.63564637619895
0.102191691181025 -0.132875505897709 0.63564637619895
0.105061552902262 -0.119660662567921 0.63564637619895
0.110198665885868 -0.110490085297703 0.63564637619895
0.105913392975997 -0.0846887496732414 0.63564637619895
0.104902266073453 -0.0800543093803466 0.63564637619895
0.103180293053331 -0.0658968407863163 0.63564637619895
0.109227019830519 -0.0505055826460568 0.63564637619895
0.104765379847533 -0.0483817609295011 0.63564637619895
0.104319712459571 -0.0311519544092599 0.63564637619895
0.110275266360245 -0.0250116329812852 0.63564637619895
0.109396549262283 -0.0110695819566674 0.63564637619895
0.11172960213813 0.0057090165193444 0.63564637619895
0.107300108064594 0.0208956890945806 0.63564637619895
0.112271587754878 0.0383224210541897 0.63564637619895
0.107864341804064 0.0422021909867084 0.63564637619895
0.10962680973955 0.0524176891767356 0.63564637619895
0.115001625288899 0.0757606813845912 0.63564637619895
0.107966618359532 0.0859797606987293 0.63564637619895
0.116280594008865 0.101242265751233 0.63564637619895
0.117574258593809 0.10696206801753 0.63564637619895
0.11851305945396 0.127982841661785 0.63564637619895
0.109620850580723 0.130900301505332 0.63564637619895
0.118044610109645 0.14246740333499 0.63564637619895
0.112303943013646 0.172493948725454 0.63564637619895
0.115367954926449 0.182136613179497 0.63564637619895
0.118120280871194 0.192592499164287 0.63564637619895
0.116395619506296 0.211835683881026 0.63564637619895
0.12223598215499 0.215800763949907 0.63564637619895
0.118860198941539 0.243651164048783 0.63564637619895
0.11882415662618 0.249636698784003 0.63564637619895
0.114540124950003 0.271879187533041 0.63564637619895
0.122477213962405 0.291720995292077 0.63564637619895
0.120202285605298 0.309159127236517 0.63564637619895
0.125430390843366 0.306591660328612 0.63564637619895
0.127526341437785 0.338746719075241 0.63564637619895
0.127425602448614 0.344170751925593 0.63564637619895
0.124996345780734 0.355326356827547 0.63564637619895
0.121720149047262 0.367607249476513 0.63564637619895
0.12500386994478 0.392305074008644 0.63564637619895
0.121813832829578 0.409596035113413 0.63564637619895
0.129236688156454 0.429242504398275 0.63564637619895
0.121716246490709 0.442349872078344 0.63564637619895
0.12560758899159 0.459920571195163 0.63564637619895
0.102647631100978 -0.490133740346568 0.61662581059677
0.0973962260977156 -0.489960052334139 0.625903291208896
0.104324682323227 -0.48085213121401 0.629405471113603
0.0970815295608578 -0.482977288035676 0.629316432124866
0.0988953833002833 -0.478326440138011 0.631327889227718
0.105598081494744 -0.462737050120199 0.63564637619895
0.102603258699615 -0.459716204921201 0.63564637619895
0.0987374663076228 -0.443264431861789 0.63564637619895
0.106230366185365 -0.439536593897463 0.63564637619895
0.104065581298959 -0.432888987138273 0.63564637619895
0.107080449499654 -0.415336113059554 0.63564637619895
0.106065683495324 -0.411984210873537 0.63564637619895
0.100104508353538 -0.409635830987429 0.63564637619895
0.101943634643225 -0.391649468375167 0.63564637619895
0.105134535196319 -0.37820413138031 0.63564637619895
0.102760020394009 -0.367410860098283 0.63564637619895
0.103400456341978 -0.367648376164076 0.63564637619895
0.104607693160549 -0.352990099944777 0.63564637619895
0.105062219326663 -0.34225334739071 0.63564637619895
0.110370065758581 -0.330881960853329 0.63564637619895
0.104843037282909 -0.330810502852172 0.63564637619895
0.107065548569453 -0.309628067851298 0.63564637619895
0.106411755949599 -0.307510524007292 0.63564637619895
0.108308682577037 -0.293330262546416 0.63564637619895
0.107904182759874 -0.288581121149878 0.63564637619895
0.110991813941572 -0.278047686640992 0.63564637619895
0.107134835614856 -0.265391385499218 0.63564637619895
0.107933332842707 -0.24421179013965 0.63564637619895
0.106962752469987 -0.231354817143427 0.63564637619895
0.108541039074497 -0.226894445609393 0.63564637619895
0.106454283270128 -0.223015270753887 0.63564637619895
0.116141335486513 -0.207791056452966 0.63564637619895
0.108109425911488 -0.193689991716592 0.63564637619895
0.11539130109733 -0.184776210196579 0.63564637619895
0.115229085244807 -0.174039360214284 0.63564637619895
0.117582061782693 -0.161885634150833 0.63564637619895
