ply
format ascii 1.0
element vertex 1040
property float x
property float y
property float z
end_header
-0.335684830083637 0.0854527225369467 0.2625
-0.348735763951878 0.0944013704838767 0.2625
-0.367497277902669 0.0881076542815234 0.2625
-0.378227192846589 0.0894367564215733 0.2625
-0.396526155603583 0.0887464910670161 0.2625
-0.402569706059835 0.0902366516966042 0.2625
-0.418747488495182 0.0912190267105921 0.2625
-0.447656171614162 0.0974334791421534 0.2625
-0.454897111249199 0.090002299546859 0.2625
-0.46597669506757 0.0942238218610068 0.2625
-0.48004056103519 0.0925739564943707 0.2625
-0.486962519931457 0.0968837614920945 0.2625
0.270232992263015 0.0843333091164799 0.2625
0.262471267811012 0.0844973612345508 0.2625
0.25585131546056 0.0846922058160074 0.2625
0.245065419456221 0.0840994065869532 0.2625
0.241607065950652 0.0825397780186913 0.2625
0.221230559756812 0.078566298347023 0.2625
0.214962660994839 0.0822569990805163 0.2625
0.214202157492522 0.0813806774193494 0.2625
0.196517198317667 0.0795993437071674 0.2625
0.188293150992859 0.0880407171218062 0.2625
0.175549330476559 0.0814797365438809 0.2625
0.170289523770729 0.08735781374677 0.2625
0.155636953237454 0.0840396471501229 0.2625
0.141866449005504 0.0836974561686966 0.2625
0.131451136700754 0.0871716541162327 0.2625
0.132915164399041 0.0842450621497404 0.2625
0.115639409490924 0.0870177439874055 0.2625
0.110175540200008 0.0908461657525572 0.2625
0.0942735912810301 0.0826380210703895 0.2625
0.083502118274063 0.0909363686278326 0.2625
0.0792783578325663 0.085482785364634 0.2625
0.0701636898822321 0.0882861263297598 0.2625
0.0510409481325588 0.0881900355021792 0.2625
0.0386643102285225 0.0896257708411437 0.2625
0.0354800606554002 0.0925960599879984 0.2625
0.020577253899714 0.0867020014686612 0.2625
0.0189694262822379 0.0945182218243683 0.2625
-0.000664625667221823 0.091849519464209 0.2625
-0.00979627859794353 0.0897730258779273 0.2625
-0.0199159848072001 0.085754788840076 0.2625
-0.0227669531985688 0.0875476425124721 0.2625
-0.0350325079616232 0.0957877508354475 0.2625
-0.056443383755298 0.0874231937489113 0.2625
-0.0675027455307611 0.092757969780943 0.2625
-0.0690360850546802 0.0909162837332264 0.2625
-0.0857990962886266 0.0897686704649901 0.2625
-0.0918452779225371 0.0942752176502929 0.2625
-0.10708524525812 0.0975828133364677 0.2625
-0.117489334482192 0.0884302810656443 0.2625
-0.127047110579994 0.0966482613942727 0.2625
-0.142752307596404 0.0984503389624053 0.2625
-0.152417081183008 0.0923357251389525 0.2625
-0.177858469075047 0.0969967468995936 0.2625
-0.183397805283536 0.0947849890149547 0.2625
-0.194994968994203 0.0905863948955303 0.2625
-0.207898067825801 0.101154688179894 0.2625
-0.217074618706584 0.100740316170733 0.2625
-0.237847312684651 0.0984388645702768 0.2625
-0.247536287785645 0.098046023681307 0.2625
-0.256015566421744 0.0983756686107864 0.2625
-0.270690707760225 0.0945650823995917 0.2625
-0.288847956131878 0.104231647855535 0.2625
-0.300528625085858 0.0946338396781548 0.2625
-0.309002442167159 0.10401402326469 0.2625
-0.322682359937018 0.101738772264015 0.2625
-0.333202295781235 0.0994634289546918 0.2625
-0.348091607975454 0.105061430630587 0.2625
-0.370927072389822 0.10280829516648 0.2625
-0.379325292877384 0.100398930291922 0.2625
-0.394012274227023 0.101856867003457 0.2625
-0.409338310675124 0.0988158881933913 0.2625
-0.411464651837602 0.101368610177357 0.2625
-0.430486320790212 0.106223442479208 0.2625
-0.453420030836974 0.100830013850651 0.2625
-0.465611779970968 0.109646442527984 0.2625
-0.474696812576491 0.105032929496388 0.2625
-0.490903054930745 0.100471604446455 0.261972111361035
0.275259374653488 0.0869184814239466 0.2625
0.265546532238235 0.0900350315776037 0.2625
0.248322916039368 0.0959617111341843 0.2625
0.245436064932997 0.0890807206930449 0.2625
0.233938508110353 0.0947939340280082 0.2625
0.219110328771036 0.0912768808422844 0.2625
0.21267054527131 0.0884166631819219 0.2625
0.199727902641298 0.0965531634812462 0.2625
0.197895128998292 0.0947205399203609 0.2625
0.18747187632934 0.0927000235140123 0.2625
0.176284449055005 0.0896560795869661 0.2625
0.164634197566921 0.0900757341782306 0.2625
0.156018790420521 0.0944065910785827 0.2625
0.145253504435948 0.0951018420775677 0.2625
0.141023732876057 0.0922041859801941 0.2625
0.130194810731659 0.0936357010612412 0.2625
0.115543237789499 0.0972182051615632 0.2625
0.112271172255175 0.0928023931902374 0.2625
0.103361979576775 0.0998121594159904 0.2625
0.0907942617764223 0.101998579758113 0.2625
0.0802992493226184 0.0994112787623004 0.2625
0.0710776630228775 0.0968275167574945 0.2625
0.0600531763358702 0.102374971209492 0.2625
0.0455460508754055 0.100246689594911 0.2625
0.0333905532086456 0.0984136953259931 0.2625
0.0225809980269558 0.0960147497299257 0.2625
0.0174750631405904 0.101271588807308 0.2625
-0.000145715385551763 0.103999085724568 0.2625
-0.000811652576091741 0.102925744043154 0.2625
-0.018909565359358 0.101690317151511 0.2625
-0.0337993141754145 0.104748759506813 0.2625
-0.0443500879353202 0.0976066898773515 0.2625
-0.0569140956965921 0.0989211271580362 0.2625
-0.0647733858817893 0.102976749601201 0.2625
-0.0743793290533023 0.104010964974441 0.2625
-0.0909414473680374 0.106403869599296 0.2625
-0.0939512970095666 0.0989361930034238 0.2625
-0.102950702526619 0.105812565415266 0.2625
-0.120484347401918 0.0994298911410664 0.2625
-0.124462789058057 0.101805597034734 0.2625
-0.150308729084614 0.10987549512496 0.2625
-0.166047748324528 0.106918962887467 0.2625
-0.166666841566895 0.106446790950336 0.2625
-0.176096735512237 0.101843195935709 0.2625
-0.187824861484741 0.108226983327974 0.2625
-0.212036819150915 0.102126990736945 0.2625
-0.223418579127081 0.106978924189796 0.2625
-0.239950117609652 0.109301925909029 0.2625
-0.241044502769575 0.106042756220014 0.2625
-0.262857775778361 0.109098177102358 0.2625
-0.277773071956416 0.10947363441695 0.2625
-0.284968834177617 0.106232263534236 0.2625
-0.294941097129972 0.107681740774582 0.2625
-0.311760204693932 0.114677304860295 0.2625
-0.322669113379333 0.107716494848181 0.2625
-0.339974731015122 0.108519244553505 0.2625
-0.350264165548696 0.115965322535137 0.2625
-0.374296209930459 0.111004488639262 0.2625
-0.371610521526997 0.107441377103822 0.2625
-0.401547190306779 0.116232265989112 0.2625
-0.409130982684064 0.111331829795631 0.2625
-0.413582076860758 0.119129851276018 0.2625
-0.448650761771522 0.113340848758027 0.2625
-0.451082234948756 0.114275664548989 0.2625
-0.463566994879947 0.116040667159224 0.2625
-0.489887922853505 0.112356507656953 0.262378164191931
0.270750115203955 0.103799178366536 0.2625
0.265122162008418 0.0981969722777433 0.2625
0.253228791162411 0.0961389111734967 0.2625
0.239225928211552 0.100854821058854 0.2625
0.227579851167031 0.102477064456721 0.2625
0.23090592735336 0.0977548187297813 0.2625
0.220921441725786 0.105749221133236 0.2625
0.208513753448013 0.103421826612006 0.2625
0.196113956954645 0.103458159443091 0.2625
0.18482646119924 0.0995250156437183 0.2625
0.175856155044393 0.106319192381908 0.2625
0.165930282546269 0.101354652418646 0.2625
0.162718953073377 0.102600625346183 0.2625
0.147010799639692 0.102851771166567 0.2625
0.138806121711021 0.106022559090808 0.2625
0.122851374466248 0.101324724927896 0.2625
0.110604938449566 0.10420819900388 0.2625
0.103642622152626 0.102331480130433 0.2625
0.0921256919434909 0.111123642020863 0.2625
0.0839597642443302 0.108957754496661 0.2625
0.0721911929114611 0.104355708856361 0.2625
0.0665792592385733 0.107127497721201 0.2625
0.0603475048311287 0.112265330029107 0.2625
0.0492421057968232 0.10895251152021 0.2625
0.0320842707297477 0.10914768059271 0.2625
0.019508584242432 0.112162804423823 0.2625
0.0166682028440706 0.110064669835484 0.2625
0.00881011154851516 0.110849105844207 0.2625
-0.00694521737776401 0.111207671140962 0.2625
-0.0257282226390314 0.115466377168887 0.2625
-0.0296688023651948 0.109896560165942 0.2625
-0.0387751790299242 0.106560110653215 0.2625
-0.0511105191637692 0.112173096645514 0.2625
-0.0652712529254107 0.111754271226644 0.2625
-0.0712402621269087 0.11057822124594 0.2625
-0.0955042844548598 0.113369965009348 0.2625
-0.103787060702889 0.109622428197054 0.2625
-0.111239774733618 0.116750549217339 0.2625
-0.119243811016787 0.115843294791303 0.2625
-0.135663295785057 0.116562681161666 0.2625
-0.151439398872546 0.116154654589253 0.2625
-0.156629648313088 0.111968072395766 0.2625
-0.171494562886318 0.118742035602301 0.2625
-0.189415486881078 0.114750392208268 0.2625
-0.196157584083573 0.122348960258404 0.2625
-0.214514122306554 0.11319036589723 0.2625
-0.216051873246392 0.112994003106763 0.2625
-0.232793485214187 0.118402085653744 0.2625
-0.24262945578614 0.114061250130693 0.2625
-0.265327616201722 0.121540518401972 0.2625
-0.280127018156183 0.118079244452174 0.2625
-0.278650385215961 0.119264101619841 0.2625
-0.303783047958839 0.117354155525763 0.2625
-0.310215771121296 0.124267726999417 0.2625
-0.334891660516183 0.125006708328174 0.2625
-0.334331543710576 0.117104421047552 0.2625
-0.351908511643603 0.122737839249134 0.2625
-0.372106613155185 0.121418479894149 0.2625
-0.376700102921237 0.121949982557655 0.2625
-0.387470922859993 0.11997437762959 0.2625
-0.398617191819268 0.124246246423286 0.2625
-0.421438677282311 0.130334424321811 0.2625
-0.439494663641503 0.129285315180292 0.2625
-0.441583521623386 0.125596129654071 0.2625
-0.476452650555161 0.123251966330064 0.2625
-0.477423892503539 0.121984583493289 0.2625
-0.490584198639662 0.12526728110505 0.262099653877468
0.277160918777302 0.110600593750914 0.2625
0.258501160388094 0.112883761893799 0.2625
0.252418325803943 0.113472464373628 0.2625
0.247785902429585 0.10579479364143 0.2625
0.236087122974547 0.113522045029875 0.2625
0.225702329730461 0.109954396309129 0.2625
0.207899485232292 0.107726489499848 0.2625
0.200397061748252 0.110973269444802 0.2625
0.203633753400517 0.108056742978151 0.2625
0.187045439232589 0.110164560710658 0.2625
0.177247668517355 0.116395873477995 0.2625
0.169664221638085 0.110922201567774 0.2625
0.166510380962085 0.114909987726873 0.2625
0.154096867173786 0.116517532780704 0.2625
0.139655844464594 0.111513795563473 0.2625
0.134884247998484 0.112945000137391 0.2625
0.116168214543047 0.110780712890293 0.2625
0.104591590129646 0.117081849649684 0.2625
0.104581826841436 0.113885308927182 0.2625
0.0894678256207661 0.121105759054597 0.2625
0.0759567668927824 0.11785319683391 0.2625
0.0671837203984389 0.112814927134834 0.2625
0.0611775823473259 0.114739489324354 0.2625
0.0483154147856995 0.118960112247428 0.2625
0.0281358548549956 0.122769569493975 0.2625
0.0303918501615532 0.120152863413574 0.2625
0.0128279759010512 0.121376522686492 0.2625
0.000320484486308814 0.118928720795686 0.2625
-0.00615060712720315 0.115384555515071 0.2625
-0.0250174016993545 0.122190957355559 0.2625
-0.0268564076421176 0.120237707612131 0.2625
-0.040698652633022 0.124809580062259 0.2625
-0.0536810691459787 0.117111530758974 0.2625
-0.0673881597340688 0.126605602588253 0.2625
-0.0812564192379839 0.124595941149235 0.2625
-0.093343316817256 0.127718930586532 0.2625
-0.0943512853403525 0.119028615746168 0.2625
-0.117584048260493 0.122921196446735 0.2625
-0.127997615437226 0.121339315495246 0.2625
-0.129746996130077 0.121691090550605 0.2625
-0.14231159088554 0.128897018151156 0.2625
-0.160870887383269 0.121919236682498 0.2625
-0.168190882136511 0.125949308186804 0.2625
-0.184316240136078 0.122747146029762 0.2625
-0.19648109703742 0.128210137732253 0.2625
-0.204014623253675 0.132502044251686 0.2625
-0.22350472777564 0.126289288243909 0.2625
-0.233156622282956 0.126341213217868 0.2625
-0.244192113821934 0.133040126894257 0.2625
-0.258150794390436 0.127194634883939 0.2625
-0.267505473127016 0.128266317002949 0.2625
-0.283190537036911 0.126663781259578 0.2625
-0.296561192815501 0.130819001654689 0.2625
-0.318701590391976 0.131129969120473 0.2625
-0.330570664568004 0.135619491423243 0.2625
-0.335270984063381 0.132752562024757 0.2625
-0.347452549731529 0.130647719825682 0.2625
-0.36730073692529 0.131006999980533 0.2625
-0.381374143930666 0.132851832128202 0.2625
-0.395368300515453 0.134631055519308 0.2625
-0.413231393849635 0.132340036155402 0.2625
-0.420676791899261 0.135573757579485 0.2625
-0.426835109463069 0.136141514095527 0.2625
-0.457904644394845 0.135780414794002 0.2625
-0.456522757252614 0.135418308120817 0.2625
-0.488072470586824 0.143988521266167 0.2625
0.275988778455118 0.118405987463545 0.2625
0.258290426979657 0.118372558608008 0.2625
0.248350892411638 0.119440136889992 0.2625
0.245745609658181 0.123728253374688 0.2625
0.239902841673948 0.121995231554599 0.2625
0.22457818461837 0.121464319573009 0.2625
0.213755344224338 0.121710933195231 0.2625
0.202886103483932 0.118086925529219 0.2625
0.199526434783201 0.124760973988169 0.2625
0.190563591781681 0.120788253664653 0.2625
0.175286810639672 0.124567109491771 0.2625
0.163658043524747 0.122634159165231 0.2625
0.159342826260953 0.119957273565524 0.2625
0.152331615430914 0.125684331053781 0.2625
0.138103258565808 0.125152445259838 0.2625
0.129115019861537 0.126898410222474 0.2625
0.118044835913006 0.126196707299701 0.2625
0.112168937549394 0.128854553333082 0.2625
0.093716896138784 0.123476485940658 0.2625
0.0843146175095306 0.125865640768095 0.2625
0.0806649460918229 0.122718857120534 0.2625
0.067446394848772 0.131495414116683 0.2625
0.0480778888988511 0.126519263458058 0.2625
0.0478224240486651 0.129792687154027 0.2625
0.0321870509796189 0.132669245062838 0.2625
0.0253405367154422 0.12579864517387 0.2625
0.0127409991546772 0.128984614321129 0.2625
-0.0042113062053763 0.12886169818722 0.2625
-0.0153838907206933 0.126918089984976 0.2625
-0.0196089533899283 0.132827035491971 0.2625
-0.0362431653606613 0.128498693825082 0.2625
-0.0467936159615919 0.130153600890861 0.2625
-0.0588235354945254 0.127744152766386 0.2625
-0.0746653078626024 0.128705775561058 0.2625
-0.0665470200500415 0.132959782798828 0.2625
-0.0890889942966269 0.133378641122884 0.2625
-0.095548838761357 0.130168251564899 0.2625
-0.114346654437399 0.135133704373026 0.2625
-0.120360889182278 0.136783563142488 0.2625
-0.130092201959182 0.136467224218585 0.2625
-0.141213790827389 0.137354279367949 0.2625
-0.162210659804827 0.132904357639405 0.2625
-0.170390390895829 0.137686842996227 0.2625
-0.19106923186589 0.141028252687007 0.2625
-0.18556179010913 0.137178216005765 0.2625
-0.204312879351513 0.134498647926548 0.2625
-0.22481409023241 0.135584129367349 0.2625
-0.233053694818794 0.144136803163099 0.2625
-0.240758198051775 0.145197786633942 0.2625
-0.260747441536567 0.141161884323228 0.2625
-0.273592299716033 0.14231374854637 0.2625
-0.288323428147153 0.144103216829093 0.2625
-0.299636460294383 0.143174214531307 0.2625
-0.313657693455524 0.145689342996979 0.2625
-0.33175516134447 0.143460886160301 0.2625
-0.340248259168278 0.140544439081784 0.2625
-0.351944639563518 0.142311440655488 0.2625
-0.374979020861513 0.14829428642947 0.2625
-0.375151095507128 0.145411154660016 0.2625
-0.400741327669382 0.150723783556712 0.2625
-0.410122185690743 0.146083180309145 0.2625
-0.419589953876684 0.150820872509281 0.2625
-0.442493212763575 0.145226245649029 0.2625
-0.456320525263516 0.150626123853439 0.2625
-0.46011990350515 0.155370665602583 0.2625
-0.479379249116781 0.146545841120496 0.2625
-0.491572199748788 0.151739669128928 0.261704453433817
0.267513631896867 0.131434265327494 0.2625
0.265038253659827 0.12640158207827 0.2625
0.256613384095922 0.128152995546021 0.2625
0.248706450202622 0.127831900697999 0.2625
0.233360671658557 0.132552152659968 0.2625
0.222864458385834 0.133986528251787 0.2625
0.217767117652298 0.125346309346584 0.2625
0.20986183114614 0.131061134105209 0.2625
0.188797846729699 0.126411506338879 0.2625
0.189314409545076 0.128992186037426 0.2625
0.181746874473513 0.129577669171888 0.2625
0.162909025891641 0.135554148820508 0.2625
0.164228075757735 0.136412847625053 0.2625
0.145583891276726 0.137557576269056 0.2625
0.130844895246969 0.131784625676585 0.2625
0.12415900202752 0.137737132021936 0.2625
0.121968878045948 0.136388045791476 0.2625
0.107226362274759 0.135769318878409 0.2625
0.0987583727022586 0.133051232646099 0.2625
0.0892472717609927 0.137951456105892 0.2625
0.0706533572604346 0.136469000721202 0.2625
0.0668351027411588 0.134586076458363 0.2625
0.0550514174421637 0.133521705620621 0.2625
0.0495297485374674 0.142820003726534 0.2625
0.0363703771783018 0.143236425381887 0.2625
0.020872523458021 0.136564204706024 0.2625
0.0223972736257396 0.13781190617433 0.2625
0.000729193020929605 0.144368534518967 0.2625
6.75448038078249e-005 0.139288056204596 0.2625
-0.0198763600009183 0.145237127952876 0.2625
-0.0300378613591403 0.143914950272577 0.2625
-0.0430533289531886 0.139203732835553 0.2625
-0.0497101477025604 0.146075622645509 0.2625
-0.0695882982981827 0.138116984877193 0.2625
-0.0673406917636167 0.148434664620451 0.2625
-0.0820770987418153 0.143790049053387 0.2625
-0.102285356560665 0.149369262418021 0.2625
-0.116235556782609 0.147173720003871 0.2625
-0.118307875075713 0.148232247742927 0.2625
-0.131291992379533 0.141882646931778 0.2625
-0.149436589518086 0.144395014839592 0.2625
-0.153254671899439 0.151330280881929 0.2625
-0.160172951021518 0.14857772421451 0.2625
-0.181946517832498 0.149323631351278 0.2625
-0.198914293209677 0.149733349604664 0.2625
-0.20194022553733 0.148224495013273 0.2625
-0.221246661762806 0.153801422794275 0.2625
-0.233924091769943 0.155981289533923 0.2625
-0.23752939248387 0.149572199412187 0.2625
-0.259298355503984 0.156938927875933 0.2625
-0.277681110037103 0.14948400659565 0.2625
-0.284824611867739 0.158342139145141 0.2625
-0.30004502312045 0.156223985237202 0.2625
-0.313888796473809 0.159247034784847 0.2625
-0.32028723192982 0.152278990112982 0.2625
-0.343858436365514 0.155439923401801 0.2625
-0.353449217982506 0.155678247627197 0.2625
-0.370773520265689 0.159152662503639 0.2625
-0.385816130419733 0.163195386934582 0.2625
-0.39339086811529 0.156982127384207 0.2625
-0.408016359161633 0.163613852717952 0.2625
-0.420925566546298 0.15915199637522 0.2625
-0.426725610130876 0.160168959045254 0.2625
-0.44692085810329 0.163966319729517 0.2625
-0.474402047278704 0.166775454953505 0.2625
-0.483347979848337 0.16210446459643 0.2625
-0.486785720112727 0.160543697696737 0.2625
0.271991021661008 0.14075661761356 0.2625
0.258166504971814 0.141310358613408 0.2625
0.258615047537656 0.136364298688902 0.2625
0.24676957794079 0.140537328333149 0.2625
0.239919607475867 0.133898593078596 0.2625
0.230616452998223 0.134895971271363 0.2625
0.221982453357867 0.135806330948233 0.2625
0.206255323004673 0.136720306060808 0.2625
0.193958027217699 0.142935160870454 0.2625
0.187191720535183 0.136125495304046 0.2625
0.173007132502108 0.138059247682717 0.2625
0.164950706345731 0.140919086538103 0.2625
0.164082397130298 0.139423363048597 0.2625
0.145622733524613 0.146998614679311 0.2625
0.130347039931336 0.140589196911017 0.2625
0.120845198402337 0.145887215653442 0.2625
0.124010453312659 0.141646702609256 0.2625
0.107140349614842 0.140219911297345 0.2625
0.0957702554838338 0.142445320454954 0.2625
0.0855419980629879 0.142370725794197 0.2625
0.0836922105424597 0.142301528433045 0.2625
0.0630590991340108 0.14343297806904 0.2625
0.0512697236777477 0.147581254385522 0.2625
0.0498460351238473 0.145643150236101 0.2625
0.0332030347821719 0.147042307827385 0.2625
0.0162733393919933 0.14471131919111 0.2625
0.0192536313680997 0.145553550565687 0.2625
0.00108554830610868 0.152146229508183 0.2625
-0.00967791781846562 0.154341025144986 0.2625
-0.0261823328414973 0.14876726716446 0.2625
-0.032264780366212 0.149256218076223 0.2625
-0.03950003068651 0.149052825397257 0.2625
-0.0483772759801018 0.147961360262251 0.2625
-0.0627412426185257 0.154581075246095 0.2625
-0.0753301859948632 0.151580211063026 0.2625
-0.0967358281327903 0.158093995103742 0.2625
-0.102944910553405 0.156816656478444 0.2625
-0.109533543605588 0.152490672471961 0.2625
-0.130804412079286 0.160498900906407 0.2625
-0.142586781254543 0.15745544954989 0.2625
-0.142789662591957 0.154685052081813 0.2625
-0.164816245510901 0.15894183341569 0.2625
-0.168752896172009 0.155952880635954 0.2625
-0.175290101647876 0.162935908191301 0.2625
-0.194129541363708 0.154934526224953 0.2625
-0.207976579539983 0.156447611434261 0.2625
-0.223940932749195 0.159457804775906 0.2625
-0.241566618758906 0.165210761935716 0.2625
-0.252036258391783 0.161475506887968 0.2625
-0.255330296539272 0.158322135442621 0.2625
-0.280607451646038 0.164466373788838 0.2625
-0.281704332168765 0.16558701248015 0.2625
-0.295346438451697 0.161654915259996 0.2625
-0.318321464411431 0.164726728352185 0.2625
-0.324218384065984 0.169227061946205 0.2625
-0.340128505586735 0.166432008724562 0.2625
-0.340553592753268 0.166567227060839 0.2625
-0.368764809120409 0.173182930725441 0.2625
-0.377223767374673 0.171117219907067 0.2625
-0.401714841415264 0.16605343408566 0.2625
-0.403413073264082 0.165227341202571 0.2625
-0.4305678579364 0.166283877109352 0.2625
-0.443825933988921 0.170231569629301 0.262376925701624
-0.460774473786243 0.174124486228542 0.259835183893505
-0.460197268902194 0.172492798263703 0.260668330178936
0.271437404250381 0.147902787624942 0.2625
0.260665434079063 0.148913939341381 0.2625
0.257691752633962 0.148830189776658 0.2625
0.240754996287185 0.148630563433296 0.2625
0.235444071640966 0.142995668930283 0.2625
0.227369644346886 0.150576217004384 0.2625
0.222487994481331 0.146970036358597 0.2625
0.199796603588748 0.153850219560295 0.2625
0.188957981365539 0.148474823205047 0.2625
0.17999533498335 0.153905465872775 0.2625
0.177302988960068 0.146107173304273 0.2625
0.172659555141447 0.148564352031332 0.2625
0.153514941406321 0.154182759774569 0.2625
0.15196690344209 0.152973818744858 0.2625
0.136757205734039 0.148093104956332 0.2625
0.135478911059286 0.152113433797201 0.2625
0.124960337503453 0.153310356260662 0.2625
0.100665639500422 0.156693534926153 0.2625
0.0985186999286097 0.15411221272832 0.2625
0.0838523012861335 0.156100415433659 0.2625
0.0773369635512597 0.159728798428921 0.2625
0.0746549856029107 0.159734004498384 0.2625
0.0518977058612037 0.156864089681935 0.2625
0.054864487822406 0.162168551218149 0.2625
0.0341419166231286 0.153859059759421 0.2625
0.0282209311390215 0.156564999107302 0.2625
0.00977633123636531 0.159035771179331 0.2625
0.00367765766471434 0.161590844007485 0.2625
-0.0101176122583236 0.15560698843124 0.2625
-0.0189540044937173 0.16148934651348 0.2625
-0.0328368235647281 0.158650505847549 0.2625
-0.0413180451937974 0.162822679246016 0.2625
-0.0503633042665853 0.158286893858542 0.2625
-0.0729343197723905 0.163068434280909 0.2625
-0.0726309963724395 0.161660954830792 0.2625
-0.0919775712314752 0.164596008692572 0.2625
-0.099125013027918 0.163069226430074 0.2625
-0.104325595916065 0.170409134234293 0.2625
-0.117033046760006 0.165686941382075 0.2625
-0.135519531503265 0.164059510140652 0.2625
-0.143672591079977 0.170475228117024 0.2625
-0.156203150906482 0.173182992223658 0.2625
-0.163581606168707 0.163716803527263 0.2625
-0.184095702670435 0.171665211704177 0.2625
-0.198358115628159 0.174039965808363 0.2625
-0.210902887662986 0.171253417812613 0.2625
-0.21483205851151 0.170583624916573 0.2625
-0.23289499781592 0.172910059937342 0.2625
-0.25158567067509 0.172299144774728 0.2625
-0.258708185994166 0.168348372743461 0.2625
-0.273823725386516 0.174223878860785 0.2625
-0.278053763967312 0.17992384049021 0.2625
-0.302863773000931 0.171897224765484 0.2625
-0.312912225073641 0.178560601663496 0.2625
-0.323925660892642 0.179384458253825 0.262084454352737
-0.329074467166573 0.173007961928976 0.2625
-0.361005256494744 0.177300022986996 0.261803316405692
-0.3741824794317 0.180324411214867 0.259828294188683
-0.377258198069734 0.178544532917605 0.260605277571524
0.267379541002519 0.153031993338478 0.2625
0.269536106883716 0.151604299108418 0.2625
0.254725624935211 0.158975516637042 0.2625
0.25268558672682 0.156840721210806 0.2625
0.23387091837756 0.153656725342312 0.2625
0.219661139121999 0.160423533417007 0.2625
0.215217358784529 0.158883137206991 0.2625
0.206350656588523 0.155541691805794 0.2625
0.198576367117159 0.159768981604827 0.2625
0.193513380400139 0.157875214764419 0.2625
0.175453601879511 0.163980716005932 0.2625
0.166535846555369 0.164488128660968 0.2625
0.155516339022604 0.161241564098389 0.2625
0.152302003216614 0.164326852404321 0.2625
0.130110787880453 0.157834392738347 0.2625
0.132498848765617 0.167139385304264 0.2625
0.116216117871838 0.167886260131645 0.2625
0.116311740027928 0.166293045991167 0.2625
0.0903715872548041 0.166371541679215 0.2625
0.0898834208444358 0.169194925808814 0.2625
0.0776798362182334 0.164158969535388 0.2625
0.0661609998480324 0.167497441180138 0.2625
0.0599809657639867 0.170531136419076 0.2625
0.0538569333274297 0.163112030030928 0.2625
0.0295256397984305 0.165799890284511 0.2625
0.0274123488022686 0.1724575412884 0.2625
0.0127659715661179 0.168746589789297 0.2625
-0.00465061102650175 0.171536878009015 0.2625
-0.0108161871194528 0.169615003551379 0.2625
-0.018799412209255 0.167614521477527 0.2625
-0.0290480149019533 0.168459798338474 0.2625
-0.0475943336872041 0.174422133558636 0.2625
-0.0510896382652525 0.171477018217 0.2625
-0.0632258180341054 0.177743246099066 0.2625
-0.0810228822582649 0.176017538257171 0.2625
-0.0784459185318897 0.179545805805274 0.2625
-0.100707304205736 0.174886961932256 0.2625
-0.11269517170263 0.176629593580001 0.2625
-0.12926767056048 0.179164069712617 0.2625
-0.139992792822595 0.172976601082294 0.2625
-0.142061049250905 0.179434099419698 0.2625
-0.161266334697724 0.181181220109007 0.2625
-0.161633104649414 0.174656356613149 0.2625
-0.185479156959001 0.181909035413381 0.2625
-0.19238016617049 0.183900151130017 0.2625
-0.211124913996816 0.180614758858299 0.2625
-0.227532759085127 0.177482256577593 0.2625
-0.23042961445442 0.179917875049516 0.2625
-0.242894738774491 0.185051986978642 0.262144854839453
-0.26490629707604 0.190443199231374 0.258676801439965
-0.287094299914467 0.188973972865558 0.258619094090249
0.274387245782808 0.162015244460202 0.2625
0.261053679067107 0.16215690213532 0.2625
0.257758101378204 0.165147709732275 0.2625
0.237979623857699 0.161316828895484 0.2625
0.239206982047499 0.16391696068128 0.2625
0.223210308275998 0.163814268063986 0.2625
0.216226773611225 0.170474990910153 0.2625
0.19865378987285 0.163433466165549 0.2625
0.199178677570516 0.170485900686824 0.2625
0.184956570021354 0.163974644076292 0.2625
0.182646500474398 0.170847125292316 0.2625
0.161810640101789 0.171278368304975 0.2625
0.160073607216977 0.17186853616803 0.2625
0.153742588297592 0.166578337839281 0.2625
0.135926263347017 0.176087817221962 0.2625
0.129424738719054 0.174015058096221 0.2625
0.116653681152697 0.172280899305602 0.2625
0.105708958795567 0.173131674727285 0.2625
0.0955123209518998 0.170226953357548 0.2625
0.0905272267015208 0.172048620598221 0.2625
0.082655374199204 0.175309379713611 0.2625
0.0679406076687533 0.171560948947755 0.2625
0.0590036463646222 0.173823051963408 0.2625
0.050059158562733 0.178662008078811 0.2625
0.0370597283807699 0.175883200645182 0.2625
0.0185815169797961 0.176390590841018 0.2625
0.0195039719698154 0.175333937097388 0.2625
0.00488906614286957 0.180588688216485 0.2625
-0.0117132870246174 0.184872465136832 0.2625
-0.0203551805234232 0.1829821860356 0.2625
-0.027419965894804 0.1766126822822 0.2625
-0.0426881203611171 0.178079167624207 0.2625
-0.056898972638807 0.179150602919776 0.2625
-0.0575920057452296 0.181935286289868 0.2625
-0.0799480473044494 0.186256585370733 0.2625
-0.0916517163977423 0.187331879362386 0.2625
-0.0964667726521392 0.186790386264487 0.2625
-0.115342384701748 0.188355292969625 0.2625
-0.129710065052686 0.185954898458445 0.2625
-0.140431252688611 0.19006614373118 0.2625
-0.148883179860462 0.184684929830017 0.2625
-0.156295789812427 0.191075978481857 0.262225830652103
-0.175363652992995 0.189888803975525 0.262138665238291
-0.190614057142972 0.194305939354224 0.259396269497549
-0.206632409004868 0.192073325221776 0.259938248176317
-0.254307235856882 0.190911660435536 0.258820594582689
0.269712338080566 0.169453105530826 0.2625
0.257781978334106 0.176245131393167 0.2625
0.255240152268859 0.177851536760442 0.2625
0.250834479810254 0.174111395486541 0.2625
0.232181839182273 0.176289762178886 0.2625
0.224155264271979 0.176008889414887 0.2625
0.213998454863177 0.177867623135883 0.2625
0.199620962872618 0.177395186279716 0.2625
0.200145691964264 0.180597216733469 0.2625
0.180607448204218 0.178809666274039 0.2625
0.182772140472341 0.176136382692503 0.2625
0.164628815202626 0.183460445621195 0.2625
0.156523023017187 0.175665309806689 0.2625
0.15315472353435 0.181128721508029 0.2625
0.139191519523534 0.178647557292004 0.2625
0.130272773908649 0.184605790886093 0.2625
0.114178885979268 0.179126176481571 0.2625
0.108920073518742 0.180346566523399 0.2625
0.0995630604138344 0.180755862424853 0.2625
0.08453207574623 0.187405595656953 0.2625
0.0689796228669709 0.181112394703801 0.2625
0.0725356183576183 0.182964978662256 0.2625
0.0552599814065885 0.191224615471783 0.2625
0.0447354582957951 0.183625026647398 0.2625
0.0257173095128201 0.192067017706181 0.262299824480243
0.0231842658058155 0.191933434977782 0.262366615844442
0.0101884883785113 0.188356030992571 0.2625
0.00232274352767175 0.193216083773903 0.261725291446381
-0.0106371848939834 0.192401176749581 0.262132744958542
-0.0243346291787861 0.195394898724555 0.260635883971055
-0.0316495079081235 0.193420122997431 0.261623271834618
-0.0452815899145027 0.188599434011707 0.2625
-0.0516127213028933 0.190737122220776 0.2625
-0.0720511810526319 0.193291183256273 0.261687741705196
-0.0751545776002296 0.193241295395552 0.261712685635558
-0.0893075486925389 0.199910524378203 0.258378071144231
-0.102146407561642 0.194316584779064 0.261175040943801
-0.11495330319964 0.195867577353963 0.260399544656352
-0.130390000201967 0.199132146157683 0.258767260254492
-0.136327004886836 0.199534315283499 0.258566175691583
-0.150987809601742 0.197914795193594 0.259008823437035
0.265266554253745 0.183827972120958 0.261958487963569
0.257629599162723 0.187102284208426 0.26059952980049
0.253214255575578 0.183748938001577 0.262426647321094
0.245591563571262 0.182535372027225 0.2625
0.232255887095766 0.180022627141766 0.2625
0.218617479137661 0.184043903680253 0.2625
0.213215073174107 0.185583315578133 0.2625
0.20659503930351 0.188337337268381 0.261800167900323
0.198058374058968 0.186758191876187 0.2625
0.190002168325212 0.189887232562837 0.261618636009595
0.170159301409743 0.187641530378038 0.2625
0.167053543663401 0.187043383653329 0.2625
0.159710325438128 0.192977636382883 0.261157287331042
0.14744203880418 0.192137563542397 0.262012142319326
0.140765868596473 0.190370232837057 0.2625
0.125141495232085 0.192541632216519 0.262062517225074
0.120959594135687 0.194692724700047 0.26098697098331
0.107796082521888 0.190818860787511 0.2625
0.10171915548143 0.18898681398552 0.2625
0.0806222581543097 0.191966211736826 0.26235022746492
0.0764106063369022 0.193815683530644 0.261425491568011
0.0587245685918009 0.197117226666468 0.259774720000099
0.058724857027629 0.193208247580367 0.261729209543149
0.0365788498804471 0.197624781431072 0.259520942617797
-0.0446540831652643 0.198086258662123 0.259290204002271
0.270797721686052 0.190557487805288 0.2584102774441
0.264198312028802 0.191091447260664 0.258379150915354
0.242368032938986 0.190133636838351 0.259632839713839
0.2115977113694 0.194048213664561 0.258778061241658
0.204134720132816 0.193365960495916 0.259383355460043
0.173741749096413 0.193044332294086 0.260624858949735
0.166751684590404 0.19631426843985 0.259245064891941
-0.476255036926748 0.171205837552739 0.260737953841267
-0.488198716310201 0.169321738866229 0.260531976579336
-0.494045037596439 0.159654253039498 0.260715318294757
-0.462437261024937 0.177021351173228 0.253891463517756
-0.465193335827977 0.16611564365403 0.2625
-0.474748424987514 0.164690337163395 0.2625
-0.480928885206759 0.153507739990488 0.2625
-0.485361406093099 0.145475408910022 0.2625
-0.436646639258021 0.178863820881887 0.253364880504439
-0.44368220228691 0.178361203617315 0.255824996870929
-0.454356915169392 0.164167238370236 0.2625
-0.456635986965714 0.162379910043438 0.2625
-0.475492541985993 0.15353649162794 0.2625
-0.475909485927093 0.148686484269313 0.2625
-0.491874827869133 0.13898130860304 0.26158340218568
-0.49737464699777 0.127394266457943 0.259383474534225
-0.418592041858893 0.178959197093074 0.258928184063642
-0.423288482094323 0.178397328837541 0.259040913884161
-0.436666377552937 0.166970894011663 0.2625
-0.446249272290624 0.155275868458989 0.2625
-0.445793966921147 0.152784689048436 0.2625
-0.455982970295552 0.15141633202842 0.2625
-0.478070588817244 0.139008762375918 0.2625
-0.486499256003871 0.129618165687533 0.2625
-0.498670329301185 0.120968192172976 0.258865201612859
-0.390608983093456 0.182152729063605 0.25194565324653
-0.401001895815638 0.179933061216512 0.259069007445647
-0.404204185436969 0.173197235452889 0.262309639940494
-0.40439711093641 0.173808360496186 0.261998424577378
-0.421453682073063 0.159583017920413 0.2625
-0.432632747913819 0.155700858547562 0.2625
-0.441481278104177 0.149193888364513 0.2625
-0.45743276433866 0.133246784088141 0.2625
-0.461675129979327 0.129525452604518 0.2625
-0.477340060769161 0.120066110328982 0.2625
-0.481356389707282 0.114926649628267 0.2625
-0.486441060851529 0.108866721376192 0.2625
-0.373825743983528 0.181746013997685 0.259133002060515
-0.393615257290384 0.178745913407949 0.259923031917434
-0.391990003270904 0.169485403538069 0.2625
-0.411086730602911 0.162927025050269 0.2625
-0.406226666349067 0.155898293815453 0.2625
-0.425727540931392 0.140166543850007 0.2625
-0.431345739865021 0.136776497066764 0.2625
-0.445002870064508 0.131234418769346 0.2625
-0.458478164207803 0.121137431073615 0.2625
-0.463818583701218 0.117058969569913 0.2625
-0.474079933146726 0.111555930482341 0.2625
-0.484706211726859 0.10276510882018 0.2625
-0.360189729035754 0.183605210519635 0.258692232940385
-0.364719798152232 0.18097377717696 0.259841563123843
-0.37215948950661 0.17822608923112 0.260945271140079
-0.381495038779484 0.165909941202522 0.2625
-0.394662728411112 0.162106203859934 0.2625
-0.392597949920301 0.15430849271252 0.2625
-0.399401746216926 0.150974261724307 0.2625
-0.419210626818502 0.14523103842104 0.2625
-0.429189260097262 0.129487242400579 0.2625
-0.436056761810444 0.126339042582013 0.2625
-0.441241578842532 0.123050950888306 0.2625
-0.465609746511839 0.100750274501481 0.2625
-0.467782517305808 0.0992502970746913 0.2625
-0.478320432488923 0.0923030530572202 0.2625
-0.480230825937063 0.0926058772106886 0.2625
-0.333738313040569 0.184798194445521 0.259039198572441
-0.346372500836893 0.180868242258144 0.26054688499532
-0.348841350018205 0.176217855864616 0.2625
-0.357720974806436 0.174927676920077 0.2625
-0.369334039485424 0.167574425778601 0.2625
-0.382449627429804 0.155999842975508 0.2625
-0.387759473984277 0.142993880197934 0.2625
-0.400060944211712 0.14551185625108 0.2625
-0.407769378476677 0.135279105065891 0.2625
-0.413204266758354 0.124478140690226 0.2625
-0.430195684790037 0.119462624133713 0.2625
-0.441532239959983 0.110112782479749 0.2625
-0.449501422213954 0.105197037036277 0.2625
-0.459976276038635 0.0948866754629306 0.2625
-0.465971723057694 0.0865935728279843 0.2625
-0.477363288259634 0.0722533595909107 0.2625
-0.489311485540512 0.0700418088338261 0.2625
-0.323552062861812 0.186943243437369 0.254670469103322
-0.327281091391117 0.185348388488416 0.258994928131465
-0.330029070712471 0.176624717815971 0.2625
-0.344037329895959 0.172379914693062 0.2625
-0.354537321468754 0.167228468813144 0.2625
-0.366243508844583 0.157272288232264 0.2625
-0.371989786171212 0.14750562098456 0.2625
-0.37463522063033 0.145766591329764 0.2625
-0.387157024424904 0.136460919707393 0.2625
-0.400097896956597 0.123181157439771 0.2625
-0.410886169403192 0.123970811244836 0.2625
-0.416015434275736 0.113281149605311 0.2625
-0.422244247701778 0.104685962416801 0.2625
-0.44175433265135 0.0976388926642918 0.2625
-0.444311131911349 0.0891227513334609 0.2625
-0.461313841800826 0.0767593971234162 0.2625
-0.472413878006678 0.0707840425411489 0.2625
-0.487145317582831 0.0558672843144027 0.2625
-0.488100040169721 0.0578987362180459 0.2625
-0.29942802818405 0.188666652959873 0.252854018655038
-0.306742047984468 0.182940189957922 0.260924996852288
-0.312329521668009 0.179167621499993 0.2625
-0.321220219392778 0.172194537216714 0.2625
-0.333277125778164 0.162451428338008 0.2625
-0.347744388665851 0.154602252767765 0.2625
-0.355726200527776 0.143971733921558 0.2625
-0.369901245885642 0.143096617353021 0.2625
-0.370866361062987 0.138901681143254 0.2625
-0.379985813936409 0.124507523262091 0.2625
-0.393255703043711 0.117539461578342 0.2625
-0.39539796942589 0.113202029901685 0.2625
-0.414720716919687 0.100097706182545 0.2625
-0.422161751915414 0.0931527451195778 0.2625
-0.428245847670337 0.0941240196327519 0.2625
-0.444225013047722 0.076722151723815 0.2625
-0.454877488119964 0.0745021555069979 0.2625
-0.466369153238233 0.0615512789366535 0.2625
-0.476678258794578 0.0531069726255191 0.2625
-0.488745973528964 0.0477533541022612 0.2625
-0.280048460134997 0.188976301897733 0.25886861238775
-0.297760401100913 0.180952566150673 0.262234420483093
-0.296216290577598 0.180395997575314 0.2625
-0.311947073195756 0.170890085974673 0.2625
-0.322035246228264 0.168699746567376 0.2625
-0.328808798171775 0.151390511508379 0.2625
-0.336342961141275 0.151405554903186 0.2625
-0.344946786590065 0.145598888449757 0.2625
-0.361096159017556 0.131860221260937 0.2625
-0.364486751450305 0.13048288923127 0.2625
-0.378118367721767 0.113719901604271 0.2625
-0.381301375713008 0.115628360417594 0.2625
-0.397181514538136 0.106689355235518 0.2625
-0.408648137544468 0.0941535633686491 0.2625
-0.412929703942343 0.0884537872893429 0.2625
-0.425950782125205 0.0751752447178592 0.2625
-0.43624573624645 0.0712925668856934 0.2625
-0.443631084292613 0.0622908335256311 0.2625
-0.457229872790175 0.0496843531388837 0.2625
-0.471076463053453 0.0396013992362132 0.2625
-0.477406547200266 0.0417583523743761 0.2625
-0.479522078153955 0.0291377909811836 0.2625
-0.265802808467969 0.191068822606413 0.25084929916092
-0.265184369121907 0.189859477443097 0.258957612243745
-0.279193045787382 0.180293948075812 0.2625
-0.290467068345434 0.172807073558519 0.2625
-0.295273565588071 0.165173267386542 0.2625
-0.295245772431933 0.162515165547156 0.2625
-0.311794002755246 0.158749575824235 0.2625
-0.320701781101453 0.150655884900568 0.2625
-0.324244788873209 0.139260564966113 0.2625
-0.332172051546145 0.131830431703568 0.2625
-0.349597683948888 0.133388649069985 0.2625
-0.361591704137065 0.117613373881607 0.2625
-0.366545390442735 0.109259390000936 0.2625
-0.378274307954699 0.106822187170507 0.2625
-0.386278752975323 0.100520735049928 0.2625
-0.406776878192369 0.0813336830018465 0.2625
-0.405079836381236 0.0814372253783637 0.2625
-0.416991472084774 0.0687091955409605 0.2625
-0.434978128533405 0.0632357169552796 0.2625
-0.433854340822855 0.0582012728932058 0.2625
-0.451303707666667 0.0502816144250345 0.2625
-0.456720828369908 0.0343506248664708 0.2625
-0.470656558036792 0.0341182212733586 0.2625
-0.483607599673575 0.0173851168923366 0.2625
-0.499677633153504 0.00716177554906003 0.258462280071931
-0.253041571572342 0.190862353645668 0.258890180303127
-0.264257576581086 0.186668195492152 0.260579902489531
-0.273395383098213 0.17216740902114 0.2625
-0.271986641449431 0.172731817841168 0.2625
-0.287374471575777 0.162577005660999 0.2625
-0.294961288336634 0.158116376630833 0.2625
-0.303832818539463 0.146554012461451 0.2625
-0.315591484454023 0.136712489853937 0.2625
-0.3164700384606 0.132734467337799 0.2625
-0.333653338891244 0.128654580072121 0.2625
-0.333933995715509 0.121840031662526 0.2625
-0.345418057066301 0.113134939708135 0.2625
-0.362783062900337 0.103742588005136 0.2625
-0.373525009715603 0.0996387499546874 0.2625
-0.38388777144956 0.080646231208251 0.2625
-0.388341352131451 0.0781475495736526 0.2625
-0.394573921904092 0.068993812930333 0.2625
-0.412041216379714 0.0705250781779582 0.2625
-0.41413241643157 0.061610270867931 0.2625
-0.432928039606387 0.0454148545747466 0.2625
-0.447440132312165 0.0388253324397552 0.2625
-0.455029108562445 0.0332967024860452 0.2625
-0.45512024788163 0.0279843495043035 0.2625
-0.473648265715398 0.0122302152796283 0.2625
-0.485405951716345 0.00217208233746179 0.2625
-0.489473543425519 0.00202076428517237 0.2625
-0.230775965124841 0.193571123575846 0.25460350992758
-0.236238311639327 0.185799700131302 0.262009303647159
-0.242736571400138 0.187475864285746 0.260943347016096
-0.253394735624403 0.177696938764821 0.2625
-0.264842576233251 0.165500602415414 0.2625
-0.273342334661307 0.160728575372668 0.2625
-0.282960178293335 0.152750000164765 0.2625
-0.285077936586849 0.146109935640976 0.2625
-0.302077362356446 0.138423132234441 0.2625
-0.306103655018108 0.127454821346257 0.2625
-0.315217512508305 0.127649494090091 0.2625
-0.329494004422297 0.117358295632269 0.2625
-0.332465225117425 0.113229105810163 0.2625
-0.344349233639105 0.0985399702868545 0.2625
-0.359747452690228 0.0915551729385469 0.2625
-0.361737711611966 0.0949900056313918 0.2625
-0.377177023772197 0.0781472306573229 0.2625
-0.382566556387663 0.0653636287126506 0.2625
-0.386953849279005 0.0724126040442311 0.2625
-0.411867916778769 0.0529381114004085 0.2625
-0.422422673088919 0.0408886139442836 0.2625
-0.420962952519412 0.0424301812789263 0.2625
-0.434041318422739 0.0383814780839357 0.2625
-0.444759791625346 0.0287127075619353 0.2625
-0.45486926517226 0.0071507039770261 0.2625
-0.466248353773393 0.00465287174644219 0.2625
-0.470684267539531 -0.00375002599652188 0.2625
-0.488666976031047 -0.0102299173283042 0.2625
-0.221744051483647 0.194216359175263 0.253558101386102
-0.218418618697812 0.188575670256344 0.261260812216458
-0.234087737440274 0.180611273182143 0.2625
-0.237374827104441 0.181874032420981 0.2625
-0.243414237064676 0.175979182655701 0.2625
-0.258337503140402 0.165288996425274 0.2625
-0.268143383742759 0.151117924298587 0.2625
-0.277338910374474 0.149515691981757 0.2625
-0.282256051751207 0.138454478272818 0.2625
-0.296145601923649 0.12802411449152 0.2625
-0.306747467583299 0.129389688889632 0.2625
-0.313700991656902 0.118068695677595 0.2625
-0.311798959817888 0.117694700803584 0.2625
-0.33078310634752 0.0982489229397026 0.2625
-0.328964117086528 0.0995562351767637 0.2625
-0.346294596302822 0.0967048163291841 0.2625
-0.359829324448164 0.0815178397344936 0.2625
-0.369082929048683 0.0737737935562702 0.2625
-0.377098390797828 0.0611552120836515 0.2625
-0.389307109487633 0.0513620336252147 0.2625
-0.388737635997732 0.0443214734056751 0.2625
-0.40778916460826 0.037358457965047 0.2625
-0.415471585950224 0.0290188738919142 0.2625
-0.427612757997718 0.0136942469901805 0.2625
-0.435939380498349 0.0121617168237213 0.2625
-0.454146783514578 0.00419330263308601 0.2625
-0.456407768910465 0.0013442021682982 0.2625
-0.464990406965387 -0.00642067796851584 0.2625
-0.476434766737682 -0.0130848602842122 0.2625
-0.490099505880646 -0.0340049228491387 0.262293530981074
-0.199171524751717 0.195828929710681 0.255469766546219
-0.203030534941571 0.195553243864699 0.255850380584958
-0.206172999963308 0.191847348407304 0.260067133694033
-0.211657651217466 0.186349743266742 0.2625
-0.218996112582668 0.181306942377421 0.2625
-0.23597602891303 0.171106597943693 0.2625
-0.240382053392842 0.158378698940036 0.2625
-0.245560815457875 0.153279522661784 0.2625
-0.259435354645745 0.149265936198433 0.2625
-0.27024922013816 0.14684243516172 0.2625
-0.280375820208209 0.13521245288679 0.2625
-0.290885391290897 0.126929527403758 0.2625
-0.28665892280006 0.123335726980791 0.2625
-0.300068029352802 0.116426289229146 0.2625
-0.320384618831047 0.100045071760793 0.2625
-0.319295605093577 0.093692963639057 0.2625
-0.333624400190026 0.0846409336835299 0.2625
-0.34788112354388 0.0758300046495782 0.2625
-0.345112129167367 0.074396240179701 0.2625
-0.353741874373537 0.0683221481967603 0.2625
-0.364686713510803 0.0593590048051997 0.2625
-0.376750150030668 0.0441815513888349 0.2625
-0.384049662100537 0.0449125592456315 0.2625
-0.390126051441202 0.0367378657272916 0.2625
-0.412624330897763 0.0178080623342697 0.2625
-0.413530311694204 0.0187289583312859 0.2625
-0.427034534434787 0.00847904951333885 0.2625
-0.433676442570622 0.00167760667486838 0.2625
-0.44450515940998 -0.00308772328924843 0.2625
-0.461923869894387 -0.0248665484159513 0.2625
-0.460128771848774 -0.0255610397000212 0.2625
-0.477431149579137 -0.028593309373126 0.2625
-0.189903916440074 0.196491003224854 0.251588586888922
-0.195695970982174 0.19159850227396 0.260563817295123
-0.197347662734057 0.187253007390387 0.2625
-0.205256999859866 0.183727773512947 0.2625
-0.21315508877146 0.168762296072797 0.2625
-0.218865546338428 0.162976948200097 0.2625
-0.231606663393947 0.159353259800386 0.2625
-0.240212233061471 0.15020687552701 0.2625
-0.249123987161646 0.142464728841847 0.2625
-0.261550859980596 0.128761132301091 0.2625
-0.259407202151301 0.130772348994364 0.2625
-0.27627609159189 0.12178127039023 0.2625
-0.288637544075832 0.108787019443814 0.2625
-0.300368274400692 0.098285209352748 0.2625
-0.298692003491185 0.10270345814255 0.2625
-0.310067233832608 0.0896261917094465 0.2625
-0.320278531829661 0.0870141339811988 0.2625
-0.333938733557526 0.0715449500368645 0.2625
-0.341558293576554 0.0667607042149696 0.2625
-0.346090000105941 0.0571843533988862 0.2625
-0.360175999415732 0.0468962174191919 0.2625
-0.37445438656359 0.0420402740203927 0.2625
-0.377282386049841 0.0295191046743299 0.2625
-0.392013704303463 0.0298959213642645 0.2625
-0.396157167412663 0.0162001063865298 0.2625
-0.411051511297948 0.0108104989796945 0.2625
-0.420188425672794 0.00158329189028361 0.2625
-0.428481538862372 -0.00470401352214255 0.2625
-0.441337949208304 -0.0177209182840169 0.2625
-0.460797081107662 -0.0306018670889942 0.2625
-0.456652929662922 -0.0350480841399475 0.2625
-0.471472942970285 -0.0412777873370891 0.2625
-0.481121313925149 -0.0507806309249802 0.2625
-0.496221786532397 -0.0633341284143115 0.259844618720374
-0.247084021077043 0.125 0.0324318230409768
-0.24983692662876 0.125 0.109812437833381
-0.170403042962332 0.197884136317954 0.252866690619684
-0.173135980137216 0.197688896590665 0.256773950165085
-0.178582818012543 0.19107359173671 0.2614340872606
-0.185176274693695 0.182038395730621 0.2625
-0.186758304480732 0.182326708738172 0.2625
-0.19041368094225 0.171714234614555 0.2625
-0.21366197485185 0.163272483215021 0.2625
-0.214060102019694 0.158862209049038 0.2625
-0.227083413718102 0.146147772741327 0.2625
-0.232839600388564 0.143920223377154 0.2625
-0.244597570505447 0.133554233165843 0.2625
-0.253028326599385 0.122358652517231 0.2625
-0.26153279373525 0.120804905448757 0.2625
-0.270863187962837 0.116385660082879 0.2625
-0.27472578644071 0.105699152848898 0.2625
