ply
format ascii 1.0
element vertex 1040
property float x
property float y
property float z
end_header
-0.139517092743734 0.126530339438347 0.2625
-0.137314745374673 0.119863410932294 0.2625
-0.124800496673698 0.114403666086534 0.2625
-0.124428932187263 0.107186407753462 0.2625
-0.105866228978325 0.0922947908327682 0.2625
-0.103199334446603 0.0920198601768544 0.2625
-0.0927747029678322 0.0806076815685078 0.2625
-0.0828151053695751 0.0727359093081616 0.2625
-0.0873523588556671 0.0706288257301038 0.2625
-0.0714671613021122 0.060619782210984 0.2625
-0.0672992024965376 0.0484531298324866 0.2625
-0.0666875448012407 0.0479621070649378 0.2625
-0.0543743285973855 0.0418596597158589 0.2625
-0.0467119129185029 0.0292488449898576 0.2625
-0.0432980372653401 0.0301305757444636 0.2625
-0.0286483127083519 0.0239622232967123 0.2625
-0.0221573772014402 0.0146706213053298 0.2625
-0.0204068120625616 0.00313687627688525 0.2625
-0.00575362387238811 -0.0112862717317986 0.2625
0.00533074406091163 -0.0187872305878135 0.2625
0.00691337208672073 -0.0235750583999329 0.2625
0.0146826627973938 -0.0312060332860573 0.2625
0.0232318845671105 -0.0383601807430887 0.2625
0.0308479930076308 -0.0409313575203346 0.2625
0.0410665430131629 -0.0527845974192772 0.2625
0.0423273016711036 -0.060696111473933 0.2625
0.0525376483682532 -0.0669469046778493 0.2625
0.0649000144259549 -0.0731759627543013 0.2625
0.0686310240305291 -0.0833291232845629 0.2625
0.0820765141752645 -0.0961277743890359 0.2625
0.0830406679931407 -0.0960324475311926 0.2625
0.092096071477658 -0.112291161646633 0.2625
0.104947149254715 -0.118949794137811 0.2625
0.114819818685214 -0.126275193448782 0.2625
0.117342369734739 -0.133070925280992 0.2625
0.126191905169033 -0.144830965444119 0.2625
0.139414612510544 -0.153166252377282 0.2625
0.140966813809539 -0.159854824714303 0.2625
0.149422163524524 -0.169640767131982 0.2625
0.167109474833667 -0.184910676362232 0.2625
0.174710675351479 -0.189984501179152 0.262114238044501
-0.191109289873945 0.192378678132964 0.260338461273599
-0.183296467716537 0.187834800544334 0.2625
-0.181050559187092 0.177439676169488 0.2625
-0.166547367557915 0.174326388991703 0.2625
-0.166894850606059 0.164250601656627 0.2625
-0.165305484482747 0.162180623640495 0.2625
-0.148428064969931 0.15330962646515 0.2625
-0.150186156468693 0.147043879144178 0.2625
-0.13812438339877 0.136111059253681 0.2625
-0.135650841724987 0.13622503000623 0.2625
-0.127348117412432 0.121767411819217 0.2625
-0.117120956367924 0.115804974139844 0.2625
-0.11458166929923 0.117905253422049 0.2625
-0.110763096688117 0.111826674690882 0.2625
-0.0921945919635625 0.0975586040803436 0.2625
-0.0943406690653426 0.0885281579196514 0.2625
-0.0823945269824048 0.0778568963358472 0.2625
-0.078717978151435 0.074721490092307 0.2625
-0.0682166671781327 0.0690177036800907 0.2625
-0.0644111243705385 0.061933950905728 0.2625
-0.0527490349118091 0.0530095281784709 0.2625
-0.0484938800572657 0.0406787684693745 0.2625
-0.035151237712048 0.0385038632591968 0.2625
-0.0324461421263844 0.0329385109358164 0.2625
-0.0191538924450588 0.0195648723620049 0.2625
-0.0145994889231001 0.016165978511098 0.2625
-0.0125813909212971 0.00937154690541279 0.2625
-0.000589733146380016 0.00565755385024674 0.2625
0.0118443997901627 -0.00677883728587237 0.2625
0.020654416831713 -0.0144309330881895 0.2625
0.0296242847356509 -0.0282182637899126 0.2625
0.0279423728583725 -0.0323277515713461 0.2625
0.0324515528576765 -0.0385886237518145 0.2625
0.0450272375813123 -0.0472796182427364 0.2625
0.0494453202037432 -0.0470366456298374 0.2625
0.0591646744168056 -0.0572416736964328 0.2625
0.0749623752164714 -0.0749140458507834 0.2625
0.0709261666946521 -0.0755516550819664 0.2625
0.0903987400711443 -0.0865896288275043 0.2625
0.0931849235935868 -0.0952967360224335 0.2625
0.106887950416051 -0.109472453147298 0.2625
0.110237680014262 -0.112353704550382 0.2625
0.115075339406444 -0.115185746995551 0.2625
0.1296308458503 -0.13228870898904 0.2625
0.132626142555915 -0.129507169039087 0.2625
0.154038437494807 -0.14960578614998 0.2625
0.149154540906799 -0.154450808176679 0.2625
0.164410164867074 -0.165639945793025 0.2625
0.175745008121932 -0.182394225897737 0.2625
0.18463423135825 -0.178923510807376 0.2625
0.194491204135299 -0.190724023902077 0.261042186901374
-0.183030498889791 0.19261529121714 0.260508052367881
-0.180641352250286 0.196111612270226 0.258851822183493
-0.17486886658083 0.186140654366417 0.2625
-0.165192130990585 0.178005706705969 0.2625
-0.166451846709107 0.172095780819297 0.2625
-0.150104021135775 0.16061196608305 0.2625
-0.151252903041972 0.157802090943266 0.2625
-0.139252602927498 0.148370427553394 0.2625
-0.12842683405343 0.143550894677647 0.2625
-0.128825863665251 0.138476764566266 0.2625
-0.117113333988152 0.130895573273554 0.2625
-0.105669061613075 0.125449699183917 0.2625
-0.109205125064992 0.12423408074141 0.2625
-0.0991878768199216 0.107857371281716 0.2625
-0.0832647494718994 0.103533203764699 0.2625
-0.0886470135046498 0.101224937524799 0.2625
-0.0738458613372031 0.0879173326311792 0.2625
-0.0665489567195027 0.0789808410842796 0.2625
-0.0617739022959584 0.0772564911197398 0.2625
-0.0533036560670455 0.0694653650236725 0.2625
-0.0451408398830776 0.0596530718855811 0.2625
-0.038714817045522 0.0545455587262986 0.2625
-0.0309995849728215 0.0494294194777352 0.2625
-0.026391920030679 0.0382584447972162 0.2625
-0.0213166022163014 0.0303288375820501 0.2625
-0.0076802241779135 0.0240240391078194 0.2625
-0.00285339277623695 0.0108760084937499 0.2625
0.00121740408896122 0.014125375075905 0.2625
0.0132035907665544 0.0043498950285029 0.2625
0.0214042428215432 -0.00722887641707472 0.2625
0.0303060422777012 -0.00977370882932097 0.2625
0.0410493582706113 -0.0263425210525426 0.2625
0.0495788587905213 -0.0332870933005499 0.2625
0.0578930209093443 -0.0433025474441379 0.2625
0.0569128638843644 -0.0477555773351222 0.2625
0.0663363633255936 -0.0522166354765119 0.2625
0.0788790569892989 -0.06059221509813 0.2625
0.0853829754181126 -0.0751180209872354 0.2625
0.0978825266418025 -0.079052963220505 0.2625
0.106607317035975 -0.0897989360931002 0.2625
0.115123643993269 -0.0966754097988404 0.2625
0.118864727446866 -0.103287804231912 0.2625
0.13023467997727 -0.119138492509083 0.2625
0.134214455647785 -0.116836745047391 0.2625
0.144537527415946 -0.131096392566711 0.2625
0.147184775766871 -0.13496449497359 0.2625
0.16556518228678 -0.147308616790671 0.2625
0.171351690997268 -0.159527274273265 0.2625
0.184079043699924 -0.168053757823968 0.2625
0.195032369301668 -0.174889905799255 0.2625
0.203017394235893 -0.181357169379617 0.2625
-0.170375265228522 0.196099477994872 0.259223114027353
-0.175161076587654 0.193943345169739 0.260126637034374
-0.165765636727471 0.192697573519215 0.261081326756749
-0.158632061282815 0.185853099179411 0.2625
-0.156004374230989 0.177808407077981 0.2625
-0.148644394945103 0.166245671436033 0.2625
-0.14382990793507 0.167064030384274 0.2625
-0.130747115216809 0.163733685407318 0.2625
-0.125404365848957 0.15765123150261 0.2625
-0.12351203437092 0.144999544957653 0.2625
-0.115635061943112 0.143662015018953 0.2625
-0.10434023288727 0.133660630949675 0.2625
-0.0940047890657769 0.123403557683675 0.2625
-0.0893386648955762 0.123697750676513 0.2625
-0.0791357267238496 0.113336606445789 0.2625
-0.0767407174832 0.106438166961818 0.2625
-0.0732894376749803 0.0975127777763119 0.2625
-0.0670361525898591 0.0900761190277828 0.2625
-0.0602843234773867 0.0883218735674472 0.2625
-0.0514579079711418 0.077051800858628 0.2625
-0.0337133957081608 0.0674980629708032 0.2625
-0.0306790710929412 0.0605457205165378 0.2625
-0.0327439545093448 0.0528821853255722 0.2625
-0.0148034994752493 0.0496076112883432 0.2625
-0.00744373736345529 0.0379943019253572 0.2625
-0.0107890975412201 0.0292927597462315 0.2625
0.00696414092310481 0.0266202731632174 0.2625
0.00762753543597104 0.0142941100998167 0.2625
0.020439264044389 0.0156614916435489 0.2625
0.0330315708820187 0.0021239398304371 0.2625
0.0416387604730708 -0.00642353607057297 0.2625
0.0444037269248333 -0.0147183816142235 0.2625
0.0542198470038374 -0.0230544802371701 0.2625
0.0578749999424818 -0.0292120423583407 0.2625
0.0690055083455642 -0.0383354482034628 0.2625
0.076039311361102 -0.0464670440631224 0.2625
0.0847944116542356 -0.0588180340440284 0.2625
0.0916872019211157 -0.0708568727936916 0.2625
0.107276756539318 -0.0752307833795972 0.2625
0.113254118465042 -0.0877299901964288 0.2625
0.119808696889548 -0.0937080788663276 0.2625
0.126479318011403 -0.0965599238845442 0.2625
0.129022167613272 -0.101950066136679 0.2625
0.142312456176931 -0.117459638816237 0.2625
0.156952086568806 -0.121226751777056 0.2625
0.161745945803875 -0.135373396770825 0.2625
0.16751653613827 -0.139032370404967 0.2625
0.181509516252499 -0.152219721546474 0.2625
0.18770984637762 -0.1540242929246 0.2625
0.19667610306979 -0.165183745030397 0.2625
0.207018303486415 -0.175465256742259 0.2625
-0.165528386762711 0.198232379430086 0.257940771560468
-0.157930836563352 0.191779114338442 0.261817484166805
-0.159011977267204 0.194499725459511 0.260424105155791
-0.14304939841106 0.187715158062182 0.2625
-0.139579223520604 0.184884297554625 0.2625
-0.13346457850737 0.168387392585677 0.2625
-0.125672773960915 0.161127095090943 0.2625
-0.124111967055683 0.155664531374998 0.2625
-0.118134297943746 0.153419962533783 0.2625
-0.10332356057332 0.148404196660752 0.2625
-0.103990308020505 0.14040389967005 0.2625
-0.0900582106715862 0.130463932523605 0.2625
-0.0869428197371906 0.123469244859439 0.2625
-0.0817231167091261 0.119444436752198 0.2625
-0.0668727270023057 0.114459563726702 0.2625
-0.0657975691930395 0.0982879253222967 0.2625
-0.0574505974479801 0.0928428262352615 0.2625
-0.0521031116040107 0.0915071643288692 0.2625
-0.0457237890454499 0.0818616832161139 0.2625
-0.0297824505266261 0.0763537476726956 0.2625
-0.0289086789291759 0.0718387671429588 0.2625
-0.0227729380468749 0.059469144323336 0.2625
-0.0125794506466737 0.0526737772015275 0.2625
-0.00940925140629941 0.0451499678209995 0.2625
0.00520756327675033 0.0413926497866552 0.2625
0.012189900395079 0.0330831478429691 0.2625
0.0236928613850071 0.0206354820669124 0.2625
0.0222539716515635 0.0111167030784917 0.2625
0.0303359041465796 0.0109333944617861 0.2625
0.042660468173665 -0.00373156343709761 0.2625
0.0525854037728872 -0.0120328962931601 0.2625
0.0598258025483368 -0.0113296819267626 0.2625
0.0650279950718163 -0.0180985877452551 0.2625
0.0679522030416966 -0.0265102921651731 0.2625
0.0785803991917036 -0.0381145829470782 0.2625
0.0965742337280747 -0.0524282996681037 0.2625
0.10098834211201 -0.0580625614145243 0.2625
0.105027005802183 -0.0680095330535413 0.2625
0.115251100115238 -0.0704733153291068 0.2625
0.124226419048429 -0.0753085957717341 0.2625
0.127006594341844 -0.0818309026713341 0.2625
0.142668308867859 -0.0947394054265246 0.2625
0.155372978893815 -0.102641577601097 0.2625
0.163633620998433 -0.111552616982401 0.2625
0.162609804367782 -0.116652513777915 0.2625
0.172478694968956 -0.134210330525124 0.2625
0.187388560724559 -0.139984120971679 0.2625
0.19715689179451 -0.152291153515023 0.2625
0.205921680301486 -0.163040241795159 0.2625
0.215452792290252 -0.164588090116054 0.2625
0.226036242699911 -0.177236008786721 0.2625
-0.144479791268057 0.196199761610862 0.260094484945026
-0.147607119182838 0.199055240606191 0.258561139642332
-0.141729995898251 0.192832030285217 0.261869509333072
-0.133469312535666 0.182353146116068 0.2625
-0.126469541575985 0.178529629780561 0.2625
-0.12068244866016 0.171788981953883 0.2625
-0.109969112630113 0.165313671794085 0.2625
-0.10800127631655 0.16004660639417 0.2625
-0.101381473538035 0.157002834552262 0.2625
-0.0960047131821274 0.144141124900129 0.2625
-0.0838121354106572 0.136596980990223 0.2625
-0.0817952913331184 0.131776741939514 0.2625
-0.0704217209757027 0.12371323939394 0.2625
-0.0638343119176036 0.116165797922722 0.2625
-0.0623666117294764 0.111451689349467 0.2625
-0.0422786952800558 0.104998164382558 0.2625
-0.0435266471562801 0.0942397200778562 0.2625
-0.0401685260664374 0.0869537015647707 0.2625
-0.0260622591125201 0.0883459747742027 0.2625
-0.0180452641459376 0.0744291790717347 0.2625
-0.0135584988706855 0.0703461769744951 0.2625
-0.00110127565406479 0.0596483458717364 0.2625
0.00607526448940519 0.0499759382384605 0.2625
0.0143467481988155 0.0397626759442988 0.2625
0.0230007914450224 0.033335520803372 0.2625
0.0289604542035453 0.0245794757393286 0.2625
0.029789537347232 0.0244963966653768 0.2625
0.0378368580759767 0.0130833827931136 0.2625
0.0459306265082649 0.0032944106354084 0.2625
0.0534797924019167 0.00272343473463265 0.2625
0.0634460528591033 -0.0119420222995541 0.2625
0.0690650098566243 -0.0130538330636016 0.2625
0.078294656453231 -0.0279692784508199 0.2625
0.0939925435520293 -0.0302818816698717 0.2625
0.0985347003297663 -0.0417909312507016 0.2625
0.103366600326512 -0.0438317550581066 0.2625
0.11181457128138 -0.0612466268672349 0.2625
0.124742242494856 -0.0623194197307043 0.2625
0.1281169573527 -0.0648139926605054 0.2625
0.14291714585671 -0.0842793285475229 0.2625
0.152800516503115 -0.0882118248634948 0.2625
0.167654922551944 -0.0988084454799856 0.2625
0.163629033499328 -0.111911607858407 0.2625
0.181187905507912 -0.119028462513072 0.2625
0.184433852962292 -0.124614813174334 0.2625
0.19943041127604 -0.135399228262654 0.2625
0.201415527335432 -0.139905420286851 0.2625
0.210393908463407 -0.1509355120895 0.2625
0.231746590531032 -0.163251444979819 0.2625
0.23141813888183 -0.163332299750897 0.2625
0.240367383453028 -0.178043980177484 0.2625
0.254137369463851 -0.189484955601707 0.259537163163607
-0.135004658473602 0.196070927091844 0.260297869787411
-0.135439490682094 0.197756361162587 0.25945515275204
-0.130614707630602 0.189379835474963 0.2625
-0.122722685908478 0.18185745429925 0.2625
-0.112972763603882 0.179548503895957 0.2625
-0.102150464087362 0.171069888681135 0.2625
-0.10007377575432 0.166308209414529 0.2625
-0.0870030932624589 0.155873308345051 0.2625
-0.082995643349889 0.148084037219407 0.2625
-0.0789551420089536 0.145058045382731 0.2625
-0.0681614204497711 0.1337920691475 0.2625
-0.0647341935488982 0.133336085337907 0.2625
-0.0572254337464503 0.127218176879755 0.2625
-0.0498762681390089 0.116009641985634 0.2625
-0.0429126140091962 0.103239240478702 0.2625
-0.0320718213098175 0.104715141773328 0.2625
-0.0223870911663156 0.0900583675037781 0.2625
-0.0262952844690053 0.0862211094388749 0.2625
-0.0159223309647156 0.0876920962519555 0.2625
-0.0122685779828776 0.0796818117084938 0.2625
0.00404089510376776 0.0626550057085528 0.2625
0.00198951828634713 0.0652704215004441 0.2625
0.0218693330790408 0.0493720531725995 0.2625
0.0227385791472209 0.0455832220492951 0.2625
0.0357358900761537 0.0395466600096197 0.2625
0.0401149010179403 0.0275493378698809 0.2625
0.051492949827474 0.0214535994918781 0.2625
0.052558075372811 0.0135987222528778 0.2625
0.0639466961181748 0.00385761925305222 0.2625
0.0738617947882532 0.00164954076303937 0.2625
0.0843111367017017 -0.0055168071167957 0.2625
0.0885316097555275 -0.0160043240883477 0.2625
0.10037465720556 -0.0270070847244312 0.2625
0.109563159180623 -0.038708131596437 0.2625
0.114853404265528 -0.0450923479460068 0.2625
0.117967776408457 -0.0485151115900573 0.2625
0.128465834906684 -0.0545868514886166 0.2625
0.145044212413782 -0.0708036917547848 0.2625
0.143748447015786 -0.0713844399190918 0.2625
0.158218675555864 -0.0789664109812733 0.2625
0.171301944838046 -0.0898219147958538 0.2625
0.181249888786743 -0.106781042323293 0.2625
0.18528712125561 -0.108861493565483 0.2625
0.19583098316725 -0.126356772341733 0.2625
0.200886248240844 -0.128169664219191 0.2625
0.216752622213181 -0.138978395999743 0.2625
0.218593354270318 -0.140582332101763 0.2625
0.233943125087375 -0.148643070381202 0.2625
0.23333261105989 -0.164063780002423 0.2625
0.25038918301675 -0.173324345628121 0.2625
-0.116504712835931 0.195514063004602 0.260576301831032
-0.112385780416153 0.187764758647156 0.2625
-0.104181385847555 0.183579245930529 0.2625
-0.101330884771803 0.18000072229999 0.2625
-0.0961868932161995 0.173570662063838 0.2625
-0.0879577330230896 0.163597568155939 0.2625
-0.0786388383926662 0.165400912302267 0.2625
-0.0744464400759685 0.154415177178417 0.2625
-0.069147982962761 0.148388225546332 0.2625
-0.0615032771619639 0.141468496529608 0.2625
-0.0494070752948841 0.131849719472023 0.2625
-0.0459578971032196 0.123305136503326 0.2625
-0.039427732645599 0.121367124673303 0.2625
-0.0279666287177264 0.11146824771473 0.2625
-0.0188174827981618 0.100543696166415 0.2625
-0.0157232537613575 0.0934478228878174 0.2625
-0.00776680462106914 0.0850771155441098 0.2625
0.00021841848864721 0.0799920302492372 0.2625
0.0129018800391595 0.0743356293936112 0.2625
0.0141117893828368 0.0727058150757765 0.2625
0.0165641763737705 0.0634534347232429 0.2625
0.0319126527523606 0.0536029294139069 0.2625
0.047741605566528 0.0412099051486983 0.2625
0.0533234723814897 0.0371746609816864 0.2625
0.0613391632307189 0.0282589900295202 0.2625
0.0633696718918995 0.0207457995170552 0.2625
0.0655527570148853 0.0177825972588105 0.2625
0.0813451973246104 0.00762654405876564 0.2625
0.0889012851851646 -0.0081348272456383 0.2625
0.0972082402321677 -0.0163900179504617 0.2625
0.106518547148973 -0.0121996952132991 0.2625
0.112462526778074 -0.0278360479686313 0.2625
0.120397169079657 -0.0294221532853034 0.2625
0.134927150878971 -0.0486402736201829 0.2625
0.140562835671504 -0.0513062823735505 0.2625
0.145537413441967 -0.0535755111982074 0.2625
0.150125866913149 -0.0681963769270425 0.2625
0.157470690407333 -0.070279296296151 0.2625
0.170450569504155 -0.0851078024971713 0.2625
0.183173801598586 -0.0940741606579882 0.2625
0.191808090883156 -0.107720639193922 0.2625
0.207915873775207 -0.108934010284466 0.2625
0.208448061559776 -0.110944827753139 0.2625
0.222737766646497 -0.134205946557968 0.2625
0.231327311206462 -0.141572460183706 0.2625
0.233964377612647 -0.142321717836967 0.2625
0.24721102121486 -0.163041735518919 0.2625
0.248939031685958 -0.155996653742866 0.2625
0.272229052986004 -0.17836921462143 0.2625
0.279196003995512 -0.182343081107956 0.262202406231971
-0.112055569007808 0.2 0.253360480729188
-0.104072330554481 0.197429136613411 0.259618765026627
-0.0965332087539099 0.194708349625911 0.260979158520378
-0.0900652849809334 0.184785991211159 0.2625
-0.0839530220288326 0.180280194942733 0.2625
-0.0772220249687322 0.17054490026309 0.2625
-0.0743250411088404 0.162668201189089 0.2625
-0.0689861537062486 0.160550166705198 0.2625
-0.0509358905077068 0.146711744019579 0.2625
-0.0514449387361435 0.147613715904496 0.2625
-0.0482653289195416 0.137106155409929 0.2625
-0.0391136100102819 0.13703861728065 0.2625
-0.0268514330378365 0.120008651551209 0.2625
-0.016202012926018 0.117644571756431 0.2625
-0.0106950636286654 0.108458891872018 0.2625
-0.00557566545586402 0.0973471300325089 0.2625
0.00298975342248529 0.10098779488559 0.2625
0.00460072915628989 0.0905758767857302 0.2625
0.0101653450193749 0.0800719429910536 0.2625
0.0219878531546831 0.0721337966386997 0.2625
0.0284718252923086 0.0674532718350313 0.2625
0.0355321172880009 0.0636736070508097 0.2625
0.0478809271489357 0.0536603024591931 0.2625
0.0549437970972856 0.0479677609781115 0.2625
0.0644001232349132 0.0378895273651117 0.2625
0.0665189877363936 0.0294412875096114 0.2625
0.0789606966518566 0.0234093830198349 0.2625
0.0830088626782987 0.0140339665333781 0.2625
0.0968582976678017 0.0105545899389163 0.2625
0.104982478590176 0.00233536147956309 0.2625
0.111127121215139 -0.0148552571121825 0.2625
0.12415688672064 -0.0256395597718854 0.2625
0.135214077429915 -0.025724871300505 0.2625
0.140510372710924 -0.037619079853359 0.2625
0.151027544005518 -0.0468298263056709 0.2625
0.159716874815805 -0.0545081725040556 0.2625
0.16382607600266 -0.0591367997965482 0.2625
0.17249324473582 -0.0642248698169022 0.2625
0.183338968808041 -0.074680326336716 0.2625
0.195421008581409 -0.0845430817210821 0.2625
0.204896216487897 -0.096846043004517 0.2625
0.201367722205365 -0.0980707780903885 0.2625
0.213650975705645 -0.110039148948003 0.2625
0.227004951395426 -0.119037874419922 0.2625
0.235523521483191 -0.129894017334832 0.2625
0.238747260865661 -0.132803034278634 0.2625
0.255585329532772 -0.151289535204033 0.2625
0.265136436240788 -0.155370957756032 0.2625
0.269961834184775 -0.163701448507025 0.2625
0.27670552775426 -0.17318728365972 0.2625
-0.0981058989158322 0.198828110955148 0.258919277855759
-0.0935760273298664 0.196583237318659 0.260041714674004
-0.0822632198884049 0.195815167245342 0.260425749710662
-0.0765715519029448 0.179394186674155 0.2625
-0.0722642904413162 0.182032996991726 0.2625
-0.065204443003352 0.168409444004789 0.2625
-0.0530254134250625 0.16191148378933 0.2625
-0.0452513878765157 0.15583619912274 0.2625
-0.0509300937753125 0.156684117210585 0.2625
-0.0380450221121599 0.148318539416083 0.2625
-0.0293013374952123 0.142467108338548 0.2625
-0.0204754721985522 0.132572561469948 0.2625
-0.0145075396612926 0.12375720061035 0.2625
-0.00853592234976949 0.118213196624054 0.2625
0.00243006199624549 0.105214782975576 0.2625
0.00441711617655762 0.106395673255526 0.2625
0.0103163283140907 0.0917252251941991 0.2625
0.022331707422703 0.0894141518311443 0.2625
0.0314988497909778 0.076818311271307 0.2625
0.0384483356779843 0.0751742068451575 0.2625
0.0478799827815153 0.0650866970928848 0.2625
0.0568469032916436 0.0529590275840074 0.2625
0.0615201810427769 0.048072635303243 0.2625
0.0698657285535659 0.0468082910566589 0.2625
0.0759241528508392 0.0374069340994533 0.2625
0.0798906400613385 0.0284613272787704 0.2625
0.0985710573249064 0.0161719158297181 0.2625
0.0990833009818211 0.0141154039324225 0.2625
0.104643472127942 0.0114668697681726 0.2625
0.114527057664897 -0.00256699344388209 0.2625
0.124018441145955 -0.00732472433413628 0.2625
0.12896154498093 -0.0196383306651119 0.2625
0.140520216476891 -0.0295036262161649 0.2625
0.151449543234663 -0.037348668513754 0.2625
0.16146780302164 -0.0501296080257451 0.2625
0.167868562144123 -0.0504689623754127 0.2625
0.180081214441083 -0.0571971339662189 0.2625
0.185692008780129 -0.0625979680924151 0.2625
0.193473100522105 -0.0713672210071105 0.2625
0.204589208754623 -0.0851509709067921 0.2625
0.214821387770914 -0.0908591137666377 0.2625
0.225512068627728 -0.0962545738807232 0.2625
0.228606854953346 -0.103854003704874 0.2625
0.241623916487855 -0.125555788279331 0.2625
0.250680923409208 -0.12423256717618 0.2625
0.264141742303867 -0.139512334751898 0.2625
0.269295982832945 -0.145861750779135 0.2625
0.276214677051981 -0.155577776444078 0.2625
0.290930177282912 -0.165118119172137 0.2625
0.30174993382572 -0.171351328632047 0.2625
-0.0824191157806074 0.199535203818817 0.258565731423925
-0.0764584769233683 0.198298811747673 0.259183927459496
-0.0684519111917355 0.191109253538497 0.2625
-0.0666436721850492 0.185752632094298 0.2625
-0.0652562468733227 0.184170585876999 0.2625
-0.0513104164413292 0.178344712233797 0.2625
-0.041304242972033 0.16729608754982 0.2625
-0.0424134780764229 0.161834802437386 0.2625
-0.0313011436176337 0.149915591727129 0.2625
-0.0220343459254829 0.146978360167425 0.2625
-0.0162569212564311 0.137418502803664 0.2625
-0.00444364149124219 0.123334825841614 0.2625
-0.00646263368386056 0.128886743302451 0.2625
0.0089127356041973 0.118908669339039 0.2625
0.0216787512773996 0.108042227090979 0.2625
0.0211126484759626 0.103063816020482 0.2625
0.0241029781337193 0.0980475634854895 0.2625
0.0364759823696591 0.0869777109025707 0.2625
0.0494018605701204 0.0739413606230229 0.2625
0.0576826338782879 0.0671190143869597 0.2625
0.0668596036802198 0.0651096888062841 0.2625
0.0675595974910461 0.0550295238123359 0.2625
0.0798598948013633 0.0506271646863401 0.2625
0.0910971386244392 0.044336968166382 0.2625
0.0901393336048806 0.035391130422916 0.2625
0.101671882808591 0.0254408906406621 0.2625
0.112161193026052 0.0166562389755464 0.2625
0.114420099731243 0.0145366607291547 0.2625
0.125700426749515 0.00392946357749645 0.2625
0.129805350691374 -0.00422630518273568 0.2625
0.144705978239117 -0.00764934885967008 0.2625
0.15802061273619 -0.0201625233057702 0.2625
0.154880283223476 -0.0293365452549134 0.2625
0.164642176171133 -0.0328522795866613 0.2625
0.181142998022788 -0.0453650412401989 0.2625
0.182299966306771 -0.0547100980217678 0.2625
0.204721175386889 -0.0621699671826278 0.2625
0.202776312246653 -0.0669001723043413 0.2625
0.21558925984 -0.0837434892409651 0.2625
0.219851547498714 -0.0818890895880344 0.2625
0.231651027576592 -0.0927239900399423 0.2625
0.234288759504842 -0.0995269793631806 0.2625
0.25317803586888 -0.118233029778173 0.2625
0.266800441059833 -0.125831818796368 0.2625
0.266690346125887 -0.131786450125985 0.2625
0.289026577283696 -0.142241416189711 0.2625
0.293609727937972 -0.150383139441118 0.2625
0.303416285815962 -0.161938571994198 0.2625
0.314159083405589 -0.168394278674044 0.2625
0.318182459093276 -0.176877655143628 0.2625
0.329804581561928 -0.180728789194164 0.261205791679212
-0.0728911886923686 0.199381390170203 0.258642638248232
-0.0663535791983423 0.19376028311024 0.261453191778213
-0.0568339478600577 0.186587953929194 0.2625
-0.0515815077706875 0.184195499452347 0.2625
-0.0420004422631425 0.18092631500041 0.2625
-0.0326114283504061 0.165269634852304 0.2625
-0.0304867045570979 0.169328815858292 0.2625
-0.0215428523270852 0.159467298261973 0.2625
-0.0171472686977448 0.151517576361681 0.2625
-0.00791983429504093 0.142732852916742 0.2625
-0.0062061952120003 0.142898673938691 0.2625
0.0107750780417026 0.131034484681359 0.2625
0.00747481928902581 0.126024144888518 0.2625
0.020298040928305 0.111606399114541 0.2625
0.0295235585499438 0.111118549289184 0.2625
0.0385765310324521 0.10085171152244 0.2625
0.0447538429850799 0.0946789249420114 0.2625
0.0576448989575333 0.0876742814993496 0.2625
0.0592607577566189 0.0826143119119808 0.2625
0.071576905047132 0.0752122271889997 0.2625
0.076049650051418 0.0604021868729596 0.2625
0.0896951583205696 0.0597717287438778 0.2625
0.0871021347522382 0.052325025510553 0.2625
0.102153918360586 0.0407416710210791 0.2625
0.110695237738376 0.0364567826251397 0.2625
0.111521686467822 0.0271317977589068 0.2625
0.125991237641705 0.0250661437204669 0.2625
0.131762722707118 0.0107340764988173 0.2625
0.145104287575897 0.00115141507664512 0.2625
0.153440241056417 -0.00979655667760771 0.2625
0.164880403460812 -0.0215784644875834 0.2625
0.165728387956723 -0.0236152956190669 0.2625
0.18283749548143 -0.0311974976609406 0.2625
0.18319117407662 -0.0403595323870604 0.2625
0.198843673367169 -0.0410722945880564 0.2625
0.202566995994782 -0.0560500695686391 0.2625
0.205198753037274 -0.0639125629401368 0.2625
0.225156611930604 -0.0799021835369075 0.2625
0.223746752534923 -0.0707041347341331 0.2625
0.236889269897064 -0.0839460308239002 0.2625
0.247449426111211 -0.0931242336190853 0.2625
0.263191623555426 -0.107046871906689 0.2625
0.277741412499139 -0.121263112408585 0.2625
0.273428808474403 -0.121170900244608 0.2625
0.285347085244579 -0.134505515588916 0.2625
0.302349645203202 -0.150336775193141 0.2625
0.30084406175869 -0.141301552114854 0.2625
0.319445438310836 -0.155028891959378 0.2625
0.334665116822516 -0.176131778101785 0.2625
-0.0459868802275385 0.2 0.255473714390893
-0.0393936298112979 0.188420428884736 0.2625
-0.0361936574449793 0.186178701495562 0.2625
-0.0298984278615213 0.183906144455288 0.2625
-0.0192763143757813 0.168561320326971 0.2625
-0.0157866301753022 0.166484537550851 0.2625
-0.0088912871111105 0.158004724296653 0.2625
-0.00185252844130322 0.148155010317567 0.2625
-0.00192800602331165 0.146867494803405 0.2625
0.0163618621422733 0.136802739671524 0.2625
0.0230948752608603 0.131619663350341 0.2625
0.032997170953246 0.123835898933769 0.2625
0.0363912149947644 0.123955283564335 0.2625
0.0429812872441266 0.113760897849639 0.2625
0.0557615069807069 0.103360547608243 0.2625
0.0601400948227856 0.0939204566511253 0.2625
0.0686982196483943 0.0891603379488707 0.2625
0.0743445577358524 0.0837280006880943 0.2625
0.082185989917775 0.0657639215377564 0.2625
0.0984321939717343 0.0608180232047933 0.2625
0.0969067055063823 0.0539284433238838 0.2625
0.116615431614961 0.0486194402643868 0.2625
0.117176320752389 0.036555831378808 0.2625
0.122653062726765 0.0299935846618067 0.2625
0.141461987555435 0.0246605536318391 0.2625
0.141809955825724 0.0194481665849854 0.2625
0.152974752297286 0.00430555795197751 0.2625
0.164967803415368 -0.00469222399120586 0.2625
0.163992747714317 -0.00134699005605885 0.2625
0.177859989963276 -0.0160605101086754 0.2625
0.18617279837904 -0.0278111225490477 0.2625
0.190466717798397 -0.0299899343973782 0.2625
0.199915666965928 -0.0444529990184714 0.2625
0.204507027360703 -0.0465698254962262 0.2625
0.223151342602873 -0.0576917266662699 0.2625
0.23205109920305 -0.0587620831282597 0.2625
0.236521726785592 -0.0733202510805247 0.2625
0.251052756012272 -0.081640406523285 0.2625
0.256102339445231 -0.0860824618682869 0.2625
0.273600959018971 -0.103225152915531 0.2625
0.285104432156179 -0.116388912427417 0.2625
0.292185152364884 -0.112398823776877 0.2625
0.298645828517698 -0.127008648617692 0.2625
0.308217091371609 -0.129463318236344 0.2625
0.318137496765312 -0.142216303830822 0.2625
0.325390451978925 -0.150601617236675 0.2625
0.338833946943211 -0.162205992814328 0.2625
0.348456302613111 -0.169591961843246 0.2625
0.357728454802676 -0.175540744228537 0.2625
-0.038491164196097 0.2 0.256827501757869
-0.0386050190973092 0.198256621358898 0.259205022653884
-0.0327801389344777 0.191061035092441 0.2625
-0.0243265568571373 0.183545580491934 0.2625
-0.0194259877275126 0.18170367549188 0.2625
-0.00827478127284233 0.17714470106391 0.2625
-0.00727957261213058 0.172914593475916 0.2625
0.00429508804517636 0.159175692634313 0.2625
0.00905067562073885 0.154955317122755 0.2625
0.0247844387127015 0.14553141093823 0.2625
0.0264304849984502 0.137644387815003 0.2625
0.0372178458900867 0.137428250679087 0.2625
0.0448735848630908 0.119296223709219 0.2625
0.0521597137031784 0.115017438945948 0.2625
0.0626378600248968 0.10411967332477 0.2625
0.0625342761929476 0.107480643175928 0.2625
0.0739664813246623 0.0945145184641487 0.2625
0.0807075632323748 0.0927735240253587 0.2625
0.0928054911754488 0.0819428865002095 0.2625
0.0955621492462615 0.0696416775412608 0.2625
0.100178091794725 0.0652834056626131 0.2625
0.1175956874742 0.0534539267114612 0.2625
0.121143127985753 0.0492972155551615 0.2625
0.129749938219297 0.0401981857803946 0.2625
0.140081390976168 0.0386489884152155 0.2625
0.148646046105216 0.0259244194092753 0.2625
0.161838266026686 0.0163529564369613 0.2625
0.170049867861395 0.00356512462280083 0.2625
0.165858438538828 0.00539688487149277 0.2625
0.184975413516137 -0.00169624086367429 0.2625
0.186704385495965 -0.0162391933155111 0.2625
0.197918648881464 -0.0211167474091515 0.2625
0.214199240669423 -0.034366218932557 0.2625
0.222609980603269 -0.0367820615360069 0.2625
0.234139050866681 -0.0485813464180154 0.2625
0.238656602044672 -0.0618692361095265 0.2625
0.240844950388565 -0.0650267083975999 0.2625
0.261276896303443 -0.0745421408052763 0.2625
0.263911678710741 -0.086411371323058 0.2625
0.275094053930365 -0.0963432770775081 0.2625
0.280661644726129 -0.104212048693831 0.2625
0.290904389440129 -0.109330277388621 0.2625
0.300570594718206 -0.119076804530936 0.2625
0.312653731811921 -0.126249725955727 0.2625
0.31493320495726 -0.136760402214545 0.2625
0.324752945564809 -0.141926418657465 0.2625
0.346755133113119 -0.157396942624994 0.2625
0.349442619231498 -0.156071565037303 0.2625
0.359662084804329 -0.167930522564434 0.2625
-0.0283018987504811 0.198747100360568 0.258959783153049
-0.0238676222729553 0.1937971469798 0.261434759843432
-0.0148025734357328 0.191234456743291 0.2625
-0.0146724322958208 0.189912611283532 0.2625
-0.0108543960672047 0.186193897645758 0.2625
0.00361215053064458 0.170137939754622 0.2625
0.0154933476758223 0.162576264791156 0.2625
0.0181379367691278 0.156098372402523 0.2625
0.0291505134232289 0.1452991894753 0.2625
0.0356734682737139 0.15076206968923 0.2625
0.0432608605775004 0.136673539962357 0.2625
0.0527871550912728 0.134338244367814 0.2625
0.0507183901498339 0.128875917804517 0.2625
0.0713919648774489 0.115684528081556 0.2625
0.0780710433583055 0.103932330638505 0.2625
0.0743759147839029 0.104720650224026 0.2625
0.0849306893593761 0.0992342632624746 0.2625
0.10145900626669 0.0868538953209698 0.2625
0.112370641129273 0.0803558984451115 0.2625
0.119266763090819 0.071991843037032 0.2625
0.129152960588426 0.0640452887894845 0.2625
0.133126241445197 0.0525090812588596 0.2625
0.138181021005268 0.049169421801808 0.2625
0.142784825366314 0.0405143707890201 0.2625
0.153733896507224 0.0293345849810575 0.2625
0.16044920355394 0.0236190313326716 0.2625
0.17475402126748 0.0192040204942957 0.2625
0.182183092937124 0.002738566277204 0.2625
0.190427934151917 0.00730902920601242 0.2625
0.195006898294199 -0.00668247916692592 0.2625
0.209783086362549 -0.0125544195122903 0.2625
0.21672501456155 -0.0226846321461531 0.2625
0.232682281957448 -0.0310531651055735 0.2625
0.230882217378742 -0.0440125433718748 0.2625
0.249799096091644 -0.043830933242053 0.2625
0.251619372988219 -0.0549065800498724 0.2625
0.262036291967145 -0.06019270453058 0.2625
0.272828108670602 -0.0748238107360199 0.2625
0.277476509381499 -0.0813690234100259 0.2625
0.295181566471394 -0.087122681236175 0.2625
0.296196715917495 -0.0928134627891003 0.2625
0.309707916269071 -0.113404396578567 0.2625
0.318653462369323 -0.113894787681722 0.2625
0.330833161661468 -0.133621269571323 0.2625
0.336800189191328 -0.133554987450775 0.2625
0.348824466561636 -0.150523439312469 0.2625
0.364187424250038 -0.151410678634161 0.2625
0.377951051502373 -0.166643893262457 0.2625
0.379312053430782 -0.175256202699442 0.262169853580013
-0.0105373975087669 0.199839258839691 0.258413703913487
-0.00707937819171824 0.2 0.255405367514026
0.0019533729975386 0.19020408186046 0.2625
0.00762933852445193 0.186042582547518 0.2625
0.0170872333888079 0.173661050766211 0.2625
0.013780998454096 0.169332507300335 0.2625
0.032087850698497 0.158233234534517 0.2625
0.0380904401951096 0.154730636202879 0.2625
0.0385339329933649 0.148169810825939 0.2625
0.0552373607195323 0.140682355291253 0.2625
0.0567136113896797 0.14028198466413 0.2625
0.0641833119553384 0.131181096538386 0.2625
0.0747387563799168 0.120117342137952 0.2625
0.0763914140520168 0.11274563255709 0.2625
0.0906825904764732 0.105473056693127 0.2625
0.0991984198038537 0.104559640314108 0.2625
0.111502245225325 0.0963064843583195 0.2625
0.111403772545523 0.0913395957446307 0.2625
0.126524032573887 0.0763331800109884 0.2625
0.136393214742134 0.066844357475987 0.2625
0.146146525704668 0.0602462857705324 0.2625
0.148155333847204 0.0539262140812177 0.2625
0.158759498638504 0.0416509230557902 0.2625
0.163109707613942 0.0412349408691367 0.2625
0.170657995543536 0.0336319658766221 0.2625
0.1730102841468 0.0225338504515936 0.2625
0.193499639137664 0.0132752356864924 0.2625
0.201917002645721 0.000917008060891967 0.2625
0.209934684942052 -8.94635086765424e-005 0.2625
0.221912260809059 -0.0110525112392854 0.2625
0.227337272495221 -0.0110663788915599 0.2625
0.234485232159902 -0.0223406054607361 0.2625
0.248082444787865 -0.0367623651827116 0.2625
0.250206735682179 -0.0395017344760783 0.2625
0.260370296039512 -0.0471834943205275 0.2625
0.275415400291311 -0.0582429110676325 0.2625
0.282223948323114 -0.0652540354362931 0.2625
0.294462001624951 -0.0718135409092947 0.2625
0.299041291206896 -0.0893526557901022 0.2625
0.304391878113148 -0.0941572039282335 0.2625
0.317620347893281 -0.103311162773162 0.2625
0.33675107459414 -0.118139714472952 0.2625
0.345111643032945 -0.118113528747315 0.2625
0.349172140551009 -0.125391152093187 0.2625
0.353695604219685 -0.135113423160681 0.2625
0.360475988524978 -0.14434018483577 0.2625
0.381555096706049 -0.155691023267061 0.2625
0.387027585584296 -0.170036250045245 0.2625
-0.00358209737394978 0.199799487542432 0.258433589562117
0.006923044097018 0.2 0.257677058097193
0.0137127947502546 0.197244671457354 0.259710997604657
0.0209196702326162 0.185397557687283 0.2625
0.0286126273996279 0.179724734717314 0.2625
0.0334916926297847 0.173740709980851 0.2625
0.0339665098406351 0.168272274436751 0.2625
0.0512420245210143 0.152766757595842 0.2625
0.0539685229010591 0.156148412614557 0.2625
0.061234926186359 0.1463951015523 0.2625
0.0734854776103332 0.140530620650175 0.2625
0.0801802648015413 0.12367864419361 0.2625
0.0847098949832559 0.121195981453456 0.2625
0.0963874879952114 0.120132802417687 0.2625
0.102688693524029 0.10143163755162 0.2625
0.105252100599554 0.105635763455324 0.2625
0.117741300938396 0.0969014555094866 0.2625
0.12472433984732 0.0928757240477616 0.2625
0.135446321407944 0.080067244877336 0.2625
0.143362940116248 0.0722240513662534 0.2625
0.153080898774902 0.0613023012228235 0.2625
0.162445937128138 0.0518217360927091 0.2625
0.171419005296695 0.0389564138821245 0.2625
0.186584107947677 0.0330900738872062 0.2625
0.189962537364667 0.0323765674246265 0.2625
0.195641540819723 0.0259359994663443 0.2625
0.209770833170554 0.0151350392802534 0.2625
0.220789321888008 0.00265180594450237 0.2625
0.223681886835079 0.00541365261897316 0.2625
0.231744468541816 -0.00622406216880141 0.2625
0.243128884776194 -0.0242983777563191 0.2625
0.259300829284941 -0.024889424825433 0.2625
0.259282929683745 -0.0391383089640233 0.2625
0.277412609950809 -0.0412630547242462 0.2625
0.277197808597073 -0.0556704691425992 0.2625
0.286773243079947 -0.0603223156289379 0.2625
0.299729295755008 -0.067591470044169 0.2625
0.312393690189026 -0.0741144637870207 0.2625
0.311068017725837 -0.0800786497024295 0.2625
0.327339116730541 -0.101365607042456 0.2625
0.338089231295412 -0.100050634226643 0.2625
0.34343721351024 -0.113657784159521 0.2625
0.364114652341097 -0.124820237335195 0.2625
0.367908213680855 -0.130409873517025 0.2625
0.377114848924861 -0.142987113567166 0.2625
0.386215780528101 -0.152097474235329 0.2625
0.401555282318172 -0.152620897542309 0.2625
0.412052935802362 -0.167786704075953 0.2625
0.0203264028317971 0.198449898417667 0.2591083841245
0.0247081494868891 0.193545734956008 0.261560465855329
0.0241288167273037 0.195188871481765 0.26073889759245
0.03872066209771 0.180420416799632 0.2625
0.0392716680671409 0.180425368003863 0.2625
0.0507126839014765 0.16890458175289 0.2625
0.0540088328628046 0.169692504030063 0.2625
0.0645838794848693 0.157503367719308 0.2625
0.0650697981600532 0.153974469409001 0.2625
0.0738466442572829 0.142115694777265 0.2625
0.0877278504784439 0.132026613984873 0.2625
0.0978418146889447 0.129926321549391 0.2625
0.105077996553602 0.124199023157445 0.2625
0.107981835863536 0.11005277318709 0.2625
0.115533203165792 0.105293711078121 0.2625
0.127411928033985 0.105002977013205 0.2625
0.137821299773349 0.0953457270278555 0.2625
0.140452071033444 0.080609182473246 0.2625
0.159171317623166 0.077847597110095 0.2625
0.169133942916705 0.0670523659866416 0.2625
0.1650073311843 0.0609547950027571 0.2625
0.177304449520958 0.0510840989974023 0.2625
0.183908397890936 0.0449244679104526 0.2625
0.197769385299195 0.0391691128401644 0.2625
0.208469169913533 0.0291756035695511 0.2625
0.208720106255512 0.0217593399756819 0.2625
0.225263169155989 0.0156356524400261 0.2625
0.234419837624365 0.00678771129977604 0.2625
0.241778478492338 -0.00604512674124909 0.2625
0.250921399695166 -0.00855671376087196 0.2625
0.256596550141596 -0.0204975540325288 0.2625
0.268658448830856 -0.020328203962093 0.2625
0.277388186642045 -0.0324675311080772 0.2625
0.292806182979524 -0.0398444362083168 0.2625
0.288179132630498 -0.0429058772036313 0.2625
0.313197734868942 -0.05895620103208 0.2625
0.314535890875289 -0.0684792398814295 0.2625
0.328788520954304 -0.0795619966795006 0.2625
0.34067098668667 -0.0883314569797089 0.2625
0.348106796496746 -0.104754654585097 0.2625
0.360664714976772 -0.103636776151009 0.2625
0.36584994345302 -0.118805353101747 0.2625
0.370444130109613 -0.115239639846959 0.2625
0.388526951031576 -0.129061015505089 0.2625
0.396338043130368 -0.138676542022744 0.2625
0.409706133438989 -0.147356078648618 0.2625
0.412792595104358 -0.164568656096601 0.2625
0.426013456612045 -0.165469364258874 0.2625
0.0327240514836047 0.2 0.251498299983296
0.0330275480883443 0.196605841651953 0.260030412507357
0.0418255371441408 0.194314255989203 0.261176205338732
0.0433640776298418 0.186952560623752 0.2625
0.0565546635114269 0.180907442126186 0.2625
0.0660044766417587 0.17389095710675 0.2625
0.0714157535186001 0.164645853384566 0.2625
0.0771082638471891 0.160216002186149 0.2625
0.0845604472986083 0.15350578049355 0.2625
0.0940940922919695 0.150884317187594 0.2625
0.100041761448761 0.135684867156766 0.2625
0.107609161102531 0.129147745693738 0.2625
0.117349595513097 0.117604547387324 0.2625
0.133119763350255 0.113372320883181 0.2625
0.131840790552884 0.111939189560216 0.2625
0.146503317414701 0.0977423275137265 0.2625
0.153560996155768 0.0877079639837146 0.2625
0.157259747973873 0.0876939923071795 0.2625
0.173627769793304 0.0766525098316234 0.2625
0.172325165607018 0.0688016804546081 0.2625
0.178233094206829 0.0686707016241039 0.2625
0.195186603874862 0.0567494714216224 0.2625
0.202319057643243 0.0423452868617055 0.2625
0.215839605994335 0.0420851295875654 0.2625
0.217174578776736 0.036314087478272 0.2625
0.233627302858953 0.0210402127429188 0.2625
0.240255534461409 0.0109941787720098 0.2625
0.250823549228272 0.00584728158190983 0.2625
0.260277347631816 0.000217824297905563 0.2625
0.260066684105916 -0.01327074986674 0.2625
0.279054339367037 -0.0244343027223706 0.2625
0.287541766066896 -0.0238238213156317 0.2625
0.295261729788878 -0.035964597607249 0.2625
0.30482061449239 -0.048109980919735 0.2625
0.313722553168875 -0.052836477677665 0.2625
0.324563118797913 -0.057270276931978 0.2625
0.33058138137636 -0.0685343842212148 0.2625
0.347022046613427 -0.0827139897253777 0.2625
0.344445491881176 -0.0848413672125541 0.2625
0.361120944851 -0.0981642709404388 0.2625
0.370715364782945 -0.106171301865251 0.2625
0.386166904914697 -0.120301666630047 0.2625
0.387208743651211 -0.115421376776159 0.2625
0.399337189284047 -0.128644422572617 0.2625
0.416410451330676 -0.136842011458398 0.2625
0.417030613503536 -0.149508944862187 0.2625
0.437781041722624 -0.168360352362915 0.2625
0.446085982576809 -0.169780418949243 0.2625
0.234374999999999 0.033022840691972 0.00840890519245657
0.234374999999999 0.0372852010148657 0.0150608564957235
0.0482332356505289 0.194166560328944 0.261250053168861
0.0601456230423155 0.18816836248155 0.2625
0.0604118529861299 0.18250300165362 0.2625
0.0680679422530673 0.179767395267734 0.2625
0.0782291868273083 0.177306725516776 0.2625
0.0834398945522577 0.166909873336369 0.2625
0.0870507365588322 0.157588993161098 0.2625
0.105770765075405 0.150494322227324 0.2625
0.106292988586747 0.145927410206694 0.2625
0.118751588379009 0.138096150520903 0.2625
0.119592750517302 0.135514253936229 0.2625
0.140971501063685 0.114942641614334 0.2625
0.144179747462137 0.108205835799589 0.2625
0.149604430537585 0.109238026955723 0.2625
0.153840095220696 0.0984386997560269 0.2625
0.163866233229695 0.0980730410780024 0.2625
0.168848270819789 0.090671456325079 0.2625
0.182267476487758 0.076541328752882 0.2625
0.189928634363628 0.072395852385042 0.2625
0.193000387505311 0.0617232825216346 0.2625
0.206580735779347 0.0614309856612086 0.2625
0.221244583031636 0.0445392323979161 0.2625
0.22391086357225 0.0326548779121644 0.2625
0.241478096182561 0.0314137850338059 0.2625
0.249690282998629 0.0186699710753408 0.2625
0.249766759969169 0.0131415925026926 0.2625
0.272097717157114 0.0028901178775536 0.2625
0.273068602564757 -0.00362749422218508 0.2625
0.282918916530574 -0.0112919606355402 0.2625
0.293429403277499 -0.0162919738579584 0.2625
0.300112733592404 -0.0203207310235797 0.2625
0.312686988691118 -0.0383997343574435 0.2625
0.321001126744485 -0.0462312878717104 0.2625
0.328882698183262 -0.0506960887130996 0.2625
0.332047563445032 -0.061981026081862 0.2625
0.345455763793221 -0.0727245009038995 0.2625
0.364641149063506 -0.0808524588621244 0.2625
0.368157197454554 -0.0858805359538863 0.2625
0.386487482133275 -0.0959864663937571 0.2625
0.395584645005544 -0.105540641220255 0.2625
0.401816094805164 -0.112207293804654 0.2625
0.404708168125256 -0.119560525230034 0.2625
0.415997382471506 -0.137633309290064 0.2625
0.435146957082165 -0.140358799521474 0.2625
0.441137404328039 -0.151508110892317 0.2625
0.459316446671581 -0.16780583389282 0.2625
0.234374999999999 0.0452962939134328 0.00660905952115778
0.234374999999999 0.0467322344083655 0.0139788761201251
0.234374999999999 0.0400202879549806 0.0190189168208923
0.057174875761302 0.2 0.25204164016759
0.0611464882907988 0.196896297184172 0.259885184741248
0.0711112473683132 0.19290735881277 0.261879653926948
0.0743936382155559 0.182181695214531 0.2625
0.0853573192832305 0.173545704109148 0.2625
0.0898801088883066 0.167466902816504 0.2625
0.101077656224258 0.164380442019803 0.2625
0.105294892470089 0.156476261926964 0.2625
0.11654226964064 0.149530785452592 0.2625
0.122296963184856 0.139843948658432 0.2625
0.138245271066309 0.134368600074028 0.2625
0.13786783578413 0.131210467481182 0.2625
0.149007213373009 0.120427747184242 0.2625
0.157018693032785 0.112620428404839 0.2625
0.158478989354467 0.108445864086682 0.2625
0.171495204901538 0.0994183669532217 0.2625
0.180382723247932 0.0882787438720051 0.2625
0.186257483320146 0.0805032375482511 0.2625
0.194877517193383 0.0812487826721276 0.2625
0.207005853575123 0.0736396827093967 0.2625
0.214254842684308 0.0629635377797996 0.2625
0.225039070571028 0.0518108869769636 0.2625
0.233607253741613 0.0438460791816913 0.2625
0.238943401448376 0.0417446861122926 0.2625
0.258985444230241 0.0309090682138053 0.2625
0.259545619702101 0.0279397902694225 0.2625
0.274365360561545 0.00629066393037921 0.2625
0.277441795468053 0.00713021821433789 0.2625
0.281362844833394 0.00164597939366965 0.2625
0.296968842482004 -0.0148802158138986 0.2625
0.305974747202285 -0.0216102162098792 0.2625
0.328742468570538 -0.0366761596168866 0.2625
0.333046036574774 -0.0326749829405083 0.2625
0.337839452267368 -0.0452194132862184 0.2625
0.344244458430793 -0.0521830305776457 0.2625
0.352758468906117 -0.0562337886322813 0.2625
0.369067611046559 -0.0759673363848933 0.2625
0.388232298653767 -0.0829547508148176 0.2625
0.392287832252384 -0.0891360903721908 0.2625
0.396085010055122 -0.094843794084917 0.2625
0.408631404377013 -0.106294572881868 0.2625
0.42493223036275 -0.116248003718917 0.2625
0.434467953146666 -0.128292071117244 0.2625
0.438967594935172 -0.136086854715251 0.2625
0.445699889800958 -0.147090116197564 0.2625
0.460391927173195 -0.156084143641995 0.2625
0.477124513774736 -0.16352005526073 0.2625
0.234374999999999 0.0607742676700366 0.00263108001905161
0.234374999999999 0.0571426576780477 0.0137256974688944
0.234374999999999 0.0618376799386794 0.0206044773743828
0.234374999999999 0.0609159470089608 0.0286833194021124
0.0736545204566913 0.2 0.251450473440759
0.234374999999999 0.0580553195669331 0.0449138837925608
