ply
format ascii 1.0
element vertex 1010
property float x
property float y
property float z
end_header
-0.43528337931096 -0.0369075767294443 0.2625
-0.440771630888785 -0.0167641900102794 0.2625
-0.436878430518487 -0.0135383102081899 0.2625
-0.441299700683423 -0.0104889610730913 0.2625
-0.442953000174092 0.00273557242484189 0.2625
-0.439688264270583 0.0169141645018518 0.2625
-0.443359951283458 0.0232497603945405 0.2625
-0.445225874428861 0.0332979285260806 0.2625
-0.450289241177615 0.0602594449465022 0.2625
-0.448898406381378 0.0622709709140131 0.2625
-0.448728618224345 0.0745217335383 0.2625
-0.450399828146037 0.0860387870561374 0.2625
-0.456972056893996 0.0932812090296457 0.2625
-0.458328181550521 0.113086362964168 0.2625
-0.454239152505327 0.130266638568725 0.2625
-0.461425907075529 0.136647354228109 0.2625
-0.464913098839315 0.144003569768406 0.2625
-0.458283486744956 0.154104157458777 0.2625
-0.466063013661041 0.168734111691868 0.262331532125048
-0.407263730838525 -0.180962921834337 0.252294087964852
-0.403741863100578 -0.181214522384479 0.252566180753158
-0.405946185418526 -0.172804006517322 0.262443497927021
-0.403580424040317 -0.165363212296766 0.2625
-0.411848128917685 -0.159624275669439 0.2625
-0.411409734615954 -0.14346717585061 0.2625
-0.41413418196229 -0.141365348254077 0.2625
-0.412639873001798 -0.126783036816534 0.2625
-0.410952161525326 -0.11385601419339 0.2625
-0.415086520702084 -0.102151588693357 0.2625
-0.416721621588343 -0.10230879571266 0.2625
-0.412952807339612 -0.0940167386736193 0.2625
-0.421956135980878 -0.0812089458520164 0.2625
-0.421577126561849 -0.0662542942117408 0.2625
-0.419128578573629 -0.0565674519749948 0.2625
-0.428005956715848 -0.0482178937899018 0.2625
-0.421098369619234 -0.0332531146208814 0.2625
-0.428017481918744 -0.0251424193609846 0.2625
-0.425500517542032 -0.0156178414669465 0.2625
-0.42899296875226 -0.00866180211571083 0.2625
-0.433520120365699 0.00390401432755005 0.2625
-0.429108059548023 0.0160762626823347 0.2625
-0.435778356838435 0.0324040386773358 0.2625
-0.437617888891893 0.0400674298228794 0.2625
-0.438988937389098 0.0530742937800147 0.2625
-0.442754377811138 0.0624805555788613 0.2625
-0.437731953259903 0.0780338330953281 0.2625
-0.439584669625811 0.0809610655226925 0.2625
-0.442206061848832 0.0908965135200453 0.2625
-0.446048028052872 0.101945073626911 0.2625
-0.443091638099008 0.130245790778719 0.2625
-0.454193284000414 0.137746985990167 0.2625
-0.451027669394073 0.147872811572825 0.2625
-0.450126174699136 0.164402960884479 0.2625
-0.391769272571419 -0.182069838537129 0.255009105383325
-0.391648939172861 -0.17134964473238 0.2625
-0.399293560634494 -0.159738799826589 0.2625
-0.398125388375294 -0.153987958279426 0.2625
-0.397909590987463 -0.150176749835261 0.2625
-0.40305680096081 -0.136637784291161 0.2625
-0.40443230232238 -0.129972606909549 0.2625
-0.400655257369926 -0.118920253572337 0.2625
-0.405480649994911 -0.117034703471429 0.2625
-0.403544005042134 -0.096470334184429 0.2625
-0.40873857508933 -0.0918143989406314 0.2625
-0.412339836249342 -0.0747916074731001 0.2625
-0.406229661013265 -0.0593971238736298 0.2625
-0.412987452245831 -0.0535646063649334 0.2625
-0.411823469632968 -0.0535432676540695 0.2625
-0.416054570033966 -0.0340752715255539 0.2625
-0.416917061739973 -0.0193769341975473 0.2625
-0.415135596265407 -0.0150420358788405 0.2625
-0.423438264701999 0.00655597861554617 0.2625
-0.425574826005961 0.0155971848604481 0.2625
-0.42532517570859 0.0111691439054634 0.2625
-0.419960205471675 0.031123777339982 0.2625
-0.429235019985914 0.0394263411400531 0.2625
-0.429948762776051 0.0457576186073084 0.2625
-0.430848808404312 0.0671265216375996 0.2625
-0.432291141372899 0.0777276800596966 0.2625
-0.42722259218653 0.0840449638482346 0.2625
-0.433093845321488 0.105421229463315 0.2625
-0.431857101053759 0.107590357746492 0.2625
-0.439827878279165 0.125939529804141 0.2625
-0.438872980819237 0.13534822129661 0.2625
-0.437217249194422 0.143893642869134 0.2625
-0.437923595237274 0.155608693666095 0.2625
-0.384271587107724 -0.182605469607863 0.251452746790099
-0.38232372839116 -0.175946635060992 0.261718855732611
-0.385333034477412 -0.166810486060229 0.2625
-0.391012676471471 -0.164760868549856 0.2625
-0.392134083647955 -0.142078441915845 0.2625
-0.386050149040483 -0.141762413001322 0.2625
-0.39246476361739 -0.126876586110694 0.2625
-0.397893709692751 -0.114567288312141 0.2625
-0.39808484160922 -0.113558079644541 0.2625
-0.394062682063036 -0.0951450835115969 0.2625
-0.402611860370766 -0.0843252133920952 0.2625
-0.402229512648171 -0.0708806054029908 0.2625
-0.403240970542769 -0.0674292666783753 0.2625
-0.402844728475552 -0.0520226975855916 0.2625
-0.404469397229339 -0.0431240915101754 0.2625
-0.404910852983396 -0.0303755841963186 0.2625
-0.40160896281101 -0.0306190567634015 0.2625
-0.407259678669764 -0.0124363876808517 0.2625
-0.409526626110074 -0.00421953887998168 0.2625
-0.411836913184879 0.00735237595175947 0.2625
-0.410315512337585 0.0197277699478349 0.2625
-0.415565757574991 0.0224581794300752 0.2625
-0.41191298273856 0.0361159017324814 0.2625
-0.417663852158528 0.0449866574152121 0.2625
-0.417407012415102 0.0611653983792343 0.2625
-0.42149032091902 0.0751232788195458 0.2625
-0.426475645701967 0.0853047133851918 0.2625
-0.426785211564083 0.1026775955567 0.2625
-0.426216133610748 0.105593875047899 0.2625
-0.423534455685007 0.121367056750508 0.2625
-0.426646190216631 0.12960054586739 0.2625
-0.426904328278272 0.137040131634014 0.2625
-0.433400844174038 0.155055786555948 0.2625
-0.370185542948958 -0.18361176987902 0.254473640486361
-0.377746465172193 -0.182005207511079 0.258864426813285
-0.372735208118788 -0.174418805406321 0.2625
-0.375480958466823 -0.170766822197343 0.2625
-0.380939326941566 -0.158827367955475 0.2625
-0.382565969576932 -0.151348228207649 0.2625
-0.379767210700899 -0.13650229611624 0.2625
-0.382473454020383 -0.12520321557902 0.2625
-0.379328045370075 -0.120387885667772 0.2625
-0.385761293843672 -0.105984491442796 0.2625
-0.386677191601211 -0.104721192173981 0.2625
-0.390699498372446 -0.082585374076597 0.2625
-0.390735597276276 -0.0783312581871936 0.2625
-0.386904540722495 -0.0644984581949734 0.2625
-0.38930157718275 -0.0508164029108017 0.2625
-0.396604144458765 -0.0429463678817045 0.2625
-0.390351870450813 -0.0404061981252839 0.2625
-0.397324746907489 -0.0168815021471531 0.2625
-0.402919981214551 -0.013992172005555 0.2625
-0.400373015262693 -0.00295120184097287 0.2625
-0.397866688121799 0.0156210423521458 0.2625
-0.40305591699409 0.0149134567412058 0.2625
-0.407801917190603 0.0344173537126845 0.2625
-0.403686198150158 0.0374878853343267 0.2625
-0.408938130581589 0.0560194826937302 0.2625
-0.412889309769864 0.0577708036232646 0.2625
-0.415100211032653 0.0772334180785133 0.2625
-0.408446168780561 0.0944784413953657 0.2625
-0.411456509450698 0.101415111234421 0.2625
-0.419305181265013 0.113988857069471 0.2625
-0.421072104161078 0.122340074405388 0.2625
-0.413969085977185 0.136088502121593 0.2625
-0.415778895860061 0.146209748000214 0.2625
-0.417574945715921 0.168097214285388 0.2625
-0.427393392712087 0.164958293919711 0.2625
-0.362314154341855 -0.184174098123943 0.256808516170485
-0.370202554972979 -0.182571865034939 0.258850619665672
-0.367901169514817 -0.177846992312721 0.261285571624088
-0.365139731867849 -0.165686203924477 0.2625
-0.371373681095784 -0.162836638890885 0.2625
-0.372506682512334 -0.145584178055425 0.2625
-0.37075542931725 -0.138206467246721 0.2625
-0.372350193072496 -0.129576305531964 0.2625
-0.378124568447055 -0.12230162381998 0.2625
-0.372241265746326 -0.115460158377832 0.2625
-0.376943905422955 -0.101934279124396 0.2625
-0.383931419265815 -0.0831382896398017 0.2625
-0.383544781813768 -0.0794606161616397 0.2625
-0.380888596355642 -0.0750497930763066 0.2625
-0.383799738886367 -0.0560139351998322 0.2625
-0.383435039316604 -0.0451501577261194 0.2625
-0.38258883950701 -0.0362065730652575 0.2625
-0.387858047856095 -0.0204708092785984 0.2625
-0.384352843950307 -0.0156655744322038 0.2625
-0.387341822291488 0.00274865578707312 0.2625
-0.387828633247741 0.00741072032060692 0.2625
-0.391046254921871 0.0142589973079681 0.2625
-0.398738228628505 0.0319332966017021 0.2625
-0.394163399665637 0.035571694850898 0.2625
-0.399951381058844 0.0596445853754617 0.2625
-0.400560609386302 0.0606943529948908 0.2625
-0.404302910768943 0.0720428300570727 0.2625
-0.405328799678707 0.0899212656783098 0.2625
-0.405807224782496 0.0891088839992469 0.2625
-0.406602566279594 0.115210272691991 0.2625
-0.403879590778591 0.11441834047482 0.2625
-0.406858143707906 0.135058997506592 0.2625
-0.414087042677123 0.150593049312664 0.2625
-0.406264230708572 0.166252314899612 0.2625
-0.417393036488565 0.177542235165549 0.259676515397354
-0.360056762678671 -0.181616185597681 0.259687534350475
-0.354891909150115 -0.178897850397303 0.261225071005798
-0.358356058026106 -0.159921024793704 0.2625
-0.362258909122232 -0.156164711790921 0.2625
-0.366052551579403 -0.147836436612024 0.2625
-0.360065880611503 -0.138594072051765 0.2625
-0.361840771719312 -0.126829276280155 0.2625
-0.366480679671858 -0.11130040188095 0.2625
-0.370455603718394 -0.113302688435414 0.2625
-0.37164198296869 -0.102925477430009 0.2625
-0.373362330146024 -0.0837659075239501 0.2625
-0.373447092542218 -0.0737348489183978 0.2625
-0.375005102346073 -0.0652815406051129 0.2625
-0.371131415523406 -0.0572931328048067 0.2625
-0.378820387766617 -0.0381085143697595 0.2625
-0.377086919395555 -0.0329920782797255 0.2625
-0.375565707919295 -0.0238633587010389 0.2625
-0.373699558153962 -0.0167004669334679 0.2625
-0.380961484559841 -0.00596428660907508 0.2625
-0.384795554221979 0.0102259452976176 0.2625
-0.377910617871727 0.0214781384591675 0.2625
-0.388319621539035 0.0283883041543585 0.2625
-0.381384535285357 0.0426203898260464 0.2625
-0.388069789126349 0.0541963169339829 0.2625
-0.387936878804753 0.0697385615349566 0.2625
-0.386202596087888 0.0734552711026871 0.2625
-0.385539431684418 0.0817913473197352 0.2625
-0.397103583108207 0.0990965005808563 0.2625
-0.390332826826389 0.108618606396821 0.2625
-0.39213538368461 0.121987696814034 0.2625
-0.393560064453956 0.132650975299213 0.2625
-0.401502632195892 0.149448469573447 0.2625
-0.399496605825399 0.164085714849227 0.2625
-0.402474289602156 0.163810598527045 0.2625
-0.401730518904868 0.178466432875119 0.259773492035989
-0.349613886298027 -0.185081399210907 0.254231891330498
-0.348673932747072 -0.183354122527669 0.259226990484433
-0.350696325863308 -0.178096659202081 0.261773350084193
-0.345239102420086 -0.17064890697878 0.2625
-0.346885122721292 -0.163625983334698 0.2625
-0.352846231652402 -0.14459077020601 0.2625
-0.35131262207016 -0.138325275757519 0.2625
-0.351025394135127 -0.12939259766209 0.2625
-0.351409987565493 -0.116361340595328 0.2625
-0.352585140160665 -0.105785808960963 0.2625
-0.360532131967415 -0.0916679882150808 0.2625
-0.362974302326751 -0.08784009092231 0.2625
-0.360316500428886 -0.0740245900270467 0.2625
-0.362819613530343 -0.0618616235107956 0.2625
-0.364586381655026 -0.0570827933329588 0.2625
-0.364983237485871 -0.04981990432613 0.2625
-0.370429076899864 -0.0395913581142358 0.2625
-0.367089373470761 -0.0189756987366286 0.2625
-0.37351419303635 -0.0135817972959137 0.2625
-0.370619708653676 0.00559412931810316 0.2625
-0.3761288170813 0.00474362984702364 0.2625
-0.373529015780181 0.0178302989443434 0.2625
-0.368453499743268 0.0291579665904953 0.2625
-0.371413836066302 0.0476754409397966 0.2625
-0.378172750205948 0.046068930274404 0.2625
-0.372910308546426 0.0585269805464668 0.2625
-0.377258652960176 0.0785136273268038 0.2625
-0.385212756011873 0.0959061288112107 0.2625
-0.386078984926586 0.0940589609779154 0.2625
-0.383990704315085 0.109580881418261 0.2625
-0.386619589572486 0.12310733627229 0.2625
-0.38622420767326 0.128103227109341 0.2625
-0.391151343716329 0.149145296744566 0.2625
-0.394879756686442 0.164364769178799 0.2625
-0.386527757344521 0.16825631816608 0.2625
-0.339114058386792 -0.185831501905111 0.251465913513087
-0.340136928724275 -0.183218243651929 0.259598391760963
-0.340178286310994 -0.176271215026107 0.2625
-0.342525194497748 -0.170484622022449 0.2625
-0.339113742007765 -0.163222427808571 0.2625
-0.344454995416889 -0.149651021001389 0.2625
-0.343814616978162 -0.135418480678456 0.2625
-0.346048188773267 -0.13072068039812 0.2625
-0.342193668478445 -0.114259717656845 0.2625
-0.343397547946044 -0.108804476718139 0.2625
-0.34389878193372 -0.106564920221775 0.2625
-0.347779990908462 -0.0870521030690181 0.2625
-0.347063182155252 -0.0807540861264657 0.2625
-0.349609625886279 -0.0769593445737069 0.2625
-0.351500256901939 -0.0508957181109756 0.2625
-0.351896162116948 -0.0454882872865464 0.2625
-0.351232534656182 -0.0293804516573147 0.2625
-0.361205984587899 -0.0274080720592154 0.2625
-0.359517328864785 -0.0144613841583507 0.2625
-0.354891756310123 -0.0010375499481702 0.2625
-0.36475508696514 0.0094772389274942 0.2625
-0.358740763954539 0.0165491925603789 0.2625
-0.366604297619727 0.0289829361190533 0.2625
-0.369167539455929 0.0424044170956829 0.2625
-0.371186957032534 0.0498944440345062 0.2625
-0.368687986875927 0.0691362086623339 0.2625
-0.370748287633795 0.0763890880229583 0.2625
-0.373619621855923 0.0859526910498139 0.2625
-0.368713650301258 0.108662695257485 0.2625
-0.369165114162384 0.105084151014244 0.2625
-0.370894061244194 0.122712163666546 0.2625
-0.378124727486255 0.124242460202433 0.2625
-0.382250768296573 0.154891306395379 0.2625
-0.381587804214904 0.164739618633023 0.2625
-0.384058848195047 0.169151756083963 0.2625
-0.324950239978869 -0.186843358331505 0.250462042064835
-0.330715438770125 -0.1864314952817 0.25719113016809
-0.324431849721714 -0.180580231603225 0.261470928123094
-0.329614218798849 -0.171507980415703 0.2625
-0.335376108510996 -0.159162153520229 0.2625
-0.328964027020346 -0.141846611532115 0.2625
-0.330380872898071 -0.13145051656415 0.2625
-0.331407978314407 -0.129254160354565 0.2625
-0.339631688248146 -0.120819659879242 0.2625
-0.341635751772173 -0.109038395320311 0.2625
-0.334826227142478 -0.0992270518148001 0.2625
-0.344053790194824 -0.08736576507403 0.2625
-0.337709185494028 -0.0709041189107093 0.2625
-0.345256323736598 -0.065991631933945 0.2625
-0.345143583862343 -0.0470076371147779 0.2625
-0.341993316255403 -0.0453513717224985 0.2625
-0.345395249977143 -0.0382616179008694 0.2625
-0.347782178841469 -0.0272333697192452 0.2625
-0.349620684500795 -0.00580755545840226 0.2625
-0.347872740817243 -0.00172217109761359 0.2625
-0.351815840406537 0.0063220157694337 0.2625
-0.353525066276335 0.02178411289228 0.2625
-0.354884190487169 0.032127886643724 0.2625
-0.359273880015258 0.0333171544349479 0.2625
-0.35333414140444 0.0563622538829824 0.2625
-0.358474760827872 0.0630443263490952 0.2625
-0.356073832103287 0.0778305849488112 0.2625
-0.360568837528692 0.088062734604283 0.2625
-0.358200406812633 0.102872695589098 0.2625
-0.368239089289337 0.120431040301808 0.2625
-0.368000937164833 0.124618669760513 0.2625
-0.365960505677791 0.131225471493332 0.2625
-0.365193462576664 0.150183336893273 0.2625
-0.366462162168225 0.158264657097107 0.2625
-0.368733882682185 0.169389522925216 0.2625
-0.316701976622054 -0.185540662054402 0.259275558099562
-0.320239355768437 -0.173948966332505 0.2625
-0.318995547547943 -0.171500470842549 0.2625
-0.322532980207193 -0.164526807527998 0.2625
-0.328195047439674 -0.141349555125974 0.2625
-0.328842922950922 -0.136377726633623 0.2625
-0.322387260432387 -0.119303161105421 0.2625
-0.328144587955904 -0.124507354183936 0.2625
-0.328700572408282 -0.102802625571003 0.2625
-0.327444109615228 -0.10133513704365 0.2625
-0.332453042389395 -0.0793480900372843 0.2625
-0.331670501855391 -0.0794946710714826 0.2625
-0.334267812244567 -0.0675105222487305 0.2625
-0.329918810083532 -0.0502062539104473 0.2625
-0.337772081259604 -0.0455503904664568 0.2625
-0.339567083198422 -0.038915598688521 0.2625
-0.336915989280205 -0.0203063867293793 0.2625
-0.334549576184642 -0.0151556690510712 0.2625
-0.339068050052625 -0.00419250960789229 0.2625
-0.342531491275196 0.0131726851473124 0.2625
-0.337088047596539 0.0167755762707004 0.2625
-0.344372601223358 0.0354933968745504 0.2625
-0.340314622556737 0.0375392124033246 0.2625
-0.346399167481266 0.0481363390927163 0.2625
-0.350203207485955 0.0605533916802477 0.2625
-0.349940825578839 0.0792782018664843 0.2625
-0.348995189981654 0.08475051022632 0.2625
-0.347832408107804 0.0919513485479159 0.2625
-0.355276672826171 0.113025062244756 0.2625
-0.358317309319635 0.121493981300319 0.2625
-0.359928275990023 0.127237358166136 0.2625
-0.352616398522029 0.141606998177353 0.2625
-0.361170798939265 0.151356605232264 0.2625
-0.365071748799418 0.171947092048877 0.2625
-0.362283818521716 0.180853510901705 0.259988125659954
-0.311354364060495 -0.187814641217535 0.258103800516049
-0.309328410530561 -0.17501860846272 0.2625
-0.311751354922042 -0.162539627848136 0.2625
-0.309913639767427 -0.162228343661831 0.2625
-0.3157663319122 -0.145369047074493 0.2625
-0.311782997658824 -0.138333023208238 0.2625
-0.311245707523239 -0.133403787909908 0.2625
-0.3126529358447 -0.12311574467377 0.2625
-0.322646728671237 -0.105492428383275 0.2625
-0.317463413053419 -0.0967542198046432 0.2625
-0.322066574241921 -0.0890190340639484 0.2625
-0.319342452265471 -0.0840778620325083 0.2625
-0.320147283431503 -0.0676306347639374 0.2625
-0.323209839862911 -0.0546983654060271 0.2625
-0.324587468399385 -0.0495777453418129 0.2625
-0.329917782581104 -0.0321357252227861 0.2625
-0.328211933965043 -0.0281820213922767 0.2625
-0.325204851918494 -0.0121353682057679 0.2625
-0.330828091872577 -0.00318090381373496 0.2625
-0.334043394332902 0.00722912665758653 0.2625
-0.326987107690324 0.0143869114426561 0.2625
-0.338215489378493 0.0358998056870472 0.2625
-0.334868171710906 0.0457779806221558 0.2625
-0.338432672215767 0.0480044065283755 0.2625
-0.33495767019708 0.0594417215467891 0.2625
-0.337071937930647 0.0787140048246491 0.2625
-0.339758225389685 0.0891346744611914 0.2625
-0.336129786796134 0.0960624015414284 0.2625
-0.339168239753355 0.107498655843695 0.2625
-0.340012370152617 0.117371317827896 0.2625
-0.348954178266093 0.142114803091591 0.2625
-0.350758111162781 0.146576521089981 0.2625
-0.34589382680839 0.157560877584895 0.2625
-0.343888721836952 0.171211308345173 0.2625
-0.302826690863201 -0.188423854120324 0.253497374524673
-0.297323781067773 -0.188816979369462 0.257121772902576
-0.304523300540808 -0.179552891885568 0.2625
-0.301233997185381 -0.165160595403752 0.2625
-0.302033746110415 -0.158534433630521 0.2625
-0.305723101612985 -0.143426697866238 0.2625
-0.301937801150192 -0.134159354082721 0.2625
-0.30482111771143 -0.12768077578483 0.2625
-0.311730131831424 -0.115504388059631 0.2625
-0.305541655549687 -0.110303357748685 0.2625
-0.304289508014549 -0.103544260847408 0.2625
-0.309319643624967 -0.0855447996377858 0.2625
-0.316779367861334 -0.0729841493359715 0.2625
-0.317632206861962 -0.0625055594327829 0.2625
-0.315252698127419 -0.061129082714526 0.2625
-0.311437443750129 -0.0450085316381675 0.2625
-0.320186408437182 -0.0392112246267867 0.2625
-0.320653853510117 -0.0320666077165437 0.2625
-0.314572116396133 -0.0203060995715234 0.2625
-0.324693096299487 -0.00286120111856298 0.2625
-0.323062756137299 0.00413792230544588 0.2625
-0.325482438713207 0.0215469923311318 0.2625
-0.320404196091089 0.0214324027351756 0.2625
-0.328543548785929 0.0331876758142486 0.2625
-0.329654161673985 0.0552131414190068 0.2625
-0.32846266819871 0.0607547359384892 0.2625
-0.331118645129203 0.0672012440865928 0.2625
-0.328585926282871 0.0873377561354603 0.2625
-0.328240404281994 0.104526583161787 0.2625
-0.335398205318477 0.11603997979004 0.2625
-0.338279377860445 0.128158486501046 0.2625
-0.337043696867153 0.141550888993291 0.2625
-0.334522063348944 0.149460435926834 0.2625
-0.334554531429415 0.165923940456828 0.2625
-0.344095399232497 0.181759788298357 0.260183893942078
-0.288090955680813 -0.188164672153243 0.258986681409482
-0.293670222999273 -0.186295454390614 0.259719085755857
-0.294227003424233 -0.178098921979998 0.2625
-0.290353389106455 -0.17266145124224 0.2625
-0.29562528746224 -0.152818286708501 0.2625
-0.292431497409896 -0.150393099403747 0.2625
-0.290915533651555 -0.138363843552684 0.2625
-0.299927046341527 -0.130833379251253 0.2625
-0.302552206859336 -0.117936931164773 0.2625
-0.298878924223222 -0.111400324066599 0.2625
-0.300750276643189 -0.0975187716452322 0.2625
-0.299408296447561 -0.0829473392144887 0.2625
-0.301481431727996 -0.082624089989769 0.2625
-0.305579526756267 -0.0638267143861944 0.2625
-0.305375309048547 -0.0621380810813128 0.2625
-0.308828453967795 -0.0515815351844894 0.2625
-0.302748249819736 -0.0293222530239481 0.2625
-0.306819971993385 -0.0263669669137685 0.2625
-0.305187635481494 -0.00806101997203358 0.2625
-0.311706509836875 0.00160712958197286 0.2625
-0.315150138961536 0.0142578922114084 0.2625
-0.316895508551549 0.022973814415047 0.2625
-0.316556464419469 0.0293404327718582 0.2625
-0.317359810957381 0.0356682390241399 0.2625
-0.310574500060021 0.0579646792379749 0.2625
-0.32128025591967 0.0637934664593147 0.2625
-0.318674999908051 0.0742115117142718 0.2625
-0.322330746567061 0.0965361858595374 0.2625
-0.315831682892329 0.0934692438374622 0.2625
-0.316310032857506 0.100591452329884 0.2625
-0.32182919745102 0.115113311380836 0.2625
-0.320641866590176 0.125040380166431 0.2625
-0.32164300420764 0.153482965907579 0.2625
-0.330556027514982 0.157318492249187 0.2625
-0.326357079091118 0.171954359490493 0.2625
-0.280459635900252 -0.190021745850642 0.253866571063929
-0.280548910174334 -0.184858420312406 0.260901587458775
-0.286844406434057 -0.177074671223224 0.2625
-0.281230334508036 -0.164689232728331 0.2625
-0.28476297215855 -0.162070902717525 0.2625
-0.283934421670634 -0.149168885048244 0.2625
-0.283354987098709 -0.13616334238456 0.2625
-0.287662315331965 -0.129734646954856 0.2625
-0.284894713076397 -0.12157820385452 0.2625
-0.287474921453956 -0.103003764382168 0.2625
-0.289161918469408 -0.0964664452812188 0.2625
-0.293762855113892 -0.0865769940544071 0.2625
-0.287789110695314 -0.0799281377460305 0.2625
-0.292386930107634 -0.06419396829983 0.2625
-0.29820437985367 -0.0547251152569171 0.2625
-0.291641449954058 -0.049838403883364 0.2625
-0.298361207550417 -0.0407444250041319 0.2625
-0.302043657955621 -0.0215918723502773 0.2625
-0.297016987106296 -0.0205404720966869 0.2625
-0.302854911818297 -0.00297067594226572 0.2625
-0.300278059970055 0.0105192465058438 0.2625
-0.300366992382083 0.019593816798404 0.2625
-0.300213989470548 0.0297210682364025 0.2625
-0.308467046457872 0.0444888731684771 0.2625
-0.300919144031158 0.051193228707499 0.2625
-0.302760601252721 0.0662673925638914 0.2625
-0.302611367369907 0.0710088555466428 0.2625
-0.304343865156219 0.0771132108807977 0.2625
-0.308941985992895 0.102546251512135 0.2625
-0.314784090593572 0.10625949174127 0.2625
-0.311945644200147 0.123678540297245 0.2625
-0.318458071833818 0.139480476055534 0.2625
-0.309721690216803 0.14716775800056 0.2625
-0.311806659099223 0.161833784198595 0.2625
-0.320944705792257 0.170788558503883 0.2625
-0.314521655098895 0.183532867468414 0.26035304832772
-0.272000667443886 -0.190626050519534 0.252576159302972
-0.270939378717442 -0.189590621112344 0.258886754801066
-0.274830050561736 -0.187707818588611 0.259686001770192
-0.271769183819663 -0.181892734383047 0.2625
-0.278065359387924 -0.159494451141133 0.2625
-0.27428060340365 -0.160315838231177 0.2625
-0.277865282660479 -0.143990764954445 0.2625
-0.275324310611156 -0.138619888088882 0.2625
-0.281919698592582 -0.129150057736261 0.2625
-0.276991071080995 -0.118262896625099 0.2625
-0.284285068978761 -0.10861148399453 0.2625
-0.284292160994973 -0.0945801861799894 0.2625
-0.283909126421643 -0.0915181773642332 0.2625
-0.286184315759449 -0.0824338787894629 0.2625
-0.284847770549255 -0.0739604801139209 0.2625
-0.282745970213808 -0.0527997172695948 0.2625
-0.288440063776898 -0.0404357469750892 0.2625
-0.282898612388416 -0.0393823449257028 0.2625
-0.292273918567956 -0.0241924498024172 0.2625
-0.286092485232593 -0.0164575603601658 0.2625
-0.292630369463744 -0.00122094122875947 0.2625
-0.287020988632952 0.0100408161915805 0.2625
-0.291108894879329 0.0166731378646191 0.2625
-0.296337070943573 0.0254939876851117 0.2625
-0.293681868091694 0.046652375217812 0.2625
-0.294662921600913 0.0543504211781701 0.2625
-0.301000541513035 0.0592529423229309 0.2625
-0.295161610478874 0.0769856016197126 0.2625
-0.301966717705787 0.0869832761064928 0.2625
-0.298258342610776 0.0917693054760497 0.2625
-0.302717506941439 0.105240043542432 0.2625
-0.30337573354667 0.126980411057295 0.2625
-0.301484124941743 0.140535464505648 0.2625
-0.299876078035051 0.143487061739386 0.2625
-0.305878248801867 0.163046856230735 0.2625
-0.306393931490127 0.174776386532716 0.2625
-0.262263812909086 -0.191321646759907 0.250110172829011
-0.266624184063021 -0.191010143925961 0.252926388310205
-0.266130663187933 -0.187865066094876 0.259917198064361
-0.26462813337527 -0.182957385814812 0.262414769687868
-0.264192655123069 -0.166607704791707 0.2625
-0.269749893842113 -0.155843435021956 0.2625
-0.268416401665531 -0.152140250269476 0.2625
-0.267015387376336 -0.136418821276935 0.2625
-0.269155063828525 -0.125198125564851 0.2625
-0.265023514688213 -0.119507970122231 0.2625
-0.268779246168813 -0.108510993836817 0.2625
-0.273393282683266 -0.104058382598648 0.2625
-0.267366497521309 -0.0881490955925496 0.2625
-0.271544227741812 -0.0788160880518581 0.2625
-0.270283799744844 -0.0692526199685248 0.2625
-0.275111970806635 -0.0514849554847578 0.2625
-0.273890811016006 -0.0489125130146676 0.2625
-0.273606008876612 -0.0383779473507375 0.2625
-0.280023658620586 -0.017482713623934 0.2625
-0.275395679546512 -0.00729136169250691 0.2625
-0.278375364794543 -0.00616208919913918 0.2625
-0.28409266127682 0.0121913468153703 0.2625
-0.285495746587665 0.0219735236777202 0.2625
-0.283110570617748 0.030189523870178 0.2625
-0.281084891713306 0.0447876033670412 0.2625
-0.285814979098014 0.0579809383784091 0.2625
-0.281462536514143 0.0611492121332822 0.2625
-0.284160654451646 0.0818177853053623 0.2625
-0.286039770713393 0.0908375756376795 0.2625
-0.292874307511344 0.0977853632564206 0.2625
-0.290767909720604 0.11299423341551 0.2625
-0.295044917124391 0.123711861512245 0.2625
-0.289725559676739 0.140856376693312 0.2625
-0.292896680599702 0.14339465750951 0.2625
-0.292963914352384 0.161728950448823 0.2625
-0.300495203373304 0.16834342632448 0.2625
-0.294540877922149 0.183793411622115 0.260934172390903
-0.250978126004486 -0.192127890845492 0.251838409570524
-0.253496048108695 -0.18812862973587 0.26023545524646
-0.253129706346405 -0.188875471221751 0.259876548332933
-0.257899888981167 -0.183394618719848 0.262436398452555
-0.257202751641715 -0.165922458181999 0.2625
-0.254254586310627 -0.153828680431895 0.2625
-0.251796962908722 -0.153477202365783 0.2625
-0.255303766475136 -0.143929163992017 0.2625
-0.262959098074643 -0.127274909668876 0.2625
-0.260712583935139 -0.117104224604995 0.2625
-0.264015168349194 -0.107641668102132 0.2625
-0.258119078532868 -0.0959931553298523 0.2625
-0.260538019678296 -0.0854827719702348 0.2625
-0.264697956535439 -0.085782806954886 0.2625
-0.25919960643551 -0.0683605749913152 0.2625
-0.26837014794077 -0.056744911503437 0.2625
-0.261206294915574 -0.0393933733688884 0.2625
-0.265443508674028 -0.0344688217245112 0.2625
-0.263228708090721 -0.017312629506301 0.2625
-0.271367871307116 -0.0164240241606001 0.2625
-0.266842670805824 0.000503725747180835 0.2625
-0.267884460619451 0.0116189323282707 0.2625
-0.270468925727433 0.0200965947275189 0.2625
-0.268217098897956 0.038861175215412 0.2625
-0.268762904295722 0.0394627941378171 0.2625
-0.273432362099174 0.0557603184794005 0.2625
-0.273242260300311 0.0695677957497846 0.2625
-0.274464522171238 0.0709721894747063 0.2625
-0.275962239730307 0.0964074464028036 0.2625
-0.274421762724953 0.0939736697604584 0.2625
-0.275101881600154 0.110806556542738 0.2625
-0.276147851288131 0.129529477933562 0.2625
-0.283552616577453 0.132172997654545 0.2625
-0.28410274847213 0.1397492004591 0.2625
-0.280410364176972 0.158617554176832 0.2625
-0.289724937603233 0.177118520061427 0.2625
-0.290936688666792 0.188525423133338 0.258705774820737
-0.245222226614306 -0.125 0.113798226255117
-0.249492980836395 -0.125 0.132675145737176
-0.249231830281283 -0.125 0.173880117336915
-0.244091761341893 -0.190518150866592 0.259380017581193
-0.245637793817155 -0.183407821239622 0.2625
-0.245919432287032 -0.174156339860366 0.2625
-0.241588486355596 -0.170570919953518 0.2625
-0.247954910203396 -0.155886650754166 0.2625
-0.250717673628024 -0.148308465084339 0.2625
-0.247191709414802 -0.13785586319238 0.2625
-0.25274529774807 -0.127214047618973 0.2625
-0.251215780180845 -0.122204914994708 0.2625
-0.248655545343139 -0.0996375469765199 0.2625
-0.249380512408516 -0.0937123539362888 0.2625
-0.254188749040201 -0.0819323720622796 0.2625
-0.256113691247251 -0.0771876217460162 0.2625
-0.2548075620221 -0.0692065412539564 0.2625
-0.257637377387391 -0.0565255807520237 0.2625
-0.255920274671967 -0.0446563378971126 0.2625
-0.251950140372224 -0.043243066084836 0.2625
-0.259412047245959 -0.0254716851615295 0.2625
-0.262611937672989 -0.0102766996553958 0.2625
-0.264689930235293 -0.00607543157648637 0.2625
-0.259938867774268 0.0145620082368008 0.2625
-0.263033118563998 0.0149388704224436 0.2625
-0.258401048955072 0.0213715674623426 0.2625
-0.266615054904615 0.046851092844582 0.2625
-0.266832075118514 0.048774131855322 0.2625
-0.264366697871922 0.0623872985250596 0.2625
-0.268295982871766 0.0752068673604362 0.2625
-0.272762010580639 0.0966182612418148 0.2625
-0.272467440175035 0.0938827079600378 0.2625
-0.274497569294698 0.118447635233309 0.2625
-0.272059295089891 0.126234313797217 0.2625
-0.274181460639494 0.134837194688697 0.2625
-0.269086098149422 0.155198833464231 0.2625
-0.275052349689257 0.163347142823228 0.2625
-0.273873074834546 0.173365777584987 0.2625
-0.238352141682562 -0.125 0.116395591382526
-0.241600269047343 -0.125 0.120077243329224
-0.236722063503993 -0.125 0.133734609850203
-0.235701775764679 -0.125 0.144263559389429
-0.239438033026351 -0.125 0.152196674852236
-0.235080261646471 -0.125 0.167829075681744
-0.236404326897582 -0.125 0.180375568494666
-0.241550112462519 -0.125 0.175836041357329
-0.235293236899385 -0.193248411836455 0.252430921315259
-0.231926300321365 -0.183595021183343 0.2625
-0.234146252078591 -0.176714893988212 0.2625
-0.23236725218371 -0.168318378694513 0.2625
-0.237163857307938 -0.159606085680435 0.2625
-0.240739394318422 -0.14426824523183 0.2625
-0.239736012129847 -0.140229910561515 0.2625
-0.243842754987108 -0.127075133648176 0.2625
-0.237606290642413 -0.115668623624913 0.2625
-0.244409628641028 -0.110940288653437 0.2625
-0.241663295364746 -0.0947955036269629 0.2625
-0.239645934932889 -0.086073643361634 0.2625
-0.244574777111494 -0.0780476629740952 0.2625
-0.241889622562302 -0.0629958658160027 0.2625
-0.241205539185358 -0.0641021525784132 0.2625
-0.250333723294849 -0.0537877021582854 0.2625
-0.24991691323074 -0.036190478269524 0.2625
-0.243281629966475 -0.020655741051769 0.2625
-0.248313350578331 -0.0141927157090081 0.2625
-0.254795930788082 -0.0045753361085214 0.2625
-0.250510552397329 0.00566884483129785 0.2625
-0.253591551796787 0.0225412937458999 0.2625
-0.248869061923988 0.0291621232678803 0.2625
-0.256366673124704 0.0372124769660285 0.2625
-0.259794146654393 0.0556188065437246 0.2625
-0.251990184825252 0.0596917052287207 0.2625
-0.252723553610561 0.0788066003833915 0.2625
-0.257790479238653 0.0837959648479328 0.2625
-0.259275618593864 0.107982257969531 0.2625
-0.262646312262488 0.105038408818476 0.2625
-0.255797757744147 0.124813851358665 0.2625
-0.264095972719402 0.128097456601352 0.2625
-0.267016352833982 0.145904492165032 0.2625
-0.265889994371434 0.154663334866013 0.2625
-0.26199621500927 0.164583316866173 0.2625
-0.261663810850319 0.190085779364183 0.258970164834245
-0.234374999999999 -0.033188486312498 0.0229274626773124
-0.234374999999999 -0.118327738007691 0.123988412021624
-0.234374999999999 -0.0718463127546472 0.0765942025231245
-0.234374999999999 -0.119717187004704 0.134467763358006
-0.234374999999999 -0.12099617706707 0.14135865169104
-0.234374999999999 -0.100471392794256 0.131483591988501
-0.234374999999999 -0.120593593624415 0.169256762088363
-0.234374999999999 -0.102031098014557 0.157040592370314
-0.225949577222922 -0.190946864496823 0.259811976370441
-0.223732577287739 -0.187368714186308 0.261672837357773
-0.228327976558635 -0.181348249262475 0.2625
-0.226156758200374 -0.170704633074859 0.2625
-0.224164778370411 -0.15946670031507 0.2625
-0.226024619087008 -0.146855213045604 0.2625
-0.226903293565765 -0.140287243647462 0.2625
-0.228691835595598 -0.132072906527468 0.2625
-0.229457838914495 -0.122534935573945 0.2625
-0.22904405863266 -0.114962459438141 0.2625
-0.235168068549898 -0.0960111654418508 0.2625
-0.230968931260162 -0.0918751942277492 0.2625
-0.235742442637048 -0.0813957790964922 0.2625
-0.238063586946818 -0.0635921526061387 0.2625
-0.237870719877754 -0.0510291320675318 0.2625
-0.237570899959681 -0.0443979109087333 0.2625
-0.235291745672006 -0.0346484832782651 0.2625
-0.234679317904026 -0.0222626050867756 0.2625
-0.236834912377787 -0.00555521313748819 0.2625
-0.237449193085539 -0.000338638979074387 0.2625
-0.244690797383656 0.0116933914383197 0.2625
-0.239194439403131 0.0227873892966197 0.2625
-0.243153013231163 0.026498940869991 0.2625
-0.248817390249281 0.0450276631738339 0.2625
-0.240981383360366 0.0466009886564797 0.2625
-0.245479603189321 0.0668814265226043 0.2625
-0.244634478434938 0.07500683311229 0.2625
-0.248991108920853 0.0847391087899909 0.2625
-0.252968537496577 0.101578352886594 0.2625
-0.245342559050804 0.109615080897965 0.2625
-0.246904639854446 0.12046060439583 0.2625
-0.252736824422414 0.136420533105177 0.2625
-0.248819801619832 0.15045024427084 0.2625
-0.254328287264085 0.16369796005266 0.2625
-0.251960382007988 0.162510812992725 0.2625
-0.253589056656622 0.18357487325256 0.2625
-0.225536277958878 -0.00781250000000003 0.00757317188425854
-0.234042809330691 -0.00781250000000003 0.0188494600041561
-0.233438286515426 -0.00781250000000003 0.0239806866942307
-0.22797045692568 -0.00781250000000003 0.0411722808488927
-0.228977668853161 -0.00781250000000003 0.0562793829768069
-0.224882582179741 -0.00781250000000003 0.0542728074183814
-0.231772981230548 -0.00781250000000003 0.0657878145410934
-0.214735091190414 -0.194717075953097 0.257037779812979
-0.2137317055099 -0.187198537670019 0.262113401244417
-0.215016404919708 -0.169898218046809 0.2625
-0.214243111409361 -0.165966580860892 0.2625
-0.216659722255227 -0.153865894237447 0.2625
-0.215647343038707 -0.150450945264383 0.2625
-0.224382166843586 -0.134263260811726 0.2625
-0.217866216029295 -0.123102794815453 0.2625
-0.218867990811435 -0.119335922665709 0.2625
-0.223674354527242 -0.104320585019975 0.2625
-0.224948355944631 -0.101100632241443 0.2625
-0.225445732345119 -0.0874392556895402 0.2625
-0.219342985467901 -0.0727538381126073 0.2625
-0.226255989450333 -0.0682133342421007 0.2625
-0.225357398118442 -0.0520738340799356 0.2625
-0.224785877209879 -0.0499815307610472 0.2625
-0.228656404283976 -0.0408218881349996 0.2625
-0.224647802793794 -0.0201634536165306 0.2625
-0.226491824474558 -0.0153353142999488 0.2625
-0.232287974936914 -0.00435764013005985 0.2625
-0.22698784558603 0.0149143700097758 0.2625
-0.228562186181077 0.0208307184346003 0.2625
-0.233445834636502 0.0231565443986976 0.2625
-0.236974934063685 0.0434113706961664 0.2625
-0.234921202017438 0.0503014346035339 0.2625
-0.230757281773161 0.0658325114038591 0.2625
-0.231215392702663 0.0837963353346222 0.2625
-0.241214462218819 0.086204373075746 0.2625
-0.23625487715695 0.0893095435463731 0.2625
-0.236936352099839 0.104719859220495 0.2625
-0.243429038721398 0.125391044982549 0.2625
-0.236094615555578 0.130895756792013 0.2625
-0.237260821610398 0.141341301548797 0.2625
-0.243052535603572 0.157739304089265 0.2625
-0.238443728456547 0.164520307385714 0.2625
-0.239743812106857 0.177576085539738 0.2625
-0.214405079067837 -0.00781250000000003 0.00487850053468009
-0.223422844472102 -0.00781250000000003 0.00366791360372598
-0.215921079026284 -0.00781250000000003 0.0145266997781609
-0.216473992798032 -0.00781250000000003 0.0246710669078183
-0.214768685880457 -0.00781250000000003 0.0410984694522673
-0.217146420629506 -0.00781250000000003 0.0417115264991154
-0.215009735989498 -0.00781250000000003 0.0630667163470965
-0.207740598754369 -0.195216759154119 0.250313694270881
-0.209163424895136 -0.191358744282293 0.260204073570323
-0.203151069832517 -0.189027621732318 0.2615789238268
-0.211462568515423 -0.175648055650601 0.2625
-0.206022577332651 -0.174340407604258 0.2625
-0.2090062418793 -0.155977659477111 0.2625
-0.208014560679805 -0.147862004836401 0.2625
-0.214861111376366 -0.130507810763935 0.2625
-0.214902099429819 -0.125211847477957 0.2625
-0.211812545044323 -0.118156765891519 0.2625
-0.207565630824949 -0.107015812579734 0.2625
-0.215893253712561 -0.0965493509749205 0.2625
-0.215056177643782 -0.0887790326673199 0.2625
-0.210914909172846 -0.0773533063379945 0.2625
-0.212658068819136 -0.0643020940307301 0.2625
-0.217725184430595 -0.0559876415126786 0.2625
-0.216249262620827 -0.0386179423650627 0.2625
-0.215960242477735 -0.0414350218136435 0.2625
-0.222824411349188 -0.0236657362373649 0.2625
-0.218241395663154 -0.0160436820026713 0.2625
-0.22412323119423 -0.00973237249264407 0.2625
-0.2184728117945 0.00968114905128731 0.2625
-0.223322685083948 0.0224590078821716 0.2625
-0.218379369680084 0.0261519784216404 0.2625
-0.225371440431195 0.0445875190681762 0.2625
-0.226407737909417 0.0462653190028032 0.2625
-0.221391251000736 0.0616403220380511 0.2625
-0.224933122607434 0.0774878082464005 0.2625
-0.224225757440389 0.077848049745101 0.2625
-0.22559178675874 0.0945953209276488 0.2625
-0.22783505113507 0.108188974571033 0.2625
-0.22997796072046 0.121534461085773 0.2625
-0.230716654156169 0.132350564510541 0.2625
-0.234382329556758 0.151713795202428 0.2625
-0.227269344999419 0.155158568048404 0.2625
-0.235908011066844 0.175096907374068 0.2625
-0.232971051270084 0.192159817115498 0.258958092522027
-0.21159845002237 -0.00781250000000003 0.00664547037742125
-0.205509036656655 -0.00781250000000003 0.0112009581088865
-0.213722821701542 -0.00781250000000003 0.0223882434565998
-0.205179855611841 -0.00781250000000003 0.0273268265951217
-0.209906446845138 -0.00781250000000003 0.0394019315244611
-0.207826454525843 -0.00781250000000003 0.0470037300427767
-0.210259223083004 -0.00781250000000003 0.0592762033566421
-0.196726831595819 -0.196003577422839 0.256238289551064
-0.194951483768404 -0.19522798471524 0.258782756310473
-0.199993004126556 -0.186565687994344 0.2625
-0.199022683275665 -0.174187817557457 0.2625
-0.196779840324928 -0.160879334702054 0.2625
-0.198731373054507 -0.16356886272331 0.2625
-0.200162598556441 -0.157900569404135 0.2625
-0.203732711469701 -0.131870774533171 0.2625
-0.196986388522679 -0.13551033219876 0.2625
-0.200795080269391 -0.11366838812996 0.2625
-0.200114388391844 -0.115824434911988 0.2625
-0.207776367280931 -0.0990253545748522 0.2625
-0.205433960519556 -0.0891451533331317 0.2625
-0.207228355612409 -0.0807813193438251 0.2625
-0.20760924355072 -0.0731487675608464 0.2625
-0.202459410171898 -0.0583318312395492 0.2625
-0.209522523862655 -0.0441742922002429 0.2625
-0.202515805427802 -0.039118127692566 0.2625
-0.212796434322165 -0.0179330927650124 0.2625
-0.214037855328519 -0.00985025168382432 0.2625
-0.212447413102418 0.00136535707643102 0.2625
-0.214085250250776 0.0135253106359652 0.2625
-0.211248467770891 0.0178523451415681 0.2625
-0.216752262295001 0.0294214201647554 0.2625
-0.21688523751354 0.0443938778959464 0.2625
-0.214100211698118 0.0551830048084034 0.2625
-0.213605449653624 0.0556542175085474 0.2625
-0.213224098747931 0.0737804027612631 0.2625
-0.218988747383572 0.0913239154642815 0.2625
-0.219907643873816 0.0942560851262505 0.2625
-0.216501273138749 0.105495369398943 0.2625
-0.218513005221225 0.124446459097109 0.2625
-0.22116621895838 0.131407960059841 0.2625
-0.220448837921117 0.144081997172375 0.2625
-0.218673496924228 0.155661685601649 0.2625
-0.224640334213367 0.17167437278901 0.2625
-0.227473645203961 0.18768167182086 0.261383878334618
-0.227196385218707 0.192766982683873 0.258861165131698
-0.202271980999316 -0.00781250000000003 0.00776989258905824
-0.202371964950621 -0.00781250000000003 0.0166014798662289
-0.202493750342526 -0.00781250000000003 0.0221540555855337
-0.195848226231264 -0.00781250000000003 0.031079474464796
-0.195338150307345 -0.00781250000000003 0.0564656086716407
-0.199009192753222 -0.00781250000000003 0.0603017318765391
-0.201749379630963 -0.00781250000000003 0.0635050594414656
-0.188426139999205 -0.193007200951882 0.260120907045278
-0.191642920553341 -0.189286598600901 0.261859387695533
-0.186142889639975 -0.182812165290502 0.2625
-0.185319395104411 -0.171724585939128 0.2625
-0.192922016211222 -0.161165539573343 0.2625
-0.192912309461104 -0.14474360599696 0.2625
-0.187125112034094 -0.135409310665696 0.2625
-0.190219880049054 -0.126462553890554 0.2625
-0.187037177381634 -0.117821933505382 0.2625
-0.195874845063881 -0.106136952233033 0.2625
-0.196582471048896 -0.10215316210466 0.2625
-0.198404156576275 -0.0853405634997189 0.2625
-0.190554620539028 -0.084800306684061 0.2625
-0.199383297114449 -0.0654959098834421 0.2625
-0.191082974717581 -0.0566872066801983 0.2625
-0.192308164599363 -0.0546921252660208 0.2625
-0.198490778212807 -0.0407955575865103 0.2625
-0.202381728735741 -0.0249168861064657 0.2625
-0.195314534425938 -0.0128293264360935 0.2625
-0.196816391786359 0.00120347802059092 0.2625
-0.197717949170275 0.0030396941868314 0.2625
-0.198522244387329 0.0222964566768791 0.2625
-0.205680106918652 0.0308595662353 0.2625
-0.203532839285027 0.0488422339865518 0.2625
-0.199958945013043 0.0549314271507111 0.2625
-0.208045285981866 0.0661711266429948 0.2625
-0.205580248785833 0.0780326140578226 0.2625
-0.20566164216951 0.0831927837239515 0.2625
-0.205788131492132 0.0924064736593357 0.2625
-0.206560918058476 0.114265222440953 0.2625
-0.209560092460055 0.117662391566712 0.2625
-0.212666703555538 0.133086865998801 0.2625
-0.212667215597779 0.152546525246444 0.2625
-0.210554472986566 0.153436872778067 0.2625
-0.209473372820302 0.176956880840347 0.2625
-0.217232230301885 0.185584136638658 0.2625
-0.190361101916115 -0.00781250000000003 0.0149319292114683
-0.191128734035553 -0.00781250000000003 0.0195878164917204
-0.186611647954476 -0.00781250000000003 0.0283091982733055
-0.189348667556175 -0.00781250000000003 0.0389380072291033
-0.191022756961338 -0.00781250000000003 0.0440465783932197
-0.186379894657386 -0.00781250000000003 0.0629245472350221
-0.174367365463621 -0.196485823705479 0.258888675128556
-0.178963714600348 -0.191546033611268 0.261185250975969
-0.173992363331771 -0.184914921729362 0.2625
-0.182539445157595 -0.181745776471542 0.2625
-0.179215880960009 -0.165552411560857 0.2625
-0.182388837149519 -0.155812854815365 0.2625
-0.177116868594253 -0.144722558127803 0.2625
-0.185182247460145 -0.134078445619647 0.2625
-0.178618384796471 -0.131005367520587 0.2625
-0.178198342429987 -0.119616743419674 0.2625
-0.18705595286564 -0.108863070320036 0.2625
-0.180920840688205 -0.0994210646980294 0.2625
-0.179712357207376 -0.0926101519430931 0.2625
-0.189791082295295 -0.0746025754750658 0.2625
-0.185816170840542 -0.0689994009775561 0.2625
-0.189410013972006 -0.053838790782291 0.2625
-0.188329118969098 -0.0377466061857448 0.2625
-0.186750329504077 -0.0315694193234986 0.2625
-0.189832841028013 -0.018423378441537 0.2625
-0.191658197774173 -0.0154667155655409 0.2625
-0.193393217770448 -0.00828854985801074 0.2625
-0.195624992465929 0.00816496069190773 0.2625
-0.186764601948149 0.0184173887550269 0.2625
-0.191331975149528 0.0313271148964746 0.2625
-0.193739235657055 0.0392255629641877 0.2625
-0.196608495790534 0.055092529049775 0.2625
-0.192488357587359 0.0660892107080089 0.2625
-0.193343379471465 0.0770854120986846 0.2625
-0.192055177629277 0.093430417815012 0.2625
-0.195559873767638 0.093062319845062 0.2625
-0.201908549330477 0.104766446973644 0.2625
-0.196408821517127 0.115389709891056 0.2625
-0.20304955517482 0.131504274593339 0.2625
-0.194217888393095 0.14442171103834 0.2625
-0.198130943871154 0.161818790334022 0.2625
-0.202224492654315 0.179893256548695 0.2625
-0.204269396265985 0.176671020814278 0.2625
-0.183849006586173 -0.00781250000000003 0.00823977008536095
-0.179886608410254 -0.00781250000000003 0.0106823870218795
-0.176457258014813 -0.00781250000000003 0.0327322845272069
-0.175934018626532 -0.00781250000000003 0.0435338478569473
-0.177345064864787 -0.00781250000000003 0.0477516441663279
-0.17869344474023 -0.00781250000000003 0.0538910772199453
-0.184649281647524 -0.00781250000000003 0.0621597437679228
-0.167700736757857 -0.192533867761023 0.261094007862989
-0.165318187025101 -0.185083157102172 0.2625
-0.167400110146027 -0.169482459278635 0.2625
-0.166504809357749 -0.162202194257463 0.2625
-0.174490629405917 -0.15720603762967 0.2625
-0.172301532859689 -0.156241888914224 0.2625
-0.172088917039124 -0.141849166597357 0.2625
-0.170427996597687 -0.135206204033867 0.2625
-0.172171434530269 -0.118061714809313 0.2625
-0.177886786547679 -0.102730289939554 0.2625
-0.170152495556971 -0.103170315790534 0.2625
-0.177881371903358 -0.0853392491654466 0.2625
-0.171926505711783 -0.0703578021411986 0.2625
-0.176763739518502 -0.0627523647317328 0.2625
-0.176296174957749 -0.0549415029353323 0.2625
-0.172704068523206 -0.0423165973563064 0.2625
-0.179483425078947 -0.0348936226952409 0.2625
-0.182388919935132 -0.0264917672740429 0.2625
-0.17950567931923 -0.0144199489987136 0.2625
-0.176638141285148 -0.000132321393746378 0.2625
-0.177411379268412 0.000595266983494074 0.2625
-0.185715438415799 0.0218563219052153 0.2625
-0.184447200789133 0.0255221973855362 0.2625
-0.179495133597303 0.0419102315806873 0.2625
-0.179045079483943 0.0588984450701859 0.2625
-0.182521651782599 0.0641393119411746 0.2625
-0.18536611669162 0.0713570744769992 0.2625
-0.187001755296123 0.0822830016940127 0.2625
-0.182922719762066 0.103705297431058 0.2625
-0.188697379448248 0.110461383157425 0.2625
-0.182289963320631 0.119906379102312 0.2625
-0.184729394887967 0.141113602407868 0.2625
-0.191937614717451 0.145421171875328 0.2625
-0.191474730089394 0.162039735564053 0.2625
-0.187795133310257 0.167325094954057 0.2625
-0.190253605794196 0.180671125286669 0.2625
-0.190069436456742 0.187393172685768 0.2625
-0.171835313951212 -0.00781250000000003 0.00474623638277336
-0.169613113742165 -0.00781250000000003 0.0124710613821961
-0.172345878550471 -0.00781250000000003 0.0262925308342299
-0.170558332459025 -0.00781250000000003 0.0436347741468728
-0.165006779124142 -0.00781250000000003 0.0478629178531644
-0.173767507212162 -0.00781250000000003 0.0572734864213748
-0.159136373220309 -0.197863062322243 0.258744676239174
-0.160255279573344 -0.197727174218593 0.25877254233626
