ply
format ascii 1.0
element vertex 850
property float x
property float y
property float z
end_header
0.153738881757388 -0.207204187744492 0.416666666666667
0.171836831387934 -0.197011246356935 0.416666666666667
0.17774845975949 -0.185495025459089 0.416666666666667
0.187768821353592 -0.181251896595908 0.416666666666666
0.196006999194783 -0.178062146453917 0.416666666666666
0.199336876112944 -0.167870073242068 0.416666666666667
0.215052145625974 -0.156666815403722 0.416666666666667
0.223246835049001 -0.146970043315483 0.416666666666667
0.226803465533987 -0.150940212790326 0.416666666666667
0.23849136008101 -0.136267417414081 0.416666666666667
0.258457983384039 -0.122693415741149 0.416666666666667
0.267373588445603 -0.119361545152342 0.416666666666667
0.273735944448765 -0.116794742000036 0.416666666666667
0.287534195094129 -0.104550539548489 0.416666666666667
0.290249128164214 -0.0915806472246654 0.416666666666667
0.30471178769854 -0.0883154627955666 0.416666666666667
0.307241579982018 -0.0773139096943638 0.416666666666667
0.324883649446507 -0.067871659613388 0.416666666666667
0.32639378383556 -0.0592593596818605 0.416666666666667
0.340114061508924 -0.0522933270221689 0.416666666666667
0.342450871672674 -0.0498908209532369 0.416666666666667
0.355492112629864 -0.0397207052708284 0.416666666666667
0.361526226153885 -0.0323758197089168 0.416666666666667
0.380504525778179 -0.0209284545724411 0.416666666666667
0.390210264112045 -0.00595836374841625 0.416666666666667
0.397858880658115 -0.00485161044386917 0.416666666666667
0.412164640934318 0.011679458992357 0.416666666666667
0.423907830426833 0.0158787924831505 0.416666666666667
0.42979317388286 0.0307852215380668 0.416666666666667
0.442165418352495 0.0362133449009003 0.416666666666667
0.447043122619302 0.0427696541315761 0.416666666666667
0.474128734381764 0.0596826664325174 0.416666666666666
0.47930737762517 0.0708008385689915 0.416666666666667
0.491445030058709 0.0752273820982672 0.416666666666667
0.0819841586713085 -0.256944444444444 0.38117746504503
0.0635979522901918 -0.270833333333333 0.414451152099493
0.0669108138437124 -0.264105114906698 0.416666666666667
0.0776694667896925 -0.259060700801496 0.416666666666667
0.0870447482557189 -0.256083039603569 0.416666666666667
0.094988679212851 -0.250204780632443 0.416666666666667
0.0967119021949625 -0.246287002548693 0.416666666666667
0.10995526473587 -0.229739544173025 0.416666666666667
0.112065163204856 -0.22645078213149 0.416666666666667
0.127359733800257 -0.221879825325591 0.416666666666666
0.134045757865378 -0.215463417470238 0.416666666666667
0.143402827567289 -0.210791477974689 0.416666666666667
0.154721551703931 -0.195659769162099 0.416666666666666
0.158859835022034 -0.192340263823266 0.416666666666667
0.170936955899083 -0.188161551384871 0.416666666666666
0.183442891228331 -0.172145921933244 0.416666666666667
0.1869758154131 -0.175196345877438 0.416666666666666
0.199176130781013 -0.159622502766043 0.416666666666667
0.203521965888568 -0.149871576326897 0.416666666666667
0.215700390848014 -0.144872498883576 0.416666666666667
0.221389244415857 -0.139200957253132 0.416666666666667
0.231961293086484 -0.133967157622592 0.416666666666667
0.24813815531594 -0.120444298187668 0.416666666666667
0.25821352281643 -0.107175803882812 0.416666666666667
0.265923187362101 -0.103697140978623 0.416666666666667
0.273549087684056 -0.0952155421244141 0.416666666666667
0.279464224574459 -0.0849659733604816 0.416666666666667
0.291807915725008 -0.079756156805367 0.416666666666667
0.303103813902678 -0.076035678629921 0.416666666666667
0.310857575521679 -0.0684919132781592 0.416666666666667
0.316771361877009 -0.0571233729526168 0.416666666666667
0.329996841303052 -0.0398121590496641 0.416666666666667
0.341477160480746 -0.0326347453294125 0.416666666666667
0.350641986659821 -0.0334030240194366 0.416666666666666
0.359767501430972 -0.0190121287308847 0.416666666666667
0.375770714898917 -0.00821192594675337 0.416666666666667
0.375001815648528 -0.00950444772683663 0.416666666666667
0.394249419686859 0.00554273341174836 0.416666666666667
0.399517459162099 0.0174071993607274 0.416666666666667
0.419879962982452 0.0245218237566999 0.416666666666667
0.425829379088363 0.0274070736831101 0.416666666666667
0.437216688322492 0.0467586533584688 0.416666666666667
0.453794531089638 0.0572103925171749 0.416666666666667
0.450466410265652 0.0589872066070645 0.416666666666667
0.467744884041417 0.0689729920081947 0.416666666666667
0.476405063212868 0.0747382635418272 0.416666666666667
0.499323123696978 0.0928847018841516 0.416666666666666
0.0596869800832418 -0.256944444444444 0.377513128931162
0.0522086970112679 -0.270833333333333 0.404245681137547
0.0452863991087175 -0.270833333333333 0.416146776840069
0.0511109379329855 -0.270833333333333 0.413586375154282
0.0629688659249771 -0.257188705776395 0.416666666666667
0.0697721132094837 -0.252864592691217 0.416666666666667
0.0804035732594129 -0.243352582874004 0.416666666666667
0.0952618131670851 -0.236165780293724 0.416666666666667
0.093196738030816 -0.231292938836636 0.416666666666667
0.103752867647804 -0.220204595585 0.416666666666667
0.113225525229669 -0.217653010063485 0.416666666666667
0.119318359092687 -0.210040274181882 0.416666666666666
0.132111258618412 -0.202435587431446 0.416666666666667
0.134398607603553 -0.197381109518816 0.416666666666667
0.151067976102717 -0.190132727708841 0.416666666666667
0.156164062859403 -0.185304441918876 0.416666666666667
0.162492325259825 -0.173168677134935 0.416666666666667
0.171419673085994 -0.167187671758834 0.416666666666667
0.181878894136347 -0.164233753102732 0.416666666666667
0.192189201816826 -0.148095306030875 0.416666666666667
0.198283476824062 -0.142323642485944 0.416666666666667
0.207766098163424 -0.140822992495689 0.416666666666667
0.220170907036357 -0.127541101788684 0.416666666666667
0.227726758301124 -0.115460280220746 0.416666666666667
0.240259265796899 -0.112265786244531 0.416666666666667
0.245607481807204 -0.101219082273403 0.416666666666667
0.249954172222401 -0.100899565673817 0.416666666666667
0.268516916475129 -0.090343471109818 0.416666666666667
0.275274792887743 -0.0800566441399947 0.416666666666666
0.281255682259921 -0.0757314317078305 0.416666666666667
0.293566568059452 -0.0655127649579732 0.416666666666667
0.307995911267501 -0.0505224499962291 0.416666666666667
0.308171593081773 -0.0487801460337486 0.416666666666667
0.325809780416534 -0.0387548156446008 0.416666666666667
0.336889860630893 -0.0234999475533567 0.416666666666667
0.339109789012148 -0.0180898865163929 0.416666666666667
0.354062667585915 -0.0103672734280338 0.416666666666667
0.364929659257865 -0.00711733599822402 0.416666666666667
0.372769222451488 -0.000431424635148994 0.416666666666667
0.386263792036268 0.0241832004731046 0.416666666666667
0.393656632981586 0.018003265231384 0.416666666666667
0.403044712575918 0.0318699491453393 0.416666666666667
0.418187925131633 0.0466999436711215 0.416666666666666
0.420949433620276 0.0483186099638091 0.416666666666667
0.442473989001955 0.0576933555286564 0.416666666666667
0.446776875800302 0.0723016745341628 0.416666666666667
0.464255740268492 0.0804476643892212 0.416666666666667
0.47794672696017 0.0909166639695882 0.416666666666667
0.49069065748894 0.0964022866561111 0.416666666666667
0.4962481237325 0.107711662854952 0.416666666666667
0.0542181635119423 -0.256944444444444 0.383190384066167
0.0557618718246096 -0.256944444444444 0.382855140729786
0.0418197708528152 -0.270833333333333 0.416666666666667
0.0443407172143138 -0.256658071428389 0.416666666666667
0.0547289464580499 -0.251301618958396 0.416666666666667
0.057799051131047 -0.247127445767144 0.416666666666667
0.0735748308173898 -0.24009727484966 0.416666666666667
0.0822393067430922 -0.232558009823864 0.416666666666666
0.0914065681117592 -0.231547985354828 0.416666666666666
0.0945200040319085 -0.220886867358541 0.416666666666667
0.102074104047501 -0.216495342664869 0.416666666666667
0.111888050755974 -0.208019663324105 0.416666666666667
0.122541634897263 -0.201360936275905 0.416666666666667
0.130480613601081 -0.190033441757711 0.416666666666667
0.142972086634339 -0.18297777461603 0.416666666666667
0.142746851269071 -0.179572255780439 0.416666666666667
0.159394138508778 -0.163137367590752 0.416666666666667
0.171584438390071 -0.154864045100307 0.416666666666667
0.169247100082527 -0.153600870546879 0.416666666666667
0.187503719265032 -0.140553554288825 0.416666666666667
0.191359291396037 -0.14307390176956 0.416666666666667
0.201493882364856 -0.133880311336034 0.416666666666667
0.213297129143558 -0.123356557777318 0.416666666666667
0.215422642134274 -0.118444580410797 0.416666666666667
0.227144472840055 -0.109476742465117 0.416666666666667
0.23149469404441 -0.102376980625369 0.416666666666667
0.244329078633269 -0.0898473346837137 0.416666666666667
0.257648490285897 -0.0804959749714191 0.416666666666666
0.263622238307016 -0.0733158171815563 0.416666666666667
0.276078450086978 -0.0561763027792766 0.416666666666667
0.279424527142324 -0.0597417452497197 0.416666666666667
0.296098712182038 -0.0419688350842691 0.416666666666667
0.304904937800336 -0.0427600891085119 0.416666666666667
0.314803346593631 -0.0295504884079838 0.416666666666667
0.327552710252003 -0.0240396329411573 0.416666666666667
0.335341949154725 -0.014876124834763 0.416666666666667
0.347452644530737 -0.00253629984519416 0.416666666666667
0.356605482384475 0.00975944031962886 0.416666666666667
0.360877407651443 0.0116448680588911 0.416666666666667
0.384707109358948 0.0273107107640578 0.416666666666667
0.384800710979358 0.0335368988214519 0.416666666666667
0.409056722782072 0.0476743255772308 0.416666666666666
0.406208997216689 0.0480408611466724 0.416666666666667
0.427765940538494 0.0658624090985313 0.416666666666667
0.428369926744807 0.0711994627655768 0.416666666666667
0.452098337640326 0.0831000392589419 0.416666666666667
0.450361981324559 0.0866623809848779 0.416666666666666
0.46153544258106 0.0964267999811241 0.416666666666667
0.476540847235741 0.115396505470843 0.416666666666667
0.489474974228625 0.117695408260857 0.416666666666667
0.0351474309460027 -0.256944444444444 0.382942152869752
0.019197254951814 -0.270833333333333 0.413937767243636
0.0282771778878507 -0.263182649765379 0.416666666666667
0.0276747140994853 -0.262295300948185 0.416666666666667
0.0390222787380054 -0.249335310305162 0.416666666666666
0.0505368330351551 -0.24191278124796 0.416666666666666
0.0536055755687666 -0.245949540081399 0.416666666666666
0.0698509496812865 -0.229688796305731 0.416666666666666
0.0673394399274841 -0.226202083157018 0.416666666666667
0.0882845423193988 -0.216408297859365 0.416666666666667
0.0881210494404075 -0.212106267427943 0.416666666666667
0.106959779761417 -0.205087576534254 0.416666666666667
0.103323647558221 -0.199238200754061 0.416666666666667
0.110559248540794 -0.193746069740216 0.416666666666667
0.116884728230672 -0.18691194214675 0.416666666666666
0.127363825903107 -0.180498416797063 0.416666666666667
0.136096369281912 -0.169357260975461 0.416666666666666
0.14791537552716 -0.161820145558872 0.416666666666667
0.163179425402383 -0.157704772114966 0.416666666666667
0.17028869964542 -0.1413472003372 0.416666666666667
0.16798684766512 -0.141888226712185 0.416666666666667
0.179109821897453 -0.130063434267317 0.416666666666667
0.202328823372051 -0.117865535676608 0.416666666666667
0.207979937507003 -0.112102975857656 0.416666666666666
0.209301136350282 -0.112877572340667 0.416666666666667
0.21999920881177 -0.0947416938755721 0.416666666666667
0.237550144147394 -0.0892082421303841 0.416666666666667
0.240704159298085 -0.078313722284341 0.416666666666667
0.245756668568488 -0.0769142364556406 0.416666666666667
0.262559005384162 -0.0670469682230479 0.416666666666667
0.264008029145098 -0.0625288216815966 0.416666666666667
0.279768295952457 -0.0424871074840333 0.416666666666667
0.295845072587678 -0.0366691518770411 0.416666666666667
0.299610980087112 -0.029211977426593 0.416666666666667
0.309000132608193 -0.015484601677303 0.416666666666667
0.32081347795729 -0.0100826234709387 0.416666666666667
0.328549625760493 -0.00393074698364603 0.416666666666667
0.341458521232661 0.00695916942716462 0.416666666666667
0.341354067881616 0.00376416593729661 0.416666666666666
0.358334988687627 0.0221194226746274 0.416666666666666
0.365705133102521 0.0282448828796222 0.416666666666667
0.383217815068714 0.0451207261113674 0.416666666666667
0.397519944748581 0.0478158451269925 0.416666666666667
0.400757103609255 0.061211358068302 0.416666666666667
0.412673884463137 0.0673175816678009 0.416666666666667
0.426088369625875 0.072348136116402 0.416666666666667
0.433176407856064 0.0882881997953616 0.416666666666667
0.438775894848086 0.0973710628868719 0.416666666666667
0.45833240813231 0.112072330802502 0.416666666666667
0.4718795651125 0.117215665192659 0.416666666666667
0.479953101256342 0.126306023869737 0.416666666666667
0.492290298198221 0.135231698385055 0.416666666666666
0.0292179754977797 -0.256944444444444 0.380698671203993
0.0309430300124639 -0.256944444444444 0.381218958111211
0.0163548173603764 -0.270833333333333 0.412158418344578
0.0198352389744557 -0.258874262301111 0.416666666666667
0.0228226791370291 -0.260634641229333 0.416666666666667
0.0300786572390188 -0.254839107256099 0.416666666666667
0.0450044856360255 -0.246240378295065 0.416666666666667
0.0450320060264389 -0.234325208722371 0.416666666666667
0.0544114594742867 -0.230333547326289 0.416666666666667
0.0627670703291654 -0.226112141147214 0.416666666666667
0.073705723118145 -0.207360733345113 0.416666666666667
0.0817889098249631 -0.199110136311489 0.416666666666667
0.0888526665709718 -0.202631586157721 0.416666666666667
0.10064328618539 -0.197728974478845 0.416666666666667
0.105974172663813 -0.183074579957416 0.416666666666667
0.125195263198817 -0.168094629857938 0.416666666666667
0.131338279630362 -0.167942219474907 0.416666666666667
0.130681752151344 -0.164757029769218 0.416666666666667
0.14753218305135 -0.15379678535654 0.416666666666666
0.146575330095132 -0.147188858835176 0.416666666666666
0.156743863017239 -0.137676739161628 0.416666666666667
0.172256322603063 -0.126878301530908 0.416666666666667
0.179535275654319 -0.123717421063395 0.416666666666667
0.181541788834763 -0.120180347062818 0.416666666666667
0.19622023411614 -0.104776092128739 0.416666666666667
0.203580599897619 -0.104538587448128 0.416666666666667
0.211966666204128 -0.0961052885147023 0.416666666666667
0.227749313698908 -0.0849993364041592 0.416666666666667
0.2322051149626 -0.0695040553769323 0.416666666666667
0.245631066032292 -0.0614013875219324 0.416666666666667
0.260036302419417 -0.0589434445588403 0.416666666666667
0.26256087654228 -0.053460078137343 0.416666666666667
0.270487262563499 -0.0440092697030025 0.416666666666667
0.275192715898815 -0.0307598868296868 0.416666666666667
0.284792996187328 -0.031137990324441 0.416666666666667
0.3025624572042 -0.0145322823804965 0.416666666666666
0.313189058476797 -0.00133723609931513 0.416666666666667
0.32076057441476 -0.000246303207599198 0.416666666666667
0.332811529745587 0.0137415528627061 0.416666666666667
0.341695580303843 0.01435672694621 0.416666666666667
0.360765886625082 0.0270467037166238 0.416666666666667
0.366482999839321 0.0404539908003287 0.416666666666667
0.367960432561643 0.049834045541171 0.416666666666667
0.384961445578327 0.0618319746156089 0.416666666666667
0.395745491810122 0.0620317586629247 0.416666666666667
0.399260149574673 0.0732849695288606 0.416666666666667
0.417644127802864 0.0923259430404731 0.416666666666667
0.427538779451325 0.096507585698764 0.416666666666667
0.440699563701875 0.0974966404491464 0.416666666666667
0.450562909072558 0.109534318086274 0.416666666666667
0.468920308065634 0.130987220827822 0.416666666666667
0.463475514476566 0.13160395094282 0.416666666666667
0.485873194731982 0.139335322270257 0.416666666666667
0.49119239064086 0.152783539877007 0.416666666666667
-0.000116721291144219 -0.256944444444444 0.381000293946916
-0.0091213281368477 -0.270833333333333 0.404484719612582
-0.0052376972945427 -0.270833333333333 0.411548238300146
-0.00241838872880338 -0.269828885507851 0.416666666666667
0.00337212904778561 -0.26070666346223 0.416666666666667
0.00729432852364943 -0.250808032476734 0.416666666666666
0.0225807642010285 -0.248587507942516 0.416666666666667
0.0297904755134609 -0.238751954409418 0.416666666666667
0.0421992380438503 -0.232042367558875 0.416666666666667
0.0385137479710942 -0.229740549558639 0.416666666666667
0.0472638876445656 -0.225506869580845 0.416666666666667
0.0573609865749561 -0.215488209993195 0.416666666666667
0.0703664006512529 -0.206759696696692 0.416666666666666
0.0726581203799457 -0.203596700446575 0.416666666666666
0.0823022834554442 -0.18796625064195 0.416666666666667
0.0960371226134125 -0.181850072817463 0.416666666666667
0.0962522809203607 -0.177178762337733 0.416666666666667
0.109679202163066 -0.176516782244334 0.416666666666667
0.111782582869095 -0.162589417482852 0.416666666666667
0.135164848647819 -0.151811548872462 0.416666666666667
0.133435545502035 -0.152979445741823 0.416666666666667
0.144117884161179 -0.136381907572477 0.416666666666667
0.151888911621374 -0.132862494310665 0.416666666666667
0.163358187042213 -0.12069547437596 0.416666666666667
0.175724475147856 -0.119105682190389 0.416666666666666
0.186638741326885 -0.104704618233544 0.416666666666667
0.190857142117152 -0.10193513714696 0.416666666666667
0.192278542090571 -0.0914583145594708 0.416666666666667
0.214235210432137 -0.0749570764631527 0.416666666666667
0.214170931383204 -0.0710064339016201 0.416666666666667
0.222368436474031 -0.0614087588540212 0.416666666666667
0.237020165340449 -0.0545603513004768 0.416666666666667
0.240236894341874 -0.0548952052288662 0.416666666666667
0.249693914018366 -0.0474198640982542 0.416666666666667
0.266078702352987 -0.033338147991112 0.416666666666666
0.278999762096097 -0.0286143324061642 0.416666666666667
0.281964990011483 -0.0149776600386172 0.416666666666667
0.296382779911776 0.000456201405650751 0.416666666666666
0.301989171021411 -0.00238900824278994 0.416666666666667
0.307252845373325 0.00225599803572915 0.416666666666667
0.328217986508073 0.0162300848502536 0.416666666666667
0.334034189701889 0.0293017045319296 0.416666666666667
0.346065952115361 0.0369719926026473 0.416666666666667
0.360780387214992 0.0417630986460256 0.416666666666667
0.373278228490128 0.0598960707463101 0.416666666666667
0.373993641225318 0.0626154389466775 0.416666666666667
0.379969198685849 0.0691817171219797 0.416666666666667
0.399876610791861 0.0864012420282696 0.416666666666667
0.415647926203648 0.0996498771218435 0.416666666666667
0.421358328854674 0.109617637023334 0.416666666666667
0.431931010065033 0.116274766707651 0.416666666666667
0.435868385823104 0.118811415701723 0.416666666666667
0.446810757794445 0.127107862220474 0.416666666666667
0.465285976259269 0.142764943785196 0.416666666666667
0.479034934155814 0.154298773261128 0.416666666666667
0.486595027914594 0.169318397872899 0.416666666666667
-0.00423405163499411 -0.256944444444444 0.376108790610477
-0.0244245813010498 -0.270833333333333 0.411060255982164
-0.0187143112408458 -0.270833333333333 0.405011193691935
-0.0191797230430649 -0.270495905703633 0.416666666666667
-0.0116541199167605 -0.259938854716594 0.416666666666667
-0.000845557820865102 -0.258476810264396 0.416666666666667
0.00258170880567707 -0.245907010328816 0.416666666666667
0.0129461353067746 -0.234001553527613 0.416666666666667
0.014202221173227 -0.232862600466211 0.416666666666666
0.0322610993180927 -0.227977902786272 0.416666666666667
0.0379338113992328 -0.217966779280963 0.416666666666667
0.0401465538858776 -0.214695714662056 0.416666666666667
0.0530506114941906 -0.207214237857735 0.416666666666667
0.0650713272586528 -0.195180748437303 0.416666666666667
0.0713841141948699 -0.197314042341999 0.416666666666667
0.0704579008875473 -0.186996286615968 0.416666666666667
0.0897441030975985 -0.180631191133416 0.416666666666667
0.0924373912471412 -0.163941391906291 0.416666666666667
0.105588918010982 -0.157576111803956 0.416666666666667
0.105547143553066 -0.156203374383569 0.416666666666667
0.114698724361476 -0.147403546044842 0.416666666666667
0.128843595895923 -0.147500609051434 0.416666666666667
0.135731219396127 -0.134233225672423 0.416666666666667
0.146406596748618 -0.127014805769392 0.416666666666667
0.145650693112354 -0.117652063399396 0.416666666666667
0.161372928131213 -0.112531770123883 0.416666666666667
0.169828454517235 -0.0974593665959295 0.416666666666667
0.181597547008291 -0.0929923276483677 0.416666666666667
0.18641736410671 -0.0880424650670143 0.416666666666667
0.205830556342573 -0.0756850249994301 0.416666666666667
0.213204063669255 -0.0677032511957778 0.416666666666667
0.21805101552912 -0.0592109303080996 0.416666666666667
0.236797753870637 -0.0430233881276662 0.416666666666667
0.244472420750912 -0.0364463060128214 0.416666666666667
0.243828650946235 -0.0334212770261208 0.416666666666667
0.260462356572864 -0.0197676953531248 0.416666666666667
0.265703192476383 -0.0165569400751296 0.416666666666666
0.274749214154615 -0.0146477218391003 0.416666666666667
0.287418345373778 5.80820101612915e-005 0.416666666666667
0.301184892642104 0.0161576222357526 0.416666666666667
0.302430395201453 0.011592523787962 0.416666666666667
0.318374994723031 0.0223908009411526 0.416666666666667
0.324366384184815 0.0417616862989056 0.416666666666666
0.334025257075936 0.0504911937533079 0.416666666666667
0.345537784403566 0.0575445334789254 0.416666666666666
0.36387811216079 0.0639998333746892 0.416666666666667
0.364694328090599 0.0654014419882123 0.416666666666667
0.387207630592806 0.0801683685073401 0.416666666666667
0.38167405047038 0.0830585971675489 0.416666666666667
0.40323431049767 0.106699949514589 0.416666666666667
0.405423000175717 0.112022735665602 0.416666666666667
0.422977426136343 0.112702139391251 0.416666666666667
0.442582214589361 0.126808832273537 0.416666666666667
0.44397044184328 0.14173119287109 0.416666666666667
0.453774642897921 0.148481044838067 0.416666666666667
0.475870029814233 0.166375807836503 0.416666666666666
0.484651584301178 0.17627875766013 0.416666666666667
0.492966512157388 0.184410562688303 0.416666666666667
-0.020006246873502 -0.256944444444444 0.376624359291091
-0.0188235784569031 -0.256944444444444 0.382295910302327
-0.0138086554133199 -0.256944444444444 0.381137053276481
-0.0325287715552108 -0.264001373287564 0.416666666666666
-0.0287609261869272 -0.265720664737924 0.416666666666667
-0.0191932253418037 -0.253951226297381 0.416666666666667
-0.0160538029842552 -0.254451046853263 0.416666666666667
0.00153566637774788 -0.240123701237681 0.416666666666667
0.00352335799742037 -0.238250358948904 0.416666666666667
0.0183301263689014 -0.228287675526863 0.416666666666666
0.0240241899315347 -0.222492654526413 0.416666666666667
0.0345472723547894 -0.21572242467937 0.416666666666667
0.0392056571251918 -0.209717487272393 0.416666666666667
0.0427320715960604 -0.201575706596523 0.416666666666667
0.0535522709106682 -0.192685342847984 0.416666666666667
0.0651388381854212 -0.185638990707133 0.416666666666667
0.0745269630532073 -0.175341510273258 0.416666666666667
0.0833071953643324 -0.166146223831805 0.416666666666667
0.0938411302235673 -0.163044146588555 0.416666666666667
0.099491667299686 -0.153755398765135 0.416666666666667
0.0999313594244394 -0.144535325923853 0.416666666666667
0.11505734815335 -0.136162378338009 0.416666666666667
0.114918860399676 -0.130810869673663 0.416666666666666
0.138515706019521 -0.124359210012902 0.416666666666667
0.132452679572202 -0.118690952226722 0.416666666666667
0.154293346641126 -0.101506296980551 0.416666666666667
0.154948041584382 -0.0989335755995923 0.416666666666667
0.161072730632316 -0.0956926459736435 0.416666666666667
0.168251304334256 -0.0861559881706158 0.416666666666667
0.180924301249839 -0.0792398224021751 0.416666666666667
0.199066533666541 -0.072409234953364 0.416666666666667
0.19933236014456 -0.0622822484819705 0.416666666666667
0.210101215434623 -0.0511231610854531 0.416666666666666
0.223728166537593 -0.0460277675922902 0.416666666666667
0.236829246755201 -0.0342432609035232 0.416666666666667
0.238389218439637 -0.0281567713317805 0.416666666666667
0.252904906294127 -0.0140720843684443 0.416666666666667
0.262546034335897 -0.0149453094365331 0.416666666666667
0.267508940479203 0.00265679874564184 0.416666666666666
0.284654418600468 0.0115709163825438 0.416666666666667
0.282988294799137 0.0170180766745357 0.416666666666667
0.29469333528716 0.0240074204574776 0.416666666666666
0.300699707008412 0.0254520022405253 0.416666666666667
0.32240491205815 0.0366512661511174 0.416666666666667
0.32834679992589 0.0508987025838642 0.416666666666667
0.332248786901193 0.0614736900573375 0.416666666666667
0.34766086923732 0.0754549347925298 0.416666666666667
0.362691933634608 0.0823196812570338 0.416666666666667
0.365678605576033 0.0888995304285528 0.416666666666666
0.384707080135613 0.0984762822386369 0.416666666666667
0.40006309580602 0.114482016780251 0.416666666666667
0.407451857949734 0.12126759595837 0.416666666666667
0.415929940337862 0.1282454955664 0.416666666666667
0.427739889320334 0.135542056072269 0.416666666666667
0.432971086404206 0.139140078785167 0.416666666666667
0.454123340378385 0.163694437094756 0.416666666666667
0.465397826157854 0.173139890735887 0.416666666666667
0.477345763159516 0.179872536867159 0.416666666666667
0.485234494875691 0.182763593072335 0.416666666666666
0.491432729172102 0.196527872750325 0.416666666666667
-0.0294464105690406 -0.256944444444444 0.377067421652639
-0.0345300670050305 -0.256944444444444 0.383118598863342
-0.0451120416833351 -0.267907697229592 0.416666666666667
-0.0302129155501302 -0.261575169446232 0.416666666666667
-0.0330285927173393 -0.250046272424278 0.416666666666666
-0.0221452360223908 -0.244407415710738 0.416666666666667
-0.0160755440817353 -0.238561785854618 0.416666666666667
-0.00754082598157291 -0.239753333564251 0.416666666666667
-0.00678711714617962 -0.226621605374953 0.416666666666667
0.00548825603260448 -0.220701787161496 0.416666666666667
0.0147940946719116 -0.219813314974579 0.416666666666667
0.0240684450879332 -0.212465877727929 0.416666666666667
0.0320705432984194 -0.196372671367388 0.416666666666666
0.0425207252323315 -0.194323001277003 0.416666666666667
0.0431332080689072 -0.186139983428293 0.416666666666667
0.0563552418698845 -0.174992866195115 0.416666666666667
0.062580263128074 -0.166243769762807 0.416666666666667
0.0765314579820621 -0.158054871475753 0.416666666666667
0.0789504736368297 -0.150963744262461 0.416666666666667
0.0861683726669977 -0.148559343526524 0.416666666666667
0.0950794799763242 -0.140999281712182 0.416666666666667
0.104472708718172 -0.13067961215472 0.416666666666667
0.112546550043413 -0.127135504096137 0.416666666666667
0.122697642460249 -0.112238492993624 0.416666666666667
0.136273957412517 -0.107568261732076 0.416666666666667
0.142573515737484 -0.0967124760011627 0.416666666666667
0.15123392011212 -0.0975485342611555 0.416666666666667
0.157803978089836 -0.0774039089098534 0.416666666666667
0.165577265402667 -0.0830580117733771 0.416666666666667
0.178678853388754 -0.0643287528245661 0.416666666666667
0.189435067595568 -0.0563411409028815 0.416666666666667
0.200850971417191 -0.0508950344302392 0.416666666666666
0.197961906891013 -0.0506398654023393 0.416666666666666
0.221598257297576 -0.0296619715981526 0.416666666666667
0.227055261090403 -0.0286516358685199 0.416666666666667
0.230669621609923 -0.0206105410724028 0.416666666666667
0.243627391165132 -0.00648637850987374 0.416666666666667
0.254252212465951 -0.00119232363198562 0.416666666666667
0.265802533488848 0.00957476587561205 0.416666666666667
0.275504627045085 0.0138418805073316 0.416666666666667
0.288097110637024 0.0231369453446214 0.416666666666667
0.282282385939049 0.0278740526789752 0.416666666666667
0.296912093766118 0.0365160406303489 0.416666666666666
0.30922066120337 0.0433843033846069 0.416666666666667
0.321708994828126 0.058168369617333 0.416666666666667
0.326188006714495 0.072013181022893 0.416666666666666
0.341764060278271 0.0829765387122851 0.416666666666667
0.358164130188378 0.0884828869881766 0.416666666666667
0.363318209003023 0.102513429692004 0.416666666666667
0.373233569169039 0.101591952379153 0.416666666666667
0.387088852401825 0.116689462134972 0.416666666666666
0.394613864073993 0.133058193395356 0.416666666666667
0.413672736501058 0.140892463200374 0.416666666666667
0.422538842641577 0.141117259461972 0.416666666666667
0.427919799907555 0.161826753169542 0.416666666666667
0.437030163982864 0.159109892533283 0.416666666666667
0.447043064835402 0.175200638336631 0.416666666666667
0.467348005897361 0.192108144033283 0.416666666666667
0.473276414746966 0.198429775308297 0.416666666666667
0.494198174790505 0.207682774660767 0.416666666666667
0.496373391450572 0.218894862695701 0.416666666666667
-0.0499674530790576 -0.256944444444444 0.380018653584245
-0.0644583710944198 -0.270833333333333 0.4084595401746
-0.0608315215679445 -0.269415192760697 0.416666666666667
-0.0481767962462787 -0.257679294596444 0.416666666666667
-0.0422166265732316 -0.257473477940375 0.416666666666667
-0.0358026811600769 -0.25000050165373 0.416666666666666
-0.0332986865449131 -0.248012130245972 0.416666666666667
-0.0265943790524022 -0.237195406033243 0.416666666666667
-0.0133189814326521 -0.223822299510244 0.416666666666666
-0.00179776862880611 -0.214883110512023 0.416666666666667
-0.00487623289438039 -0.217960886574307 0.416666666666667
0.0091816351567768 -0.207787739638042 0.416666666666667
0.0233426260533752 -0.197388745167396 0.416666666666667
0.025227240195476 -0.194977701141832 0.416666666666667
0.0323772135266613 -0.189178405860883 0.416666666666667
0.0404970568576697 -0.173962020227204 0.416666666666667
0.0483200769164248 -0.166202872449426 0.416666666666667
0.0535869934733767 -0.168945051372486 0.416666666666667
0.0688342925845666 -0.15529959130207 0.416666666666667
0.0798723071990708 -0.14492773850035 0.416666666666667
0.0825222125924011 -0.134942162307321 0.416666666666667
0.0842725970381587 -0.133231902792482 0.416666666666667
0.0994361536495897 -0.129730778075505 0.416666666666667
0.111088981107486 -0.114954456062126 0.416666666666667
0.111152234426832 -0.108954576078695 0.416666666666667
0.123568148702727 -0.101309713055012 0.416666666666667
0.132712774694939 -0.0911551783135146 0.416666666666667
0.141941653413041 -0.0877943771152707 0.416666666666667
0.14637824240543 -0.0814206879271324 0.416666666666666
0.162871489074974 -0.0740320996052536 0.416666666666667
0.16627133894354 -0.0645219258966879 0.416666666666667
0.182835989063269 -0.0481083573763859 0.416666666666667
0.196342409486772 -0.0455392555467139 0.416666666666667
0.203976494477544 -0.0382590556603486 0.416666666666667
0.201243559952938 -0.0259358023932151 0.416666666666667
0.218826680914972 -0.0220328594871574 0.416666666666667
0.228207345595306 -0.0122923893451995 0.416666666666666
0.229076728169855 -0.0103368772742289 0.416666666666667
0.241774092857066 0.00701624853650359 0.416666666666667
0.254584123714406 0.00965282277239483 0.416666666666667
0.26353260132022 0.0280928334335616 0.416666666666667
0.272134768356635 0.0297650146494945 0.416666666666667
0.280102636509518 0.033965173407293 0.416666666666667
0.297787567657926 0.0452636254211016 0.416666666666667
0.302279600849831 0.0537379795714097 0.416666666666667
0.321557537266346 0.0703248011757423 0.416666666666667
0.314374815700898 0.0685074854019817 0.416666666666667
0.333360666437142 0.0872844477657366 0.416666666666667
0.344797317568352 0.0978273992263696 0.416666666666667
0.358405026374538 0.102765283565915 0.416666666666667
0.371891634100069 0.121191182284733 0.416666666666666
0.373579268205225 0.123134637836343 0.416666666666667
0.38221125074535 0.136988125033419 0.416666666666667
0.399055809933567 0.145118841102721 0.416666666666667
0.410546973559071 0.146318470795405 0.416666666666667
0.41507463003638 0.16184541397443 0.416666666666667
0.439771770988052 0.183238497558764 0.416666666666667
0.44718577588715 0.190164129928299 0.416666666666667
0.457278417386151 0.188850834803848 0.416666666666667
0.474192498246754 0.208532002330155 0.416666666666667
0.472647350593395 0.210205106748627 0.416666666666667
0.491147477826444 0.223085475833066 0.416666666666667
-0.0556428235869348 -0.256944444444444 0.380423671226417
-0.0765957520693912 -0.270233681787853 0.416666666666666
-0.0741942526478975 -0.265453506463598 0.416666666666667
-0.0716962141255864 -0.267618377415467 0.416666666666667
-0.0594427557303445 -0.249696424338725 0.416666666666667
-0.0481201610739062 -0.241673555770188 0.416666666666667
-0.044643648900324 -0.240685278431846 0.416666666666666
-0.033072335524761 -0.236319440088801 0.416666666666667
-0.0282044219675046 -0.233650504890694 0.416666666666667
-0.0203675243523312 -0.22181059648685 0.416666666666666
-0.0102027829455267 -0.210641860525637 0.416666666666667
-0.00980626540309452 -0.205891371307853 0.416666666666666
-0.00081309814138383 -0.207922159746459 0.416666666666667
0.0144406334222491 -0.193587119383623 0.416666666666667
0.0169146474962138 -0.186590261928561 0.416666666666667
0.0270916847936624 -0.176081979290873 0.416666666666666
0.0359680368737699 -0.16891443367142 0.416666666666667
0.04621259822555 -0.165901918823217 0.416666666666667
0.0525211375407609 -0.153266457785304 0.416666666666667
0.0613555359132209 -0.14638755142882 0.416666666666667
0.0676094617130264 -0.138615528090383 0.416666666666667
0.0690364728885869 -0.138660514038819 0.416666666666667
0.0794297452429499 -0.12918462316165 0.416666666666667
0.0877473094304409 -0.119380178371089 0.416666666666667
0.0988248075028238 -0.11739414644822 0.416666666666667
0.105267094960384 -0.100417853443722 0.416666666666667
0.125738925284504 -0.0963609543702362 0.416666666666666
0.126135618441513 -0.0887965926173173 0.416666666666667
0.132438802558972 -0.0747677486235385 0.416666666666667
0.144021004661766 -0.0719233390877683 0.416666666666667
0.147953397285609 -0.0657946045531949 0.416666666666667
0.162238868502491 -0.0546651639659084 0.416666666666667
0.171412746909575 -0.0493783976669306 0.416666666666667
0.187733717283151 -0.0334437399949114 0.416666666666667
0.192382306466728 -0.0292818880455637 0.416666666666667
0.204417719996614 -0.0159629124028122 0.416666666666667
0.210380597724044 -0.0160097706721701 0.416666666666667
0.217657733633997 -0.000535703812535516 0.416666666666667
0.230496646225041 0.00874519660903056 0.416666666666667
0.235684969039964 0.011159406462397 0.416666666666667
0.249352030629834 0.0258561070017889 0.416666666666667
0.256641670634092 0.0212221881127648 0.416666666666667
0.261071495789486 0.0339022875277229 0.416666666666667
0.27358450037194 0.0434379998842487 0.416666666666667
0.284815523448701 0.0614304430729402 0.416666666666667
0.293944767894861 0.0727106397842613 0.416666666666667
0.309334362110455 0.0792944758381959 0.416666666666667
0.314076464627315 0.0832711407895098 0.416666666666667
0.321837350475253 0.0956479320318601 0.416666666666667
0.345307384307524 0.111280271301774 0.416666666666667
0.344463806428004 0.113402956901032 0.416666666666666
0.362179360900771 0.122709899033211 0.416666666666667
0.371210012976157 0.134299334801883 0.416666666666667
0.375129684907543 0.13952864765357 0.416666666666667
0.40061503708636 0.157559054857014 0.416666666666666
0.404143659883667 0.166254579863885 0.416666666666667
0.405889323883204 0.172843294269698 0.416666666666666
0.422487692122135 0.180526871232945 0.416666666666667
0.433310832220533 0.192162348503682 0.416666666666667
0.441839837552456 0.191857250987484 0.416666666666667
0.461818312419659 0.212877671432025 0.416666666666667
0.473087005459685 0.216578421790921 0.416666666666667
0.481984736060078 0.227759234012547 0.416666666666667
0.48784592129266 0.243381974034612 0.416666666666666
-0.07794244202173 -0.256944444444444 0.376552627207827
-0.0875461294883729 -0.270833333333333 0.415955887396942
-0.0887866662174243 -0.267846526108314 0.416666666666667
-0.0825768824469742 -0.260816011047783 0.416666666666667
-0.0705854281335683 -0.258321732858913 0.416666666666667
-0.0640738139170609 -0.247745174007224 0.416666666666667
-0.0553345061857678 -0.238320736985958 0.416666666666667
-0.0447357816324465 -0.234638172661888 0.416666666666667
-0.043197818465003 -0.224047963906388 0.416666666666667
-0.0394337659488561 -0.227242012356761 0.416666666666667
-0.0264544404439937 -0.216642604529995 0.416666666666667
-0.0228350186164768 -0.209925947288631 0.416666666666667
-0.0155213174146118 -0.20081275909881 0.416666666666667
-0.00533396854854422 -0.194406408385969 0.416666666666666
0.00630202073633983 -0.187209478055534 0.416666666666667
0.0157870224475185 -0.178509426492005 0.416666666666667
0.0153696717440675 -0.176456428126961 0.416666666666667
0.0296150322668133 -0.167724978025504 0.416666666666666
0.0414590562174472 -0.151310235863604 0.416666666666667
0.0363734120416751 -0.153539259208695 0.416666666666667
0.0496942813990393 -0.140291663836356 0.416666666666667
0.0588117591966159 -0.132804840355121 0.416666666666667
0.0677983950493614 -0.130293703326178 0.416666666666667
0.0823925208162777 -0.117621694704971 0.416666666666667
0.0816366050121053 -0.114511398035067 0.416666666666667
0.086206448388979 -0.103921959856135 0.416666666666667
0.0966073509905009 -0.104262674790686 0.416666666666667
0.109021282121291 -0.086608312707067 0.416666666666667
0.113973440842742 -0.0876248013361334 0.416666666666667
0.136097946153315 -0.0688427051829617 0.416666666666667
0.13927969712654 -0.0632570967478072 0.416666666666666
0.145695544024699 -0.0594806835138531 0.416666666666667
0.156079185689272 -0.0454834362108107 0.416666666666667
0.163267715748677 -0.0448465107114905 0.416666666666667
0.175234069559112 -0.0294228788043857 0.416666666666667
0.177514801538598 -0.0207910788115837 0.416666666666667
0.185536406320406 -0.0162340157822498 0.416666666666667
0.201432011845132 -0.00176157573039391 0.416666666666666
0.201281973552078 0.00283808082112433 0.416666666666666
0.21791647931638 0.00498184879082937 0.416666666666667
0.231030617180124 0.0171182574814194 0.416666666666667
0.234469517268676 0.0317309923973856 0.416666666666666
0.24534764600381 0.042058913397569 0.416666666666667
0.25874455926049 0.0457372532537688 0.416666666666667
0.265325464385374 0.0490489262098341 0.416666666666667
0.279994439470853 0.060682721268435 0.416666666666667
0.287949275018966 0.06667605176796 0.416666666666667
0.292945548501286 0.0820879690936553 0.416666666666667
0.303977759783296 0.08348413097273 0.416666666666667
0.314092034300836 0.105280371746096 0.416666666666667
0.33513148475557 0.113487081113046 0.416666666666666
0.337348072410884 0.115418770215485 0.416666666666667
0.342437233473867 0.129939316985816 0.416666666666667
0.359402626859222 0.136020687069561 0.416666666666666
0.371250305354975 0.151105228893703 0.416666666666667
0.376104353100014 0.162790485335234 0.416666666666667
0.393877789954093 0.173031645986929 0.416666666666667
0.395211075295034 0.173633092661709 0.416666666666667
0.419584963115439 0.192791126241852 0.416666666666667
0.423330987149753 0.200492554597839 0.416666666666667
0.441716240798068 0.210078289307061 0.416666666666667
0.440224922813881 0.21690889748627 0.416666666666667
0.458909360434139 0.235037833081751 0.416666666666667
0.466960462458751 0.232272459512612 0.416666666666667
0.482535717667858 0.255749126417246 0.416666666666667
0.498511719637462 0.262008696063989 0.416666666666667
-0.100312416920578 -0.270833333333333 0.407150577997632
-0.0997131835910537 -0.270833333333333 0.410316524562058
-0.0987712116054239 -0.267930509086359 0.416666666666667
-0.0921231473815119 -0.260526235407163 0.416666666666667
-0.0866638085062998 -0.254285974968013 0.416666666666667
-0.0811124344317856 -0.243504866527577 0.416666666666667
-0.0726031716155212 -0.240187604686094 0.416666666666667
-0.0633267318470424 -0.237499112335644 0.416666666666666
-0.0554842163791833 -0.222650942810091 0.416666666666667
-0.0570699192478292 -0.220133633596106 0.416666666666667
-0.0370413620000556 -0.216024067871093 0.416666666666667
-0.0358215603800132 -0.208686553449751 0.416666666666667
-0.0251748017712436 -0.199703353240908 0.416666666666667
-0.0200664855026763 -0.200111551882443 0.416666666666666
-0.0173288225732794 -0.189885123013847 0.416666666666667
-0.00861541421296933 -0.178292363658867 0.416666666666667
-0.000418152654377585 -0.175463316878291 0.416666666666667
0.0114687617873553 -0.16974832283298 0.416666666666667
0.0144602857626738 -0.155021255376657 0.416666666666667
0.0262960850279455 -0.144379281605358 0.416666666666667
0.0361122491524074 -0.14020125503798 0.416666666666667
0.0417856296293613 -0.136626609319409 0.416666666666667
0.053571274505665 -0.121080924545364 0.416666666666666
0.0635849014846122 -0.123234638583906 0.416666666666667
0.0747616504674724 -0.106842528402124 0.416666666666667
0.0739623770282041 -0.110901767258764 0.416666666666667
0.0837859822883003 -0.095317961607527 0.416666666666667
0.0930997608653444 -0.0946792764516859 0.416666666666666
0.105608752028223 -0.088041647649128 0.416666666666667
0.109195568338884 -0.0799345358154957 0.416666666666667
0.123673055179485 -0.0613738697107071 0.416666666666667
0.128217330883776 -0.05103816308522 0.416666666666667
0.142344792019565 -0.0488397068575063 0.416666666666667
0.148807302495008 -0.0404573953537337 0.416666666666667
0.156189567419082 -0.035424873555755 0.416666666666667
0.166361010479923 -0.0307641519926293 0.416666666666667
0.181830085266278 -0.00664733821422558 0.416666666666667
0.184138241666984 -0.00788869443972746 0.416666666666667
0.191845989332085 -0.0011608252265018 0.416666666666667
0.2032861151018 0.00528077162474097 0.416666666666667
0.211921513082571 0.0201025316964971 0.416666666666666
0.22135890822946 0.0271407749991412 0.416666666666667
0.230300847538447 0.0331344318810692 0.416666666666667
0.243820893638861 0.0389646307740765 0.416666666666667
0.250481486129244 0.0587279122030331 0.416666666666667
0.263472744061249 0.0666116480086356 0.416666666666667
0.270752018354486 0.0623893548366016 0.416666666666667
0.272189842759929 0.0796104994585109 0.416666666666667
0.294713012142046 0.0937743665479648 0.416666666666666
0.301592004354737 0.103946346840616 0.416666666666667
0.309400900017428 0.109927066338764 0.416666666666667
0.320108672933179 0.116896015701139 0.416666666666667
0.325115596664866 0.122500526415484 0.416666666666667
0.340980215746889 0.135674036481777 0.416666666666667
0.359884205960178 0.14472961926049 0.416666666666667
0.366648070073881 0.159927044680978 0.416666666666667
0.374239811267457 0.16658577521659 0.416666666666667
0.386796471936358 0.174523622667778 0.416666666666667
0.399627756078392 0.195680784810799 0.416666666666667
0.409002428768768 0.199093001048017 0.416666666666666
0.421399565249366 0.208376945929551 0.416666666666667
0.43182720655688 0.218283310060865 0.416666666666667
0.447228791281082 0.23501696105244 0.416666666666667
0.456797279004266 0.239716929711565 0.416666666666667
0.463936486539139 0.256062555349971 0.416666666666667
0.483526228811411 0.257515786857464 0.416666666666667
0.489117439552145 0.263752299804204 0.416666666666667
-0.105185158448326 -0.256944444444444 0.377873900106218
-0.122717018909068 -0.269295087633139 0.416666666666667
-0.116217831469091 -0.264602576678105 0.416666666666667
-0.106418659591121 -0.265161002199933 0.416666666666667
-0.0986449531945802 -0.250514590009415 0.416666666666667
-0.0930520881464301 -0.244412710458739 0.416666666666667
-0.0796906998645927 -0.241157015110713 0.416666666666667
-0.0753168814602887 -0.234272799705651 0.416666666666667
-0.0704016188657729 -0.229700994336653 0.416666666666667
-0.0653232079242658 -0.225370981423108 0.416666666666667
-0.0547976157043449 -0.212754105168637 0.416666666666667
-0.0428504272044119 -0.203404910555893 0.416666666666667
-0.046759627952813 -0.206268187384003 0.416666666666667
-0.0252678458136121 -0.190211156266 0.416666666666667
-0.0305107462285818 -0.189748679015304 0.416666666666667
-0.0263469584804283 -0.186803156229316 0.416666666666666
-0.0122338037622208 -0.169708736651796 0.416666666666667
-0.00127654241066853 -0.172595096185133 0.416666666666667
0.0112551397027899 -0.157548417389903 0.416666666666667
0.0165187445799801 -0.143496067348561 0.416666666666667
0.0193138192322288 -0.141341156372151 0.416666666666667
0.0324530429975986 -0.134310878549705 0.416666666666667
0.0323653754367601 -0.129466576352635 0.416666666666667
0.0517369274375606 -0.116839952558336 0.416666666666667
0.0584721201499232 -0.10921028015966 0.416666666666667
0.0567810384628588 -0.10468024258967 0.416666666666667
0.076407666371598 -0.101327911482845 0.416666666666667
0.078788817196921 -0.0926618016796067 0.416666666666667
0.0861745158484969 -0.0858807927191364 0.416666666666667
0.0913669540357098 -0.0719863790256729 0.416666666666667
0.105744222253119 -0.069113851260154 0.416666666666667
0.115013175399972 -0.0576656832873462 0.416666666666667
0.116967236055897 -0.0550780106442738 0.416666666666667
0.133976320076828 -0.047535233948253 0.416666666666667
0.138392239293684 -0.0283401976213659 0.416666666666667
0.148086633799627 -0.024066447161212 0.416666666666667
0.160659080202172 -0.0147256854619086 0.416666666666666
0.170152226900673 -0.00547872577044041 0.416666666666666
0.17126339308479 -0.00142140839555149 0.416666666666666
0.187817967937863 0.0140975189634702 0.416666666666666
0.189211282434053 0.0135851485290013 0.416666666666666
0.207850790677868 0.0295732044090075 0.416666666666667
0.212805926502273 0.0314917951441725 0.416666666666667
0.219401739115751 0.0410566472247841 0.416666666666667
0.228321154363427 0.0498085715917057 0.416666666666667
0.241274518088421 0.0627760494090297 0.416666666666667
0.259814689292389 0.0722272837702652 0.416666666666667
0.266185768766599 0.0751369189093486 0.416666666666667
0.275310732443955 0.0942652427190324 0.416666666666667
0.287957536248879 0.0945025247012776 0.416666666666667
0.284538203197486 0.102872423530502 0.416666666666667
0.307012102896856 0.120858433023516 0.416666666666667
0.3081542941917 0.125160071680858 0.416666666666667
0.32946834531516 0.131294275944831 0.416666666666667
0.341396884939761 0.154586083142902 0.416666666666667
0.345942864657963 0.14918071280454 0.416666666666667
0.357127737734554 0.169122374357764 0.416666666666666
0.369530597149648 0.174054776993444 0.416666666666667
0.380888206675262 0.18885018494038 0.416666666666667
0.390646035317122 0.195187678091028 0.416666666666667
0.402251861841461 0.211556079883811 0.416666666666667
0.403494137924977 0.208906246773676 0.416666666666666
0.431738071507469 0.231204062823729 0.416666666666667
0.437545455929862 0.235772863210111 0.416666666666667
0.439771921305437 0.248142219854167 0.416666666666667
0.468532328142552 0.26552026468679 0.416666666666666
0.468726578697124 0.261912731617752 0.416666666666667
-0.119227380844824 -0.256944444444444 0.37991298959755
-0.131635186213387 -0.270833333333333 0.409734980934676
