ply
format ascii 1.0
element vertex 868
property float x
property float y
property float z
end_header
0.27866101799606 0.312771798844327 0.63564637619895
0.263803502663476 0.299123797506152 0.63564637619895
0.257096339664408 0.295357591946596 0.63564637619895
0.245352259962629 0.284205963312521 0.63564637619895
0.245376866966447 0.276946376407051 0.63564637619895
0.236411652895156 0.277056016507379 0.63564637619895
0.228023460248622 0.266241890496414 0.63564637619895
0.225242238275504 0.263049074425037 0.63564637619895
0.219197248166517 0.253635902562835 0.63564637619895
0.210540546078922 0.244192537820547 0.63564637619895
0.198063605821362 0.237095513976069 0.63564637619895
0.195576688631362 0.233341594340825 0.63564637619895
0.190019472377085 0.229248730075607 0.63564637619895
0.183746055564204 0.216863103483083 0.63564637619895
0.166561448401557 0.206923401063289 0.63564637619895
0.169336444598619 0.205817793192832 0.63564637619895
0.14966450531787 0.190694171069575 0.63564637619895
0.150291544019925 0.18922526028485 0.63564637619895
0.145810679984757 0.181651368008175 0.63564637619895
0.134823736864439 0.180455455633807 0.63564637619895
0.128272711218814 0.162324738502986 0.63564637619895
0.115131201823476 0.156520980118619 0.63564637619895
0.117255268418237 0.150439367221832 0.63564637619895
0.105229170966364 0.139630956315521 0.63564637619895
0.0886550148287748 0.136324328607566 0.63564637619895
0.0861697029438326 0.128951496031392 0.63564637619895
0.0714126352645576 0.113584017704053 0.63564637619895
0.0701404809233034 0.105963088336644 0.63564637619895
0.0596908042623973 0.102124474704451 0.63564637619895
0.0597467957375432 0.0993109133091306 0.63564637619895
0.0520519417428715 0.0896526730635066 0.63564637619895
0.0419080558137352 0.0832410025888714 0.63564637619895
0.0228199989241325 0.0697812203449923 0.63564637619895
0.0263149060178588 0.0694381006385327 0.63564637619895
0.00573617418804045 0.0523262818241472 0.63564637619895
0.000126420970851018 0.039130400596956 0.63564637619895
-0.00321130006724777 0.0403406675555581 0.63564637619895
-0.0125107977515748 0.0275943129531824 0.63564637619895
-0.0300707088696278 0.0185372064961112 0.63564637619895
-0.0307881612147347 0.0120784595709158 0.63564637619895
-0.0475297483531512 -0.00414946210644809 0.63564637619895
-0.0580592864778027 -0.0134291984264542 0.63564637619895
-0.0639582835052808 -0.0229252559767787 0.63564637619895
-0.0650999929568527 -0.0302095162496615 0.63564637619895
-0.0762579692203784 -0.0384924388132531 0.63564637619895
-0.0885045303188048 -0.0438561159432068 0.63564637619895
-0.0980428514604983 -0.0584157898866219 0.63564637619895
-0.115618979534632 -0.0705159991808828 0.63564637619895
-0.121119730370409 -0.0789148618225551 0.63564637619895
-0.127849398098659 -0.0811706303200764 0.63564637619895
-0.146173402283432 -0.100951656168194 0.63564637619895
-0.144265295257489 -0.103451128140171 0.63564637619895
-0.161041662413558 -0.108448184145015 0.63564637619895
-0.174280832353938 -0.13222981375919 0.63564637619895
-0.179723369124802 -0.127723776454838 0.63564637619895
-0.191074184210001 -0.148243574942387 0.63564637619895
-0.196624600822168 -0.148023436469926 0.63564637619895
-0.222319026630613 -0.166605863551071 0.63564637619895
-0.221442476450727 -0.172860002295462 0.63564637619895
-0.237607322269094 -0.18943498855346 0.63564637619895
-0.246049463870771 -0.197192182822133 0.63564637619895
-0.252891973708306 -0.201406815038053 0.63564637619895
-0.266445589051127 -0.213298605119909 0.63564637619895
-0.28181308427943 -0.231085439086273 0.63564637619895
-0.286652924395312 -0.241690987877892 0.63564637619895
-0.30276906698691 -0.246231491906357 0.63564637619895
-0.314017313574025 -0.272556642249883 0.63564637619895
-0.324763905504315 -0.270826054991394 0.63564637619895
-0.338016670989275 -0.284001692975263 0.63564637619895
-0.346687022230262 -0.296441927075176 0.63564637619895
-0.359120336900543 -0.311742324061698 0.63564637619895
0.279559255283811 0.299658064342524 0.418067284203331
0.27772928767138 0.301488031954956 0.463583696316977
0.277452146594939 0.301765173031397 0.474990328692287
0.277383006654428 0.301834312971907 0.485007306132937
0.279905667243179 0.299311652383156 0.487552466372765
0.280352523475262 0.298864796151074 0.498088967845024
0.281071809096887 0.298145510529449 0.509499412506704
0.2788216210636 0.300395698562735 0.522632775808421
0.341630804008463 0.365475977178085 0.614662263243122
0.341402441987268 0.365532577534386 0.625200551445237
0.33242526291744 0.36233878897997 0.629503638315589
0.33687728341745 0.354951246725098 0.630541501985181
0.326480385361258 0.354732626452522 0.634294654483221
0.325039727251481 0.346241779466795 0.63564637619895
0.316588236272029 0.341032647121904 0.63564637619895
0.311961064410048 0.33681971681858 0.63564637619895
0.3049234575649 0.327728134688748 0.63564637619895
0.294171716913832 0.323744257186954 0.63564637619895
0.291603124070732 0.315875226562783 0.63564637619895
0.283981692170536 0.307519534450269 0.63564637619895
0.280122948854287 0.300226378333262 0.63564637619895
0.273173799653194 0.298924871298319 0.63564637619895
0.266935985645058 0.287457744141334 0.63564637619895
0.257561732341775 0.28414245223116 0.63564637619895
0.252191530678345 0.269478711964318 0.63564637619895
0.249491604899007 0.27233703844909 0.63564637619895
0.231675768356668 0.259397250051897 0.63564637619895
0.233831249543979 0.258753069459601 0.63564637619895
0.222585670037112 0.248523667105742 0.63564637619895
0.21402898504946 0.239192875443778 0.63564637619895
0.209095911375494 0.230681910566981 0.63564637619895
0.201505390361375 0.223167193684023 0.63564637619895
0.201593972753785 0.224078231351658 0.63564637619895
0.182100125141812 0.208077026198463 0.63564637619895
0.180378791824661 0.204441293713399 0.63564637619895
0.167385419430403 0.193141033031658 0.63564637619895
0.159809744545855 0.190910385192249 0.63564637619895
0.158371129339767 0.186098197159101 0.63564637619895
0.150132127478582 0.172144473563769 0.63564637619895
0.148126192513344 0.171941231575536 0.63564637619895
0.12933836871397 0.160321414287996 0.63564637619895
0.129879947447759 0.158305570249255 0.63564637619895
0.111521656043947 0.141919218788355 0.63564637619895
0.105989695741172 0.139241319935214 0.63564637619895
0.104276056657519 0.130004143037672 0.63564637619895
0.0936843592947074 0.12426918517083 0.63564637619895
0.0920936265245641 0.110840281458071 0.63564637619895
0.0798846670855063 0.109994395878272 0.63564637619895
0.0715879041844283 0.095051867160398 0.63564637619895
0.0673491626861833 0.0892209566151642 0.63564637619895
0.0461568650613581 0.0749898192137938 0.63564637619895
0.0428336204909249 0.0687467595815006 0.63564637619895
0.0353281567015386 0.0552092063442358 0.63564637619895
0.0267821776708384 0.0605885452207921 0.63564637619895
0.0171714166273674 0.0450742803434401 0.63564637619895
0.0115227810663564 0.0426459574746574 0.63564637619895
-0.00634003221778354 0.0260746015583468 0.63564637619895
-0.00959456450493392 0.024438671550326 0.63564637619895
-0.0199772636104438 0.0125635422537316 0.63564637619895
-0.0275365422877298 0.00422644527007508 0.63564637619895
-0.0395744228551112 -0.00518789554030206 0.63564637619895
-0.0416123516596079 -0.0140541900417834 0.63564637619895
-0.0587148653016823 -0.0321094850896687 0.63564637619895
-0.0714235538533686 -0.0404234345578879 0.63564637619895
-0.0730522024525788 -0.0409120090254794 0.63564637619895
-0.0864293720033377 -0.060874928543196 0.63564637619895
-0.0959491430311497 -0.0612908431532152 0.63564637619895
-0.105404755910673 -0.0759232038861961 0.63564637619895
-0.11093619418679 -0.0752980191210541 0.63564637619895
-0.130321974163769 -0.100632242082142 0.63564637619895
-0.130440837850677 -0.0941155161710781 0.63564637619895
-0.149188271294175 -0.115033322280811 0.63564637619895
-0.146197247695598 -0.117252225001275 0.63564637619895
-0.16756465922566 -0.133846325131666 0.63564637619895
-0.182776546227788 -0.142832119077562 0.63564637619895
-0.179754451464192 -0.154392788075893 0.63564637619895
-0.19236951242248 -0.155799561597457 0.63564637619895
-0.205903323685344 -0.176510675513453 0.63564637619895
-0.212019814154639 -0.182503593754437 0.63564637619895
-0.227328329892033 -0.192752693729279 0.63564637619895
-0.239244142925184 -0.214844893063484 0.63564637619895
-0.251399941879485 -0.212134212379859 0.63564637619895
-0.265326939848827 -0.227165842097866 0.63564637619895
-0.275327163642483 -0.240582458315484 0.63564637619895
-0.279650614338503 -0.248366507040973 0.63564637619895
-0.295599959342425 -0.258496172057514 0.63564637619895
-0.300693053787121 -0.268406040557787 0.63564637619895
-0.323910053593295 -0.285654937940115 0.63564637619895
-0.333114688664038 -0.29909558195047 0.63564637619895
-0.350580816579169 -0.308312997861792 0.63564637619895
-0.350217089442034 -0.326045082693134 0.63564637619895
0.283612421201874 0.295604898424462 0.403973522018523
0.281714641224158 0.297502678402177 0.406469445486337
0.284999965141759 0.294217354484577 0.426165772430422
0.281650657031641 0.297566662594694 0.4294158044597
0.284138303166431 0.295079016459905 0.437636624418817
0.281844351387757 0.297372968238578 0.441514086585305
0.286870274417064 0.292347045209271 0.4553283639361
0.282705742591183 0.296511577035152 0.461908313362129
0.27995609186987 0.299261227756465 0.470850412045291
0.283245588578062 0.295971731048273 0.475351254647658
0.282595122205182 0.296622197421153 0.490437385611261
0.282791421398655 0.296425898227681 0.49836156532508
0.285002245010867 0.294215074615469 0.500971529742243
0.279516615733295 0.29970070389304 0.513939628767734
0.347276511911456 0.359830269275092 0.610156695573957
0.346534923105973 0.360571858080575 0.613840113768057
0.343073519978637 0.358653200102397 0.627041963371693
0.346400300875255 0.351570358176398 0.628369931483905
0.336149883510678 0.352632929201472 0.631618325709487
0.336673114063209 0.349341741843429 0.632596946223092
0.330926670321158 0.342105252297641 0.63564637619895
0.326462954019226 0.339863898216699 0.63564637619895
0.322119854416036 0.333974606255195 0.63564637619895
0.310646493614461 0.326629916202053 0.63564637619895
0.30205644431626 0.322464271855851 0.63564637619895
0.292202388776258 0.312318407290823 0.63564637619895
0.295234051148721 0.307753522825929 0.63564637619895
0.287101398594686 0.295225431713505 0.63564637619895
0.281841161354534 0.290554551533226 0.63564637619895
0.27286324314028 0.282763187183832 0.63564637619895
0.268441596811444 0.278032832974385 0.63564637619895
0.263190356054869 0.269132735067433 0.63564637619895
0.255625341925013 0.266753566626525 0.63564637619895
0.244884508678873 0.258759737762007 0.63564637619895
0.232479634888032 0.245360962705859 0.63564637619895
0.229120134518623 0.242078759979603 0.63564637619895
0.219097920173879 0.238922509173853 0.63564637619895
0.220049962952595 0.227028972916312 0.63564637619895
0.209290525075689 0.21653534789281 0.63564637619895
0.207102014421784 0.21859189109961 0.63564637619895
0.191863556429482 0.202141766579438 0.63564637619895
0.180907699538723 0.200945025462706 0.63564637619895
0.180694883875218 0.195755145665694 0.63564637619895
0.172758872593638 0.186883938497499 0.63564637619895
0.160403989222484 0.174849551852653 0.63564637619895
0.159066923229554 0.16712678803505 0.63564637619895
0.148138021880026 0.152768224123755 0.63564637619895
0.1454805513264 0.158663906517988 0.63564637619895
0.130175367952024 0.149625291044193 0.63564637619895
0.125081172375061 0.136928674160152 0.63564637619895
0.11636396581717 0.124070794575134 0.63564637619895
0.1024948697333 0.120897027049908 0.63564637619895
0.103029912446583 0.119424466667644 0.63564637619895
0.0923148520069048 0.106607395788493 0.63564637619895
0.0839718684844239 0.0984400942739019 0.63564637619895
0.0831282261650007 0.0896808319143106 0.63564637619895
0.066590219808294 0.0826915289051376 0.63564637619895
0.0624918353853555 0.0782358597070327 0.63564637619895
0.0517847076632949 0.0635122764914872 0.63564637619895
0.0480938004291717 0.0563434682735388 0.63564637619895
0.0358026993666784 0.0463344483097441 0.63564637619895
0.0215701086260096 0.0391711860090929 0.63564637619895
0.0195366086608127 0.0340003305387457 0.63564637619895
0.00379490384099555 0.021878714857905 0.63564637619895
-0.000761902322192284 0.0104057594822408 0.63564637619895
-0.0126176977214959 0.00562831599544355 0.63564637619895
-0.0242887183894858 -0.0119947973426718 0.63564637619895
-0.0292100668784626 -0.0101571006538148 0.63564637619895
-0.0377119402878486 -0.0234678203578959 0.63564637619895
-0.0493851190201829 -0.0319767478197899 0.63564637619895
-0.0501134641675028 -0.0362792601464663 0.63564637619895
-0.061337723510944 -0.051100199283685 0.63564637619895
-0.0768006047898506 -0.0651686483911763 0.63564637619895
-0.0833684681769118 -0.0687209849681183 0.63564637619895
-0.102448192946088 -0.0826800031248066 0.63564637619895
-0.112502980591423 -0.094296499742587 0.63564637619895
-0.118843543830594 -0.100132936686763 0.63564637619895
-0.132914690267785 -0.115766315450707 0.63564637619895
-0.131988542728647 -0.121195173103547 0.63564637619895
-0.154481509381598 -0.137053437152683 0.63564637619895
-0.1559050586837 -0.141270069590286 0.63564637619895
-0.164162409918669 -0.150704294385763 0.63564637619895
-0.174057199224296 -0.166799023662211 0.63564637619895
-0.188259318320386 -0.171391095643583 0.63564637619895
-0.200411350411874 -0.184257310478307 0.63564637619895
-0.213210483754406 -0.203264129798489 0.63564637619895
-0.218664144625677 -0.208745994619473 0.63564637619895
-0.228555845725371 -0.209315205496723 0.63564637619895
-0.24078366799643 -0.221325691670778 0.63564637619895
-0.2538884593618 -0.240776987083493 0.63564637619895
-0.261442094674761 -0.242250485610907 0.63564637619895
-0.282527013949415 -0.266504579239204 0.63564637619895
-0.277723107047152 -0.2701037365358 0.63564637619895
-0.298301015350564 -0.286400923099653 0.63564637619895
-0.318840462822667 -0.30032677524167 0.63564637619895
-0.322011314879297 -0.310349987380861 0.63564637619895
-0.333246884084029 -0.321234187277143 0.63564637619895
-0.343364465637027 -0.32536613959516 0.63564637619895
0.288560313473912 0.290657006152424 0.399465636548209
0.291121260696316 0.288096058930019 0.411566311542782
0.289569247326767 0.289648072299569 0.421457885758266
0.290310243747019 0.288907075879317 0.420763191630776
0.28960077990998 0.289616539716355 0.436808157093259
0.287386601352961 0.291830718273374 0.449114723763775
0.289501387847144 0.289715931779191 0.455169805654561
0.288145445085899 0.291071874540436 0.462187920264349
0.291982936957596 0.28723438266874 0.468014070972253
0.290192440428423 0.289024879197913 0.4718031935114
0.287941144240399 0.291276175385937 0.488406986453122
0.28953527526695 0.289682044359385 0.487226386457739
0.28789374250518 0.291323577121155 0.502174687026688
0.291559274329024 0.287658045297312 0.51517420637687
0.353353041907787 0.353753739278762 0.612623803870102
0.350186194862992 0.356920586323556 0.61490531384821
0.35121637257342 0.353595675780666 0.625951135099662
0.346434119069826 0.348224835301578 0.629540795902252
0.346800737802016 0.342353197033036 0.631487114224611
0.342670696468362 0.33735842166113 0.634713224109404
0.336198611116862 0.336919923844144 0.63564637619895
0.327088046364505 0.32306960781649 0.63564637619895
0.321637921523443 0.318136847692209 0.63564637619895
0.318973256617466 0.317021236380454 0.63564637619895
0.309783317138139 0.310844699943011 0.63564637619895
0.305668414547397 0.306094115920957 0.63564637619895
0.300785228160257 0.301548223880941 0.63564637619895
0.293947320466313 0.295613438776114 0.63564637619895
0.283677171988055 0.289228505874494 0.63564637619895
0.271754090962844 0.279245671137251 0.63564637619895
0.273528925703581 0.274945208141288 0.63564637619895
0.258654515852934 0.265317186079524 0.63564637619895
0.256233484812648 0.257606101583231 0.63564637619895
0.24765736853246 0.252508036211541 0.63564637619895
0.245692308180499 0.245179197078737 0.63564637619895
0.242610086091706 0.240565300718723 0.63564637619895
0.229702502983716 0.224858076628205 0.63564637619895
0.222648017279701 0.221267529914315 0.63564637619895
0.212385027659384 0.21544736887295 0.63564637619895
0.205179078490619 0.212607404149689 0.63564637619895
0.195955542756055 0.198254958917988 0.63564637619895
0.196325859701348 0.189803057815109 0.63564637619895
0.189352224638195 0.182435276163485 0.63564637619895
0.178174799934949 0.17549914290596 0.63564637619895
0.171767125178469 0.165360082133461 0.63564637619895
0.161770663459237 0.16331195754567 0.63564637619895
0.15871959538576 0.154930620740479 0.63564637619895
0.144770228912534 0.141496153399806 0.63564637619895
0.137367104070733 0.13883833713749 0.63564637619895
0.132134519465336 0.139103635986905 0.63564637619895
0.120368348178344 0.120414296164883 0.63564637619895
0.113032017748841 0.11609774545713 0.63564637619895
0.108093913663812 0.105702585240387 0.63564637619895
0.100280319430712 0.0966548536010719 0.63564637619895
0.0901894024736428 0.0886448905282159 0.63564637619895
0.0841652704980385 0.0870205606632404 0.63564637619895
0.0715185727310445 0.0692015595686165 0.63564637619895
0.0651241524330515 0.0626607144307221 0.63564637619895
0.0531517609646251 0.0538060401145398 0.63564637619895
0.0543858179735766 0.0497735380881068 0.63564637619895
0.0332330709595164 0.0361452273152879 0.63564637619895
0.0324521282022917 0.0347230413808183 0.63564637619895
0.0260819760179057 0.0262557797339351 0.63564637619895
0.0133760669826765 0.011863015383983 0.63564637619895
0.00462922155502084 0.00145353632565419 0.63564637619895
-0.00145607762456716 -0.00723500265981549 0.63564637619895
-0.0104574825513091 -0.0143731576478412 0.63564637619895
-0.020943855733545 -0.0203012682465177 0.63564637619895
-0.034655029732617 -0.0355802955103341 0.63564637619895
-0.0423076902558262 -0.0455104309611699 0.63564637619895
-0.0428991946405724 -0.0446726572477973 0.63564637619895
-0.0649353221892953 -0.060906243183972 0.63564637619895
-0.0753523856640268 -0.0763037215962284 0.63564637619895
-0.0833898025353523 -0.0753791139247088 0.63564637619895
-0.0847470044773898 -0.089488690929738 0.63564637619895
-0.0975750422537521 -0.100836308619946 0.63564637619895
-0.113265253935987 -0.113556101021448 0.63564637619895
-0.110465873678552 -0.118686397319289 0.63564637619895
-0.126924002660312 -0.130268955431867 0.63564637619895
-0.140161925986488 -0.141182456234344 0.63564637619895
-0.149064492317911 -0.147037310520812 0.63564637619895
-0.157824149869984 -0.155036617005067 0.63564637619895
-0.170939300314818 -0.167182891773324 0.63564637619895
-0.178455028400158 -0.179079773487566 0.63564637619895
-0.180434575882664 -0.184060602524908 0.63564637619895
-0.198611664067866 -0.19951671715384 0.63564637619895
-0.214058784360439 -0.216230408591189 0.63564637619895
-0.230113411565736 -0.224450385245761 0.63564637619895
-0.240181024690167 -0.238854028825444 0.63564637619895
-0.241599720499412 -0.240257320082865 0.63564637619895
-0.256873831805222 -0.25892876479962 0.63564637619895
-0.271326821511135 -0.270723832987557 0.63564637619895
-0.267879548435796 -0.269120739998064 0.63564637619895
-0.295402217196003 -0.286666069820215 0.63564637619895
-0.293427518494642 -0.301684014520711 0.63564637619895
-0.315400609684545 -0.318823795093061 0.63564637619895
-0.331844825376076 -0.332453424028487 0.63564637619895
-0.335596610635405 -0.339367888737437 0.63564637619895
0.295854468746087 0.283362850880249 0.401710928236066
0.298795297877852 0.280422021748484 0.406711029902935
0.294527348010007 0.284689971616328 0.414680425057823
0.296032095797004 0.283185223829332 0.427074443177924
0.295662229846618 0.283555089779718 0.440808029926583
0.298081503902969 0.281135815723366 0.438535447423611
0.296190538649708 0.283026780976627 0.457104254508976
0.296034764428309 0.283182555198027 0.463959710231619
0.298988310598021 0.280229009028315 0.47228756965707
0.293032157872442 0.286185161753893 0.48246267900908
0.296084721349843 0.283132598276492 0.486783755304869
0.295742531501131 0.283474788125204 0.49281389047814
0.294511041934127 0.284706277692208 0.50038165759112
0.2975296390352 0.281687680591136 0.517272188515962
0.294031225854892 0.285186093771444 0.519090991645193
0.359877293840518 0.347229487346029 0.61315096415503
0.360423874594731 0.344143834497044 0.626037522074307
0.356807274351668 0.346191849810547 0.626592100594587
0.354131005084129 0.343175306014671 0.628604813955171
0.350062477113442 0.334828612980294 0.632994257436476
0.338380762002111 0.323622504651601 0.63564637619895
0.335732080105606 0.319335546101329 0.63564637619895
0.330539330742903 0.314716188181617 0.63564637619895
0.324486409676517 0.304467219153915 0.63564637619895
0.318564915712676 0.30165972228823 0.63564637619895
0.31080210100265 0.294685635814404 0.63564637619895
0.305992883393678 0.286859358490176 0.63564637619895
0.293657548454563 0.281467016971317 0.63564637619895
0.292937121799935 0.281339995246459 0.63564637619895
0.278627288499863 0.264475419736175 0.63564637619895
0.27700788931442 0.260906230779077 0.63564637619895
0.270276055367288 0.253387979451896 0.63564637619895
0.261735666817259 0.254240125421909 0.63564637619895
0.25761449311442 0.24213890972415 0.63564637619895
0.24843867929598 0.237502574464007 0.63564637619895
0.24229580123922 0.233152081664407 0.63564637619895
0.235232704151451 0.219967176096325 0.63564637619895
0.223229303735491 0.215235940669588 0.63564637619895
0.224975994728852 0.211965572492486 0.63564637619895
0.206095029561689 0.194335146415598 0.63564637619895
0.199231496392453 0.193312790798465 0.63564637619895
0.201403453798138 0.187170947163655 0.63564637619895
0.19387556639907 0.178195241049395 0.63564637619895
0.183650541436442 0.176313664411221 0.63564637619895
0.174257255970845 0.164409449395009 0.63564637619895
0.176057786277633 0.161011270303179 0.63564637619895
0.164939237829209 0.152152323146952 0.63564637619895
0.149948850730853 0.141050054175234 0.63564637619895
0.144532211316901 0.131792092437429 0.63564637619895
0.135350472862751 0.126941765934872 0.63564637619895
0.135668307752652 0.119047751878058 0.63564637619895
0.119903719472892 0.104902430605541 0.63564637619895
0.115835986066207 0.102782133013986 0.63564637619895
0.105764790857741 0.0887418289315536 0.63564637619895
0.105224420984388 0.0918815833744623 0.63564637619895
0.0869005187516738 0.0733560832794139 0.63564637619895
0.082171666323752 0.06649897884635 0.63564637619895
0.0734545185409482 0.055668392046969 0.63564637619895
0.0672537353903282 0.0576774533246624 0.63564637619895
0.0582821236345698 0.0442775807392962 0.63564637619895
0.0462247634661651 0.0337136491815459 0.63564637619895
0.0430377060538584 0.0226442842072172 0.63564637619895
0.0323732012366748 0.0114044107552132 0.63564637619895
0.0226438981575171 0.0073512011694253 0.63564637619895
0.0160074739063924 -0.000788570630628314 0.63564637619895
-0.00108071373712149 -0.0123431120275572 0.63564637619895
-0.0121481763054804 -0.0269240874247674 0.63564637619895
-0.0160127305728368 -0.0315825087069651 0.63564637619895
-0.0298087698557391 -0.0453066884747814 0.63564637619895
-0.0259246138334641 -0.0481165453090439 0.63564637619895
-0.0488566605334029 -0.0593233173625673 0.63564637619895
-0.0488962118907723 -0.0659905184805641 0.63564637619895
-0.0543741064355655 -0.0775007925493872 0.63564637619895
-0.0762829846934821 -0.0885176495839359 0.63564637619895
-0.0788138703159368 -0.0903210880225451 0.63564637619895
-0.0887833148062695 -0.106598314443582 0.63564637619895
-0.102245454313143 -0.115862010970945 0.63564637619895
-0.103126032004717 -0.115931123686591 0.63564637619895
-0.115403825368485 -0.136895659249512 0.63564637619895
-0.133085741205162 -0.1396667393992 0.63564637619895
-0.141461519529456 -0.158022569435831 0.63564637619895
-0.151274361683036 -0.171424471112227 0.63564637619895
-0.165841129405812 -0.172758739796722 0.63564637619895
-0.164808099297041 -0.183473514482322 0.63564637619895
-0.180990890908484 -0.193271726340538 0.63564637619895
-0.185265444000889 -0.207068627060747 0.63564637619895
-0.20176593710971 -0.218412338217315 0.63564637619895
-0.223817211815503 -0.234224986902396 0.63564637619895
-0.228681274461582 -0.236437734133837 0.63564637619895
-0.241854386581792 -0.256745500915396 0.63564637619895
-0.24945670782159 -0.261803858051168 0.63564637619895
-0.25914241008496 -0.271505012750761 0.63564637619895
-0.260702159993887 -0.276385024552715 0.63564637619895
-0.279817186611868 -0.297828338751908 0.63564637619895
-0.298700502884111 -0.318146332141743 0.63564637619895
-0.304409742380084 -0.327237035010452 0.63564637619895
-0.317140798346932 -0.332121430248296 0.63564637619895
-0.343552558859827 -0.358995395243489 0.626751613298645
0.301217369366637 0.277999950259698 0.402979254680272
0.301565309171197 0.277652010455138 0.426470860605731
0.301524290870923 0.277693028755413 0.433374245850181
0.302061423639605 0.277155895986731 0.43803181267405
0.302077981250194 0.277139338376142 0.441641215310321
0.300091060196635 0.279126259429701 0.458719401881165
0.301139613567211 0.278077706059124 0.469661606786088
0.299720033168714 0.279497286457622 0.477676940685252
0.300417942292352 0.278799377333983 0.498708344537736
0.299869251534828 0.279348068091507 0.503682626612154
0.300244524587784 0.278972795038552 0.519647512488301
0.36556142284383 0.341545358342718 0.622464999574527
0.363463586204886 0.343643194981662 0.622727950467437
0.365215459853546 0.341424461390195 0.625304884441951
0.355848222697093 0.331137124378321 0.63225382577983
0.35348977305835 0.331747769774207 0.632871767895985
0.350736783628431 0.326391409562506 0.63564637619895
0.347149632656318 0.321132612192452 0.63564637619895
0.337454819583165 0.313596801764664 0.63564637619895
0.328498917011333 0.311761743902155 0.63564637619895
0.325857860357128 0.299089974864103 0.63564637619895
0.318505047195115 0.287872729149083 0.63564637619895
0.31013495825669 0.280014158116685 0.63564637619895
0.303577097450345 0.274262415247626 0.63564637619895
0.298344721452312 0.270117935163232 0.63564637619895
0.291881441808864 0.264973647380962 0.63564637619895
0.283910660709907 0.256714903948112 0.63564637619895
0.27383367202736 0.249634960677709 0.63564637619895
0.261535943335049 0.241261131484152 0.63564637619895
0.264697465521435 0.239841432807951 0.63564637619895
0.254396778643601 0.233522737351493 0.63564637619895
0.243424559232308 0.224653893396176 0.63564637619895
0.245508338012421 0.213046063684237 0.63564637619895
0.233663627146135 0.209187110125066 0.63564637619895
0.218935276775486 0.19696880770282 0.63564637619895
0.223650866024177 0.197484679041209 0.63564637619895
0.21818163043265 0.193005495802604 0.63564637619895
0.203722943810249 0.183646441350186 0.63564637619895
0.202645579890607 0.175930205331986 0.63564637619895
0.194712170129776 0.162562684885101 0.63564637619895
0.186131952253144 0.160585553067529 0.63564637619895
0.172244741926105 0.143972018116896 0.63564637619895
0.162244973372353 0.135521620948436 0.63564637619895
0.158173891635695 0.13397386256322 0.63564637619895
0.14734337957235 0.123159919326488 0.63564637619895
0.147691165506395 0.11476561479397 0.63564637619895
0.134658020209914 0.105038040269507 0.63564637619895
0.126615579490149 0.098130055795813 0.63564637619895
0.121498169989792 0.0976150931207315 0.63564637619895
0.113982422043142 0.0808781050322659 0.63564637619895
0.102600924436269 0.0793015316654424 0.63564637619895
0.0963478913767504 0.0713910697448463 0.63564637619895
0.0816941396296651 0.0566447634799469 0.63564637619895
0.08207700385901 0.0575709724963178 0.63564637619895
0.0712365401615712 0.0475133067770632 0.63564637619895
0.0631123835713869 0.0274653966925886 0.63564637619895
0.0522975467370511 0.0211619474046862 0.63564637619895
0.0423134855146036 0.0199078768300649 0.63564637619895
0.0344027057497067 0.00789291244736814 0.63564637619895
0.0333851057788532 0.00502055167374438 0.63564637619895
0.0138253785655856 -0.013311912544013 0.63564637619895
0.00438727686422053 -0.0192275062118507 0.63564637619895
-0.00172637109278728 -0.027398059033806 0.63564637619895
-0.0111745090833127 -0.0441019104968593 0.63564637619895
-0.0128043034973592 -0.0400034986135646 0.63564637619895
-0.0264915597597288 -0.0595485031490341 0.63564637619895
-0.0353695734923654 -0.0657945629978084 0.63564637619895
-0.0508775064442818 -0.0791101109975902 0.63564637619895
-0.0598559881480386 -0.0850153727229969 0.63564637619895
-0.0591582303170936 -0.0835266148152906 0.63564637619895
-0.0750586138806323 -0.10197895711056 0.63564637619895
-0.0881339645926049 -0.120451506964285 0.63564637619895
-0.0968931724250992 -0.130181415104201 0.63564637619895
-0.101615371426353 -0.129957657463075 0.63564637619895
-0.12225146096485 -0.146924924081584 0.63564637619895
-0.114879127084647 -0.152107467052908 0.63564637619895
-0.13010348924181 -0.165053321556668 0.63564637619895
-0.141166482037769 -0.17809546664667 0.63564637619895
-0.152148415839043 -0.18134017184559 0.63564637619895
-0.163859761598697 -0.18959197029153 0.63564637619895
-0.169430602014722 -0.199146631825021 0.63564637619895
-0.190591201777158 -0.214516604257425 0.63564637619895
-0.198004990989633 -0.230645978178419 0.63564637619895
-0.20718166259585 -0.237931307477732 0.63564637619895
-0.215222883783635 -0.250057710679897 0.63564637619895
-0.22259270453279 -0.259675310625869 0.63564637619895
-0.24239359208672 -0.280093330304482 0.63564637619895
-0.252835752487465 -0.284909762776924 0.63564637619895
-0.266418816418576 -0.298192482595225 0.63564637619895
-0.276989748974773 -0.307676823633231 0.63564637619895
-0.289756706080756 -0.319974048212354 0.63564637619895
-0.295803393981429 -0.331856270887634 0.63564637619895
-0.309418214002104 -0.345805141827523 0.63564637619895
-0.320691699599474 -0.349286489268084 0.63564637619895
0.374252313631022 0.332854467555526 0.61236530790583
0.372119567635466 0.334987213551082 0.618951085365281
0.368940397372082 0.334646324693209 0.626384353363649
0.366490430005945 0.332518430559153 0.628002871818709
0.362771390971202 0.32834577724606 0.630793006405804
0.362696790115257 0.320367370520644 0.633640174540668
0.350104043501365 0.317557484313339 0.63564637619895
0.342958392419863 0.312892449434342 0.63564637619895
0.345072317285264 0.307632695686636 0.63564637619895
0.329353639239586 0.293605278153494 0.63564637619895
0.331388465786532 0.293144896775541 0.63564637619895
0.322238408003509 0.29077395119298 0.63564637619895
0.315176181859565 0.276400041747359 0.63564637619895
0.314194472901508 0.273549334923992 0.63564637619895
0.301721075712413 0.269846157240493 0.63564637619895
0.297517569125196 0.255059212832585 0.63564637619895
0.285865541158988 0.249985826506245 0.63564637619895
0.288068912612428 0.247026076744051 0.63564637619895
0.272211477364907 0.241375459064085 0.63564637619895
0.263199332693739 0.229316826051397 0.63564637619895
0.257100716931407 0.224020325631254 0.63564637619895
0.249918055782817 0.217432714977705 0.63564637619895
0.251502367868359 0.20952129061571 0.63564637619895
0.2340746269952 0.203763437827834 0.63564637619895
0.237274442888555 0.196837092481032 0.63564637619895
0.231812969978448 0.18961680111726 0.63564637619895
0.214590346286597 0.177218213145984 0.63564637619895
0.211077801178537 0.179482389084616 0.63564637619895
0.202571294717205 0.158520697115687 0.63564637619895
0.194618810130388 0.150170398600559 0.63564637619895
0.18451667558846 0.147470557301165 0.63564637619895
0.180321776446474 0.143509241194123 0.63564637619895
0.175660211818373 0.13112784409029 0.63564637619895
0.16995964238124 0.131112044298493 0.63564637619895
0.165537061103145 0.125377656206391 0.63564637619895
0.14494421563173 0.111977894653174 0.63564637619895
0.13932750217386 0.101719613071165 0.63564637619895
0.135726363642161 0.09642045534068 0.63564637619895
0.124821654384244 0.0908874629806651 0.63564637619895
0.125738350547964 0.0801228595478941 0.63564637619895
0.108464472724376 0.0712827975643409 0.63564637619895
0.0981253991928774 0.0544946877391353 0.63564637619895
0.0924373685850002 0.0593181090015387 0.63564637619895
0.0884661248946302 0.0390771346867355 0.63564637619895
0.0792807344975273 0.0333378008344766 0.63564637619895
0.0687911674106899 0.0294201184952281 0.63564637619895
0.0584976290870408 0.0223525898834428 0.63564637619895
0.0476770160085144 0.00784173745458197 0.63564637619895
0.0493230804529559 0.00848897638901089 0.63564637619895
0.0315130205545789 -0.0114199760538879 0.63564637619895
0.0276198483120359 -0.012777758048439 0.63564637619895
0.0218659822846055 -0.0210910132785578 0.63564637619895
0.00387394676670665 -0.0351009272986427 0.63564637619895
0.00636873815914795 -0.0421129810128824 0.63564637619895
-0.0110380937483604 -0.0465097206510125 0.63564637619895
-0.014481797828215 -0.0644327360511747 0.63564637619895
-0.0282384136850732 -0.0800326920101406 0.63564637619895
-0.0384707130948302 -0.0792287287905901 0.63564637619895
-0.04001920854886 -0.0875899847785914 0.63564637619895
-0.0529882784053224 -0.0955164335112778 0.63564637619895
-0.0671149922159686 -0.116354498487722 0.63564637619895
-0.0807575851463869 -0.126881953295455 0.63564637619895
-0.0869304075386359 -0.128703458741214 0.63564637619895
-0.0940617688802697 -0.143696929343705 0.63564637619895
-0.106095102270838 -0.150253944693893 0.63564637619895
-0.115022868240654 -0.16419557428811 0.63564637619895
-0.131734895405102 -0.17297856317978 0.63564637619895
-0.139242147931281 -0.185732785420543 0.63564637619895
-0.149299003217353 -0.189150798537105 0.63564637619895
-0.147554842208723 -0.201664529546827 0.63564637619895
-0.160863811249041 -0.206801177708396 0.63564637619895
-0.1823631472622 -0.22286028535746 0.63564637619895
-0.1903346075692 -0.231715745420239 0.63564637619895
-0.203385936099655 -0.246297987827834 0.63564637619895
-0.208948065038205 -0.257352340340371 0.63564637619895
-0.21392864332669 -0.264235695686655 0.63564637619895
-0.230196427843421 -0.274233598198689 0.63564637619895
-0.234367255835132 -0.289484900005935 0.63564637619895
-0.261282040580925 -0.310663549763114 0.63564637619895
-0.266435776435291 -0.312764348595442 0.63564637619895
-0.281747807379757 -0.328549397480435 0.63564637619895
-0.291947774795412 -0.33855225780297 0.63564637619895
-0.30387158944815 -0.354293762752206 0.63564637619895
-0.306211893183275 -0.355177208074479 0.63564637619895
0.376696274271948 0.3304105069146 0.617080304299917
0.37961658689844 0.325837726186461 0.625724060226424
0.378364493131574 0.323190116226158 0.627102813701474
0.369507299868575 0.322615202225814 0.630437567204868
0.364901747287081 0.317423124082322 0.633901552767468
0.358037614615286 0.310232977163196 0.63564637619895
0.356574722463125 0.305481816297392 0.63564637619895
0.347196386696567 0.3029792610636 0.63564637619895
0.346737182692797 0.291178228320994 0.63564637619895
0.32986571569522 0.282947331054745 0.63564637619895
0.327647214425096 0.278531936914236 0.63564637619895
0.319457662664192 0.274263250264942 0.63564637619895
0.315654495324358 0.265010111601206 0.63564637619895
0.308225620596377 0.261428895512524 0.63564637619895
0.299816378733743 0.258398303516364 0.63564637619895
0.294149643378626 0.248845246171283 0.63564637619895
0.285023219775648 0.233129891005358 0.63564637619895
0.274082224154675 0.229093319217111 0.63564637619895
0.277628664147663 0.23259263383592 0.63564637619895
0.265515130457844 0.214160490503104 0.63564637619895
0.26045339650361 0.210986533142075 0.63564637619895
0.251046124351449 0.202706277974844 0.63564637619895
0.247786576122511 0.200184323713778 0.63564637619895
0.242321024287641 0.186998959652988 0.63564637619895
0.235752374846786 0.18049327929302 0.63564637619895
0.224004752592195 0.176924900222854 0.63564637619895
0.220587327638279 0.171678184713599 0.63564637619895
0.204205084497925 0.15862261763128 0.63564637619895
0.205932696182307 0.151270985661548 0.63564637619895
0.197563167786971 0.143501446855829 0.63564637619895
0.181258665104178 0.137340707983103 0.63564637619895
0.178612535207323 0.124454292696933 0.63564637619895
0.179504026438188 0.124953191079985 0.63564637619895
0.163427859295802 0.114990581306862 0.63564637619895
0.157493231286445 0.105895218137493 0.63564637619895
0.156576451544349 0.0981887503201382 0.63564637619895
0.141841190851135 0.0836905704555757 0.63564637619895
0.134085337448899 0.0771441514270137 0.63564637619895
0.122083767992344 0.0707005012355382 0.63564637619895
0.116144264654624 0.0626857018865453 0.63564637619895
0.109911716863183 0.050135503702699 0.63564637619895
0.107777500623474 0.0499016600006645 0.63564637619895
0.0898339406055756 0.0381691699288723 0.63564637619895
0.0781615099026374 0.0293130379526934 0.63564637619895
0.0797288548095642 0.026291933013359 0.63564637619895
0.0732144303336778 0.0189271206759334 0.63564637619895
0.0591811978099187 9.82466778255244e-005 0.63564637619895
0.0484944700073904 -0.00659915689937522 0.63564637619895
0.0452111694338409 -0.0117466414984253 0.63564637619895
0.0384362859222636 -0.0170003032611847 0.63564637619895
0.0304189718630935 -0.0344091875148689 0.63564637619895
0.020594986133671 -0.0348577807854332 0.63564637619895
0.00774247169435306 -0.0507156181020562 0.63564637619895
-0.00762438731576166 -0.0685295938037584 0.63564637619895
-0.00920653944798435 -0.0761105448323018 0.63564637619895
-0.0214478430895179 -0.0790937350206147 0.63564637619895
-0.0317798771256394 -0.0872743913311991 0.63564637619895
-0.0366930003401642 -0.09943034894585 0.63564637619895
-0.0490117950907835 -0.106954578739424 0.63564637619895
-0.0595089614707875 -0.113081395686427 0.63564637619895
-0.0655660681350543 -0.126043225661703 0.63564637619895
-0.070497799335457 -0.136752688439624 0.63564637619895
-0.0906390103251553 -0.147719419507692 0.63564637619895
-0.0886137660894309 -0.149417401930878 0.63564637619895
-0.109075521467909 -0.170336393654396 0.63564637619895
-0.116583994129063 -0.174073219553286 0.63564637619895
-0.130516136576666 -0.187453116970247 0.63564637619895
-0.13841179858614 -0.198838663068261 0.63564637619895
-0.142236389399974 -0.20224394209609 0.63564637619895
-0.157376959014454 -0.226021195639603 0.63564637619895
-0.161240171545267 -0.227625252606883 0.63564637619895
-0.178757781283001 -0.241729149217722 0.63564637619895
-0.191396614259691 -0.257730067860878 0.63564637619895
-0.205651014830374 -0.263345402123226 0.63564637619895
-0.209413531138942 -0.273980068872817 0.63564637619895
-0.224846051552149 -0.28537832460338 0.63564637619895
-0.238692512856781 -0.296467011455872 0.63564637619895
-0.24414518198606 -0.30710833685957 0.63564637619895
-0.256180875169914 -0.317325039521996 0.63564637619895
-0.273523386394504 -0.335725306210001 0.63564637619895
-0.280524069371239 -0.339964057340379 0.63564637619895
-0.289305967322788 -0.350030820132997 0.63564637619895
-0.294171697698264 -0.35949849965804 0.63564637619895
0.383303706982367 0.323803074204181 0.613189563168655
0.383313702113156 0.323793079073392 0.613327744529635
0.381268446617903 0.324103642219494 0.625753130887919
0.376404188480899 0.317822517616638 0.629693618745055
0.372507958228303 0.317167717794591 0.631302650858637
0.371875878408135 0.308789368485255 0.634488318628074
0.368395238632391 0.311938396426295 0.634605561116594
0.36445176203738 0.297416245565514 0.63564637619895
0.359483919828204 0.296272592128646 0.63564637619895
0.34451037217875 0.287489939943683 0.63564637619895
0.340537326859125 0.279796678417659 0.63564637619895
0.335956674962401 0.272997220307001 0.63564637619895
0.322465648773286 0.263817748591032 0.63564637619895
0.324603722564235 0.264181978853327 0.63564637619895
0.311285801935096 0.255646590002416 0.63564637619895
0.306989792815903 0.244982609344292 0.63564637619895
0.299891145549739 0.245485703500175 0.63564637619895
0.292009987907007 0.232078995953405 0.63564637619895
0.289362985839068 0.223454673060542 0.63564637619895
0.279997448672292 0.216810250832793 0.63564637619895
0.271658255549332 0.210195561447203 0.63564637619895
0.271723998153256 0.207078905758308 0.63564637619895
0.263440685248207 0.196909248629908 0.63564637619895
0.248199444093852 0.189093136194839 0.63564637619895
0.240155801211351 0.181297240932147 0.63564637619895
0.238054233538426 0.176761534181908 0.63564637619895
0.237098908930594 0.169446330809286 0.63564637619895
0.22672346016476 0.161640841485286 0.63564637619895
0.216240828836638 0.155437667438946 0.63564637619895
0.205998093591443 0.141085812124283 0.63564637619895
0.208114194595988 0.143872371561503 0.63564637619895
0.193357609682891 0.127367350684245 0.63564637619895
0.189386829589437 0.124938373524541 0.63564637619895
0.180077024738904 0.115952282138599 0.63564637619895
0.171014185544833 0.10527461639649 0.63564637619895
0.167773348876243 0.0975561891855011 0.63564637619895
0.161165212366921 0.0904199085080839 0.63564637619895
0.149371373718822 0.0817374278289683 0.63564637619895
0.143993237077859 0.0687188519216443 0.63564637619895
0.132311127706992 0.0641810883243743 0.63564637619895
0.121857052865615 0.0568879821642309 0.63564637619895
0.119474017380017 0.0528010774672449 0.63564637619895
0.102526069489422 0.0399355107907368 0.63564637619895
0.100621942488698 0.033316494877599 0.63564637619895
0.0979048702487828 0.0222469955425209 0.63564637619895
0.0769807230014438 0.00853152382245004 0.63564637619895
0.0785308177724232 0.00833561674413925 0.63564637619895
0.0698911065771984 -0.00013714193629642 0.63564637619895
0.0524600951583423 -0.0163821350485055 0.63564637619895
0.0422241171997452 -0.021677712051612 0.63564637619895
0.0331707614340289 -0.0341903538974159 0.63564637619895
0.0382400959751701 -0.0317105015960018 0.63564637619895
0.0187301363207444 -0.0512886313500337 0.63564637619895
0.00808080804675429 -0.0634912656929727 0.63564637619895
0.000438060001197533 -0.06840171589787 0.63564637619895
-0.00375757413545859 -0.0723482230337315 0.63564637619895
-0.00635275916153843 -0.0808357635202266 0.63564637619895
-0.028590973865357 -0.10024267046697 0.63564637619895
-0.0264348453789132 -0.102623253054806 0.63564637619895
-0.0387679079319524 -0.111877004195481 0.63564637619895
-0.05682053045155 -0.128295698595299 0.63564637619895
-0.0595573380158036 -0.136094443296989 0.63564637619895
-0.0711398497910055 -0.146523753645111 0.63564637619895
-0.0869816521154244 -0.156409017634402 0.63564637619895
-0.0936208899336553 -0.167786926754782 0.63564637619895
-0.0981897944317603 -0.179417116735805 0.63564637619895
-0.10486031413163 -0.182031274771619 0.63564637619895
-0.122698250356615 -0.198198668834563 0.63564637619895
-0.138315030073387 -0.213024120844343 0.63564637619895
-0.14132372089309 -0.218402394358949 0.63564637619895
-0.155530553065093 -0.233952760780125 0.63564637619895
-0.15471576000404 -0.240478776427223 0.63564637619895
-0.171150869908337 -0.245740931706686 0.63564637619895
-0.187821829217406 -0.257098616323217 0.63564637619895
-0.19103425962781 -0.269314149273855 0.63564637619895
-0.215206159249194 -0.285867819594477 0.63564637619895
-0.212377348593574 -0.2921092371411 0.63564637619895
-0.220640359014895 -0.300922595212896 0.63564637619895
-0.241861554811121 -0.317493817239211 0.63564637619895
-0.251055871359946 -0.329700805824818 0.63564637619895
-0.263878129505406 -0.337894814628151 0.63564637619895
-0.266573499892265 -0.346960898854614 0.63564637619895
-0.279822388419511 -0.369676669018248 0.63564637619895
-0.294997115350345 -0.370989656872033 0.63564637619895
0.388510710424611 0.318596070761936 0.609476667002757
0.386640248311406 0.320466532875141 0.614002251256777
0.387624955963102 0.319481825223445 0.619038196367776
0.385491211453572 0.316976611428683 0.626779943963543
0.383964228223408 0.310270315684924 0.629690847660474
0.375652625593263 0.303527718484432 0.635013311053264
0.369766660111088 0.29875515964391 0.63564637619895
0.364350488385903 0.296514605615019 0.63564637619895
0.359353750347977 0.290214680212065 0.63564637619895
0.357690397763269 0.283419177177326 0.63564637619895
0.346229798477734 0.268393974103637 0.63564637619895
0.340429115658761 0.265431095574241 0.63564637619895
0.336912539784687 0.262938604771452 0.63564637619895
0.327976840382532 0.255538795379357 0.63564637619895
0.32092383609149 0.247150798906359 0.63564637619895
0.316122096555093 0.236308458604743 0.63564637619895
0.310500844843016 0.239220289287929 0.63564637619895
0.30258674285807 0.227513282049227 0.63564637619895
0.291238219993047 0.221981998691762 0.63564637619895
0.28800800958716 0.212357181409323 0.63564637619895
0.283317865223164 0.20722687778123 0.63564637619895
0.275976224556387 0.197313426091349 0.63564637619895
0.265895771023165 0.192064806687136 0.63564637619895
0.260360539035608 0.179522388086988 0.63564637619895
0.252433908946656 0.175169514256771 0.63564637619895
0.241118383140897 0.167586061921348 0.63564637619895
0.236839156253361 0.156408374432954 0.63564637619895
0.222807232274666 0.148503131002127 0.63564637619895
0.223648950583 0.147047908959292 0.63564637619895
0.222982997647852 0.13749872708042 0.63564637619895
0.208960681780594 0.134107625902983 0.63564637619895
0.20709976776444 0.121736291660191 0.63564637619895
0.191732382781041 0.118857754991348 0.63564637619895
0.184812915021098 0.106127994701076 0.63564637619895
0.17362604501752 0.0987654215261165 0.63564637619895
0.171729605899886 0.0934363278729987 0.63564637619895
0.163692491752517 0.0912400218114753 0.63564637619895
0.153356209533802 0.0788168000125325 0.63564637619895
0.14326040785221 0.0636226577027783 0.63564637619895
0.144199568796806 0.0555189686099744 0.63564637619895
0.130116723679465 0.0494328541353221 0.63564637619895
0.12495033376681 0.0380700107666379 0.63564637619895
0.114831973364206 0.0333303939943695 0.63564637619895
0.103386127880375 0.0161355199562321 0.63564637619895
0.103202511892857 0.0222756632910137 0.63564637619895
0.0956452428528998 0.00926709399632832 0.63564637619895
0.0856740533552658 0.00463638141682626 0.63564637619895
0.0796349061037354 -0.0063227885564582 0.63564637619895
0.0600036250448831 -0.0244240609410757 0.63564637619895
0.0588857678442341 -0.0241008910505177 0.63564637619895
0.0521298712659643 -0.0403513376665345 0.63564637619895
0.0431619362546251 -0.039354481279054 0.63564637619895
0.0212251989666962 -0.060296284900896 0.63564637619895
0.0188744591402817 -0.0735816419352864 0.63564637619895
0.016179386676319 -0.0751026673454472 0.63564637619895
-0.00168237272240297 -0.0830454874552721 0.63564637619895
-6.35787546666805e-005 -0.0855762007628852 0.63564637619895
-0.0223230337445432 -0.103796117001307 0.63564637619895
-0.0292203891062553 -0.118367741473942 0.63564637619895
-0.0319836623407848 -0.124610217307229 0.63564637619895
-0.0452846869083982 -0.132604473962013 0.63564637619895
-0.0574853280788245 -0.136956493071254 0.63564637619895
-0.0695463317769048 -0.154418781496477 0.63564637619895
-0.065755250857342 -0.154326438294526 0.63564637619895
-0.0835622069218911 -0.166326918207786 0.63564637619895
-0.0965304767182063 -0.187008037469619 0.63564637619895
-0.102388569306127 -0.186520094279523 0.63564637619895
