ply
format ascii 1.0
element vertex 844
property float x
property float y
property float z
end_header
0.346234165855338 0.116672694995228 0.328125000000001
0.355365000373057 0.136073729284518 0.328125000000001
0.357065148599092 0.14008208868097 0.328125000000001
0.369988315819793 0.150229858933702 0.328125000000001
0.373635232413611 0.153510337660399 0.328125000000001
0.387015427815534 0.16108870737885 0.328125000000001
0.409267477162963 0.181154263393991 0.328125000000001
0.412219874292427 0.181896819164696 0.328125000000001
0.424489953524696 0.195804603735712 0.328125000000001
0.434549717935133 0.202180677888019 0.328125000000001
-0.082600823259956 -0.250000000000001 0.314167505482552
-0.0813190322419281 -0.249321777700937 0.3232557778162
-0.071126743505816 -0.23765019235627 0.328125000000001
-0.0650561236405799 -0.238652790044951 0.328125000000001
-0.0608779949672449 -0.231876912973389 0.328125000000001
-0.0554614189452604 -0.223608264688249 0.328125000000001
-0.0482059398098498 -0.21809317575935 0.328125000000001
-0.0332800091039275 -0.212996922738512 0.328125000000001
-0.0316017781690325 -0.203142074025674 0.328125000000001
-0.0218201578805145 -0.199426353822087 0.328125000000001
-0.0142467777126234 -0.19266639725903 0.328125000000001
-0.00940579413397457 -0.18202466429228 0.328125000000001
-0.00774261806500327 -0.180138053056724 0.328125000000001
0.00523246925551378 -0.174890071255208 0.328125000000001
0.0136045364929477 -0.168581640011341 0.328125000000001
0.026565878830589 -0.151594195865498 0.328125000000001
0.0208870691618727 -0.150348032027959 0.328125000000001
0.0405274556413821 -0.139832659072163 0.328125000000001
0.0459948128792703 -0.138735351264066 0.328125000000001
0.0514056748142575 -0.130927820062683 0.328125000000001
0.0668564305563559 -0.113152604996495 0.328125000000001
0.0654036393934327 -0.116154593703377 0.328125000000001
0.0718520407424177 -0.110460812132792 0.328125000000001
0.0810604503354742 -0.101342303085246 0.328125000000001
0.0980182815878641 -0.083272319672431 0.328125000000001
0.09693096014702 -0.0871300730030293 0.328125000000001
0.109938094310851 -0.0736503230226344 0.328125000000001
0.115053291882822 -0.0685863633257405 0.328125000000001
0.126504810486895 -0.0575819783606275 0.328125000000001
0.134857612734756 -0.0564442657939378 0.328125000000001
0.147776346879552 -0.0398441920771888 0.328125000000001
0.150003110097058 -0.0358817315468284 0.328125000000001
0.158244354112793 -0.0330816205558517 0.328125000000001
0.165522249825382 -0.0236553871633329 0.328125000000001
0.178565388308459 -0.0132500758929736 0.328125000000001
0.196831683991506 0.00444104451734201 0.328125000000001
0.202961333218079 0.00898608291042831 0.328125000000001
0.213139440954532 0.019406401376898 0.328125000000001
0.211730090023838 0.0209984939135542 0.328125000000001
0.222248118796427 0.0297876804577351 0.328125000000001
0.233804473130473 0.0331278293189097 0.328125000000001
0.250666539255186 0.0537088919852361 0.328125000000001
0.258295533850038 0.0525981044838851 0.328125000000001
0.264828125024167 0.0627555315839843 0.328125000000001
0.271588768348486 0.0770912332696018 0.328125000000001
0.291006591604483 0.0863843832426626 0.328125000000001
0.291598591360295 0.0937097009854947 0.328125000000001
0.298056328891656 0.0996738531648879 0.328125000000001
0.316228512797703 0.112007914414736 0.328125000000001
0.327971673540007 0.114418560994504 0.328125000000001
0.328880951761888 0.125369540503307 0.328125000000001
0.341348583437326 0.142600774169307 0.328125000000001
0.356795525943403 0.147125730735009 0.328125000000001
0.365432924039387 0.162142562391603 0.328125000000001
0.369647128067989 0.168275201874118 0.328125000000001
0.388125195761074 0.177735998236573 0.328125000000001
0.395398300192678 0.17853768551475 0.328125000000001
0.409807142672243 0.201477217792677 0.328125000000001
0.418505536057964 0.208381863394743 0.328125000000001
0.428749826874295 0.216230108470652 0.326928128093848
-0.0869139047020143 -0.250000000000001 0.321167628860338
-0.0887905957059506 -0.247753969041926 0.324039682145705
-0.0870097510498392 -0.239064463352383 0.328125000000001
-0.0741096382950469 -0.232943748519064 0.328125000000001
-0.073121654387916 -0.230147667771216 0.328125000000001
-0.0620699117846862 -0.215974289576646 0.328125000000001
-0.0563438991955081 -0.212523282350608 0.328125000000001
-0.0469933479642476 -0.203126820152857 0.328125000000001
-0.0415966041961324 -0.198548427539815 0.328125000000001
-0.030259863508558 -0.193409936846476 0.328125000000001
-0.0165431564025475 -0.181275149108648 0.328125000000001
-0.00816568821814752 -0.175300805332229 0.328125000000001
-0.00799867526319194 -0.171116280846139 0.328125000000001
-0.00167012875816294 -0.158349993853883 0.328125000000001
0.00746638188849224 -0.15412650358571 0.328125000000001
0.0105672557245602 -0.146391519319719 0.328125000000001
0.0220593184561697 -0.139371542102076 0.328125000000001
0.0282693009501236 -0.141959105439458 0.328125000000001
0.0384844264910186 -0.129772854544939 0.328125000000001
0.0502782419742649 -0.116383426656628 0.328125000000001
0.0537589872844174 -0.115426988150697 0.328125000000001
0.059626003981473 -0.113364401523611 0.328125000000001
0.0725148999057408 -0.0971013110498411 0.328125000000001
0.0727578090289333 -0.0926862924668847 0.328125000000001
0.0820542035928017 -0.087150218360551 0.328125000000001
0.0924415941085477 -0.0691527105862788 0.328125000000001
0.102524892597213 -0.0733208524860596 0.328125000000001
0.105964923405093 -0.0596461523895416 0.328125000000001
0.123023774963795 -0.0565621283871898 0.328125000000001
0.128961481419507 -0.0447492224248734 0.328125000000001
0.128228436825944 -0.0412728870379527 0.328125000000001
0.15000848430173 -0.0304647236786226 0.328125000000001
0.154557133623299 -0.0216549773700005 0.328125000000001
0.162093531001254 -0.0144591600737438 0.328125000000001
0.171688763831585 0.000607526350865549 0.328125000000001
0.182860075504778 0.00678184253331229 0.328125000000001
0.187559487532155 0.0124837203779065 0.328125000000001
0.198456826096579 0.0220050121330325 0.328125000000001
0.208405455352096 0.0285225456320365 0.328125000000001
0.213042297174297 0.0392701963453858 0.328125000000001
0.220421098803626 0.0432344226309925 0.328125000000001
0.229632872426028 0.0481010526753261 0.328125000000001
0.248094547261336 0.0721822726666966 0.328125000000001
0.248175469444594 0.072500544102907 0.328125000000001
0.259416415829169 0.0728394373273083 0.328125000000001
0.274643410761011 0.0961204929451318 0.328125000000001
0.280424177685398 0.0999667670510922 0.328125000000001
0.289321217837414 0.105911458612873 0.328125000000001
0.305683269632758 0.120958063099514 0.328125000000001
0.314105463121185 0.127732336849393 0.328125000000001
0.319733744932102 0.126915498937441 0.328125000000001
0.336181491973161 0.145351318667517 0.328125000000001
0.350908089662107 0.158627428157185 0.328125000000001
0.351422439272715 0.159178180898248 0.328125000000001
0.358318056000631 0.17085028034675 0.328125000000001
0.368212662285778 0.176824456909364 0.328125000000001
0.387730589340285 0.203240634042949 0.328125000000001
0.395916181687542 0.203821615050715 0.328125000000001
0.400682679291585 0.214286219681992 0.328125000000001
-0.110916174711822 -0.250000000000001 0.312678705431953
-0.108118733966021 -0.248370936416313 0.32373119845851
-0.097892316246589 -0.242031254313236 0.32690103951005
-0.0929727515211317 -0.238352722171471 0.328125000000001
-0.0843256381991557 -0.227631993465857 0.328125000000001
-0.0815394683938127 -0.223470011083681 0.328125000000001
-0.0740715030431575 -0.212023789646077 0.328125000000001
-0.0717660543601724 -0.212424438747129 0.328125000000001
-0.0571841563820523 -0.208280559903734 0.328125000000001
-0.0564791741240445 -0.202505494211054 0.328125000000001
-0.0382030409458013 -0.191038432955172 0.328125000000001
-0.0346529273436022 -0.182045837747405 0.328125000000001
-0.0353854928407878 -0.183580927817982 0.328125000000001
-0.0208959321195386 -0.170943951151872 0.328125000000001
-0.0200434617268554 -0.167749928961295 0.328125000000001
-0.000612824395905156 -0.158144296608984 0.328125000000001
-0.00125550334749347 -0.147322338348113 0.328125000000001
0.00981030364776329 -0.140849327852114 0.328125000000001
0.0151006421799649 -0.140830821160342 0.328125000000001
0.0269468447798807 -0.123180359901916 0.328125000000001
0.0292408904008055 -0.124266557123088 0.328125000000001
0.0462312187018161 -0.114945654891639 0.328125000000001
0.0461804881830682 -0.107010129064091 0.328125000000001
0.056838664265435 -0.091186707739604 0.328125000000001
0.0592087810898985 -0.095844529737055 0.328125000000001
0.0726001219028824 -0.0850998569610546 0.328125000000001
0.081231261413296 -0.0764221474554369 0.328125000000001
0.0885586206533821 -0.0657119974382069 0.328125000000001
0.0990468406087755 -0.0586639623225725 0.328125000000001
0.104189832199421 -0.0473068411307135 0.328125000000001
0.110319394832242 -0.0462637189625705 0.328125000000001
0.113747914093508 -0.0381854222907021 0.328125000000001
0.122677706299593 -0.0348019801775376 0.328125000000001
0.137961097908367 -0.0206403394496293 0.328125000000001
0.144666613789465 -0.012522089597202 0.328125000000001
0.153369859431985 -0.000146162111981559 0.328125000000001
0.158996870009903 0.00549723780156458 0.328125000000001
0.170668481859867 0.0131153371857469 0.328125000000001
0.178857070342888 0.0190512893383683 0.328125000000001
0.191709737665632 0.0283043359942841 0.328125000000001
0.201744691044502 0.0332891297540066 0.328125000000001
0.211432588256704 0.0455175480484849 0.328125000000001
0.225179401040965 0.0615305490765415 0.328125000000001
0.227643623903889 0.0625134638640786 0.328125000000001
0.247063755879477 0.0789575073649014 0.328125000000001
0.251516365109879 0.0799274669010126 0.328125000000001
0.261334741094936 0.0857504902507085 0.328125000000001
0.270045137338532 0.0910834510014365 0.328125000000001
0.27095754668082 0.103992356795509 0.328125000000001
0.278967163084261 0.11650672699406 0.328125000000001
0.297372800925195 0.124930864318418 0.328125000000001
0.310580582581056 0.1393884898061 0.328125000000001
0.312224571304922 0.142232257358679 0.328125000000001
0.329715563579471 0.156567936064808 0.328125000000001
0.341656648928231 0.167461870579773 0.328125000000001
0.348938683449481 0.173272140326859 0.328125000000001
0.358664574652911 0.184324551209348 0.328125000000001
0.363963476534748 0.19221253281772 0.328125000000001
0.373975258770107 0.194400082843739 0.328125000000001
0.396349594842947 0.219193654445003 0.326893154968742
-0.122879647011641 -0.249347410407166 0.323242961463085
-0.118237503152865 -0.245868301462457 0.324982515935439
-0.108481392708135 -0.2430991002215 0.326367116555917
-0.104633710355092 -0.230950793568671 0.328125000000001
-0.0909540275760634 -0.222940736536112 0.328125000000001
-0.0884090485545642 -0.215308263275783 0.328125000000001
-0.0786680336477634 -0.210653769967058 0.328125000000001
-0.0755058735184323 -0.207003716257189 0.328125000000001
-0.0725106076732585 -0.20345676711897 0.328125000000001
-0.0583509238533126 -0.191550075492724 0.328125000000001
-0.048525550344109 -0.188165034444994 0.328125000000001
-0.0494196953911356 -0.181227596546629 0.328125000000001
-0.0377271254782118 -0.175632786459131 0.328125000000001
-0.0298737330165076 -0.167088391160127 0.328125000000001
-0.0246937221495313 -0.157152166282024 0.328125000000001
-0.0192762899210458 -0.149269328453057 0.328125000000001
-0.00114893907299167 -0.137843343009893 0.328125000000001
-8.5661017754202e-005 -0.131585785344893 0.328125000000001
0.00669761532700666 -0.130059735302139 0.328125000000001
0.01659890217313 -0.121754690390557 0.328125000000001
0.0257565460868205 -0.10812276533679 0.328125000000001
0.0361018212125007 -0.104639841796378 0.328125000000001
0.0488628631751593 -0.0938687858690125 0.328125000000001
0.0394753414407892 -0.0971208565355892 0.328125000000001
0.0582331164633245 -0.0841403041190555 0.328125000000001
0.0665167576971176 -0.0748442779273714 0.328125000000001
0.0736675483745199 -0.0642925177164033 0.328125000000001
0.0801949803814224 -0.0602466567500927 0.328125000000001
0.083763395836889 -0.0544164095034332 0.328125000000001
0.0987110948789793 -0.0482553719478026 0.328125000000001
0.108877750016633 -0.0394304284084167 0.328125000000001
0.114815519141117 -0.0339252466432854 0.328125000000001
0.117576308880569 -0.0244403161304732 0.328125000000001
0.133585273494317 -0.0138136471009833 0.328125000000001
0.137662021736873 -0.00788721143380961 0.328125000000001
0.149730171562076 -0.00553564487276087 0.328125000000001
0.161698055552838 0.016945259939547 0.328125000000001
0.16388694369147 0.0258252167577803 0.328125000000001
0.182016948553257 0.027873932500271 0.328125000000001
0.183263662461749 0.0353719903002921 0.328125000000001
0.191538689812787 0.0459662919505228 0.328125000000001
0.197654128656041 0.0463022736647785 0.328125000000001
0.210819540389462 0.0676347251562455 0.328125000000001
0.216464492435589 0.0685205629644211 0.328125000000001
0.234612132953604 0.0813157668738074 0.328125000000001
0.239788690572668 0.0914190492135768 0.328125000000001
0.242580387267625 0.0923224072019755 0.328125000000001
0.26029394023548 0.112324431388612 0.328125000000001
0.264938557165006 0.116599882930798 0.328125000000001
0.289184055960081 0.13219183777884 0.328125000000001
0.289051998121284 0.130086645670114 0.328125000000001
0.296297388657756 0.142464101500102 0.328125000000001
0.310033411898113 0.153079147178705 0.328125000000001
0.311180235507374 0.157996282763716 0.328125000000001
0.32330585638622 0.170453669508338 0.328125000000001
0.346862361920854 0.179778967243962 0.328125000000001
0.352787004503648 0.185240802203713 0.328125000000001
0.356607251254487 0.192416938495107 0.328125000000001
0.374116714045154 0.216143478122781 0.328125000000001
0.38361922125688 0.226020580649105 0.3240593756351
-0.138128889167857 -0.250000000000001 0.318178807750436
-0.12985509332056 -0.244760285923603 0.325536523704866
-0.128812104443211 -0.24647577321139 0.324678780060972
-0.119032680605988 -0.234232769176211 0.328125000000001
-0.111818970415325 -0.22738602205663 0.328125000000001
-0.110416514472284 -0.226591629614009 0.328125000000001
-0.0961224373615282 -0.212334700174544 0.328125000000001
-0.0932162524305954 -0.209012924189337 0.328125000000001
-0.0867795265754749 -0.211016749456989 0.328125000000001
-0.0816957757268756 -0.197482813970632 0.328125000000001
-0.0729658180050658 -0.191403612632803 0.328125000000001
-0.0587195849466103 -0.184436006701577 0.328125000000001
-0.0545441347326902 -0.177253729317045 0.328125000000001
-0.0502170425801545 -0.171678056347544 0.328125000000001
-0.0431650383590583 -0.165658607276397 0.328125000000001
-0.0300557369468557 -0.155316474108229 0.328125000000001
-0.0205555132508354 -0.146584045524181 0.328125000000001
-0.0257715545155801 -0.144614629268415 0.328125000000001
-0.0199075284660959 -0.1396188015551 0.328125000000001
-0.00719829997495509 -0.122319700676652 0.328125000000001
-0.00458889280966877 -0.121642231960817 0.328125000000001
0.00789809371858444 -0.117600212248367 0.328125000000001
0.0195466897217665 -0.103000737318775 0.328125000000001
0.0185291127642551 -0.0983441505877062 0.328125000000001
0.0346421415579714 -0.0985758757654424 0.328125000000001
0.0452676573061875 -0.0829134131147769 0.328125000000001
0.047808814530501 -0.075364633128515 0.328125000000001
0.0590114753067584 -0.0733351377455919 0.328125000000001
0.0673132503310808 -0.0604728973206042 0.328125000000001
0.0740629973411682 -0.0521647351579294 0.328125000000001
0.0788665007117584 -0.0501394140435137 0.328125000000001
0.0907677545784375 -0.0411697651339723 0.328125000000001
0.0972303758544035 -0.0304830118577403 0.328125000000001
0.100708135228807 -0.0242096429386691 0.328125000000001
0.116573242746218 -0.0111285510587965 0.328125000000001
0.120996988029811 -0.00863255486426162 0.328125000000001
0.129305818755478 -0.00598606341388514 0.328125000000001
0.146493266765726 0.0103454386711732 0.328125000000001
0.154174450847355 0.019847313561742 0.328125000000001
0.15599893222103 0.027097025339186 0.328125000000001
0.163903072731696 0.0360648270829663 0.328125000000001
0.179324918580088 0.0447501738265973 0.328125000000001
0.179504181996036 0.0457592186021706 0.328125000000001
0.200830607070002 0.0570903773352751 0.328125000000001
0.196810223842427 0.068836817568969 0.328125000000001
0.22063792914354 0.0844140385029911 0.328125000000001
0.217931618776887 0.0833535301473824 0.328125000000001
0.233539346963383 0.094171893858614 0.328125000000001
0.244750619210434 0.108267125638316 0.328125000000001
0.25180480750799 0.115637628044352 0.328125000000001
0.262496128880411 0.118339048704879 0.328125000000001
0.266144712876191 0.137275986175999 0.328125000000001
0.278246357172302 0.144987393549524 0.328125000000001
0.287790240167058 0.148001967381913 0.328125000000001
0.303522093369465 0.169832402608826 0.328125000000001
0.312969535900439 0.170983910280027 0.328125000000001
0.313261495988737 0.178631319159691 0.328125000000001
0.330026038944486 0.192007692819987 0.328125000000001
0.337402170036254 0.194505686382843 0.328125000000001
0.344253636380457 0.200848466982765 0.328125000000001
0.372775135909934 0.221255782711006 0.326914598066285
-0.150964469057135 -0.249091023449161 0.313862100113641
-0.144131516267559 -0.249701202056392 0.322110723900408
-0.141070109924432 -0.241464637214736 0.327154775369925
-0.13328345550557 -0.241141192125179 0.327346070604078
-0.128906493864158 -0.237725928832156 0.328125000000001
-0.115140650906922 -0.218766363848899 0.328125000000001
-0.113267458637411 -0.220103569913995 0.328125000000001
-0.101358497030609 -0.210750763104152 0.328125000000001
-0.0994839628437483 -0.206482409027424 0.328125000000001
-0.0945911646489347 -0.195687771781075 0.328125000000001
-0.0897106155624142 -0.190661548104948 0.328125000000001
-0.0754579902857508 -0.189893240416405 0.328125000000001
-0.069826608223564 -0.179361667035665 0.328125000000001
-0.0694737754468293 -0.172621824427979 0.328125000000001
-0.0538793009805705 -0.169112239406754 0.328125000000001
-0.054744793358547 -0.155399338224621 0.328125000000001
-0.0387196307965902 -0.150454597167131 0.328125000000001
-0.0297724246707513 -0.140802425649694 0.328125000000001
-0.0296612881678131 -0.141088554842134 0.328125000000001
-0.0198340335706819 -0.134668125655652 0.328125000000001
-0.0111403600413047 -0.116367461675698 0.328125000000001
-0.00845136397164943 -0.121257344254898 0.328125000000001
-0.00302123744462865 -0.107685724974745 0.328125000000001
0.0142353605252874 -0.0978492181831786 0.328125000000001
0.0210667897739711 -0.098779227750149 0.328125000000001
0.0242501644489658 -0.0870758181783812 0.328125000000001
0.0390195791342706 -0.077545181077116 0.328125000000001
0.0440396331972185 -0.0676139600757812 0.328125000000001
0.0508396584832897 -0.06101823269063 0.328125000000001
0.0561395778690285 -0.054964080142023 0.328125000000001
0.0710444277948151 -0.0442610008552398 0.328125000000001
0.0670265073653723 -0.0393030770936803 0.328125000000001
0.0903896199454425 -0.0283978915454817 0.328125000000001
0.0900834389179966 -0.0206669776132245 0.328125000000001
0.0969180872833582 -0.0203745267103077 0.328125000000001
0.110188259915185 -0.00885374114401393 0.328125000000001
0.122120946672129 0.00444247134166559 0.328125000000001
0.119073459952425 0.00663538015851135 0.328125000000001
0.133830635460426 0.0173381173957248 0.328125000000001
0.144875652524389 0.0261239430281254 0.328125000000001
0.14872403874422 0.0365709524544176 0.328125000000001
0.160034977979141 0.0387039817083307 0.328125000000001
0.168749561394138 0.0516714206686232 0.328125000000001
0.178686222266402 0.0529921271824706 0.328125000000001
0.189783001076618 0.072880283201145 0.328125000000001
0.195879579110369 0.0706543991518696 0.328125000000001
0.210020789342302 0.0831215052413897 0.328125000000001
0.217404095007435 0.0920802433653816 0.328125000000001
0.221013044068705 0.10328226872905 0.328125000000001
0.236870105872221 0.113302958288371 0.328125000000001
0.241303107710563 0.125147146145408 0.328125000000001
0.249304602118154 0.123908663180869 0.328125000000001
0.258860602670659 0.137678564173661 0.328125000000001
0.277451455617196 0.152223181633542 0.328125000000001
0.273284026412539 0.152410585836895 0.328125000000001
0.28983693383854 0.160166192063789 0.328125000000001
0.303838393425292 0.180252878397638 0.328125000000001
0.303710563129147 0.179926308803525 0.328125000000001
0.320888011163778 0.197886103122742 0.328125000000001
0.333527471493128 0.202398457936798 0.328125000000001
0.339687722382757 0.21131670452519 0.328125000000001
-0.157787400077826 -0.248481739779912 0.316508917443129
-0.156157378081461 -0.248627299771636 0.314606219531249
-0.153243705869295 -0.244821403838836 0.324941651258758
-0.149756238307409 -0.24154659164409 0.326727664704775
-0.147087337886566 -0.237506368736054 0.328125000000001
-0.137378908244943 -0.228576491908988 0.328125000000001
-0.128601061053532 -0.212663100255726 0.328125000000001
-0.119194174911719 -0.213777296202801 0.328125000000001
-0.107253551198949 -0.204595020056359 0.328125000000001
-0.106610459944765 -0.203148479926183 0.328125000000001
-0.100272747752195 -0.193783344790913 0.328125000000001
-0.0913909547101443 -0.187579144779885 0.328125000000001
-0.0837010505519245 -0.180196694102032 0.328125000000001
-0.080744860722199 -0.176018895245344 0.328125000000001
-0.0699687499384998 -0.161505490389141 0.328125000000001
-0.0674021263845241 -0.158997388462914 0.328125000000001
-0.0522102474673906 -0.152354583725967 0.328125000000001
-0.0432794327101336 -0.140878759342195 0.328125000000001
-0.0470744010027273 -0.136377057466751 0.328125000000001
-0.0399328948218374 -0.127361120702408 0.328125000000001
-0.0231683567739363 -0.127760896484523 0.328125000000001
-0.0273438289678515 -0.118451516819195 0.328125000000001
-0.0112560970107262 -0.109584539931762 0.328125000000001
-0.00528251188146384 -0.101780320360486 0.328125000000001
0.00361663015658048 -0.0943896541404531 0.328125000000001
0.0124909886671459 -0.0830579920529564 0.328125000000001
0.0221539947748148 -0.0782933857077941 0.328125000000001
0.0254245678158507 -0.0755828554505072 0.328125000000001
0.0354313793833111 -0.065620300839669 0.328125000000001
0.0461739929583548 -0.0561533344269889 0.328125000000001
0.0443190817407215 -0.0500997540675852 0.328125000000001
0.058394297270545 -0.0347153819441629 0.328125000000001
0.0667717665026246 -0.0296169606523188 0.328125000000001
0.0767511920069054 -0.0237892148692935 0.328125000000001
0.0909744308690542 -0.0166832121174254 0.328125000000001
0.0916525772280447 -0.0131977189178677 0.328125000000001
0.0987998538948791 -0.00369709869310417 0.328125000000001
0.108517364659747 0.0010292819851202 0.328125000000001
0.123898250053993 0.0139241412226558 0.328125000000001
0.124884546343045 0.0228214650262805 0.328125000000001
0.133637359358132 0.0366431369501918 0.328125000000001
0.143415072704773 0.0429215748129391 0.328125000000001
0.157593308965649 0.0560901778856763 0.328125000000001
0.165913262508772 0.0559069504367738 0.328125000000001
0.179157265019607 0.0724661839944316 0.328125000000001
0.186461564582586 0.0796429109001713 0.328125000000001
0.186451197967613 0.0762749211138732 0.328125000000001
0.196355391207163 0.0961382029163805 0.328125000000001
0.209029390140599 0.105605843403252 0.328125000000001
0.223278659317989 0.109002628428188 0.328125000000001
0.222366102248532 0.123009073494116 0.328125000000001
0.240676377672392 0.12569068634046 0.328125000000001
0.250173560787033 0.138571799339917 0.328125000000001
0.248003304039254 0.141927720657541 0.328125000000001
0.26395269520229 0.154863958912936 0.328125000000001
0.280722516899071 0.174107732925974 0.328125000000001
0.29045539659671 0.176950534745485 0.328125000000001
0.290762805536687 0.17705168811106 0.328125000000001
0.314781871381626 0.199237066093494 0.328125000000001
0.310439360089615 0.200195567536174 0.328125000000001
0.3305347321602 0.215625688315961 0.328125000000001
0.334625358510353 0.221477242288627 0.328125000000001
-0.17620992140748 -0.246836619616963 0.322538060502349
-0.16092805094538 -0.238103518864289 0.327945536746173
-0.159159848612543 -0.238075636364759 0.328038059529058
-0.154269958018656 -0.228594482085362 0.328125000000001
-0.145455421656529 -0.226679459806974 0.328125000000001
-0.143123609174037 -0.214754246091548 0.328125000000001
-0.136361734760579 -0.208984865415143 0.328125000000001
-0.132818906988774 -0.211750005411929 0.328125000000001
-0.116612355707926 -0.200868536908197 0.328125000000001
-0.112531867520912 -0.194885723001685 0.328125000000001
-0.104430921567617 -0.1863780301811 0.328125000000001
-0.0967457725472794 -0.172018138423928 0.328125000000001
-0.0993929360781455 -0.172693623964102 0.328125000000001
-0.0868992777514758 -0.167002234210605 0.328125000000001
-0.0803240799829523 -0.158912720486956 0.328125000000001
-0.0723079571726441 -0.150891584904488 0.328125000000001
-0.0659053644006249 -0.1477594505828 0.328125000000001
-0.0558432207480475 -0.13592783362052 0.328125000000001
-0.0540391138278102 -0.131629378264433 0.328125000000001
-0.0398110101229007 -0.125870116867647 0.328125000000001
-0.0382660281151841 -0.116574306758631 0.328125000000001
-0.0214862205257058 -0.105591092138361 0.328125000000001
-0.0137079942464251 -0.0971717874049353 0.328125000000001
-0.011510756244014 -0.098146089114795 0.328125000000001
-0.00683497005278065 -0.0901543563528186 0.328125000000001
-0.000924668037718701 -0.0776398731650596 0.328125000000001
0.0169737858774038 -0.0683594058424929 0.328125000000001
0.0190879344598426 -0.0610378279905182 0.328125000000001
0.0331347375361514 -0.0536629403873537 0.328125000000001
0.0294967588706596 -0.0492154003701987 0.328125000000001
0.0482683806768349 -0.0373691460653809 0.328125000000001
0.0511395294572142 -0.0356464016869225 0.328125000000001
0.0572247152371472 -0.0265947879740436 0.328125000000001
0.0689775250318238 -0.0183180846138086 0.328125000000001
0.0832802354310395 -0.00520977106172122 0.328125000000001
0.0838222532566063 -0.000914958408663961 0.328125000000001
0.0863317503832776 0.00360053318838191 0.328125000000001
0.101756392999143 0.0150587358184809 0.328125000000001
0.115182335830259 0.0271135576908748 0.328125000000001
0.123958583997916 0.0310156505118211 0.328125000000001
0.133459179217889 0.0426078963878763 0.328125000000001
0.14508976952049 0.0501238536812279 0.328125000000001
0.144053184594381 0.0633296201758754 0.328125000000001
0.153856223847031 0.0671264054112233 0.328125000000001
0.166934787336348 0.0716407501950776 0.328125000000001
0.174791708236613 0.0829097799249245 0.328125000000001
0.185933089027957 0.0888515148024895 0.328125000000001
0.19483129366587 0.0981768485792261 0.328125000000001
0.197618226064325 0.11224846805073 0.328125000000001
0.213365443241126 0.114394212515534 0.328125000000001
0.221398690231972 0.128070420437718 0.328125000000001
0.227018869491315 0.141656560843206 0.328125000000001
0.236030489718778 0.149232429593744 0.328125000000001
0.249456672024982 0.157225816599521 0.328125000000001
0.25932153843316 0.16564151619654 0.328125000000001
0.266946185452488 0.170209708326201 0.328125000000001
0.274314170470397 0.182889647043593 0.328125000000001
0.286022941347889 0.187590006280294 0.328125000000001
0.297506796585889 0.200919672456465 0.328125000000001
0.311328088314064 0.21332820421814 0.328125000000001
-0.183922320126387 -0.246147907012964 0.315821555992453
-0.175777098758636 -0.238974391744241 0.326851448428814
-0.16870592176227 -0.234211631971147 0.328125000000001
-0.168668423819094 -0.233892984998262 0.328125000000001
-0.16196222513127 -0.225906698745689 0.328125000000001
-0.149774458197731 -0.217232061155798 0.328125000000001
-0.148528756780123 -0.207640254794396 0.328125000000001
-0.142112607354735 -0.209257081219703 0.328125000000001
-0.136368643548817 -0.20599952103011 0.328125000000001
-0.125200232173351 -0.195765998185227 0.328125000000001
-0.120459926415932 -0.188712486086551 0.328125000000001
-0.115737527578565 -0.181780695302197 0.328125000000001
-0.109666467427929 -0.172381047929604 0.328125000000001
-0.0953939974187317 -0.161562644762173 0.328125000000001
-0.09261904673884 -0.162340628287568 0.328125000000001
-0.086703625316143 -0.15439829291029 0.328125000000001
-0.0783090158956822 -0.141986116095158 0.328125000000001
-0.0710171296100816 -0.139256724480201 0.328125000000001
-0.0570191835574716 -0.124194245395792 0.328125000000001
-0.0574312816586425 -0.119567509548337 0.328125000000001
-0.0550852073626729 -0.115740219772957 0.328125000000001
-0.0385569672825386 -0.103866631731874 0.328125000000001
-0.0386205703896785 -0.107080850603795 0.328125000000001
-0.0284621290329806 -0.0911965231776309 0.328125000000001
-0.0140606652626334 -0.0857248399281428 0.328125000000001
-0.0030240112295504 -0.0756673614752008 0.328125000000001
-1.7552379767268e-005 -0.065572093191741 0.328125000000001
0.00728183540514836 -0.066752832254598 0.328125000000001
0.0156252804002321 -0.0521102957662844 0.328125000000001
0.024454458827706 -0.0497067926448884 0.328125000000001
0.0246529065553235 -0.0421272387745142 0.328125000000001
0.03593714133442 -0.0384942178278051 0.328125000000001
0.0452995549416529 -0.0288376985548344 0.328125000000001
0.0602211043643122 -0.0183505230479752 0.328125000000001
0.0639020137753602 -0.0100280444832273 0.328125000000001
0.0772246450655498 0.00412493631359317 0.328125000000001
0.0747922912097096 0.000452220791782274 0.328125000000001
0.090620599541431 0.0204472831519643 0.328125000000001
0.0994501810401115 0.0210697363949822 0.328125000000001
0.103920580587147 0.0320032809855992 0.328125000000001
0.112447918914456 0.0384068869193711 0.328125000000001
0.113437810316682 0.0499019494634389 0.328125000000001
0.131652609826854 0.0511532957930956 0.328125000000001
0.138196580985396 0.0636444488525885 0.328125000000001
0.150166062314052 0.0751431293391909 0.328125000000001
0.154176848031791 0.0804509642428034 0.328125000000001
0.169014824193399 0.0873888773879846 0.328125000000001
0.178186672360097 0.0997472908480598 0.328125000000001
0.192578982130104 0.109918313002333 0.328125000000001
0.193749995594837 0.124383947798937 0.328125000000001
0.200420131763858 0.127877263799622 0.328125000000001
0.204627831920745 0.129579051830346 0.328125000000001
0.229361931322711 0.15385148026753 0.328125000000001
0.232697810258047 0.160540767042441 0.328125000000001
0.24167321414758 0.166232645904205 0.328125000000001
0.253272265446413 0.171952673814009 0.328125000000001
0.253952295953778 0.176435442679391 0.328125000000001
0.270103726788233 0.18758757851637 0.328125000000001
0.276405877730033 0.198890290527381 0.328125000000001
0.296781115251372 0.213663942051756 0.328125000000001
0.296757591356088 0.218780866588591 0.328125000000001
0.315394637916753 0.229064337348787 0.32557766289667
-0.193326342312176 -0.245308133442679 0.313623450447298
-0.196254170418421 -0.242995431691005 0.323938225826783
-0.190785597468241 -0.245447377799769 0.32296031430152
-0.193066168534154 -0.236357908922617 0.327385612446702
-0.184108363817882 -0.227326902681937 0.328125000000001
-0.172748577387258 -0.229522915063746 0.328125000000001
-0.165330202109831 -0.215075843089311 0.328125000000001
-0.156435969076052 -0.211323772344333 0.328125000000001
-0.157832011366578 -0.207552227148039 0.328125000000001
-0.149941995115355 -0.204125521562276 0.328125000000001
-0.144365447593637 -0.194119561541923 0.328125000000001
-0.135968223435931 -0.183606236874267 0.328125000000001
-0.12721017701574 -0.18228617124483 0.328125000000001
-0.123709753189713 -0.174713597398876 0.328125000000001
-0.110949206154764 -0.163532241873671 0.328125000000001
-0.105275648530627 -0.160001675164987 0.328125000000001
-0.0943728577705359 -0.150231558255088 0.328125000000001
-0.0936843596839385 -0.145704404758209 0.328125000000001
-0.084521070304045 -0.13511109415428 0.328125000000001
-0.0775408460290146 -0.127681792450543 0.328125000000001
-0.0710614259006547 -0.121576740594348 0.328125000000001
-0.0678494963472992 -0.121977761166015 0.328125000000001
-0.054356465723506 -0.10781842831445 0.328125000000001
-0.0527012781491611 -0.107937914054414 0.328125000000001
-0.0420638361719232 -0.0922739080495678 0.328125000000001
-0.0259486730653645 -0.0837383659492772 0.328125000000001
-0.0239731063045536 -0.0815010641410748 0.328125000000001
-0.0119068705873257 -0.0694190577158564 0.328125000000001
-0.00936828176973925 -0.0638768599135522 0.328125000000001
-0.00217170280340851 -0.0525393005163034 0.328125000000001
0.00171576570375291 -0.0516010419080728 0.328125000000001
0.0128223302582774 -0.0379258286745802 0.328125000000001
0.0246421422932131 -0.0315610583004013 0.328125000000001
0.0317095522741179 -0.0281869048666656 0.328125000000001
0.0411693482623215 -0.0177138190475273 0.328125000000001
0.0438387825803292 -0.012757884698955 0.328125000000001
0.0499887842740149 -0.00275582539049095 0.328125000000001
0.0653263498731007 0.00935279054538215 0.328125000000001
0.0691773957497064 0.0108051635672638 0.328125000000001
0.0835631551563882 0.0195961532492021 0.328125000000001
0.0831068081552868 0.02661757860064 0.328125000000001
0.0945829494314453 0.03638066589984 0.328125000000001
0.101966164476635 0.0431943103045828 0.328125000000001
0.11979208472881 0.0619980157573331 0.328125000000001
0.126499566355427 0.0619815601986784 0.328125000000001
0.131911111019795 0.0802063256017519 0.328125000000001
0.140446987680108 0.0801312664432743 0.328125000000001
0.1467285739619 0.0948607671195019 0.328125000000001
0.151481562271557 0.100276925737178 0.328125000000001
0.163004135466723 0.110011863571368 0.328125000000001
0.173704884796435 0.122228061947193 0.328125000000001
0.188561677290897 0.130364055348717 0.328125000000001
0.199708385946571 0.141069976310699 0.328125000000001
0.210374527147254 0.146186841693573 0.328125000000001
0.213814506286216 0.150286291224016 0.328125000000001
0.216617166717471 0.163046399645785 0.328125000000001
0.23641346124894 0.166021110855377 0.328125000000001
0.235085293889953 0.177781312839209 0.328125000000001
0.254606555916491 0.185060550774516 0.328125000000001
0.262048015855737 0.194880844448553 0.328125000000001
0.279114101090772 0.21206844854611 0.328125000000001
0.282680450290465 0.221241005265411 0.328125000000001
-0.206871160180684 -0.24409858928853 0.320396381176427
-0.205784744614475 -0.244195605550383 0.32157841531654
-0.200984138555624 -0.234545886948575 0.327935898694409
-0.194599549362788 -0.229420265544201 0.328125000000001
-0.187366524746344 -0.229463725901839 0.328125000000001
-0.179529917265734 -0.22103350166236 0.328125000000001
-0.173056645468288 -0.211759033856218 0.328125000000001
-0.17163658125043 -0.207765895320115 0.328125000000001
-0.158300429198587 -0.198697815135268 0.328125000000001
-0.151999895747037 -0.190284080797182 0.328125000000001
-0.149307518013205 -0.186070912620974 0.328125000000001
-0.138538497435724 -0.181982989296703 0.328125000000001
-0.134743796249289 -0.174941173083582 0.328125000000001
-0.1279554256853 -0.165829510388534 0.328125000000001
-0.119664534039307 -0.166297711917355 0.328125000000001
-0.114719489699792 -0.151057412404894 0.328125000000001
-0.104893426343914 -0.144618435121404 0.328125000000001
-0.0950086326756821 -0.132920110113857 0.328125000000001
-0.0936214546712671 -0.132720884070163 0.328125000000001
-0.0784300633811725 -0.118518022787155 0.328125000000001
-0.075906774544872 -0.113122345292695 0.328125000000001
-0.0614031145022351 -0.110962287911233 0.328125000000001
-0.059913020696594 -0.0995568421697694 0.328125000000001
-0.054384282474888 -0.102871815781333 0.328125000000001
-0.0458696900363179 -0.0817027896326657 0.328125000000001
-0.0437209511462144 -0.0806233635759453 0.328125000000001
-0.0373976886340825 -0.0757272327713542 0.328125000000001
-0.0249631093152734 -0.0640435645896392 0.328125000000001
-0.013649079525618 -0.0578487305459706 0.328125000000001
-0.00870619478947017 -0.0519612897463624 0.328125000000001
0.0022311121129038 -0.042674341904921 0.328125000000001
0.0142164603180759 -0.0362864263452803 0.328125000000001
0.0144842501125677 -0.0304842092759322 0.328125000000001
0.0221901815900264 -0.0242442098209673 0.328125000000001
0.0272220596088287 -0.012460568903875 0.328125000000001
0.0457007989809266 -0.00466146251066637 0.328125000000001
0.0415118580728956 0.00340029419930674 0.328125000000001
0.048475938961631 0.0128301280148996 0.328125000000001
0.0623087738536945 0.0255127912055799 0.328125000000001
0.0742557882626887 0.0286960658586641 0.328125000000001
0.0803215048016729 0.0415823863135712 0.328125000000001
0.0884164503973518 0.0442765831055065 0.328125000000001
0.0962545960886318 0.0543506362256469 0.328125000000001
0.10373696538723 0.0666569926502112 0.328125000000001
0.121225451004302 0.0692795040231096 0.328125000000001
0.124026306517736 0.0795855313800917 0.328125000000001
0.13524564023716 0.0842469932227114 0.328125000000001
0.141229258138941 0.0929028247618424 0.328125000000001
0.156355130609196 0.103281509767957 0.328125000000001
0.152811002024549 0.106991710915579 0.328125000000001
0.168422028562632 0.126619277085183 0.328125000000001
0.168711806758336 0.127811777182735 0.328125000000001
0.179104719508404 0.135985329280721 0.328125000000001
0.199532757418317 0.148153568437699 0.328125000000001
0.203866654009599 0.163724819813488 0.328125000000001
0.216634899627489 0.17366647699495 0.328125000000001
0.230928546050717 0.181194206421518 0.328125000000001
0.23207495183541 0.186168128193972 0.328125000000001
0.242501654216303 0.196748213459768 0.328125000000001
0.25425660278411 0.204293976433308 0.328125000000001
0.265374643112086 0.210899638612278 0.328125000000001
0.27590538626053 0.228455687322713 0.327636976641057
-0.224569978722078 -0.242518095352775 0.317766834667478
-0.220843899851121 -0.242850831972789 0.322849329849928
-0.208947743132966 -0.238636964108846 0.325544304355779
-0.204590629073955 -0.231696804441226 0.328125000000001
-0.197931863826854 -0.22357181084876 0.328125000000001
-0.19818948382208 -0.220530489933972 0.328125000000001
-0.18745962053144 -0.214407558674835 0.328125000000001
-0.179640814882337 -0.201667584434634 0.328125000000001
-0.173069763952782 -0.199151792570832 0.328125000000001
-0.169110546398939 -0.189554448643563 0.328125000000001
-0.160496814341607 -0.190108615869802 0.328125000000001
-0.152534790282484 -0.172822342887591 0.328125000000001
-0.150521410894426 -0.177284037109789 0.328125000000001
-0.141257263482414 -0.166653661004127 0.328125000000001
-0.134270067073101 -0.167052478033925 0.328125000000001
-0.128071893704986 -0.152218919828222 0.328125000000001
-0.117397979338964 -0.140290907376253 0.328125000000001
-0.115136730078089 -0.142809033886664 0.328125000000001
-0.100937185746395 -0.128549777035579 0.328125000000001
-0.0916398459745399 -0.124506002395622 0.328125000000001
-0.0891401373345233 -0.119380232414229 0.328125000000001
-0.0800631349497686 -0.108288235595151 0.328125000000001
-0.0763357553373759 -0.105859079073319 0.328125000000001
-0.0638999766852017 -0.0958146655290032 0.328125000000001
-0.0600556756941406 -0.0866536578907427 0.328125000000001
-0.0553077622272882 -0.0785132366539493 0.328125000000001
-0.048459207646158 -0.080042600859977 0.328125000000001
-0.0460101369396287 -0.0739280682057086 0.328125000000001
-0.0338934087049427 -0.0576431278488678 0.328125000000001
-0.0190750200854404 -0.0482141149028313 0.328125000000001
-0.012842636667015 -0.0389660484792872 0.328125000000001
-0.00625675160599143 -0.031152102327602 0.328125000000001
0.00481810197233851 -0.0244920555477846 0.328125000000001
0.0098174071965809 -0.0134953955280649 0.328125000000001
0.0124499091540351 -0.0185362766644953 0.328125000000001
0.0170166887903277 -0.0076830340977351 0.328125000000001
0.0290341905027699 0.00834079791586628 0.328125000000001
0.0372232364178121 0.0146908510943874 0.328125000000001
0.0534910538808582 0.0241323050558519 0.328125000000001
0.0589317863016126 0.0360870670923797 0.328125000000001
0.067349965089596 0.0381004528395225 0.328125000000001
0.0711064642953523 0.0446698226993323 0.328125000000001
0.0841290992207804 0.0506802308858002 0.328125000000001
0.0853459038619525 0.0626507584620024 0.328125000000001
0.104288339772697 0.0679497828476014 0.328125000000001
0.109071993629718 0.0768285553148902 0.328125000000001
0.115602140645744 0.0901005155866711 0.328125000000001
0.118889650859821 0.0933611095902626 0.328125000000001
0.131843308860742 0.107063521852547 0.328125000000001
0.138831213558148 0.110560769152114 0.328125000000001
0.157973611638166 0.130006906782877 0.328125000000001
0.159511402391395 0.131606156550264 0.328125000000001
0.174214145550566 0.140870381450216 0.328125000000001
0.179463202189514 0.145355309629447 0.328125000000001
0.185104257733209 0.151022474958628 0.328125000000001
0.199227114270123 0.166064310099175 0.328125000000001
0.205213000549173 0.179185759724935 0.328125000000001
0.210802604169013 0.180064661311756 0.328125000000001
0.232029626100243 0.198452883368318 0.328125000000001
0.234032917541958 0.203302373529387 0.328125000000001
0.238735782484999 0.210576691017219 0.328125000000001
0.259744177843713 0.221268793131741 0.328125000000001
-0.223498683223597 -0.242009682331077 0.323217509067463
-0.224327203208583 -0.239858375988786 0.324252052336892
-0.220932361860119 -0.229366081809236 0.328125000000001
-0.205497797261174 -0.225809362585508 0.328125000000001
-0.206728948512978 -0.21869610215079 0.328125000000001
-0.204955833978858 -0.211568005811182 0.328125000000001
-0.199732936184067 -0.211801202225606 0.328125000000001
-0.191922699922714 -0.200012341385832 0.328125000000001
-0.175269812209913 -0.190317767927241 0.328125000000001
-0.168730081791759 -0.183957164310254 0.328125000000001
-0.171682930368323 -0.178572565949745 0.328125000000001
-0.160683304899583 -0.174615017726828 0.328125000000001
-0.151497843924775 -0.163110084903864 0.328125000000001
-0.148781511836135 -0.155330670592391 0.328125000000001
-0.144507523939685 -0.157099426024486 0.328125000000001
-0.131499463697148 -0.14553351052678 0.328125000000001
-0.128416129468453 -0.140964255311032 0.328125000000001
-0.120413778087115 -0.131565920550066 0.328125000000001
-0.110979885619004 -0.130480643532032 0.328125000000001
-0.105432030554181 -0.120451581710649 0.328125000000001
-0.0948466152129361 -0.110608765829276 0.328125000000001
-0.0854832402089841 -0.102185274123651 0.328125000000001
-0.079124242282901 -0.0961773963942734 0.328125000000001
-0.0751891926897747 -0.0910272395812843 0.328125000000001
-0.0713054222514529 -0.0815688380377926 0.328125000000001
-0.0611988379014844 -0.0734082924015197 0.328125000000001
-0.0561689799843144 -0.0653873489708215 0.328125000000001
-0.0495229052466198 -0.06133691782336 0.328125000000001
-0.0350483595326401 -0.0451838479305981 0.328125000000001
-0.0362910777672608 -0.049600607721121 0.328125000000001
-0.0162684712568058 -0.0303191245068008 0.328125000000001
-0.0170942330376074 -0.0321129062219617 0.328125000000001
-0.0134863913715464 -0.0224186834943044 0.328125000000001
0.00637934978515855 -0.00766671129536374 0.328125000000001
0.0123490432163662 -0.00645733631551307 0.328125000000001
0.0237874544438684 0.00410658741631366 0.328125000000001
0.0239491278927494 0.0138803634327826 0.328125000000001
0.0277677602754845 0.0177022296564828 0.328125000000001
0.0432980658786152 0.0290084054445318 0.328125000000001
0.0459318986734149 0.0297030925570293 0.328125000000001
0.0487681365816354 0.0422605901738883 0.328125000000001
0.0651011188347025 0.0566585655984435 0.328125000000001
0.0711566080643331 0.0622044272844283 0.328125000000001
0.0877054059030912 0.0742149015753049 0.328125000000001
0.0893154695840424 0.0718566054057439 0.328125000000001
0.0942024814003907 0.083363276289407 0.328125000000001
0.105480452681752 0.0883306690256811 0.328125000000001
0.117232607218107 0.100774427522007 0.328125000000001
0.128451307517064 0.11341932406754 0.328125000000001
0.140525496710801 0.123668939372971 0.328125000000001
0.148838545035319 0.125905035459998 0.328125000000001
0.152570816936736 0.140909351447716 0.328125000000001
0.165593285955562 0.152830522470709 0.328125000000001
0.167785073706762 0.154056810077574 0.328125000000001
0.183228973193366 0.164959048830168 0.328125000000001
0.187706558332964 0.171589508767206 0.328125000000001
0.200182211409165 0.182838426571214 0.328125000000001
0.21612782720711 0.198496502197612 0.328125000000001
0.219333646055415 0.197684858330544 0.328125000000001
0.224220913739355 0.21303235968054 0.328125000000001
0.233728762739897 0.226318443512278 0.328125000000001
-0.240117431999941 -0.239341092216798 0.32380743447445
-0.233411802311659 -0.232524919986193 0.327500230306932
-0.223984244094928 -0.224907106173438 0.328125000000001
-0.218329649404484 -0.217153149056399 0.328125000000001
-0.209212909658178 -0.209145199667007 0.328125000000001
-0.206860074392017 -0.200979898966684 0.328125000000001
-0.201096399165891 -0.200973134672665 0.328125000000001
-0.19591631164113 -0.19338897256844 0.328125000000001
-0.184750997695255 -0.185290795105422 0.328125000000001
-0.185161942672714 -0.182384267665472 0.328125000000001
-0.177459304627938 -0.178855242645278 0.328125000000001
-0.165886073763162 -0.166014246296461 0.328125000000001
-0.161232383528584 -0.162900678704867 0.328125000000001
-0.151456288157195 -0.156038972170896 0.328125000000001
-0.148295931043503 -0.146650390330591 0.328125000000001
-0.142566117413806 -0.144177080304931 0.328125000000001
-0.13662123416231 -0.132958817327372 0.328125000000001
-0.130217557169498 -0.124883209822616 0.328125000000001
-0.113781926033712 -0.118146355482452 0.328125000000001
-0.106600274081267 -0.107657754615851 0.328125000000001
-0.0999362793778892 -0.102953414936768 0.328125000000001
-0.101382223343425 -0.100863279094839 0.328125000000001
-0.0911688877414103 -0.0892304494899799 0.328125000000001
-0.0804478587483725 -0.079306254879548 0.328125000000001
-0.0705732150059988 -0.0781141339068652 0.328125000000001
-0.067083238589788 -0.0621191358979958 0.328125000000001
-0.0571388857724544 -0.0584738922718818 0.328125000000001
-0.0542826122545011 -0.0561638610854258 0.328125000000001
-0.039911789748602 -0.0413800932810358 0.328125000000001
-0.0356985656423105 -0.0412894677192783 0.328125000000001
-0.0347279701365333 -0.0377208798862899 0.328125000000001
-0.020680857782174 -0.0189280335302195 0.328125000000001
-0.0134256015734414 -0.0194231423996763 0.328125000000001
-0.00977167358861179 -0.00430620476256851 0.328125000000001
0.00321940466524926 0.00603373464519839 0.328125000000001
0.00481299310136749 0.00909844922862657 0.328125000000001
0.0125177642328199 0.012583328054248 0.328125000000001
0.0232650966250794 0.0189009114130876 0.328125000000001
0.0376264532887598 0.0370930621013744 0.328125000000001
0.0445475457310867 0.0414108316418914 0.328125000000001
0.0568549071532386 0.0564839201658815 0.328125000000001
0.0500553544325788 0.050668137980958 0.328125000000001
