ply
format ascii 1.0
element vertex 842
property float x
property float y
property float z
end_header
-0.251482437888951 -0.123618602940852 0.328125000000001
-0.263259680660347 -0.118381613444009 0.328125000000001
-0.265470877756658 -0.115845228225689 0.328125000000001
-0.282296893295231 -0.103159480697871 0.328125000000001
-0.297735943618701 -0.0899575112486499 0.328125000000001
-0.310009643553387 -0.0759479302013583 0.328125000000001
-0.32248119019533 -0.0739449020439389 0.328125000000001
-0.318872221955305 -0.0714131975493805 0.328125000000001
-0.327449017817434 -0.0571130803156474 0.328125000000001
-0.338524100575748 -0.0525136986730036 0.328125000000001
-0.354438448274236 -0.0466030343733044 0.328125000000001
-0.368808925114137 -0.0289573333934086 0.328125000000001
-0.37681424968708 -0.0254450951467793 0.328125000000001
-0.383948953080945 -0.0143648622128061 0.328125000000001
-0.402457620992854 -0.000562000374316198 0.328125000000001
-0.407356890953609 -0.00234545605961542 0.328125000000001
-0.407238857844917 0.00772365835865758 0.328125000000001
-0.430076577003391 0.0232975476791858 0.328125000000001
-0.424615541730731 0.0168999828256712 0.328125000000001
-0.448024771956199 0.0413348598596693 0.328125000000001
-0.448213521336398 0.0397752282697444 0.328125000000001
-0.46454795403392 0.0544807458775676 0.328125000000001
-0.48040604131042 0.0696690088157262 0.328125000000001
-0.489231266475739 0.0728021616774336 0.328125000000001
-0.237368377064108 -0.156250000000001 0.0207210887746073
-0.234374999999999 -0.150663874362947 0.0234984907717013
-0.237293984064519 -0.156250000000001 0.0325269160975211
-0.234374999999999 -0.156158184410695 0.0535224946892649
-0.234374999999999 -0.155911492814603 0.0571262268075764
-0.234374999999999 -0.155857328880469 0.0739015007794779
-0.238614647707073 -0.156250000000001 0.0785453862696069
-0.234374999999999 -0.151613629168556 0.0821451021301583
-0.234374999999999 -0.14907800859279 0.0904714604242866
-0.237613638229398 -0.156250000000001 0.104722058519426
-0.234374999999999 -0.152859664114929 0.124377801733882
-0.234374999999999 -0.152966632401829 0.125742933415151
-0.234374999999999 -0.153807409237979 0.129331577722711
-0.238233368820882 -0.156250000000001 0.146227206360567
-0.234374999999999 -0.151382017307775 0.156512369659443
-0.234374999999999 -0.151691759811375 0.165847402039164
-0.122177241369064 -0.250000000000001 0.313227748026098
-0.123498748996083 -0.247661278399798 0.324086027466768
-0.132658186500911 -0.241570233601524 0.327131549865906
-0.13019454648252 -0.241598086777492 0.327117623277922
-0.140772592391859 -0.22721081421308 0.328125000000001
-0.148957037474189 -0.222590758388615 0.328125000000001
-0.159318898830441 -0.224960334555849 0.328125000000001
-0.167996078752847 -0.212240332245973 0.328125000000001
-0.169460953222328 -0.209383457966986 0.328125000000001
-0.187586072077395 -0.200483084384673 0.328125000000001
-0.194904452703068 -0.181686121839856 0.328125000000001
-0.202290575441319 -0.182934021564534 0.328125000000001
-0.214067290758167 -0.171769269761648 0.328125000000001
-0.21970188580325 -0.169135238249866 0.328125000000001
-0.22829700102127 -0.153323435142105 0.328125000000001
-0.232202405167639 -0.151658355587411 0.328125000000001
-0.250240105498268 -0.145012116330382 0.328125000000001
-0.249658726170056 -0.139386342358396 0.328125000000001
-0.256906661409684 -0.132677868642111 0.328125000000001
-0.276546078648034 -0.118780374213789 0.328125000000001
-0.284954288835435 -0.119055584419866 0.328125000000001
-0.292552492211628 -0.11258435107514 0.328125000000001
-0.301763090051502 -0.104729402382336 0.328125000000001
-0.312231351580547 -0.0941122593081783 0.328125000000001
-0.319422202033546 -0.0811312501448461 0.328125000000001
-0.336036830852519 -0.0737936445063855 0.328125000000001
-0.334169919900025 -0.0735283429734283 0.328125000000001
-0.355951051828589 -0.0528602885191806 0.328125000000001
-0.355453286367483 -0.0498468124141297 0.328125000000001
-0.370396452014986 -0.0474600562066438 0.328125000000001
-0.381929278499581 -0.029094391451433 0.328125000000001
-0.386834303729188 -0.0198468915152697 0.328125000000001
-0.401679616981976 -0.0194578743295296 0.328125000000001
-0.416294589758338 -0.00451742978111471 0.328125000000001
-0.419847240111485 0.00370892307265389 0.328125000000001
-0.426244487588791 0.00551608335374811 0.328125000000001
-0.445095224024235 0.0168112434804525 0.328125000000001
-0.453180297109016 0.0306609339930228 0.328125000000001
-0.462795428330065 0.038001603000449 0.328125000000001
-0.471143028921286 0.0476912611792522 0.328125000000001
-0.487657182464657 0.0522360179406478 0.328125000000001
-0.249377266106263 -0.156250000000001 0.0147851626656408
-0.240765856290234 -0.156250000000001 0.0323362998558412
-0.246007566773064 -0.156250000000001 0.0428199778260618
-0.242968673726455 -0.156250000000001 0.0604816554596701
-0.240880211292022 -0.156250000000001 0.0725528575338794
-0.242442027340604 -0.156250000000001 0.103888266084408
-0.247000072128724 -0.156250000000001 0.128966071092662
-0.249089726748248 -0.156250000000001 0.13539754170761
-0.242236218369855 -0.156250000000001 0.153191555631995
-0.247747349910387 -0.156250000000001 0.15862651692785
-0.128764715902195 -0.250000000000001 0.321913341430771
-0.137390506032429 -0.250000000000001 0.322488952534217
-0.141835495711658 -0.242899700111313 0.326406049062006
-0.14471041998332 -0.237830210900817 0.328125000000001
-0.155867431502387 -0.230722900349067 0.328125000000001
-0.163609227415818 -0.227734838628969 0.328125000000001
-0.176231781094805 -0.215592824941685 0.328125000000001
-0.180973107505195 -0.208795993096348 0.328125000000001
-0.197487194198289 -0.198203374746959 0.328125000000001
-0.198207650365636 -0.20115534355912 0.328125000000001
-0.20435626756911 -0.187873763258801 0.328125000000001
-0.21373032418468 -0.183589664932589 0.328125000000001
-0.231450480754848 -0.172842045743512 0.328125000000001
-0.235232616083026 -0.173427323729459 0.328125000000001
-0.237758951783396 -0.164568963953695 0.328125000000001
-0.246923093378784 -0.159489935437317 0.328125000000001
-0.265603590765986 -0.147273886156191 0.328125000000001
-0.264264015779765 -0.135596420160044 0.328125000000001
-0.276711920888986 -0.13516074760013 0.328125000000001
-0.297130050583034 -0.123866505926374 0.328125000000001
-0.292716776934512 -0.113523859488658 0.328125000000001
-0.309123033649623 -0.110992207003363 0.328125000000001
-0.318777407157984 -0.0981497075270259 0.328125000000001
-0.327921431425622 -0.086401512149142 0.328125000000001
-0.340281158032179 -0.0801100338730145 0.328125000000001
-0.345433785720322 -0.0780418391268775 0.328125000000001
-0.362673056951021 -0.0675755406010384 0.328125000000001
-0.372456551983178 -0.0583336188440222 0.328125000000001
-0.378270590921067 -0.0474830752184715 0.328125000000001
-0.382356735007374 -0.0427616942492437 0.328125000000001
-0.39859780097459 -0.0390321634038365 0.328125000000001
-0.411353994375172 -0.0253038594399929 0.328125000000001
-0.413514450415343 -0.0179368641789861 0.328125000000001
-0.428480978354605 -0.00552883478477564 0.328125000000001
-0.436507002705108 0.000540888885190736 0.328125000000001
-0.448590733952434 0.0115669018844007 0.328125000000001
-0.468721118747995 0.0290020989931323 0.328125000000001
-0.467127322901536 0.0278212891286792 0.328125000000001
-0.475918123751024 0.0354577717944299 0.328125000000001
-0.490443629913936 0.0517075424348465 0.327694851709699
-0.149863256332297 -0.249189361088451 0.314335449512963
-0.157200566114753 -0.24469972037975 0.324826279454837
-0.157648637167738 -0.243952118387108 0.325178671945893
-0.169604381808445 -0.237910137068179 0.327655984268321
-0.178293673285612 -0.232108924192197 0.328125000000001
-0.185528792977649 -0.227807527780117 0.328125000000001
-0.18848996429475 -0.217551112190955 0.328125000000001
-0.200847954033277 -0.210553525762557 0.328125000000001
-0.207047782556718 -0.19734618426495 0.328125000000001
-0.212322446371899 -0.199472840053009 0.328125000000001
-0.221490111363348 -0.18647926030599 0.328125000000001
-0.229119023455148 -0.181019817658036 0.328125000000001
-0.24100975761859 -0.175269456689474 0.328125000000001
-0.251329255755228 -0.165410853951385 0.328125000000001
-0.256023590041985 -0.158628504729698 0.328125000000001
-0.273422514055474 -0.154956326237972 0.328125000000001
-0.273687683209548 -0.144300656932818 0.328125000000001
-0.291255366431493 -0.137971108698953 0.328125000000001
-0.296012689509617 -0.125221711566185 0.328125000000001
-0.309030378261101 -0.123926730653025 0.328125000000001
-0.323888041665322 -0.106911839493493 0.328125000000001
-0.326915912863601 -0.102737780693428 0.328125000000001
-0.33425951219735 -0.0982586034635949 0.328125000000001
-0.348510397820012 -0.0900671400541451 0.328125000000001
-0.346772946172152 -0.0860086889824963 0.328125000000001
-0.358328301443129 -0.0735187760258049 0.328125000000001
-0.372651498561813 -0.0712420702791442 0.328125000000001
-0.384207644893347 -0.0548989780074623 0.328125000000001
-0.396216941919659 -0.0495725969924301 0.328125000000001
-0.406352957608799 -0.0409282537862424 0.328125000000001
-0.414415809668074 -0.0335321717765764 0.328125000000001
-0.435209590652275 -0.0247240459619429 0.328125000000001
-0.42837531149146 -0.013401132234375 0.328125000000001
-0.446553398984533 0.000500412428328658 0.328125000000001
-0.455283158071572 0.00905034500561822 0.328125000000001
-0.467823938468038 0.0148859784706039 0.328125000000001
-0.482180107524501 0.0218566992290733 0.328125000000001
-0.171597710426525 -0.247248487305689 0.312686791436983
-0.174987931854268 -0.246945742554965 0.315636666654724
-0.177070966092216 -0.246545704397803 0.323023254744733
-0.179366620513572 -0.237815920052646 0.327268752631165
-0.185090363836673 -0.228157058051979 0.328125000000001
-0.201882888105657 -0.221648111034265 0.328125000000001
-0.201630630228774 -0.218979675955782 0.328125000000001
-0.212479275473515 -0.212127888967815 0.328125000000001
-0.221364947497756 -0.200684701382007 0.328125000000001
-0.228944202574785 -0.202425917675928 0.328125000000001
-0.247595701545813 -0.186530004658374 0.328125000000001
-0.253758972961722 -0.17563378726558 0.328125000000001
-0.258522958768886 -0.17329802367976 0.328125000000001
-0.261521683442763 -0.16449436691188 0.328125000000001
-0.270075515137175 -0.162600269812586 0.328125000000001
-0.28125597364734 -0.151225613736283 0.328125000000001
-0.290301001754212 -0.143268295713321 0.328125000000001
-0.309549427209128 -0.140967116225947 0.328125000000001
-0.307211951810564 -0.131380300310997 0.328125000000001
-0.326315303199525 -0.114092773368427 0.328125000000001
-0.332556026943836 -0.1106243173223 0.328125000000001
-0.346285907766793 -0.105382489387963 0.328125000000001
-0.347791062530164 -0.102478342015041 0.328125000000001
-0.361140445696815 -0.0903053978514558 0.328125000000001
-0.366449463270643 -0.0773702724687536 0.328125000000001
-0.381720306973248 -0.0761450021432878 0.328125000000001
-0.390925098864475 -0.0701159072310848 0.328125000000001
-0.406150041393472 -0.0557416889120459 0.328125000000001
-0.41707281786228 -0.0542310297591587 0.328125000000001
-0.431969806852633 -0.0340943257242954 0.328125000000001
-0.431393595031591 -0.0323420184357132 0.328125000000001
-0.447082911592071 -0.0154357361521969 0.328125000000001
-0.455756080786953 -0.0119444596138177 0.328125000000001
-0.457988259357279 -0.00734026871004973 0.328125000000001
-0.479126574195976 -0.00146835134442569 0.328125000000001
-0.484768306348894 0.0166356981650394 0.328125000000001
-0.497850362730864 0.0234877838712025 0.323991485301235
-0.177310288514821 -0.246738357490811 0.31706045896557
-0.192591707482148 -0.24537373589468 0.317988899410278
-0.184489619664103 -0.246097247502725 0.321927602005173
-0.200878216460119 -0.233786217917258 0.328125000000001
-0.201949510415535 -0.229160513292958 0.328125000000001
-0.211374755317128 -0.221848069928836 0.328125000000001
-0.213573850092595 -0.217729679384569 0.328125000000001
-0.232355915494772 -0.211019507667473 0.328125000000001
-0.240140105509493 -0.205745566103373 0.328125000000001
-0.246487854985824 -0.200849374255715 0.328125000000001
-0.256381855212135 -0.184360935569746 0.328125000000001
-0.267306854480116 -0.181510138565327 0.328125000000001
-0.276277016171727 -0.174209849948011 0.328125000000001
-0.281069313430497 -0.168676795746532 0.328125000000001
-0.292688447303748 -0.160460108670519 0.328125000000001
-0.301240067999063 -0.14911066846901 0.328125000000001
-0.314476532634712 -0.142297727158324 0.328125000000001
-0.322717867899981 -0.140197091093425 0.328125000000001
-0.336164190667954 -0.122814324573351 0.328125000000001
-0.340772591460485 -0.111765485436718 0.328125000000001
-0.348881987848121 -0.107229802560549 0.328125000000001
-0.352575266445811 -0.108439277990826 0.328125000000001
-0.368022941062416 -0.103954220632338 0.328125000000001
-0.379822010200675 -0.0881526738770189 0.328125000000001
-0.395664509592016 -0.0725703145858909 0.328125000000001
-0.404058117683456 -0.0753363672414434 0.328125000000001
-0.407961324774896 -0.0618427925711629 0.328125000000001
-0.419797680018863 -0.0569663339863362 0.328125000000001
-0.432208181456181 -0.0514758131337182 0.328125000000001
-0.44426269063347 -0.0397897651996448 0.328125000000001
-0.450720506803613 -0.0366377516054532 0.328125000000001
-0.456242768282295 -0.0262675313001743 0.328125000000001
-0.46960397081322 -0.0143023615661642 0.328125000000001
-0.485416727725962 -0.0102673995651732 0.328125000000001
-0.492467389540975 0.000821059018447611 0.32668297189618
-0.209116915216508 -0.238677305193851 0.32551669021446
-0.20881988975808 -0.235339247223694 0.327192313532662
-0.221268793898446 -0.231028574911166 0.328125000000001
-0.227048043018284 -0.223216054589266 0.328125000000001
-0.236249963677644 -0.212176840959797 0.328125000000001
-0.246389274075027 -0.217050614329399 0.328125000000001
-0.24972280837487 -0.201786861574143 0.328125000000001
-0.265835703848381 -0.194938121322755 0.328125000000001
-0.279736118741871 -0.189982133685706 0.328125000000001
-0.275712338841652 -0.179904562900275 0.328125000000001
-0.288826064652561 -0.171043617444641 0.328125000000001
-0.303218330595501 -0.159888472252109 0.328125000000001
-0.311141377886884 -0.150765079315717 0.328125000000001
-0.320354989130029 -0.148761667995199 0.328125000000001
-0.336885924094726 -0.139977007993245 0.328125000000001
-0.34435526479324 -0.138232681371557 0.328125000000001
-0.346445794496988 -0.126977503155482 0.328125000000001
-0.362220162572972 -0.119867421446964 0.328125000000001
-0.369829935309867 -0.111528620487542 0.328125000000001
-0.384882264955504 -0.0955640321387077 0.328125000000001
-0.391426768890947 -0.0926749167652893 0.328125000000001
-0.388124617976008 -0.0866139942805269 0.328125000000001
-0.413062799727194 -0.0760699448899256 0.328125000000001
-0.413241751400807 -0.0727687536419622 0.328125000000001
-0.432678244143037 -0.063961415504101 0.328125000000001
-0.430344331326453 -0.0617594014667364 0.328125000000001
-0.458146272134953 -0.0443055542343655 0.328125000000001
-0.460415047450647 -0.0395319240723344 0.328125000000001
-0.463452110933957 -0.0268955622952233 0.328125000000001
-0.482002411785449 -0.0230354120869604 0.328125000000001
-0.488072812143614 -0.0158574009910007 0.328125000000001
-0.214573556171481 -0.243410769922183 0.319563047194846
-0.221471425462763 -0.242794794310082 0.322064605432504
-0.226149059308871 -0.237309532564815 0.325440399956237
-0.234878015867132 -0.235672545297098 0.325867448938746
-0.242698859320978 -0.22307373595816 0.328125000000001
-0.244616236768481 -0.221087272950102 0.328125000000001
-0.261051661870042 -0.206933318548319 0.328125000000001
-0.268135521618283 -0.206622605394429 0.328125000000001
-0.27918020651486 -0.20000429807411 0.328125000000001
-0.287369790555852 -0.187278177318536 0.328125000000001
-0.291140909895017 -0.183027473132541 0.328125000000001
-0.307140019979075 -0.171915253898837 0.328125000000001
-0.316285871006628 -0.162223482199973 0.328125000000001
-0.32216245923894 -0.164710549034084 0.328125000000001
-0.327024801046391 -0.157290757422501 0.328125000000001
-0.33978218432335 -0.145579452129843 0.328125000000001
-0.35651624469215 -0.1323600009887 0.328125000000001
-0.370440152133252 -0.130525063862663 0.328125000000001
-0.377812502163724 -0.126331640221033 0.328125000000001
-0.389773589933179 -0.113208158727396 0.328125000000001
-0.396679560073748 -0.108512084637057 0.328125000000001
-0.414550435561391 -0.0917153113403425 0.328125000000001
-0.419816981325599 -0.0900022741642735 0.328125000000001
-0.425801016094696 -0.0764852319343479 0.328125000000001
-0.44043699312324 -0.0690998280021524 0.328125000000001
-0.454276934407809 -0.0609056887023426 0.328125000000001
-0.452639460255629 -0.0608867964332311 0.328125000000001
-0.461820247182698 -0.0498882586105562 0.328125000000001
-0.478226373028964 -0.0316513270720015 0.328125000000001
-0.49699981496018 -0.025390933879529 0.324416759186577
-0.234708779009332 -0.241612706536434 0.322294427212227
-0.24514875138021 -0.240492475772265 0.323010267931776
-0.245292267104751 -0.230964934928891 0.327748774600861
-0.258522168844596 -0.220500746411132 0.328125000000001
-0.275006735289968 -0.21444358052897 0.328125000000001
-0.276020941706806 -0.214469843362737 0.328125000000001
-0.286100957642795 -0.208788057144788 0.328125000000001
-0.30228609450326 -0.189409013129934 0.328125000000001
-0.307881122767806 -0.185151176589602 0.328125000000001
-0.314812504663968 -0.18323015846353 0.328125000000001
-0.327357493182155 -0.171307317815658 0.328125000000001
-0.339787271155821 -0.160194577786562 0.328125000000001
-0.342988242365079 -0.157447878424635 0.328125000000001
-0.351771569872517 -0.149681047707788 0.328125000000001
-0.371503640961059 -0.142645012567446 0.328125000000001
-0.37035976763658 -0.13390590601047 0.328125000000001
-0.391410546312231 -0.126398300914553 0.328125000000001
-0.390116535401452 -0.121239691104366 0.328125000000001
-0.399765385991911 -0.116774021607738 0.328125000000001
-0.409816895657224 -0.109107238913986 0.328125000000001
-0.427461609204814 -0.09439684511033 0.328125000000001
-0.425674390187379 -0.0877171916531479 0.328125000000001
-0.44903598445396 -0.0812795500133873 0.328125000000001
-0.451038582858222 -0.0770017217229441 0.328125000000001
-0.463423950521459 -0.0578793604210768 0.328125000000001
-0.47937117535431 -0.0494525642782119 0.328125000000001
-0.495854574506237 -0.044047840832541 0.324989379413549
-0.498819897217322 -0.0409031931607891 0.323506718058006
-0.254517503275034 -0.239843799278374 0.318804957081352
-0.256473696239543 -0.235091066920172 0.325196616866006
-0.26924560742524 -0.233113660226397 0.325613399695384
-0.282273218668425 -0.222247185296528 0.328125000000001
-0.284186145896014 -0.21560321908557 0.328125000000001
-0.291181547069814 -0.207437146289479 0.328125000000001
-0.297830963130163 -0.206914630999551 0.328125000000001
-0.309970075221936 -0.193451777807558 0.328125000000001
-0.322627660069697 -0.180659120217505 0.328125000000001
-0.337706150178385 -0.173908185408343 0.328125000000001
-0.341152297391554 -0.179219306946181 0.328125000000001
-0.353499476274166 -0.167374505484846 0.328125000000001
-0.358642212373285 -0.158603496897418 0.328125000000001
-0.367352349652478 -0.153176206625571 0.328125000000001
-0.374792147801901 -0.143218306583783 0.328125000000001
-0.387608258029358 -0.135178436554407 0.328125000000001
-0.40083425503044 -0.129319083683354 0.328125000000001
-0.411701792617788 -0.109739538523171 0.328125000000001
-0.421707713597599 -0.114244626461038 0.328125000000001
-0.425944990790331 -0.105218497206306 0.328125000000001
-0.434298181505129 -0.0973464364796736 0.328125000000001
-0.455476274155173 -0.084202997568362 0.328125000000001
-0.469091922093467 -0.0768279159535532 0.328125000000001
-0.468540428697915 -0.0648769343143255 0.328125000000001
-0.481348211290961 -0.0618195747097375 0.328125000000001
-0.272697862543643 -0.23822030404299 0.312853695014269
-0.281567750145562 -0.237428228372353 0.32090835048561
-0.282597168098713 -0.232244542461112 0.325452455816913
-0.296544095885026 -0.229473869176215 0.32621204368585
-0.301451595014238 -0.218949164334718 0.328125000000001
-0.312056519229585 -0.209124420401097 0.328125000000001
-0.322827027010093 -0.204685935128558 0.328125000000001
-0.322011442194829 -0.195601439160189 0.328125000000001
-0.34193825795153 -0.18929573953708 0.328125000000001
-0.34664298203886 -0.180557701009031 0.328125000000001
-0.354497839572928 -0.178982530868954 0.328125000000001
-0.373941325284252 -0.160058268931183 0.328125000000001
-0.378739178651675 -0.160040378946383 0.328125000000001
-0.392999354292142 -0.147788951282907 0.328125000000001
-0.39477310530463 -0.140019005516632 0.328125000000001
-0.407607435345197 -0.138957366609465 0.328125000000001
-0.416799139158003 -0.119328443171029 0.328125000000001
-0.42899136533738 -0.120421621184771 0.328125000000001
-0.439485071201361 -0.107055535290114 0.328125000000001
-0.446508865625562 -0.0982689563650952 0.328125000000001
-0.465040583791804 -0.0900648090524263 0.328125000000001
-0.464720158297184 -0.0842464697762755 0.328125000000001
-0.482199906304675 -0.0820565982552641 0.328125000000001
-0.485716681934055 -0.0741489188728923 0.328125000000001
-0.2976874029991 -0.235988752990315 0.312843238953787
-0.291498087910376 -0.230117495389661 0.326115915848887
-0.299203630371208 -0.235316083944549 0.323184237352532
-0.302744879562101 -0.221031283566582 0.328125000000001
-0.318375660600661 -0.213022522900339 0.328125000000001
-0.328544682065467 -0.209162434276378 0.328125000000001
-0.332203045035211 -0.200694025525999 0.328125000000001
-0.348025775686834 -0.199708170852011 0.328125000000001
-0.356057778322576 -0.185086668965622 0.328125000000001
-0.364278259201509 -0.180056922449744 0.328125000000001
-0.375680715514434 -0.174467976147882 0.328125000000001
-0.385040814475607 -0.166784583607312 0.328125000000001
-0.386036195506993 -0.164905150830255 0.328125000000001
-0.403455057262676 -0.143819317515941 0.328125000000001
-0.410916652327889 -0.137315950549623 0.328125000000001
-0.43058250460219 -0.132525599100296 0.328125000000001
-0.434156606027983 -0.134093171272577 0.328125000000001
-0.446592633521477 -0.1210303508752 0.328125000000001
-0.458143216824946 -0.111559705680372 0.328125000000001
-0.467109408277052 -0.103356487630802 0.328125000000001
-0.484310979319486 -0.0851252415471264 0.328125000000001
-0.493597743061396 -0.0772702862248941 0.326117795135969
-0.310043736702494 -0.233645130832827 0.323534313346131
-0.312684160042708 -0.229555772137894 0.325453461760991
-0.322889061358979 -0.227563435400126 0.325991841967899
-0.327949862732935 -0.216185093792228 0.328125000000001
-0.347960882991077 -0.203476691398218 0.328125000000001
-0.344448931186963 -0.20496433772671 0.328125000000001
-0.37044921080526 -0.195073033544379 0.328125000000001
-0.373591435353194 -0.193831841806733 0.328125000000001
-0.383654074232683 -0.187121036191873 0.328125000000001
-0.393865555750315 -0.175911388169353 0.328125000000001
-0.401987014170549 -0.170163338682464 0.328125000000001
-0.404707414065989 -0.164651646587829 0.328125000000001
-0.421528183618166 -0.145799400831063 0.328125000000001
-0.431264821351663 -0.143571384536376 0.328125000000001
-0.435358783200302 -0.141960488193524 0.328125000000001
-0.4548955871731 -0.127078634140011 0.328125000000001
-0.471757334041824 -0.114269255625998 0.328125000000001
-0.474273493179685 -0.111021103059032 0.328125000000001
-0.486229636000072 -0.0993816443547726 0.328125000000001
-0.49981708649196 -0.0935935085376335 0.323008123420687
-0.336375745862694 -0.229356569364858 0.324499038819219
-0.350942387186493 -0.223239722142036 0.326897522018302
-0.356052496754254 -0.21947095709254 0.328125000000001
-0.356479138725087 -0.208853076987465 0.328125000000001
-0.369657308467458 -0.207100777896773 0.328125000000001
-0.378621087226984 -0.197029049976657 0.328125000000001
-0.387785252254201 -0.19624730657845 0.328125000000001
-0.399240191668604 -0.182024587232071 0.328125000000001
-0.410900768884527 -0.166846312435835 0.328125000000001
-0.415782218164902 -0.167338137508803 0.328125000000001
-0.432603197289714 -0.147691456353956 0.328125000000001
-0.436660371849399 -0.150614374490262 0.328125000000001
-0.456846287139236 -0.1405022400051 0.328125000000001
-0.465813139999285 -0.134016631936412 0.328125000000001
-0.465075722885846 -0.122431094966249 0.328125000000001
-0.485747168618473 -0.119010274394874 0.328125000000001
-0.350183772998538 -0.231300858471301 0.312580023640951
-0.350499775377187 -0.225282342892705 0.325899943765821
-0.359572063983122 -0.221562469646393 0.327349039061387
-0.370043516058604 -0.220916462788107 0.327205068178901
-0.380248616832696 -0.208399670055272 0.328125000000001
-0.380659935243479 -0.206920334551069 0.328125000000001
-0.400441266431871 -0.195430663272074 0.328125000000001
-0.406127644881751 -0.187092338335338 0.328125000000001
-0.416232597398891 -0.187348612369851 0.328125000000001
-0.428565257803622 -0.165222850212476 0.328125000000001
-0.438403359395811 -0.166503450144087 0.328125000000001
-0.455913737736001 -0.148896518053207 0.328125000000001
-0.460979982305486 -0.150743963889989 0.328125000000001
-0.474081081820148 -0.139194566403381 0.328125000000001
-0.486758957387568 -0.129340909117258 0.328125000000001
-0.374732810802435 -0.226828588002245 0.324052176182881
-0.375038254234066 -0.221811466895006 0.326537210146348
-0.388509399809771 -0.217039388680976 0.328125000000001
-0.399018533837742 -0.209730169928755 0.328125000000001
-0.39930827129773 -0.202013154774515 0.328125000000001
-0.411618448708893 -0.192209053763736 0.328125000000001
-0.430054348113426 -0.184407863890689 0.328125000000001
-0.436400368948774 -0.180619047874392 0.328125000000001
-0.440038116320734 -0.179124843162445 0.328125000000001
-0.454683907215441 -0.164542738042301 0.328125000000001
-0.458902143490839 -0.162421850828575 0.328125000000001
-0.475456280406845 -0.147672397342882 0.328125000000001
-0.481926244224779 -0.139493894268482 0.328125000000001
-0.380424057389491 -0.228600419118041 0.313486194386969
-0.381927240431932 -0.228466185769224 0.319047997714517
-0.38758818387744 -0.22796066689714 0.318744728639665
-0.39382004584517 -0.221455821763956 0.325879050318071
-0.400911063151368 -0.219879221153534 0.326348869277426
-0.416794056918147 -0.208516185389174 0.328125000000001
-0.419511941971614 -0.198674662163346 0.328125000000001
-0.432451029162304 -0.198939862093941 0.328125000000001
-0.441526384898623 -0.186886895842176 0.328125000000001
-0.456748206591365 -0.179818701529055 0.328125000000001
-0.461772911488716 -0.166287003662317 0.328125000000001
-0.471400120076581 -0.167124894008679 0.328125000000001
-0.488191425049118 -0.154377740707169 0.328125000000001
-0.401977950834319 -0.226675669293539 0.312504442001475
-0.403890274120824 -0.226504899965041 0.320834890330685
-0.41453314943492 -0.22086256426797 0.325253335062715
-0.429641223794211 -0.209966968287339 0.328125000000001
-0.434800625558233 -0.207401977546468 0.328125000000001
-0.44081275491886 -0.204607210949326 0.328125000000001
-0.449173801380674 -0.197338614763663 0.328125000000001
-0.460769325768644 -0.192534676668478 0.328125000000001
-0.474413565683498 -0.176086546292463 0.328125000000001
-0.48085178553427 -0.177425517490216 0.328125000000001
-0.496991717440662 -0.165083916890677 0.324420807946336
-0.421698663079893 -0.224914621456363 0.322781815851924
-0.428799763417711 -0.223809698562601 0.323151133095639
-0.440955840088329 -0.2104719354846 0.328125000000001
-0.439425675698981 -0.214331082985896 0.327399093271396
-0.460259366236409 -0.195766880859333 0.328125000000001
-0.473135731429192 -0.197095803966419 0.328125000000001
-0.477482156545458 -0.18445348101012 0.328125000000001
-0.496171870788423 -0.171757051181437 0.324830731272456
-0.452980364315468 -0.222121184200239 0.322335133204612
-0.460089993595485 -0.217128995776045 0.325086682962083
-0.465368632903202 -0.202655801826445 0.328125000000001
-0.467207897251014 -0.203485965402704 0.328125000000001
-0.494234767074307 -0.189966216925582 0.325799283129513
-0.467973647218841 -0.218214993613562 0.324195228602449
-0.473532050283412 -0.21620964879506 0.32494672954461
-0.475447431425158 -0.211398631399562 0.327257521769426
-0.479307000823573 -0.21977023126784 0.318789512134571
-0.494089919792156 -0.210861661823047 0.323758227561901
0.332953849933585 -0.229257564923584 0.324700525899871
0.318318531024789 -0.231846613218721 0.324062005224484
0.321285266744281 -0.233706283042095 0.323003916871874
0.30655413291171 -0.235166218957452 0.322931975917954
0.296540815455493 -0.233129023807432 0.324391855867245
0.276308955671615 -0.232868722954339 0.325421256529766
0.266328285590005 -0.238249537960415 0.323185380134108
0.262129017256515 -0.234130938621129 0.325423270701436
0.243405373645151 -0.235147849276265 0.325749522231027
0.228725286534832 -0.235573554928449 0.326190376634333
0.222732615957711 -0.238189450444283 0.325154123366032
0.206215879973371 -0.238998768865981 0.325485612403688
0.194503190524098 -0.239793345736937 0.325610793926306
0.166830172304561 -0.241180929988009 0.326150446383513
0.117674689632999 -0.246718227547931 0.324557552892702
0.114432523851862 -0.248681959103463 0.323575687114937
0.329411563233635 -0.224357991575636 0.32729813800687
0.331417352529801 -0.218297240904858 0.328125000000001
0.319345895695353 -0.21971261184205 0.328125000000001
0.308031686345361 -0.228331758713191 0.326269951001243
0.294613523979066 -0.228951193821201 0.326558203358695
0.286733252972475 -0.224503669643264 0.328125000000001
0.278255833241065 -0.225737965987462 0.328125000000001
0.271487658008455 -0.222577718060986 0.328125000000001
0.261027289753972 -0.230822152106704 0.327120103599241
0.251446371295615 -0.228531028299657 0.328125000000001
0.244969545619839 -0.225558288790228 0.328125000000001
0.233717884215802 -0.229628906880518 0.328125000000001
0.221594737698872 -0.228482517901047 0.328125000000001
0.21033867182907 -0.235874207228118 0.326858349299397
0.209120251188012 -0.229826136346249 0.328125000000001
0.191758373764675 -0.229184238321139 0.328125000000001
0.192613106584665 -0.232856035135077 0.328125000000001
0.171981337881282 -0.239055444252203 0.32697989065876
0.168413873973874 -0.235552603974113 0.328125000000001
0.154737838955486 -0.235136812729794 0.328125000000001
0.150611835523397 -0.233766815630375 0.328125000000001
0.14316462194818 -0.240914864513252 0.327335423535032
0.123262023710432 -0.244773770166744 0.325529781583296
0.110998353854442 -0.243022157679214 0.326405587827061
0.0951966474383475 -0.244800951210238 0.325516191061548
0.0957366956936557 -0.23975667302114 0.328038330156098
0.0774437199665943 -0.246997789923696 0.32441777170482
0.0711284038494439 -0.241106086855143 0.327363623239097
0.059835640982182 -0.248535338475428 0.323648997428954
0.0441283949728166 -0.244781620192011 0.325525856570662
0.0227543438839384 -0.245958227561539 0.324937552885898
0.0122771435772606 -0.246346030252537 0.324743651540399
-0.0162111420099766 -0.249281016860463 0.323276158236437
0.33504579200616 -0.211771515417623 0.328125000000001
0.333859458031953 -0.216975180683773 0.328125000000001
0.318055297667853 -0.214680677378578 0.328125000000001
0.310316122928166 -0.216043650305478 0.328125000000001
0.294904787290145 -0.216754130022511 0.328125000000001
0.297650239143519 -0.215558516306636 0.328125000000001
0.279940455631445 -0.221125605081737 0.328125000000001
0.270085456655449 -0.220595557662081 0.328125000000001
0.263927526621122 -0.222325441573458 0.328125000000001
0.258875271128088 -0.216850751489221 0.328125000000001
0.24627531456818 -0.222112369625572 0.328125000000001
0.230408746700929 -0.221032736328079 0.328125000000001
0.226719380505919 -0.217834647894295 0.328125000000001
0.21713220592436 -0.222825840844838 0.328125000000001
0.209742535465782 -0.226806657053848 0.328125000000001
0.193612207022587 -0.226872474303866 0.328125000000001
0.189935223155086 -0.22655695974891 0.328125000000001
0.181890447780667 -0.223228104532533 0.328125000000001
0.167820525689708 -0.223364851571817 0.328125000000001
0.160577789591083 -0.230135769569946 0.328125000000001
0.142837544245697 -0.226472835771144 0.328125000000001
0.127990566633443 -0.230146897352767 0.328125000000001
0.123411504816098 -0.226357053919978 0.328125000000001
0.119455220443914 -0.231638660913819 0.328125000000001
0.114494177513464 -0.232247150972046 0.328125000000001
0.095914328660623 -0.236212683432082 0.328125000000001
0.0873577428543716 -0.230757931883191 0.328125000000001
0.0690700772313905 -0.238874585862052 0.328125000000001
0.0735462208016038 -0.232253181850861 0.328125000000001
0.0438327854147372 -0.23269806376586 0.328125000000001
0.0466725760632218 -0.23318889128621 0.328125000000001
0.0297907324061543 -0.236409876787861 0.328125000000001
0.0120832501235543 -0.240464700640581 0.327684316346378
0.00635788321957212 -0.237420985387857 0.328125000000001
0.00146281376345833 -0.235283093182688 0.328125000000001
-0.0130716825196076 -0.238897798040427 0.328125000000001
-0.0315317897342021 -0.237405408951966 0.328125000000001
-0.0345921366846375 -0.238516157277371 0.328125000000001
-0.0505511138916202 -0.245797084631983 0.325018124350676
-0.066121621249586 -0.244030013706797 0.325901659813269
-0.0744910741237888 -0.243220904989356 0.32630621417199
-0.0925365363344813 -0.249571208144426 0.323131062594454
-0.11260041929214 -0.247729575981038 0.324051878676148
0.340609650439247 -0.20487616596994 0.328125000000001
0.324846335933132 -0.204911937889277 0.328125000000001
0.313989472098706 -0.203125903537292 0.328125000000001
0.309589061135939 -0.206828512318834 0.328125000000001
0.299654359197844 -0.208486068826274 0.328125000000001
0.290787779878849 -0.211395074427604 0.328125000000001
0.280512537526375 -0.207467777505894 0.328125000000001
0.277071844897098 -0.209295004396602 0.328125000000001
0.259023855148664 -0.211681234365638 0.328125000000001
0.255174735409173 -0.212168794543706 0.328125000000001
0.250400954705747 -0.214970355236989 0.328125000000001
0.234792954318601 -0.209875077422502 0.328125000000001
0.226185277652766 -0.209470106026583 0.328125000000001
0.2169608304992 -0.213482491678787 0.328125000000001
0.208938989480765 -0.210000794858443 0.328125000000001
0.190553328343945 -0.216920885711926 0.328125000000001
0.194411766568424 -0.218699094994606 0.328125000000001
0.18008471504096 -0.218471586585319 0.328125000000001
0.173824265436896 -0.220221758848932 0.328125000000001
0.150289505673877 -0.217132284385591 0.328125000000001
0.149041745928807 -0.219444259693111 0.328125000000001
0.130689849231986 -0.217866372546044 0.328125000000001
0.127936153773801 -0.21986412731213 0.328125000000001
0.119262884019756 -0.225490437373226 0.328125000000001
0.107937745235198 -0.221702561444414 0.328125000000001
0.0947860929426509 -0.224477330949087 0.328125000000001
0.0823728162430064 -0.223233874505631 0.328125000000001
0.0751630431466247 -0.225787128805579 0.328125000000001
0.0615538360529887 -0.229533585618001 0.328125000000001
0.0583657837379785 -0.220889823369671 0.328125000000001
0.0431562733819687 -0.222407124680223 0.328125000000001
0.0336888454926717 -0.226624619010717 0.328125000000001
0.0288222437274067 -0.223792907792631 0.328125000000001
0.00929251376170714 -0.226278987985773 0.328125000000001
0.00279092747729342 -0.23388541227741 0.328125000000001
-0.00896787648013119 -0.227913998515007 0.328125000000001
-0.0280863945290453 -0.231569943985684 0.328125000000001
-0.0319139906748595 -0.233106814230522 0.328125000000001
-0.0554043492147732 -0.233115758217182 0.328125000000001
-0.063725814985744 -0.23247297409545 0.328125000000001
-0.0774636556132644 -0.234233549966113 0.328125000000001
-0.0880356898713054 -0.234350917979382 0.328125000000001
-0.0897172433290392 -0.236762112960511 0.328125000000001
-0.113196952602322 -0.239862325185847 0.327985504073744
-0.120449024390331 -0.240999431905094 0.32741695071412
-0.139463437175666 -0.238722373528585 0.328125000000001
-0.14799835170663 -0.241804907306634 0.326677196811403
-0.158792252210627 -0.247039348798845 0.323590315176967
-0.16336943436085 -0.244529187318374 0.324636861604268
-0.19322549674663 -0.244605732140069 0.323270960211155
-0.194467498672828 -0.244883568785045 0.323077357272401
0.341159670727002 -0.193540733733322 0.328125000000001
0.324920081491615 -0.196856104447075 0.328125000000001
0.320285090906742 -0.193367753637717 0.328125000000001
0.310964509555428 -0.193465566122899 0.328125000000001
0.302534551748984 -0.195074255335202 0.328125000000001
0.285847445754186 -0.199347089436498 0.328125000000001
0.274662184480786 -0.202547342732405 0.328125000000001
0.275718147788118 -0.195484523678685 0.328125000000001
0.267092042738646 -0.201849959612754 0.328125000000001
0.252429160194421 -0.200736509510807 0.328125000000001
0.244807848126454 -0.198725663401591 0.328125000000001
0.234216997171412 -0.198573907331113 0.328125000000001
0.22533469662239 -0.200264777441386 0.328125000000001
0.216169217168677 -0.208533380616239 0.328125000000001
0.202219279258718 -0.206900566473309 0.328125000000001
0.194071005063335 -0.202969620514616 0.328125000000001
0.185962486469625 -0.204779741388703 0.328125000000001
0.178414445649641 -0.209472703699481 0.328125000000001
0.171663305217545 -0.209717631688892 0.328125000000001
0.154942722017652 -0.205880818878183 0.328125000000001
0.139690937421645 -0.20928507857089 0.328125000000001
0.137330722468962 -0.213600908130901 0.328125000000001
0.124211232020137 -0.211759249735045 0.328125000000001
0.121724646070406 -0.21401182371338 0.328125000000001
0.0999393536388219 -0.210339728507739 0.328125000000001
0.0945466509826972 -0.211881603691424 0.328125000000001
0.0860865429404536 -0.217625990365565 0.328125000000001
0.0695812678093423 -0.21132273310981 0.328125000000001
0.0627278140864488 -0.212174838011251 0.328125000000001
0.0516982405959788 -0.214611905873357 0.328125000000001
0.0455584449241921 -0.220860571714266 0.328125000000001
0.0272782004012667 -0.220556098212042 0.328125000000001
0.0159222712649444 -0.218790904101451 0.328125000000001
0.00805258711644884 -0.222974108386399 0.328125000000001
0.00369046081309959 -0.221080967183094 0.328125000000001
-0.0151625794172751 -0.22140507619942 0.328125000000001
-0.0268888182295275 -0.224637818484115 0.328125000000001
-0.0401632144999689 -0.219823584513867 0.328125000000001
-0.0468938316791654 -0.227561564856272 0.328125000000001
-0.0610607623824015 -0.219776586490614 0.328125000000001
-0.0679414933707807 -0.226416493062795 0.328125000000001
-0.0777574162666173 -0.228684627490251 0.328125000000001
-0.0905486842025201 -0.227396156095536 0.328125000000001
-0.103296738304389 -0.226762960275191 0.328125000000001
-0.115292088576174 -0.227798753211164 0.328125000000001
-0.131542604966898 -0.224201177240498 0.328125000000001
-0.144688086924258 -0.236303865628996 0.328125000000001
-0.156245634798544 -0.231440553723508 0.328125000000001
-0.165117261599721 -0.233579909583463 0.328125000000001
-0.185635349652256 -0.237811901990815 0.326991966185375
-0.191503512327054 -0.238806020402687 0.326235903846144
-0.206227421559734 -0.229695935890037 0.328125000000001
-0.218464737218531 -0.237044967443239 0.325913901015289
-0.22520169625349 -0.237843365061006 0.325216673455083
-0.258245477679805 -0.238384885816819 0.323477438985482
-0.268318106071937 -0.235475683184113 0.324478317678075
0.335919903327497 -0.189556853922058 0.328125000000001
0.330795897927732 -0.183618725509487 0.328125000000001
0.325124054274893 -0.187539086273591 0.328125000000001
0.314955357967467 -0.186832442983151 0.328125000000001
0.303701358123057 -0.190359903041975 0.328125000000001
0.294239581157543 -0.191015283477772 0.328125000000001
0.289832941739777 -0.190624039436141 0.328125000000001
0.272640949150288 -0.191350929234932 0.328125000000001
0.265385499279937 -0.195075314874706 0.328125000000001
0.257953596095543 -0.188647544979224 0.328125000000001
0.245129212386887 -0.188294595468296 0.328125000000001
0.24160704617958 -0.194959811952257 0.328125000000001
0.226129454533805 -0.19805459237173 0.328125000000001
0.223686964421667 -0.197319777441929 0.328125000000001
0.207022891836553 -0.195130575828279 0.328125000000001
0.196336947948971 -0.19526326150644 0.328125000000001
0.178760585621075 -0.198567267325095 0.328125000000001
0.177027712901498 -0.194730388138437 0.328125000000001
0.162202622986718 -0.199184699924894 0.328125000000001
0.155116310335456 -0.202299067441333 0.328125000000001
0.1493577125644 -0.199897493681361 0.328125000000001
0.134084015908257 -0.198770306446175 0.328125000000001
0.129108058426745 -0.197087665607647 0.328125000000001
0.117680673729441 -0.202447774127536 0.328125000000001
0.104914352287201 -0.205026997250665 0.328125000000001
0.0904256259633445 -0.205168339495914 0.328125000000001
0.0902734364219842 -0.199400035809608 0.328125000000001
0.0661362747973313 -0.20519451674335 0.328125000000001
0.0670657483174023 -0.201639628669559 0.328125000000001
0.0544991478805113 -0.205643358095271 0.328125000000001
0.0421748270241871 -0.203234983987764 0.328125000000001
0.0261648190826958 -0.210933074327358 0.328125000000001
0.0202634456653824 -0.203953700606202 0.328125000000001
0.00838702722617638 -0.212679617550796 0.328125000000001
-0.00743523945787186 -0.214244750596479 0.328125000000001
-0.0187479759415864 -0.207367951771642 0.328125000000001
-0.024671619331156 -0.208058632760498 0.328125000000001
-0.0303954672087088 -0.216688726742233 0.328125000000001
-0.0535427663064532 -0.213936721584824 0.328125000000001
-0.0598418800697089 -0.209869977015543 0.328125000000001
-0.0699023511340194 -0.213616432903612 0.328125000000001
-0.0867680495006715 -0.214472151103343 0.328125000000001
-0.097872698818698 -0.220106587182069 0.328125000000001
-0.106266640858834 -0.21964926667181 0.328125000000001
-0.114972205846262 -0.222293948514619 0.328125000000001
-0.135382762021515 -0.224695895210916 0.328125000000001
-0.151978892013044 -0.216834144061745 0.328125000000001
-0.156499179380426 -0.226281637928453 0.328125000000001
-0.167937751270155 -0.225752410128819 0.328125000000001
-0.187528331525651 -0.218861045928866 0.328125000000001
-0.200424722172786 -0.220034171366178 0.328125000000001
-0.20586696114048 -0.219816467115085 0.328125000000001
-0.213230882745151 -0.229400299065285 0.328125000000001
-0.233251455278917 -0.222159679772816 0.328125000000001
-0.242007685488891 -0.225575199380624 0.328125000000001
-0.255967636224716 -0.231314237757289 0.327100052583104
-0.266256471578263 -0.223368752209365 0.328125000000001
-0.2827736845759 -0.231080846734166 0.326024147354833
-0.305823947850895 -0.233435598851366 0.323826329637264
-0.30984284479265 -0.233964790442591 0.323384051239249
-0.324657205319995 -0.228329538248717 0.325531674575552
0.340626727962054 -0.176584136156638 0.328125000000001
0.331410053787895 -0.175687455135559 0.328125000000001
0.318969647543625 -0.178171988813857 0.328125000000001
0.315962023711947 -0.177347518517946 0.328125000000001
0.300348495724792 -0.179352819441324 0.328125000000001
0.292376398530553 -0.176392275999526 0.328125000000001
0.283274374578517 -0.184762326910813 0.328125000000001
0.268355219884687 -0.186257254546099 0.328125000000001
0.265071200748216 -0.178434068358988 0.328125000000001
0.251454238319443 -0.181700814010961 0.328125000000001
0.251449264509572 -0.185572074407823 0.328125000000001
0.23723178619488 -0.1827939676046 0.328125000000001
0.223066216583935 -0.182991858868313 0.328125000000001
0.210067054157027 -0.184333728995605 0.328125000000001
0.208415124829415 -0.187970812483978 0.328125000000001
0.195177042027374 -0.185257292546683 0.328125000000001
0.192497911559807 -0.191872807405877 0.328125000000001
0.178346299554667 -0.191728116589837 0.328125000000001
0.16821793292072 -0.1852027297597 0.328125000000001
0.151806788705685 -0.185033365155055 0.328125000000001
0.147949121666727 -0.188059128595755 0.328125000000001
0.132683160319303 -0.190949155575218 0.328125000000001
0.125026372061629 -0.196395602204249 0.328125000000001
0.114246721289764 -0.194362132658495 0.328125000000001
0.106453930995524 -0.190626538628099 0.328125000000001
0.099979392097207 -0.19678668435948 0.328125000000001
0.0796417084559299 -0.195463618069466 0.328125000000001
0.0740530862814874 -0.196171092379183 0.328125000000001
0.0592410527346098 -0.196252558747548 0.328125000000001
0.04912447983278 -0.191856657087191 0.328125000000001
0.0344768806960302 -0.194969775979358 0.328125000000001
0.0355187155793419 -0.197144612227752 0.328125000000001
0.0194437336126054 -0.201756288620956 0.328125000000001
0.0126732280512401 -0.194941462309782 0.328125000000001
-0.00668419855384752 -0.204788956186138 0.328125000000001
-0.00639515537145136 -0.201415527334063 0.328125000000001
-0.0305460597060332 -0.203341907430818 0.328125000000001
-0.043220478442309 -0.205781953757766 0.328125000000001
-0.0520862086135144 -0.205770317383182 0.328125000000001
-0.060754304255502 -0.199467470059045 0.328125000000001
-0.0753307161139432 -0.200318856560484 0.328125000000001
-0.0876529991335592 -0.206877367363689 0.328125000000001
-0.0883209894913597 -0.206085041272619 0.328125000000001
-0.111207275083809 -0.210675818053077 0.328125000000001
-0.116632868270666 -0.204343727012611 0.328125000000001
-0.132429942708283 -0.209624601985425 0.328125000000001
-0.143891646627454 -0.207451126051598 0.328125000000001
-0.148027612552218 -0.212330728971087 0.328125000000001
-0.172581214727709 -0.208999334736435 0.328125000000001
-0.181588659564308 -0.216342045116877 0.328125000000001
-0.200062291119951 -0.218503128269602 0.328125000000001
-0.20510701426859 -0.216847628047479 0.328125000000001
-0.214578253090609 -0.212057215552728 0.328125000000001
-0.239353948616854 -0.210485018668269 0.328125000000001
-0.246737772630003 -0.220338456131612 0.328125000000001
-0.250044504994765 -0.218831477193965 0.328125000000001
-0.271135675438638 -0.213553674608301 0.328125000000001
-0.290904836426422 -0.214402932542166 0.328125000000001
-0.299115332969246 -0.219969280104639 0.328125000000001
-0.312771719088397 -0.224196172785115 0.328118746054535
-0.320073197210568 -0.222206624794492 0.328125000000001
-0.343949730921951 -0.219577519639791 0.328125000000001
-0.355448412692792 -0.223253530219543 0.326690250076883
-0.367550647672784 -0.222877283765223 0.326339408218611
-0.400838838641704 -0.224694835739506 0.323953817356063
-0.412003373092272 -0.22459025169739 0.323509384763801
-0.42939399770495 -0.222816574867714 0.323619299596457
0.344015453998741 -0.168195331740566 0.328125000000001
0.328933608897096 -0.164504364377111 0.328125000000001
0.317903768712178 -0.169332153282239 0.328125000000001
0.311166703742427 -0.165972855513214 0.328125000000001
0.299698469466722 -0.167378235714855 0.328125000000001
0.291241891567782 -0.168621691608168 0.328125000000001
0.27974312747458 -0.171226052224583 0.328125000000001
0.268670979972104 -0.175106334816037 0.328125000000001
0.268015644151164 -0.171353879521472 0.328125000000001
