ply
format ascii 1.0
element vertex 847
property float x
property float y
property float z
end_header
-0.45157514077892 -0.178083135922138 0.416666666666666
-0.459685743126905 -0.168296803730754 0.416666666666667
-0.472149205123041 -0.166212453835427 0.416666666666667
-0.482810079660337 -0.159829329682105 0.416666666666667
-0.495699149509858 -0.144421251910973 0.416666666666666
-0.498430652737258 -0.149432411258762 0.416666666666666
-0.434027777777778 -0.212552097641728 0.00928456685962994
-0.434027777777778 -0.20773965458708 0.0399780921871041
-0.434027777777777 -0.215777475864071 0.0604223377327454
-0.434027777777778 -0.208399311095281 0.0694589320577378
-0.434027777777778 -0.208817050386274 0.0829504820380997
-0.434027777777778 -0.207956077298941 0.0917219634032664
-0.434027777777778 -0.2068505161642 0.128303022955313
-0.434027777777778 -0.208112362161074 0.135642563588318
-0.434027777777778 -0.206788223272474 0.143435534166394
-0.434027777777778 -0.21381987076973 0.15763787781272
-0.434027777777778 -0.206365761087979 0.164461811013843
-0.434027777777778 -0.208860700755988 0.172222373142107
-0.434027777777778 -0.204977431888103 0.182602969713958
-0.434027777777778 -0.204861111111111 0.234717886917948
-0.434027777777778 -0.21118838239197 0.260149615772439
-0.434027777777778 -0.207767393849629 0.262685118038437
-0.434027777777778 -0.213884243575475 0.270795280115355
-0.434027777777778 -0.209823247152629 0.274497493909956
-0.434027777777778 -0.205586619907554 0.293361011699279
-0.434027777777778 -0.211697986759131 0.310062073829996
-0.371412903304815 -0.256944444444444 0.379443171039368
-0.352266234503993 -0.270833333333333 0.407308748842674
-0.355465429330597 -0.270833333333333 0.416494029718199
-0.362003425993676 -0.260046423119395 0.416666666666667
-0.373926754911071 -0.255448049834535 0.416666666666667
-0.379540438816802 -0.244390203579356 0.416666666666667
-0.395830629842443 -0.242858297266288 0.416666666666667
-0.401769132736308 -0.236999839722744 0.416666666666667
-0.417749367193457 -0.217458700944739 0.416666666666667
-0.430685272004316 -0.205259389135735 0.416666666666667
-0.441401447769247 -0.200158129674967 0.416666666666667
-0.451473668415824 -0.19782895405207 0.416666666666667
-0.458257885907061 -0.185828822088506 0.416666666666667
-0.463534842348378 -0.188195675921605 0.416666666666667
-0.482772437614196 -0.169023630779979 0.416666666666667
-0.492810583808205 -0.171541303959541 0.416666666666667
-0.434027777777778 -0.225085006430936 0.0044673764173433
-0.434027777777778 -0.222082282280892 0.00328746107795087
-0.434027777777778 -0.216844368486172 0.0208149787892015
-0.434027777777778 -0.22206707435247 0.0332358870700087
-0.434027777777778 -0.21669936232492 0.0363285022930236
-0.434027777777778 -0.22620284445257 0.050269890691259
-0.434027777777777 -0.214513020325176 0.0569784226432816
-0.434027777777778 -0.217499455543526 0.0765885010234764
-0.434027777777778 -0.218655982585018 0.0772566723775504
-0.434027777777778 -0.221985948521682 0.092845265962002
-0.434027777777778 -0.222020851544096 0.10487540592574
-0.434027777777778 -0.217559474574101 0.107800209569571
-0.434027777777778 -0.220928743167601 0.119721610698318
-0.434027777777777 -0.219756264462855 0.129593819884104
-0.434027777777778 -0.214295564851022 0.137773813683137
-0.434027777777778 -0.216744580580697 0.150473605986855
-0.434027777777778 -0.22154795765982 0.160619016077171
-0.434027777777778 -0.222729188651108 0.177055986974354
-0.434027777777778 -0.222689756622193 0.18487890469245
-0.434027777777778 -0.224424496275649 0.192765767772726
-0.434027777777777 -0.217074365517449 0.203873475383049
-0.434027777777778 -0.212172080140205 0.209053075895704
-0.434027777777777 -0.213520808173177 0.223406534227009
-0.434027777777778 -0.221453167731475 0.234467301423752
-0.434027777777777 -0.219341650393167 0.251729998851956
-0.434027777777778 -0.22572491891546 0.265094243653053
-0.434027777777778 -0.217500174199592 0.264363922118344
-0.434027777777778 -0.2120319253196 0.278909899066062
-0.434027777777778 -0.224479969089488 0.29714838488803
-0.434027777777778 -0.213825488798747 0.295742132506675
-0.434027777777778 -0.22705750942963 0.319411171790773
-0.434027777777778 -0.218622923247703 0.317158463409646
-0.434027777777778 -0.225738584991351 0.33082571188936
-0.370367752875181 -0.270833333333333 0.413272541972798
-0.375088729712 -0.266590769580464 0.416666666666667
-0.388479619932503 -0.25737842033957 0.416666666666667
-0.38249064716379 -0.249309852082348 0.416666666666667
-0.400677043466439 -0.239904103545784 0.416666666666667
-0.40507891617902 -0.239206550704741 0.416666666666666
-0.421743862550153 -0.233971508493196 0.416666666666667
-0.43618141332448 -0.218264910381155 0.416666666666667
-0.44383067791562 -0.212706900456841 0.416666666666667
-0.455132898515446 -0.206293642409996 0.416666666666667
-0.462691741598172 -0.19432872553829 0.416666666666667
-0.476101401068151 -0.188388987903813 0.416666666666667
-0.491760203534087 -0.182110945457448 0.416666666666667
-0.493459767603092 -0.175245125789677 0.416666666666667
-0.434027777777778 -0.234317230834484 0.0202193030678287
-0.434027777777778 -0.228592328744968 0.0243604881956715
-0.434027777777778 -0.230505202469617 0.0269081348499717
-0.434027777777778 -0.226745951145339 0.036141183473944
-0.434027777777778 -0.228296269923799 0.0512614699603399
-0.434027777777778 -0.231901279743743 0.0697756423589407
-0.434027777777778 -0.237881552700639 0.0801241404807232
-0.434027777777777 -0.227458189394978 0.0828611908409162
-0.434027777777778 -0.230007413218316 0.0922849677992558
-0.434027777777778 -0.230711556661474 0.107961466469926
-0.434027777777778 -0.241191525434803 0.125302653750643
-0.434027777777778 -0.231772593074001 0.131622646295853
-0.434027777777778 -0.230847999409692 0.146630787705745
-0.434027777777778 -0.237641463828547 0.157884322603609
-0.434027777777777 -0.237815137612581 0.165778565855618
-0.434027777777778 -0.231675704351204 0.176555860198454
-0.434027777777777 -0.227216365944115 0.176319070797343
-0.434027777777778 -0.228669739154554 0.193646430900959
-0.434027777777778 -0.230743784923203 0.205694957770256
-0.434027777777778 -0.230896283824448 0.217154286423299
-0.434027777777778 -0.231632118481865 0.21722429819905
-0.434027777777778 -0.226153652132143 0.233263139821911
-0.434027777777778 -0.233813168092091 0.240461802272185
-0.434027777777778 -0.230638110030622 0.258979892212119
-0.434027777777778 -0.227009824205933 0.262565425573205
-0.434027777777778 -0.237111507196045 0.281365693506136
-0.434027777777778 -0.233068748793335 0.292692805945081
-0.434027777777778 -0.227642269451529 0.291091816909443
-0.434027777777777 -0.229982468158619 0.309079205650428
-0.434027777777778 -0.23344922191928 0.321362292573054
-0.434027777777778 -0.230631739646701 0.327257378918235
-0.434027777777778 -0.234571632311693 0.341103200194017
-0.371609768123252 -0.270833333333333 0.411544488828759
-0.388072002402467 -0.270833333333333 0.410740090690606
-0.388007897479605 -0.270833333333333 0.415186339331621
-0.399312991918928 -0.262377871617616 0.416666666666667
-0.418878867902879 -0.248114049505238 0.416666666666667
-0.424832609249459 -0.23558817043434 0.416666666666667
-0.426923143489891 -0.239125030985937 0.416666666666666
-0.433674797409236 -0.227824883381344 0.416666666666667
-0.450635157001627 -0.224710076603277 0.416666666666666
-0.464155006623729 -0.207262956278874 0.416666666666667
-0.469647840808639 -0.210126724466876 0.416666666666667
-0.477108040509495 -0.196075738251557 0.416666666666667
-0.49877814070035 -0.183810037038525 0.416666666666667
-0.496741064389071 -0.182438218755885 0.416666666666667
-0.434027777777778 -0.241990954438305 0.00426808439909618
-0.434027777777778 -0.241955314206934 0.00956503287704665
-0.437022212074569 -0.246527777777778 0.0210536284702354
-0.434027777777778 -0.245983106271418 0.0428518055578959
-0.434027777777778 -0.240200149652628 0.0355662242564344
-0.44308892192196 -0.246527777777778 0.0518910453952824
-0.437297199532345 -0.246527777777778 0.0573396085000022
-0.434027777777777 -0.244788142480001 0.0702008295847141
-0.434027777777778 -0.237881571695488 0.0810548803170051
-0.443088785630678 -0.246527777777778 0.0849383453058278
-0.436384096099609 -0.246527777777778 0.108946814990849
-0.434027777777778 -0.245907918481972 0.118087069300435
-0.434027777777778 -0.242053459973178 0.127670702719858
-0.434027777777778 -0.242809077201637 0.135933793110929
-0.434027777777778 -0.242137518642218 0.145244840668698
-0.438292761124524 -0.246527777777778 0.159012426211582
-0.443775426330339 -0.246527777777778 0.158830468552105
-0.434027777777778 -0.243763348630463 0.183520817307589
-0.434027777777778 -0.245673283184385 0.197026818351457
-0.434027777777778 -0.239907000624167 0.200442615712961
-0.434027777777778 -0.240080898825492 0.203021969971665
-0.434691808762134 -0.246527777777778 0.226606253892108
-0.434027777777778 -0.240951119889358 0.234289641431474
-0.435546784372637 -0.246527777777778 0.241241590031591
-0.439089955085074 -0.246527777777778 0.253755515251025
-0.434027777777777 -0.244624505111886 0.269615452141224
-0.434027777777778 -0.246527777777778 0.269439045064884
-0.434027777777778 -0.241310203999807 0.28091931263214
-0.434027777777778 -0.239376402227184 0.294960239650109
-0.434027777777778 -0.246441010609731 0.314950887772657
-0.434027777777777 -0.243787369870033 0.320238896481317
-0.439052650280904 -0.246527777777778 0.326319086292809
-0.435956375208189 -0.246527777777778 0.335273970386846
-0.436360515609337 -0.246527777777778 0.341769324520846
-0.41435380553627 -0.256944444444444 0.376655824468339
-0.424788515518649 -0.256944444444444 0.375768022514737
-0.402145258366325 -0.270833333333333 0.406618852552174
-0.40189413302952 -0.266017937947031 0.416666666666667
-0.420353050848754 -0.256382062156099 0.416666666666667
-0.427847785147992 -0.247720651907801 0.416666666666667
-0.438433611826469 -0.243788628156753 0.416666666666667
-0.44669377261401 -0.234434192497628 0.416666666666667
-0.460988834336541 -0.221962389728759 0.416666666666667
-0.471097990791567 -0.216790042856384 0.416666666666667
-0.4839190465791 -0.206845556373922 0.416666666666667
-0.490356860316796 -0.20540627775991 0.416666666666667
-0.443430033942182 -0.246527777777778 0.00028013124444366
-0.453375878858004 -0.246527777777778 0.0130552241670883
-0.443634758907652 -0.246527777777778 0.0286741432792311
-0.45076663374019 -0.246527777777778 0.0288619596939349
-0.445360396625446 -0.246527777777778 0.0447749152342973
-0.446782376687268 -0.246527777777778 0.0585440215747541
-0.448972374049516 -0.246527777777778 0.0688266207906724
-0.457417405335892 -0.246527777777778 0.0702531702456879
-0.446413965777949 -0.246527777777778 0.0886362912749674
-0.438831743583608 -0.246527777777778 0.10591258850735
-0.457260019943415 -0.246527777777778 0.104469723234428
-0.454579948903551 -0.246527777777778 0.120284743252197
-0.448471496125035 -0.246527777777778 0.128413179803251
-0.451224511848731 -0.246527777777778 0.13546190108045
-0.452520240054625 -0.246527777777778 0.147830402480111
-0.441081739038895 -0.246527777777778 0.169523733474857
-0.454134261083187 -0.246527777777778 0.162460376633474
-0.44996050075205 -0.246527777777778 0.181576272646885
-0.451352153101394 -0.246527777777778 0.189497016157105
-0.447107388766301 -0.246527777777778 0.201558025587395
-0.445604739549598 -0.246527777777778 0.215275942661695
-0.445815781346296 -0.246527777777778 0.231249504550098
-0.447329710580577 -0.246527777777778 0.239955983650325
-0.442416105948627 -0.246527777777778 0.249277546948353
-0.456540556816139 -0.246527777777778 0.254911165061569
-0.44566337523235 -0.246527777777778 0.264245834468141
-0.449054505784707 -0.246527777777778 0.278858844942522
-0.447905967504693 -0.246527777777778 0.297630252021026
-0.456153562441415 -0.246527777777778 0.292915027165993
-0.454422923347397 -0.246527777777778 0.304002893003315
-0.450292064452896 -0.246527777777778 0.309487507089105
-0.441252080283278 -0.246527777777778 0.329158750020207
-0.44599065451163 -0.246527777777778 0.347241899765473
-0.458803425881544 -0.246527777777778 0.349053911380091
-0.432996857447668 -0.256944444444444 0.377337280834876
-0.412216769697261 -0.270833333333333 0.407960325754789
-0.415651466010463 -0.270833333333333 0.416484468581717
-0.422457604629984 -0.270833333333333 0.414235476363078
-0.439115114943585 -0.2596359146911 0.416666666666667
-0.438894076214837 -0.249199104623134 0.416666666666667
-0.457301077427067 -0.240959445755276 0.416666666666667
-0.470266799454346 -0.239882779729729 0.416666666666667
-0.479308191521841 -0.231576749501243 0.416666666666667
-0.485678270729731 -0.22154462152746 0.416666666666667
-0.473425077546514 -0.246527777777778 0.0126099574319813
-0.463955636730684 -0.246527777777778 0.020284265243381
-0.47425098127517 -0.246527777777778 0.026657424931027
-0.468178846247181 -0.246527777777778 0.0429757928694822
-0.464403040543059 -0.246527777777778 0.0527814273321231
-0.469509501641334 -0.246527777777778 0.0689765876575595
-0.463493117423041 -0.246527777777778 0.0740656169606241
-0.458217427510114 -0.246527777777778 0.0879472760393894
-0.463506206384852 -0.246527777777778 0.100591846428609
-0.469240743085299 -0.246527777777778 0.0969790669462965
-0.46715627793057 -0.246527777777778 0.113734708029977
-0.463706827987004 -0.246527777777778 0.131615598637865
-0.456576458324697 -0.246527777777778 0.146117996379255
-0.460915593859125 -0.246527777777778 0.153162097257082
-0.462395820412068 -0.246527777777778 0.162412850172507
-0.464018282845657 -0.246527777777778 0.179712948971248
-0.461165433718235 -0.246527777777778 0.183186947484707
-0.461182932375402 -0.246527777777778 0.197022735383302
-0.47437682377988 -0.246527777777778 0.20155669690627
-0.470871519306781 -0.246527777777778 0.208443726991121
-0.472532997140034 -0.246527777777778 0.216390794165128
-0.468852025109373 -0.246527777777778 0.230283775255024
-0.470552756644451 -0.246527777777778 0.241282114983151
-0.465255909326195 -0.246527777777778 0.259839919463481
-0.459826564819065 -0.246527777777778 0.268530534794613
-0.473288402449425 -0.246527777777778 0.265301672577992
-0.466972172834095 -0.246527777777778 0.29643889573646
-0.462583610445384 -0.246527777777778 0.308123491994698
-0.469905717773945 -0.246527777777778 0.313702375423944
-0.468471292327903 -0.246527777777778 0.319733335852206
-0.46405205972669 -0.246527777777778 0.331737494944832
-0.472744301692049 -0.246527777777778 0.333756016844982
-0.453223835453286 -0.256944444444444 0.375518995094341
-0.426048746729268 -0.270833333333333 0.405855204942699
-0.437805494359563 -0.270833333333333 0.415178506090849
-0.440192796715693 -0.265831715841922 0.416666666666667
-0.452266974630755 -0.255114627097092 0.416666666666667
-0.459509205334197 -0.256025765394156 0.416666666666667
-0.471681722992273 -0.242527652718218 0.416666666666667
-0.480903408708365 -0.232367632623909 0.416666666666667
-0.478121103313397 -0.256944444444444 0.38273946626904
-0.447143239172094 -0.269792868241999 0.416666666666667
-0.457568542429654 -0.269174226188478 0.416666666666667
-0.469030477009728 -0.253494276646264 0.416666666666667
-0.485448428642643 -0.246294431580941 0.416666666666667
-0.497400399316508 -0.23451749994637 0.416666666666666
-0.476039954522833 -0.270833333333333 0.403195896061
-0.470069116810664 -0.270833333333333 0.416577921078491
-0.476078032390161 -0.263112446482231 0.416666666666667
-0.486489501267695 -0.254784710645928 0.416666666666667
-0.499420450002084 -0.252834536120858 0.416666666666667
-0.483689321457597 -0.270833333333333 0.409483811637646
-0.477977023359951 -0.270833333333333 0.415886879351235
-0.498382413253491 -0.270833333333333 0.405981719324994
0.432656251559796 -0.270647157440273 0.416666666666667
0.428637495386861 -0.264176787841842 0.416666666666667
0.422126164781763 -0.265881939652431 0.416666666666667
0.402388951691364 -0.26471865726695 0.416666666666667
0.390889213212204 -0.265682588996787 0.416666666666667
0.378394718301918 -0.270592555918725 0.416666666666667
0.360562570989885 -0.269960833217192 0.416666666666667
0.428060451376159 -0.257099468471322 0.416666666666667
0.415473354062609 -0.25713835604943 0.416666666666667
0.406555953599406 -0.261183039912403 0.416666666666667
0.397373734324538 -0.261784970546415 0.416666666666667
0.392668575476463 -0.262870356648957 0.416666666666667
0.38275102484914 -0.258373633755854 0.416666666666667
0.36555118846412 -0.26530434367748 0.416666666666667
0.360041291900303 -0.267313220657341 0.416666666666667
0.354757106257111 -0.268489596359499 0.416666666666667
0.345108179762126 -0.269357801405081 0.416666666666667
0.340996938129997 -0.261726617040375 0.416666666666667
0.322871010249993 -0.270293669097099 0.416666666666667
0.317808076832675 -0.269179972792348 0.416666666666667
0.313895253080709 -0.266745447618624 0.416666666666667
0.277927707996773 -0.268243371941978 0.416666666666667
0.425811650062285 -0.250918421642031 0.416666666666667
0.417331650191729 -0.249005371147309 0.416666666666667
0.412150736122124 -0.248274023414549 0.416666666666667
0.394193807757435 -0.253728625690328 0.416666666666667
0.398078085992828 -0.252091900356692 0.416666666666667
0.384797532512194 -0.250794973111242 0.416666666666667
0.368160969908703 -0.25286837738604 0.416666666666666
0.362150726092401 -0.257946252732099 0.416666666666667
0.356571756289168 -0.256965151546094 0.416666666666667
0.34352697022788 -0.254749012008015 0.416666666666667
0.335361125267617 -0.254473504795734 0.416666666666667
0.331659464553726 -0.259191213995324 0.416666666666667
0.318155369434487 -0.262485157350109 0.416666666666667
0.304403773781494 -0.258391420018047 0.416666666666667
0.30288656042927 -0.260679524273575 0.416666666666667
0.28874272544494 -0.26579323900228 0.416666666666667
0.281666351055545 -0.262689126528931 0.416666666666667
0.270857431287764 -0.266838919868933 0.416666666666666
0.260004231230556 -0.261209617962593 0.416666666666667
0.257982644846397 -0.262525336350764 0.416666666666666
0.244348230637183 -0.266496862201463 0.416666666666667
0.231236156874744 -0.266546526634839 0.416666666666667
0.192230871804571 -0.268754649932722 0.416666666666666
0.420434627359336 -0.238732880001663 0.416666666666667
0.416700793343269 -0.245382662633885 0.416666666666667
0.404521405239904 -0.245639441041158 0.416666666666666
0.394485247859658 -0.244963645172576 0.416666666666666
0.39024632684996 -0.243322920472116 0.416666666666667
0.383418617437047 -0.248698958821117 0.416666666666667
0.372769268725041 -0.247234215318103 0.416666666666667
0.362331528174172 -0.250348755088863 0.416666666666667
0.351949893782936 -0.247767455800832 0.416666666666667
0.34174666960072 -0.244765179020241 0.416666666666667
0.344550161218019 -0.250127744252926 0.416666666666667
0.330724858309573 -0.2461747226744 0.416666666666667
0.318510522880559 -0.251544469227354 0.416666666666666
0.306117124237455 -0.247213602011753 0.416666666666666
0.299161464394601 -0.248600008187988 0.416666666666667
0.287931291800727 -0.248782517012331 0.416666666666667
0.280681526683323 -0.254629585957932 0.416666666666667
0.273875551539112 -0.251795532847986 0.416666666666667
0.256518350913905 -0.252897626217474 0.416666666666667
0.250896138821813 -0.255022782937451 0.416666666666667
0.236702875674925 -0.257080456680256 0.416666666666667
0.234539430691433 -0.259087058727654 0.416666666666667
0.216908781181194 -0.255391325175572 0.416666666666667
0.217217582593928 -0.261493393727158 0.416666666666667
0.206848110475728 -0.258809639563132 0.416666666666667
0.195588556526558 -0.265902287166825 0.416666666666666
0.183446327547729 -0.267046302033651 0.416666666666667
0.17776341597311 -0.266181448630606 0.416666666666666
0.165124490351648 -0.260880094297578 0.416666666666667
0.149780198912715 -0.261322326766123 0.416666666666667
0.142802180471161 -0.267902586796642 0.416666666666667
0.122130785700453 -0.265739453113281 0.416666666666667
0.11538634931064 -0.266961757516142 0.416666666666666
0.42488056243867 -0.230979501423501 0.416666666666667
0.411844610074651 -0.234013812296811 0.416666666666667
0.408080685184914 -0.235198965075803 0.416666666666667
0.405134109459436 -0.237812328613542 0.416666666666667
0.394660928664262 -0.231507666990422 0.416666666666667
0.389724245049432 -0.238863738090991 0.416666666666667
0.379759460856336 -0.237285772274827 0.416666666666667
0.36290161697495 -0.239130325077647 0.416666666666667
0.352126282661556 -0.23661461918508 0.416666666666667
0.341027774908891 -0.234547938915238 0.416666666666666
0.337346837347205 -0.240114028684943 0.416666666666667
0.327350572225956 -0.238535760081211 0.416666666666667
0.321206365966385 -0.242341364116467 0.416666666666667
0.31216622567827 -0.246044455958893 0.416666666666667
0.299423441185498 -0.240474852096025 0.416666666666667
0.294923505585083 -0.246661659812566 0.416666666666667
0.283460102347842 -0.243404785708615 0.416666666666667
0.270964012654503 -0.24382312812126 0.416666666666667
0.258208964108366 -0.248923902101965 0.416666666666667
0.25567993997507 -0.243428837019189 0.416666666666667
0.241411777177806 -0.247555497024509 0.416666666666667
0.239173123950063 -0.245404083213653 0.416666666666667
0.214679753401299 -0.247991535392337 0.416666666666666
0.215437749617937 -0.251754621561745 0.416666666666667
0.207925180485056 -0.252292176624026 0.416666666666667
0.186708948328301 -0.253905987701581 0.416666666666667
0.175711519571741 -0.253903975217799 0.416666666666667
0.167212108298854 -0.259372817545587 0.416666666666667
0.1545960823929 -0.251551833158016 0.416666666666667
0.146823707032795 -0.253583979931353 0.416666666666667
0.137210234381669 -0.260666377563262 0.416666666666667
0.130251974495507 -0.25977465813416 0.416666666666667
0.128538713043891 -0.261440877082814 0.416666666666666
0.102310661036357 -0.265139992850276 0.416666666666667
0.0991814557489276 -0.25962858786754 0.416666666666667
0.0909766171912463 -0.259639035232392 0.416666666666667
0.076954103045819 -0.262867617831187 0.416666666666667
0.0621772278186745 -0.263569169748197 0.416666666666667
0.05025951071628 -0.262394882711723 0.416666666666667
0.0460148458400356 -0.270535804933196 0.416666666666666
0.0169055446400698 -0.263172141301653 0.416666666666667
0.00297108259848539 -0.269998415984306 0.416666666666667
-0.0207652658586964 -0.268194203565621 0.416666666666667
-0.0431360616390723 -0.270277367526999 0.416666666666667
0.423953436794148 -0.22536073851549 0.416666666666667
0.419601409054177 -0.219603751454033 0.416666666666666
0.408886176263362 -0.222093043027924 0.416666666666667
0.399284492326667 -0.222524102734561 0.416666666666667
0.390380177681611 -0.228118609475563 0.416666666666667
0.387361898175836 -0.226885824569482 0.416666666666667
0.373457957860886 -0.223566294321389 0.416666666666667
0.366343528668969 -0.22768394422612 0.416666666666666
0.351405071044991 -0.228232165294978 0.416666666666667
0.340696868363514 -0.228042569963197 0.416666666666667
0.34437087788212 -0.234742464201756 0.416666666666666
0.328585045299535 -0.231129301777746 0.416666666666667
0.31721249268677 -0.234498385924222 0.416666666666667
0.31653077315453 -0.235253298123256 0.416666666666667
0.304833385796854 -0.238284412552526 0.416666666666667
0.289548124632144 -0.237980577074809 0.416666666666667
0.277095242350439 -0.237906295211825 0.416666666666667
0.27854982661427 -0.233086051525036 0.416666666666666
0.265292997591834 -0.232668315615924 0.416666666666667
0.250235827271793 -0.237561250104601 0.416666666666667
0.243566907510567 -0.238972288577271 0.416666666666667
0.229187993820509 -0.237218212491231 0.416666666666667
0.216659157153013 -0.24504786071982 0.416666666666666
0.211538418399813 -0.244138280011043 0.416666666666667
0.201975443002574 -0.243940953313318 0.416666666666667
0.190234036132738 -0.240284018047462 0.416666666666667
0.180245322556605 -0.242757368056853 0.416666666666667
0.175473945274083 -0.248826428451536 0.416666666666667
0.160699541372503 -0.244530982369809 0.416666666666667
0.157381202580345 -0.249241691560045 0.416666666666667
0.139354847365993 -0.248132786789731 0.416666666666667
0.13415205650845 -0.252480219235965 0.416666666666667
0.116677691819409 -0.254951888324004 0.416666666666666
0.10904047019967 -0.246488787030604 0.416666666666667
0.0940330227734569 -0.247772738479518 0.416666666666667
0.0827612405953195 -0.253160946647194 0.416666666666667
0.0724638437262066 -0.256896284906813 0.416666666666667
0.0569166901242423 -0.250482747836015 0.416666666666667
0.0590764856576963 -0.25792702506226 0.416666666666667
0.0488405954251 -0.254520230221634 0.416666666666667
0.0307604107845422 -0.258745709713281 0.416666666666667
0.0184415750703001 -0.254894534008646 0.416666666666667
0.00942555989599767 -0.259102061280579 0.416666666666667
-0.000357334422433408 -0.256170902357341 0.416666666666667
-0.0112208912353645 -0.258734062953385 0.416666666666667
-0.0370131081671713 -0.259274947439507 0.416666666666667
-0.0324252173244034 -0.265956375818728 0.416666666666666
-0.0597925712093802 -0.264156521225313 0.416666666666667
-0.0591610207804943 -0.267713724863816 0.416666666666667
-0.082786039078442 -0.267764958458428 0.416666666666667
-0.100826748633364 -0.267375746635063 0.416666666666667
-0.120169701701081 -0.266081801018942 0.416666666666667
-0.124910786312515 -0.267667869805181 0.416666666666667
-0.131715017330003 -0.268006778939153 0.416666666666667
0.424118454187194 -0.213220389236616 0.416666666666667
0.413996776044999 -0.215906257938063 0.416666666666667
0.404762757016345 -0.2152737180297 0.416666666666667
0.397632043863794 -0.213344094245374 0.416666666666667
0.396039482228846 -0.219160239141412 0.416666666666667
0.379499212511046 -0.222297142443973 0.416666666666667
0.372676463810409 -0.222243394839779 0.416666666666667
0.365040610803479 -0.2179896341135 0.416666666666667
0.353799531337934 -0.216716801028185 0.416666666666667
0.349539710893434 -0.22385044444949 0.416666666666667
0.337254193967182 -0.221989085215938 0.416666666666667
0.323025370947251 -0.224870659446779 0.416666666666667
0.316161294948752 -0.22298182664447 0.416666666666667
0.310394154984298 -0.225483018139173 0.416666666666666
0.295913500614497 -0.225766711033894 0.416666666666667
0.29279989718868 -0.221504089060413 0.416666666666667
0.277853530086777 -0.222761249530338 0.416666666666667
0.264652949712228 -0.226604804997223 0.416666666666667
0.267942583698299 -0.229280219359559 0.416666666666667
0.251080944110116 -0.22833942314039 0.416666666666667
0.240621980458222 -0.226653117011995 0.416666666666667
0.233927953526367 -0.22955797693719 0.416666666666667
0.22326333501166 -0.231958261705255 0.416666666666666
0.213200889471687 -0.236870503380214 0.416666666666667
0.207472159318017 -0.232949240772726 0.416666666666667
0.184477245700148 -0.238480576376952 0.416666666666666
0.17555727550344 -0.239582281512477 0.416666666666667
0.166803170218902 -0.234738302157464 0.416666666666667
0.157871051274591 -0.23280096374751 0.416666666666667
0.152094029061672 -0.241089846503452 0.416666666666667
0.134160244466079 -0.234381840500239 0.416666666666667
0.129442794310988 -0.236516963028673 0.416666666666667
0.124602773975079 -0.243005122793415 0.416666666666667
0.107280279592127 -0.238661493243365 0.416666666666666
0.0992097899710871 -0.243703493145444 0.416666666666667
0.0846910537056485 -0.240862508877822 0.416666666666666
0.069684512498985 -0.246148788058691 0.416666666666667
0.0595837973693494 -0.245766623348754 0.416666666666667
0.0479518844762242 -0.245049419509208 0.416666666666667
0.0412781280862023 -0.251085912366922 0.416666666666667
0.0342974305323097 -0.246735593602411 0.416666666666667
0.0185698673965419 -0.251442554894956 0.416666666666667
0.0102583229473932 -0.254060187562875 0.416666666666667
-0.00208324844042153 -0.25100300423455 0.416666666666667
-0.0211366001728122 -0.253669172830777 0.416666666666667
-0.0289281395351972 -0.248730690044077 0.416666666666667
-0.0351082150127039 -0.250837805813092 0.416666666666667
-0.0499172722199263 -0.257732116447217 0.416666666666667
-0.071558207387565 -0.256792815481605 0.416666666666667
-0.0760980134426473 -0.259011114567078 0.416666666666667
-0.0870201735896283 -0.260446012250942 0.416666666666667
-0.0949203779311153 -0.263049001152444 0.416666666666667
-0.117901417658242 -0.259778253735958 0.416666666666667
-0.123153858924191 -0.260588221504955 0.416666666666667
-0.138111560345741 -0.257029210658625 0.416666666666666
-0.14479577356452 -0.265974965284474 0.416666666666667
-0.155199967959689 -0.267387162456531 0.416666666666666
-0.169996035960116 -0.260052650957387 0.416666666666667
-0.182333666931546 -0.269654043676353 0.416666666666667
-0.206860007322375 -0.267403523833907 0.416666666666667
-0.223001179808731 -0.269973403163069 0.416666666666667
-0.233867700717778 -0.264059705641237 0.416666666666667
-0.250368131431056 -0.26889681099673 0.416666666666667
-0.272367808537733 -0.268654137514613 0.416666666666667
0.423607448993188 -0.206425412905271 0.416666666666667
0.423207640746828 -0.209652441291414 0.416666666666667
0.406624042964608 -0.208817747690087 0.416666666666666
0.401156313396354 -0.209910188818177 0.416666666666667
0.394189242096996 -0.206747370847408 0.416666666666667
0.378063628528345 -0.213193963918395 0.416666666666666
0.368834617524686 -0.210037161204418 0.416666666666666
0.362893799940786 -0.21469804683983 0.416666666666666
0.358628928252499 -0.215755074323494 0.416666666666667
0.344514519693381 -0.210961185228595 0.416666666666667
0.336950408911015 -0.211438279306054 0.416666666666667
0.32880800038662 -0.21165490080372 0.416666666666667
0.318775133631842 -0.212658557391962 0.416666666666666
0.310057230890117 -0.215008339165555 0.416666666666667
0.291677029540474 -0.212550231169974 0.416666666666667
0.29938144778848 -0.220737914613949 0.416666666666667
0.28283552084972 -0.221524872062826 0.416666666666667
0.266209732666525 -0.219135136264377 0.416666666666667
0.257841841055517 -0.222301560987959 0.416666666666667
0.248109802654879 -0.217603414504516 0.416666666666667
0.240672223273188 -0.224886330821137 0.416666666666667
0.233572925414582 -0.221096946242957 0.416666666666666
0.223837660405233 -0.225443374705251 0.416666666666667
0.212576946112027 -0.218648297138427 0.416666666666666
0.201682232207571 -0.227562878432045 0.416666666666667
0.190510320549295 -0.226784742073914 0.416666666666667
0.182685017458143 -0.229010001714176 0.416666666666667
0.167311326723726 -0.227807798059585 0.416666666666667
0.158118991970486 -0.229489815141395 0.416666666666667
0.151635101393856 -0.226399873282994 0.416666666666667
0.133973605479119 -0.22692799261464 0.416666666666667
0.135258607337189 -0.22515148095442 0.416666666666667
0.115632095960191 -0.233029138863565 0.416666666666667
0.102589255897603 -0.230056481842405 0.416666666666666
0.100346402448507 -0.228042615668986 0.416666666666667
0.091144044888981 -0.232175391181315 0.416666666666667
0.0739391126146184 -0.235370865834313 0.416666666666667
0.069159529991934 -0.236022761020827 0.416666666666667
0.056037654991637 -0.231360364750212 0.416666666666667
0.0355450990998877 -0.237846556342914 0.416666666666667
0.0360104746996609 -0.239419699690413 0.416666666666667
0.0248327127298142 -0.237667471293493 0.416666666666666
0.0075522582899096 -0.235775562659882 0.416666666666667
-0.00234591035699564 -0.243045148206058 0.416666666666667
-0.0112201631982086 -0.241657424904106 0.416666666666667
-0.0297190410888323 -0.237647712989554 0.416666666666666
-0.0370150617132015 -0.239025518616846 0.416666666666667
-0.0465492561243355 -0.242179697853574 0.416666666666667
-0.0688196431701115 -0.243384526466231 0.416666666666667
-0.0782286822811083 -0.246973728621215 0.416666666666667
-0.0925832012749302 -0.247493833372933 0.416666666666667
-0.101967030488398 -0.249544229322597 0.416666666666667
-0.116378208098531 -0.253485906701439 0.416666666666667
-0.120606510166516 -0.245528666304645 0.416666666666667
-0.13903676927578 -0.249683066099608 0.416666666666667
-0.149360592328174 -0.251022489947388 0.416666666666666
-0.169733467123809 -0.251449740311471 0.416666666666667
-0.173409568101064 -0.252565597249482 0.416666666666667
-0.178272615029097 -0.256159320207304 0.416666666666667
-0.194491377965902 -0.254046531819519 0.416666666666667
-0.220648760689562 -0.259701367826548 0.416666666666667
-0.229211173269926 -0.258550569244706 0.416666666666667
-0.251677649585378 -0.262940953779605 0.416666666666667
-0.254519604892628 -0.265223905202494 0.416666666666667
-0.265852309613375 -0.260321835505854 0.416666666666666
-0.274850748286909 -0.265120579892135 0.416666666666667
-0.30193915138301 -0.265101239530969 0.416666666666667
-0.314845448974929 -0.264327401862259 0.416666666666667
-0.322995939785312 -0.26098063252859 0.416666666666667
-0.338147794616978 -0.268592548849566 0.416666666666667
-0.36817453530993 -0.269924002253955 0.416666666666667
-0.375371956506284 -0.269916283102208 0.416666666666667
-0.409049373815123 -0.267881486309212 0.416666666666667
-0.425171358894062 -0.269034298402755 0.416666666666667
0.429401033024938 -0.197619080091892 0.416666666666667
0.413424611326186 -0.196946943017908 0.416666666666667
0.403405189975664 -0.197638425885305 0.416666666666666
0.395184298736758 -0.195906775287085 0.416666666666667
0.39235748320936 -0.196798686881415 0.416666666666667
0.377336236427575 -0.203149904465469 0.416666666666667
0.365560153925775 -0.203127652134575 0.416666666666667
0.358203967086744 -0.206442083231693 0.416666666666667
0.357590822992411 -0.199958324530266 0.416666666666667
0.344209147978097 -0.202866032174969 0.416666666666667
0.337363735315777 -0.208671222289497 0.416666666666666
0.328734267485252 -0.2032325429891 0.416666666666667
0.317734414765303 -0.205850351385917 0.416666666666667
0.316128723171558 -0.202851001142253 0.416666666666666
0.298756659121319 -0.207597705412238 0.416666666666667
0.293034074233583 -0.20954206526154 0.416666666666666
0.273912989307758 -0.20536100998477 0.416666666666667
0.27055872372903 -0.205557963495134 0.416666666666667
0.262722842729304 -0.208154545638865 0.416666666666667
0.254673647036842 -0.215079364464938 0.416666666666666
0.24436531156545 -0.214306232809274 0.416666666666667
0.234765630809041 -0.210952359525613 0.416666666666667
0.218756901701888 -0.215530833797462 0.416666666666667
0.218598886186779 -0.209551489415136 0.416666666666666
0.202691232812543 -0.212788668601354 0.416666666666667
0.188178114273608 -0.210792705811765 0.416666666666667
0.180845133923714 -0.21961859307824 0.416666666666667
0.167656751269011 -0.214367890682342 0.416666666666667
0.161889674836716 -0.215550892813576 0.416666666666667
0.150075494005525 -0.222040753001481 0.416666666666667
0.139071819321532 -0.2174007068173 0.416666666666667
0.125384709043035 -0.219872276596722 0.416666666666667
0.116553045557753 -0.21961019624401 0.416666666666667
0.102947618508556 -0.21978169306396 0.416666666666667
0.0990480776152699 -0.225353356131883 0.416666666666667
0.0886311506282732 -0.22244579155373 0.416666666666666
0.072506114580944 -0.226977938040129 0.416666666666667
0.0656145184689123 -0.224946184939085 0.416666666666667
0.0444085881883011 -0.222368552100175 0.416666666666666
0.0446912455313749 -0.228509869427732 0.416666666666667
0.0329105234756333 -0.222871737837131 0.416666666666667
0.0173509001296462 -0.232720899574937 0.416666666666667
0.00774002633888592 -0.231428890794471 0.416666666666667
-0.00384549088014488 -0.225989947280244 0.416666666666667
-0.017500215617565 -0.227940446227981 0.416666666666667
-0.0316374471092342 -0.229010142996433 0.416666666666667
-0.0426351966709911 -0.232954369883027 0.416666666666667
-0.0506008555397042 -0.236472567400388 0.416666666666667
-0.0631757667538137 -0.235070807092999 0.416666666666667
-0.0720092882280074 -0.23158717833259 0.416666666666667
-0.0890220176175 -0.236037027714291 0.416666666666667
-0.0973199615852587 -0.237644833197629 0.416666666666666
-0.113276333431735 -0.243753438650364 0.416666666666667
-0.127384989038221 -0.242021393687773 0.416666666666667
-0.140817528634266 -0.239736964966392 0.416666666666667
-0.149749026795619 -0.242348612054502 0.416666666666667
-0.166873741896021 -0.245414868730228 0.416666666666667
-0.168490525340615 -0.239840690407641 0.416666666666667
-0.178659806200266 -0.238839006558556 0.416666666666667
-0.206892686777681 -0.246081196012265 0.416666666666667
-0.213350120075869 -0.25049246043223 0.416666666666667
-0.223679549804928 -0.250307805551393 0.416666666666667
-0.241619555808163 -0.246490178783447 0.416666666666667
-0.257702162058302 -0.247267437726997 0.416666666666667
-0.263152440230488 -0.252730908994006 0.416666666666667
-0.287602507667079 -0.246842755735745 0.416666666666667
-0.303950536568604 -0.256302934556465 0.416666666666667
-0.319156739794974 -0.25747895399484 0.416666666666667
-0.319304800885846 -0.252748343967564 0.416666666666667
-0.338143026547724 -0.250541359197176 0.416666666666667
-0.364600235912081 -0.257336471598671 0.416666666666667
-0.367534667015406 -0.256641838753985 0.416666666666666
-0.372714704918248 -0.259600097590234 0.416666666666667
-0.400538989192035 -0.257490313412329 0.416666666666667
-0.413109277274483 -0.257728166835952 0.416666666666667
-0.435275483801993 -0.26265071112073 0.416666666666667
-0.450553153466966 -0.268455750515786 0.416666666666667
-0.45700956945683 -0.259773965547076 0.416666666666667
-0.476490120777535 -0.261618799771257 0.416666666666666
0.426507425689054 -0.187970954071362 0.416666666666667
0.415494978627877 -0.189102084194662 0.416666666666667
0.408835795559019 -0.191390401535947 0.416666666666667
0.403355984552999 -0.192503859395122 0.416666666666667
0.391874789392709 -0.192004440447988 0.416666666666667
0.383363172438449 -0.191421790018443 0.416666666666667
0.367006119386789 -0.189446881475442 0.416666666666666
0.355204905297821 -0.193797659757296 0.416666666666666
0.353505241471155 -0.190047741910059 0.416666666666667
0.343855658929018 -0.190557895378146 0.416666666666667
0.337118970390701 -0.19705904624063 0.416666666666667
0.331591647393167 -0.198176366654734 0.416666666666667
0.316223547600934 -0.198574249221736 0.416666666666667
0.30821482335318 -0.197480212903607 0.416666666666667
0.294082376052165 -0.196093699568897 0.416666666666667
0.289090122882536 -0.195007171328138 0.416666666666667
0.273162890344977 -0.201282328274995 0.416666666666667
0.264400740896793 -0.199117569138688 0.416666666666666
0.25754431145819 -0.201153169153848 0.416666666666667
0.259393877071099 -0.20336440228846 0.416666666666666
0.242702116292119 -0.199251199122589 0.416666666666666
0.235276268248388 -0.207335293472106 0.416666666666667
0.217597338499172 -0.208010158803882 0.416666666666667
0.206690675119332 -0.207594308749198 0.416666666666667
0.202274086496872 -0.20548041476272 0.416666666666667
0.191667920234213 -0.20490189201163 0.416666666666667
0.180757259682672 -0.210650467929227 0.416666666666667
0.170524520539505 -0.205451537512052 0.416666666666666
0.157079880321747 -0.208182510675667 0.416666666666667
0.15632668735811 -0.206672880178628 0.416666666666667
0.131344425206982 -0.210915401702149 0.416666666666667
0.128404802390032 -0.214207221139679 0.416666666666667
0.11397791568374 -0.212961627927385 0.416666666666667
0.101945239815036 -0.211161697188207 0.416666666666667
0.100426284789709 -0.21425303005586 0.416666666666667
0.081379080608413 -0.213384586135258 0.416666666666667
0.0783882656198672 -0.216962285922329 0.416666666666667
0.0619742111408613 -0.217223547192309 0.416666666666667
0.055660441994951 -0.21104186915617 0.416666666666667
0.0506180343861569 -0.21590572081883 0.416666666666666
0.0295846336095162 -0.219703483310695 0.416666666666667
0.021470232350343 -0.217350309216974 0.416666666666667
0.00747154000459722 -0.215568998488534 0.416666666666667
-0.00211532239898389 -0.216471732307008 0.416666666666667
-0.0206513439364625 -0.217801464577601 0.416666666666667
-0.0240318564823642 -0.226201372339775 0.416666666666666
-0.0489576217633812 -0.222757514206444 0.416666666666667
-0.0513424999107573 -0.227519364851795 0.416666666666666
-0.0649931826922467 -0.228464575640015 0.416666666666667
-0.0734384383901089 -0.22919519499445 0.416666666666667
-0.0862531198627139 -0.221846906830647 0.416666666666667
-0.102188130981047 -0.22711111642929 0.416666666666667
-0.114849222968002 -0.232280055579599 0.416666666666667
-0.124932817285012 -0.234120454067183 0.416666666666667
-0.135712173519976 -0.234002647834388 0.416666666666667
-0.147710752906467 -0.226423011234876 0.416666666666667
-0.172655803607693 -0.227627875847392 0.416666666666667
-0.175108028522749 -0.236074569335697 0.416666666666667
-0.190428324028899 -0.229553868312175 0.416666666666667
-0.200971000758979 -0.239351515551576 0.416666666666667
-0.210816445776718 -0.236147043255328 0.416666666666667
-0.228501354549605 -0.24105574735951 0.416666666666667
-0.235761978528553 -0.233455505671679 0.416666666666667
-0.250846110144664 -0.241205742565006 0.416666666666667
-0.25899640078502 -0.239017900379399 0.416666666666667
-0.278793218493312 -0.245891578207185 0.416666666666667
-0.290802122961388 -0.243850059664285 0.416666666666667
-0.313697850083469 -0.238978890957857 0.416666666666666
-0.317120741352841 -0.241421765489454 0.416666666666667
-0.339485363199258 -0.242434830406485 0.416666666666667
-0.354191264897115 -0.249339867929014 0.416666666666667
-0.365747810710846 -0.246544297889848 0.416666666666667
-0.378006234871435 -0.244393313718313 0.416666666666667
-0.39508108016468 -0.245448092899435 0.416666666666667
-0.42105984681559 -0.249343460622191 0.416666666666667
-0.424731289434546 -0.249727129368269 0.416666666666667
-0.446471720721332 -0.252492540416269 0.416666666666667
-0.452916366275744 -0.248563875048789 0.416666666666667
-0.477714123532003 -0.260421632300408 0.416666666666667
-0.484798495632601 -0.256769146782777 0.416666666666667
0.424809237314482 -0.183803573161271 0.416666666666667
0.413023130909974 -0.18470967000448 0.416666666666667
0.412024074253195 -0.183468769547014 0.416666666666667
0.400588243792783 -0.185807628344814 0.416666666666667
0.392014408008071 -0.183455453770728 0.416666666666667
0.382291805555995 -0.181788221077362 0.416666666666666
0.368313319038578 -0.186728475812457 0.416666666666667
0.363794066344416 -0.188510939521888 0.416666666666667
0.351315984932098 -0.182187159110191 0.416666666666667
0.3464763554589 -0.190068561728938 0.416666666666667
0.338099871287655 -0.18914974504883 0.416666666666667
0.327518928049264 -0.185340482412433 0.416666666666667
0.313329995738585 -0.187124753729475 0.416666666666667
0.308844297659541 -0.188688008253987 0.416666666666667
0.303088689906017 -0.187394866077172 0.416666666666667
0.292467653390328 -0.191039192989122 0.416666666666667
0.280102720306819 -0.185538709367363 0.416666666666667
0.264190502053402 -0.187863964105239 0.416666666666667
0.257647773516541 -0.193274908978663 0.416666666666667
0.245497005170624 -0.193777716261881 0.416666666666667
0.244009297602929 -0.195052918512305 0.416666666666667
0.230723259144342 -0.195258337098187 0.416666666666667
0.218669794106501 -0.192844486478171 0.416666666666667
0.205389483328191 -0.200186032625949 0.416666666666667
0.193808302075307 -0.19291759090831 0.416666666666667
0.195810287149151 -0.19730804159542 0.416666666666667
0.187833348651898 -0.192475985229993 0.416666666666667
0.167144672964734 -0.202072124030629 0.416666666666666
0.166423026460882 -0.19391413796822 0.416666666666667
0.156215888954715 -0.200815164910131 0.416666666666667
0.139047582052283 -0.200578919941114 0.416666666666667
0.129379005085962 -0.197693701844532 0.416666666666666
0.115947518561971 -0.201307492656948 0.416666666666666
0.105432116027852 -0.203901159856133 0.416666666666667
0.0973333045408853 -0.200905581103226 0.416666666666667
0.0913438710478378 -0.20203125603146 0.416666666666666
0.0700525649630927 -0.201871067576753 0.416666666666667
0.060955511020266 -0.20744310329748 0.416666666666667
0.0549842063587836 -0.207583330760502 0.416666666666667
0.0344417836755409 -0.207391472939465 0.416666666666667
0.0349858007536093 -0.212110317421845 0.416666666666667
0.020532132050535 -0.206735560656058 0.416666666666667
0.00877896808236827 -0.213041774774774 0.416666666666667
0.00273416829070375 -0.207842482622279 0.416666666666667
-0.0150626187914689 -0.210435753974378 0.416666666666667
-0.029555349430988 -0.215539757547564 0.416666666666667
-0.0364633229695295 -0.214365854980204 0.416666666666667
-0.0495591485129299 -0.209812193978639 0.416666666666667
-0.066242455571444 -0.212718902168146 0.416666666666666
-0.0754900965952072 -0.215583552435593 0.416666666666667
-0.0898112123305666 -0.216918618314077 0.416666666666667
-0.109841684901646 -0.21432441906446 0.416666666666667
-0.119726190809665 -0.215673724908356 0.416666666666667
-0.125576855582176 -0.220697211436201 0.416666666666667
-0.147704510414586 -0.223929200840763 0.416666666666666
-0.156555324806093 -0.224801408784184 0.416666666666667
-0.162485569228375 -0.216587922807696 0.416666666666667
-0.180699406712694 -0.21797856908395 0.416666666666667
-0.195420211805331 -0.222244340382334 0.416666666666667
-0.19829361694432 -0.22436655166786 0.416666666666667
-0.209664071228647 -0.222006247783416 0.416666666666667
-0.219511256517195 -0.22780218006599 0.416666666666666
-0.24665933095332 -0.224095804032604 0.416666666666666
-0.258338046012767 -0.233216242963916 0.416666666666667
-0.268857626809249 -0.23064952679992 0.416666666666667
-0.289048524383601 -0.235105575493159 0.416666666666667
-0.299431740184686 -0.231955288985986 0.416666666666667
-0.306443968244059 -0.22943256990032 0.416666666666667
-0.32112073185016 -0.23230720385043 0.416666666666667
-0.345947995993095 -0.231630734293095 0.416666666666667
-0.350200071938928 -0.239945514475151 0.416666666666666
-0.371589965256402 -0.234216728538121 0.416666666666667
-0.384039546218 -0.235045838163676 0.416666666666667
-0.400270799498734 -0.24242186372113 0.416666666666666
-0.423979996945531 -0.239527621606423 0.416666666666667
-0.432799734853066 -0.235258879708173 0.416666666666667
-0.440655144881644 -0.243856127265178 0.416666666666667
-0.461818209548122 -0.238425284154502 0.416666666666667
-0.474495319398722 -0.238629584795748 0.416666666666667
-0.478348711515741 -0.241737328222281 0.416666666666667
-0.49991804476664 -0.243708972673964 0.416666666666667
0.419630676045436 -0.170417448112283 0.416666666666667
0.4200106178833 -0.16970805335924 0.416666666666667
0.408041798345468 -0.177165625828778 0.416666666666667
0.398899830228246 -0.174275120781791 0.416666666666667
0.386214474235314 -0.174613213137649 0.416666666666667
0.374783543884671 -0.178106775386789 0.416666666666667
0.377174953895004 -0.172424229661037 0.416666666666667
0.365875689034403 -0.177438001822624 0.416666666666667
0.350186107169302 -0.173714923951165 0.416666666666666
0.341860496414401 -0.173973514076243 0.416666666666667
0.33473610216194 -0.181772903071754 0.416666666666667
0.328892649758297 -0.174070396298919 0.416666666666667
0.316969226174002 -0.175714561049076 0.416666666666667
0.313194766655707 -0.181662157876621 0.416666666666667
