ply
format ascii 1.0
element vertex 840
property float x
property float y
property float z
end_header
-0.272882471379978 0.0702379414089102 0.0648354786743348
-0.272882471379978 0.0710654811275409 0.0785885295063993
-0.272882471379978 0.0668143481887436 0.0870823646970002
-0.272882471379978 0.0659384898881245 0.103960966537711
-0.272882471379978 0.0621426557556224 0.107568582302198
-0.272882471379978 0.059292516927627 0.115574257693379
-0.272882471379978 0.070738142816156 0.129661865465771
-0.272882471379978 0.0697094130263211 0.135047014275407
-0.10163691304352 0.218305977103983 0.356745127845161
-0.104705895790189 0.218305977103983 0.359079912935448
-0.114211413915318 0.202805046163227 0.363843295173311
-0.124656427924636 0.203558565443009 0.363843295173311
-0.122224105741977 0.195229963708685 0.363843295173311
-0.138459327892256 0.18400586584885 0.363843295173311
-0.142512400125279 0.184124178022984 0.363843295173311
-0.145669895430124 0.176913879822545 0.363843295173311
-0.158112309581709 0.167684719868376 0.363843295173311
-0.173335321208249 0.154152677446163 0.363843295173311
-0.170731747488965 0.149256156051912 0.363843295173311
-0.191945004247515 0.144486884468518 0.363843295173311
-0.199227195499553 0.138398147332977 0.363843295173311
-0.204117648895956 0.120740849325483 0.363843295173311
-0.213954471465536 0.115214310706729 0.363843295173311
-0.21634155406223 0.113090471709916 0.363843295173311
-0.223631199084263 0.106600761344678 0.363843295173311
-0.239065336728657 0.0961134112668559 0.363843295173311
-0.256319047425922 0.085787487389525 0.363843295173311
-0.261782952712554 0.0791927248229178 0.363843295173311
-0.26661245427655 0.0690464300375648 0.363843295173311
-0.277245852376272 0.0599395319329983 0.363843295173311
-0.282382382968569 0.0571252245739874 0.363843295173311
-0.299828043727181 0.0443005690185158 0.363843295173311
-0.311040796290463 0.0353761775864006 0.363843295173311
-0.313981688724278 0.0377256839997888 0.363843295173311
-0.320302191154374 0.0294576351537576 0.363843295173311
-0.329290796195819 0.0196247432870155 0.363843295173311
-0.339719624611678 0.0114827489748824 0.363843295173311
-0.36072836745159 -0.00796931238095685 0.363843295173311
-0.373599681941002 -0.0120078620147522 0.363843295173311
-0.378449253067621 -0.0211223962308734 0.363843295173311
-0.388459877933251 -0.0230782265988786 0.363843295173311
-0.399502423938942 -0.0346998010417427 0.363843295173311
-0.41183427247466 -0.0482474719881662 0.363843295173311
-0.409883806014345 -0.0540500015181806 0.363843295173311
-0.427139644889935 -0.0610491180386828 0.363843295173311
-0.448287518399503 -0.0837481923101545 0.363843295173311
-0.45342004003469 -0.07866861286798 0.363843295173311
-0.470566446082622 -0.0989583540643793 0.363843295173311
-0.470869411724172 -0.0974970794209215 0.363843295173311
-0.272882471379978 0.0618768327525488 0.00235986946987165
-0.272882471379978 0.0517518535624937 0.0190397517080248
-0.272882471379978 0.0494417166346286 0.0214601663089025
-0.272882471379978 0.0507041448036764 0.0370676580993279
-0.272882471379978 0.0487995181423041 0.0383453492674779
-0.272882471379978 0.0546709322774443 0.0608856304188412
-0.272882471379978 0.0525167554883055 0.0647220951668796
-0.272882471379978 0.0561374455385994 0.0808030304035251
-0.272882471379978 0.0510459298316505 0.0814906121118491
-0.272882471379978 0.0538770615141342 0.0990230134511406
-0.272882471379978 0.0461853269590632 0.108255279759328
-0.272882471379978 0.0530217027287612 0.118108565794916
-0.0813981254142507 0.218305977103983 0.363796366127066
-0.0877438062328864 0.210110875533276 0.363843295173311
-0.101325623869993 0.205351891945241 0.363843295173311
-0.106007209289573 0.202469862359001 0.363843295173311
-0.113045046977885 0.188305493790527 0.363843295173311
-0.114970288736355 0.191688954068133 0.363843295173311
-0.122432700381189 0.177741725413579 0.363843295173311
-0.128617391403064 0.174662303521246 0.363843295173311
-0.140624276589177 0.17320613537807 0.363843295173311
-0.156521403339095 0.152934067666447 0.363843295173311
-0.16366557675989 0.150152124466267 0.363843295173311
-0.171240361331009 0.140276827283848 0.363843295173311
-0.178305002464178 0.134103219315835 0.363843295173311
-0.191195944857715 0.130094204896167 0.363843295173311
-0.192915476464976 0.125165671979198 0.363843295173311
-0.20172629227646 0.111516096077764 0.363843295173311
-0.220123135377051 0.106137620885418 0.363843295173311
-0.221858916919522 0.0994931575273464 0.363843295173311
-0.226354525903856 0.0879746664991822 0.363843295173311
-0.243395690647478 0.0858520842819057 0.363843295173311
-0.247064795681514 0.0709010359715141 0.363843295173311
-0.265338684593726 0.0608735801747373 0.363843295173311
-0.276225031014115 0.0516184271950527 0.363843295173311
-0.270771299867453 0.0485426897227742 0.363843295173311
-0.28179974282516 0.0439956112344411 0.363843295173311
-0.294454646367905 0.0352986305103769 0.363843295173311
-0.309458126953676 0.0223418730419902 0.363843295173311
-0.316481035819958 0.0163444363761249 0.363843295173311
-0.331426984191153 0.00191833996938198 0.363843295173311
-0.335187309505899 -0.00643599097551357 0.363843295173311
-0.347291979655754 -0.00627061597348714 0.363843295173311
-0.367976066552723 -0.0203437904891443 0.363843295173311
-0.370287950815428 -0.0285351338028512 0.363843295173311
-0.381606853043808 -0.0379700359377573 0.363843295173311
-0.382501808124228 -0.0407370520136506 0.363843295173311
-0.398961618891837 -0.0500987835324218 0.363843295173311
-0.419481358733568 -0.0661967461327528 0.363843295173311
-0.417089188716613 -0.0645305104278828 0.363843295173311
-0.43625989482879 -0.0891343861145572 0.363843295173311
-0.445112000015838 -0.0896820332145467 0.363843295173311
-0.450223557154991 -0.101877284557214 0.363843295173311
-0.46453821688237 -0.11436671943818 0.363843295173311
-0.272882471379978 0.0377968155736109 0.00402554760606635
-0.272882471379978 0.0375762965993928 0.0154741188742484
-0.272882471379978 0.0344004172278941 0.0179071571965488
-0.272882471379978 0.0467239251690521 0.0378512647129208
-0.272882471379978 0.0487351395957771 0.0572778682977058
-0.272882471379978 0.0417688955890436 0.0523152344376679
-0.272882471379978 0.0389587800502806 0.0593854744767155
-0.272882471379978 0.0424344336287327 0.085065664558783
-0.272882471379978 0.0476994687604948 0.0920340911482911
-0.272882471379978 0.0410594401852584 0.0977930912986851
-0.065289297669604 0.218305977103983 0.357591728799235
-0.0714261585592684 0.216072762712406 0.363843295173311
-0.0785326667583305 0.214400306217925 0.363843295173311
-0.0889277833558531 0.202767443797256 0.363843295173311
-0.096126118836203 0.198967661855351 0.363843295173311
-0.102902630081154 0.187797918198586 0.363843295173311
-0.114283231229901 0.185706839288628 0.363843295173311
-0.115087259215812 0.178908984889169 0.363843295173311
-0.131483404732101 0.164266391745988 0.363843295173311
-0.130279868526732 0.165485227748243 0.363843295173311
-0.145393103018483 0.14800632179538 0.363843295173311
-0.152148055045181 0.147870107156372 0.363843295173311
-0.157036620449709 0.140571742385277 0.363843295173311
-0.165234978008646 0.125943540331801 0.363843295173311
-0.187122896074207 0.120199920524104 0.363843295173311
-0.188963850417807 0.111196249754413 0.363843295173311
-0.190493205143921 0.103133999149561 0.363843295173311
-0.208277096492624 0.0918329941865048 0.363843295173311
-0.212791213955178 0.0926787160511565 0.363843295173311
-0.226420078438907 0.0818643481703523 0.363843295173311
-0.23839541697226 0.0656777232446762 0.363843295173311
-0.241872030582291 0.0676897343625421 0.363843295173311
-0.247029509723412 0.0653420454862744 0.363843295173311
-0.267195732402356 0.0523572279063898 0.363843295173311
-0.266581781815271 0.0469493780871744 0.363843295173311
-0.287933220664239 0.0262742763564862 0.363843295173311
-0.291583396180505 0.0294250884724484 0.363843295173311
-0.298710992648823 0.0143622317733841 0.363843295173311
-0.31977352849435 0.00218894535357264 0.363843295173311
-0.323157675566784 0.00195907877899353 0.363843295173311
-0.327545727769539 -0.00747353580846232 0.363843295173311
-0.346086596902755 -0.0202687212265105 0.363843295173311
-0.352508615072786 -0.0247884001843841 0.363843295173311
-0.355662809256075 -0.0345665595356414 0.363843295173311
-0.374032231036181 -0.0480548020170407 0.363843295173311
-0.37483595342235 -0.047201412133011 0.363843295173311
-0.388926326173026 -0.0636365099493104 0.363843295173311
-0.401824645115092 -0.0672982859222019 0.363843295173311
-0.417534009144496 -0.0847163861366602 0.363843295173311
-0.429602739335552 -0.100529666566326 0.363843295173311
-0.438286265980946 -0.0973757723900114 0.363843295173311
-0.45463760606682 -0.113791476349268 0.363843295173311
-0.458201742062711 -0.119261606308626 0.363843295173311
-0.272882471379978 0.0192199730731981 0.00339804940786625
-0.272882471379978 0.0231762606163851 0.0166073671453911
-0.272882471379978 0.0290948115594445 0.0357864519625642
-0.272882471379978 0.0192140214440927 0.0282261493268818
-0.272882471379978 0.0298103183239086 0.0499810801797225
-0.272882471379978 0.0213575629081027 0.0614824855169306
-0.272882471379978 0.0202875123728723 0.0613728037217936
-0.272882471379978 0.0287457449156666 0.0709254455923519
-0.0537580043287836 0.218305977103983 0.362156613176475
-0.0541891528799894 0.218305977103983 0.362109150040145
-0.0687607403128131 0.212178954153265 0.363843295173311
-0.0740833344535608 0.202987883829897 0.363843295173311
-0.0783448128208106 0.190540877661743 0.363843295173311
-0.0866849240973591 0.188999650179594 0.363843295173311
-0.102357773442843 0.173985182687846 0.363843295173311
-0.100781146387891 0.173844689569521 0.363843295173311
-0.11216282891161 0.168230682100721 0.363843295173311
-0.125650647742757 0.153313434449934 0.363843295173311
-0.127311512496757 0.154720633873579 0.363843295173311
-0.137758095990918 0.150577645323118 0.363843295173311
-0.149229854289551 0.140083534622911 0.363843295173311
-0.155700517031055 0.132606670582627 0.363843295173311
-0.165058478913168 0.120021650785475 0.363843295173311
-0.174451663184919 0.116582603957996 0.363843295173311
-0.182765424759694 0.108976217374423 0.363843295173311
-0.185204667841695 0.0974145305248951 0.363843295173311
-0.203754050128849 0.0903265958414918 0.363843295173311
-0.206532373875955 0.0772559297150456 0.363843295173311
-0.217811566154517 0.0740394379897244 0.363843295173311
-0.221017877569999 0.0739450103518013 0.363843295173311
-0.238230177063153 0.0546255540881749 0.363843295173311
-0.24490607213419 0.0498619512052212 0.363843295173311
-0.25060341334097 0.0460229438031264 0.363843295173311
-0.26984604263657 0.034553259005729 0.363843295173311
-0.270620320515937 0.0273428139219885 0.363843295173311
-0.287981498895194 0.0221989581618114 0.363843295173311
-0.294181326941494 0.0100865005970725 0.363843295173311
-0.297607008516463 0.00352823146012323 0.363843295173311
-0.319855548315201 -0.0141083493424357 0.363843295173311
-0.322298602121874 -0.014239073291766 0.363843295173311
-0.333757817129594 -0.0234073720468621 0.363843295173311
-0.339783391375875 -0.0299797363427617 0.363843295173311
-0.356391632422516 -0.0416299685083615 0.363843295173311
-0.36540819294923 -0.0566957706544049 0.363843295173311
-0.381660944504182 -0.0679591238499161 0.363843295173311
-0.382663523544536 -0.0692299922200345 0.363843295173311
-0.399943305200665 -0.0813810044292954 0.363843295173311
-0.408128529569534 -0.0907801407413899 0.363843295173311
-0.419081896575833 -0.0995559381156736 0.363843295173311
-0.427446923622788 -0.107361601797849 0.363843295173311
-0.432772766788424 -0.111272408550551 0.363843295173311
-0.449219700313859 -0.127244704214984 0.363843295173311
-0.272882471379978 0.0157962470800698 0.00869113843778001
-0.272882471379978 0.00678795017996181 0.0152206677355845
-0.272882471379978 0.0209125998620228 0.0342302597679338
-0.272882471379978 0.0048012146905205 0.0325341339159004
-0.272882471379978 0.00629869446653979 0.0471928352424428
-0.0325696367942848 0.218305977103983 0.354277356208621
-0.272882471379978 0.0195854244130683 0.0733367594106682
-0.0421717178968298 0.218305977103983 0.362829954603776
-0.0471597474771208 0.204243272469326 0.363843295173311
-0.0595366856086137 0.199451660674987 0.363843295173311
-0.0658932231745793 0.192350097059296 0.363843295173311
-0.0697508805875543 0.188472301479562 0.363843295173311
-0.086260948138522 0.184624861834896 0.363843295173311
-0.0924289625117123 0.171751865713735 0.363843295173311
-0.093295456128233 0.166580352654999 0.363843295173311
-0.098161230149176 0.161165292287967 0.363843295173311
-0.122069155507298 0.1465388912416 0.363843295173311
-0.121659534087773 0.148731869218074 0.363843295173311
-0.125100401749335 0.138746617668972 0.363843295173311
-0.137889468715252 0.127182700725608 0.363843295173311
-0.14718211499379 0.12493206478629 0.363843295173311
-0.151909884990549 0.116945820451804 0.363843295173311
-0.168890185079635 0.100258832700714 0.363843295173311
-0.178683490611959 0.100419407781785 0.363843295173311
-0.186447192323642 0.0873284609617035 0.363843295173311
-0.192858399991486 0.0793362661275714 0.363843295173311
-0.2063268498684 0.070428212676896 0.363843295173311
-0.211123614649444 0.0654675468628484 0.363843295173311
-0.221328064720133 0.0570342664491461 0.363843295173311
-0.220640010407397 0.0588823130540449 0.363843295173311
-0.240006474924384 0.0355739538274524 0.363843295173311
-0.250723743007655 0.0366304489414262 0.363843295173311
-0.256843786169253 0.0197620756300532 0.363843295173311
-0.262730221498431 0.0197639223174331 0.363843295173311
-0.279652637573327 0.0103021662346482 0.363843295173311
-0.283117361496016 0.00315305446415977 0.363843295173311
-0.299726872241969 -0.00541463401163792 0.363843295173311
-0.312818592056498 -0.0160664146902344 0.363843295173311
-0.313187810694334 -0.0198972918426514 0.363843295173311
-0.322765374912735 -0.0306329993477313 0.363843295173311
-0.326892427093079 -0.0347333223093477 0.363843295173311
-0.341036594103449 -0.0456943101419737 0.363843295173311
-0.356525001238873 -0.061725086487489 0.363843295173311
-0.365373457043589 -0.0628946988581465 0.363843295173311
-0.368953673659149 -0.0751815122737299 0.363843295173311
-0.385632130475505 -0.0828419148093896 0.363843295173311
-0.388778104674621 -0.0924092861156426 0.363843295173311
-0.412875971704168 -0.107741095345362 0.363843295173311
-0.419165448063288 -0.108553334502438 0.363843295173311
-0.4320051006978 -0.12612077032629 0.363843295173311
-0.445844402390198 -0.140619180156228 0.363843295173311
-0.272882471379978 0.00452240102257608 0.0139205749544825
-0.272882471379978 0.000989756913562229 0.0245242213433294
-0.272882471379978 -0.00255253312333069 0.0230319308474666
-0.272882471379978 0.00362328546521274 0.0475320632617682
-0.272882471379978 -0.00519676447922436 0.0393428889401417
-0.0214470596691777 0.212796848767136 0.363843295173311
-0.0369283009405292 0.209090951491588 0.363843295173311
-0.0407491804466661 0.19539830545055 0.363843295173311
-0.0513543440163866 0.193544351676591 0.363843295173311
-0.0632959729066115 0.187140480320641 0.363843295173311
-0.0665804510554626 0.185235550158483 0.363843295173311
-0.0725882741453795 0.178815942059778 0.363843295173311
-0.0825316316497939 0.171007673716841 0.363843295173311
-0.0939809907128956 0.156310427384089 0.363843295173311
-0.102251274093544 0.153945694111669 0.363843295173311
-0.110531711359274 0.137220409345842 0.363843295173311
-0.117836566596644 0.138888737102434 0.363843295173311
-0.126748155871188 0.130802544811555 0.363843295173311
-0.133797024619261 0.124906924469143 0.363843295173311
-0.137527087594933 0.113911038585085 0.363843295173311
-0.146982274921547 0.106737274421887 0.363843295173311
-0.167259162016357 0.0924049072939881 0.363843295173311
-0.175734854832495 0.0848942150811881 0.363843295173311
-0.177100144822112 0.0905373803982885 0.363843295173311
-0.178930433976937 0.0811452142008299 0.363843295173311
-0.192156078339094 0.0684695105723296 0.363843295173311
-0.208778017287678 0.0519871976688929 0.363843295173311
-0.219268610730741 0.0503684122687767 0.363843295173311
-0.213533552391113 0.0478817630695819 0.363843295173311
-0.223916285546755 0.0367042924645542 0.363843295173311
-0.236211002272911 0.034864147342341 0.363843295173311
-0.242748570501264 0.0182905019038271 0.363843295173311
-0.255990155041886 0.0154356976210121 0.363843295173311
-0.273635108129661 -0.00290174110968231 0.363843295173311
-0.278451750819173 -0.00925815304662265 0.363843295173311
-0.293925875289852 -0.0176411668943122 0.363843295173311
-0.300750265941262 -0.025079349641039 0.363843295173311
-0.315039466808017 -0.0340788796807574 0.363843295173311
-0.320951876475276 -0.0413591354906679 0.363843295173311
-0.320717952215988 -0.0520930211649726 0.363843295173311
-0.334539931016031 -0.057557322514267 0.363843295173311
-0.352155848021988 -0.0619542781984883 0.363843295173311
-0.360967902433216 -0.0832693533877398 0.363843295173311
-0.378185394326565 -0.0900345522746592 0.363843295173311
-0.384613706426757 -0.101812798960409 0.363843295173311
-0.388734005436723 -0.102710255324834 0.363843295173311
-0.397511842782064 -0.12005861969486 0.363843295173311
-0.416530222973416 -0.127621243473284 0.363843295173311
-0.420322056203135 -0.128363538324484 0.363843295173311
-0.432284135311791 -0.146590833946473 0.363843295173311
-0.272882471379978 -0.0164174056294962 0.0027852450388414
-0.272882471379978 -0.00748715041735448 0.019207927508138
-0.272882471379978 -0.0199385240704588 0.0128977972331342
-0.0146325905094208 0.218305977103983 0.354380377110875
-0.0176417527615925 0.215096206126421 0.363843295173311
-0.0146538040659731 0.209427659479679 0.363843295173311
-0.028958431991734 0.199223595632462 0.363843295173311
-0.0326531750536108 0.197087603348031 0.363843295173311
-0.0382436691813412 0.192795922038447 0.363843295173311
-0.0503469022729629 0.179980886969654 0.363843295173311
-0.0596195044873791 0.168928597537647 0.363843295173311
-0.0673068952043111 0.166566139362756 0.363843295173311
-0.0717514232458151 0.162383539604076 0.363843295173311
-0.0906520328182944 0.146276386070212 0.363843295173311
-0.0974301390128837 0.143350234540658 0.363843295173311
-0.093976249166923 0.141254146113045 0.363843295173311
-0.112449840799514 0.126784271641712 0.363843295173311
-0.109569769048067 0.124787860651571 0.363843295173311
-0.125186569565236 0.108964056875447 0.363843295173311
-0.133406920113049 0.108875538185499 0.363843295173311
-0.138735636896038 0.104558812040511 0.363843295173311
-0.153028190132092 0.092462449771167 0.363843295173311
-0.1590551473457 0.0922637502427941 0.363843295173311
-0.16997912075802 0.0791585413588801 0.363843295173311
-0.179979670175061 0.0749553325838189 0.363843295173311
-0.186253583332838 0.0577417299847235 0.363843295173311
-0.198113480589174 0.050645389357471 0.363843295173311
-0.204619943257771 0.042350594554968 0.363843295173311
-0.217260169439141 0.0388259392328273 0.363843295173311
-0.221762616605774 0.0362756131845366 0.363843295173311
-0.226284288161419 0.0179269094890883 0.363843295173311
-0.237779829789601 0.0104139764438539 0.363843295173311
-0.250882801994506 0.00702931006799142 0.363843295173311
-0.265316412299792 -0.0130128034927447 0.363843295173311
-0.263968568252957 -0.0111997611352882 0.363843295173311
-0.285091948836479 -0.027016440513918 0.363843295173311
-0.284518605294735 -0.0279373576121197 0.363843295173311
-0.300158980373822 -0.0368960996141785 0.363843295173311
-0.309170385929586 -0.0565723838980792 0.363843295173311
-0.312701067187247 -0.0583347214282239 0.363843295173311
-0.330452116402018 -0.0679217613390809 0.363843295173311
-0.333664128129804 -0.0778073911285184 0.363843295173311
-0.342161689892565 -0.0792392105231307 0.363843295173311
-0.361607474337217 -0.0946633153301666 0.363843295173311
-0.368470166845888 -0.101769851555796 0.363843295173311
-0.382496304761198 -0.115521216074485 0.363843295173311
-0.388962980223414 -0.11697833842011 0.363843295173311
-0.405787427316384 -0.128161228047292 0.363843295173311
-0.416149133082893 -0.150793760792173 0.363843295173311
-0.419580381240253 -0.153813756684774 0.363843295173311
-0.432739774100088 -0.156865687288854 0.363843295173311
-0.272882471379978 -0.0277519951760925 0.00761035559646175
0.00331410277808858 0.217850714562111 0.363843295173311
-0.00422041751590123 0.203536410221004 0.363843295173311
-0.0138019466879392 0.208582676244599 0.363843295173311
-0.0251350674867759 0.191539296117576 0.363843295173311
-0.0277924331427744 0.190814306190731 0.363843295173311
-0.0418408306716187 0.181513618022384 0.363843295173311
-0.04030234384564 0.18160985888765 0.363843295173311
-0.054007449788131 0.171038851255415 0.363843295173311
-0.0531334579185653 0.162535601107838 0.363843295173311
-0.068958175176852 0.153906260316274 0.363843295173311
-0.0697859421152489 0.152287210869169 0.363843295173311
-0.0843782199313042 0.133905315192735 0.363843295173311
-0.0856787618184129 0.133802519024221 0.363843295173311
-0.0974725929583973 0.122442584100636 0.363843295173311
-0.108562049543749 0.123650047934847 0.363843295173311
-0.111672939603186 0.10572964729626 0.363843295173311
-0.12516200159077 0.103268547969407 0.363843295173311
-0.133900842504135 0.0897807606341432 0.363843295173311
-0.151304036059857 0.0792107182470289 0.363843295173311
-0.151603449427215 0.0745365433901372 0.363843295173311
-0.153903119092923 0.06768043602946 0.363843295173311
-0.167018214889074 0.0656457807157201 0.363843295173311
-0.171855944826717 0.0608036717734562 0.363843295173311
-0.187161909998204 0.0527630365290187 0.363843295173311
-0.193782518495851 0.0373425034596198 0.363843295173311
-0.206695589654073 0.0322941788845547 0.363843295173311
-0.216301865723652 0.0156584647970014 0.363843295173311
-0.220002781520507 0.0193247346179848 0.363843295173311
-0.23482663573947 0.00282565309207135 0.363843295173311
-0.248922268053949 -0.00562771941130792 0.363843295173311
-0.260563143215058 -0.0169382043457308 0.363843295173311
-0.265007638476135 -0.017067223491321 0.363843295173311
-0.274435207285555 -0.0277211181809958 0.363843295173311
-0.279541435475847 -0.0308338005377935 0.363843295173311
-0.296848267879965 -0.0511654705599156 0.363843295173311
-0.309055544109974 -0.0585319203229194 0.363843295173311
-0.304449813343675 -0.0655208979239875 0.363843295173311
-0.31957507185079 -0.0719413623470269 0.363843295173311
-0.334572473203179 -0.0888097107861747 0.363843295173311
-0.3464051592089 -0.0929551789547406 0.363843295173311
-0.354820473008456 -0.0971353233185193 0.363843295173311
-0.365308432942525 -0.110132599482634 0.363843295173311
-0.376564402509668 -0.122755643144202 0.363843295173311
-0.378656320284815 -0.133695245539301 0.363843295173311
-0.386932087515426 -0.133165486763472 0.363843295173311
-0.399407276126869 -0.14360795867038 0.363843295173311
-0.416441614228571 -0.167186455837074 0.363843295173311
-0.422097588765436 -0.167953192829706 0.363843295173311
0.0180317624799487 0.218305977103983 0.3566922368061
0.0108876690335168 0.217921159824411 0.363843295173311
0.0136557291238881 0.216291803046263 0.363843295173311
-0.00296242694419227 0.198728970454069 0.363843295173311
-0.000212145105023911 0.195240974845092 0.363843295173311
-0.0101671982467255 0.191478689025611 0.363843295173311
-0.0232539249564694 0.178311954803018 0.363843295173311
-0.0316930357041136 0.176907117659286 0.363843295173311
-0.0412722956254975 0.170153810230305 0.363843295173311
-0.0477394354408361 0.161440207032267 0.363843295173311
-0.048898367999957 0.158302101650335 0.363843295173311
-0.0632650371468332 0.146849097675709 0.363843295173311
-0.0755051424422787 0.138904935041569 0.363843295173311
-0.0809537657817615 0.129562817433115 0.363843295173311
-0.0881544467527149 0.127815345456386 0.363843295173311
-0.0877463565309552 0.12098434205337 0.363843295173311
-0.100391092754256 0.104665733927526 0.363843295173311
-0.11148231437736 0.101756194556025 0.363843295173311
-0.117210843847543 0.0987662975706818 0.363843295173311
-0.123567754111861 0.0898097681700335 0.363843295173311
-0.136844049829922 0.080581951542605 0.363843295173311
-0.143770759074782 0.0735554363237922 0.363843295173311
-0.148435018287219 0.0675005224928791 0.363843295173311
-0.163615357982905 0.0486382369126594 0.363843295173311
-0.166328757367159 0.047416975499543 0.363843295173311
-0.179159527803399 0.0422786352102924 0.363843295173311
-0.19258098572529 0.0341881237576165 0.363843295173311
-0.196513412886196 0.024811401813235 0.363843295173311
-0.207362843019817 0.0116578828627623 0.363843295173311
-0.223209860819693 0.00432076505868941 0.363843295173311
-0.227990702349975 -0.00369392576156229 0.363843295173311
-0.233606796407218 -0.0137173793474508 0.363843295173311
-0.245007395429591 -0.0206066930558257 0.363843295173311
-0.254571180806094 -0.0292229081073202 0.363843295173311
-0.25923962188001 -0.0324664607361289 0.363843295173311
-0.273706422900347 -0.0384810734021475 0.363843295173311
-0.283563115719256 -0.0606607325107639 0.363843295173311
-0.298802014343297 -0.0660092092509717 0.363843295173311
-0.306906198287677 -0.0691025924714389 0.363843295173311
-0.32108894911801 -0.0881065212555278 0.363843295173311
-0.323023782287065 -0.0913668098534521 0.363843295173311
-0.341861333795087 -0.100222060799152 0.363843295173311
-0.352294138370315 -0.116597955808939 0.363843295173311
-0.355368937757366 -0.119845361154456 0.363843295173311
-0.363054090796021 -0.132643088071145 0.363843295173311
-0.373617494869554 -0.137668768708745 0.363843295173311
-0.379659811717498 -0.147034307149773 0.363843295173311
-0.395403028602437 -0.161447747826498 0.363843295173311
-0.413544944065551 -0.167256750662129 0.363843295173311
0.0378274457229497 0.218305977103983 0.354060387270147
0.037073525055346 0.218305977103983 0.356576511117706
0.024793813953235 0.218305977103983 0.357479239743759
0.0191391735756434 0.205753811245577 0.363843295173311
0.00936802396614166 0.202282365377695 0.363843295173311
0.0082045129650296 0.19635772939467 0.363843295173311
0.00447168445032961 0.189477350302996 0.363843295173311
-0.0031566513855601 0.179747705566941 0.363843295173311
-0.0193869418781602 0.169977897569332 0.363843295173311
-0.0251690288436673 0.161808606579611 0.363843295173311
-0.0340761202300698 0.153993360235923 0.363843295173311
-0.0327601791844564 0.157458371608861 0.363843295173311
-0.0505913968286182 0.145986609668716 0.363843295173311
-0.053681139480878 0.131821461974042 0.363843295173311
-0.0608885663676058 0.129775607039183 0.363843295173311
-0.0704206720901238 0.125857240444907 0.363843295173311
-0.075153470946286 0.122113538617438 0.363843295173311
-0.0907098449771647 0.107470045438097 0.363843295173311
-0.0914245965024641 0.108578002836398 0.363843295173311
-0.109954247393645 0.0868571854317497 0.363843295173311
-0.112946652657399 0.0885048594873577 0.363843295173311
-0.128155908208938 0.0750727940198762 0.363843295173311
-0.131881303619518 0.0694587375021566 0.363843295173311
-0.13828931635487 0.0615343861183 0.363843295173311
-0.140033547605779 0.0556341173456933 0.363843295173311
-0.156248694328608 0.0519169046016855 0.363843295173311
-0.162710143282303 0.0375570776821966 0.363843295173311
-0.174048036419199 0.0335314627564542 0.363843295173311
-0.187672079419957 0.0249078619181494 0.363843295173311
-0.192131323656713 0.0133170751201946 0.363843295173311
-0.198614838748817 0.00362501336933409 0.363843295173311
-0.210767297331373 0.000709877241438306 0.363843295173311
-0.221950087720157 -0.0168218567187501 0.363843295173311
-0.230641421740393 -0.0249572847327279 0.363843295173311
-0.232617901390541 -0.0232125734549644 0.363843295173311
-0.241251568461021 -0.0366795628067614 0.363843295173311
-0.263842696239214 -0.0520357791565222 0.363843295173311
-0.272262582119516 -0.0562015397024941 0.363843295173311
-0.28530161614755 -0.0727147591714381 0.363843295173311
-0.290562139366159 -0.0766259749941435 0.363843295173311
-0.29797179191972 -0.0818977659304924 0.363843295173311
-0.306299229345495 -0.0983227515394884 0.363843295173311
-0.320824109523667 -0.0973738350735195 0.363843295173311
-0.327498790729558 -0.112552464211644 0.363843295173311
-0.342367469677005 -0.119394647565831 0.363843295173311
-0.34327363885493 -0.118761381572692 0.363843295173311
-0.358033106720367 -0.136700950254077 0.363843295173311
-0.375335387409514 -0.156305776557801 0.363843295173311
-0.379812520891943 -0.157633365037381 0.363843295173311
-0.392309694779994 -0.172791085844624 0.363843295173311
-0.400252589964797 -0.17214132518129 0.363843295173311
0.0473587357893235 0.218305977103983 0.352042327283321
0.047379658816131 0.213225984342944 0.363843295173311
0.038392761783959 0.21469583793056 0.363843295173311
0.0341699981481589 0.207953315448852 0.363843295173311
0.02108814837775 0.19787805956823 0.363843295173311
0.0191577328550439 0.189757895137397 0.363843295173311
0.00300522641282354 0.179706957061531 0.363843295173311
-0.0038935386852482 0.171261665860056 0.363843295173311
-0.0127829590257011 0.164445594982095 0.363843295173311
-0.009900119279292 0.161747376969938 0.363843295173311
-0.0197098244633177 0.159992757820435 0.363843295173311
-0.0341307027503398 0.147013100833536 0.363843295173311
-0.044512848423144 0.136101110411674 0.363843295173311
-0.0441152127984108 0.127658694965816 0.363843295173311
-0.060177932532872 0.127455869306612 0.363843295173311
-0.0614883253595504 0.116644889749004 0.363843295173311
-0.0748365813742656 0.110214873206689 0.363843295173311
-0.0811155036004291 0.10485984325839 0.363843295173311
-0.0869375115324693 0.101780613194518 0.363843295173311
-0.0915822781609445 0.0886125017326598 0.363843295173311
-0.109281653421864 0.080873413222099 0.363843295173311
-0.109958517152102 0.0687134711809305 0.363843295173311
-0.122459170900182 0.0587103221964449 0.363843295173311
-0.131494014526643 0.0503590075786183 0.363843295173311
-0.139841186274251 0.0523093300889698 0.363843295173311
-0.14669985235311 0.0350018477403632 0.363843295173311
-0.162104177509591 0.0302008981796207 0.363843295173311
-0.165008555517645 0.0216917373938039 0.363843295173311
-0.176424303066388 0.018003385225616 0.363843295173311
-0.186165068622532 0.0027201733908358 0.363843295173311
-0.189128115623259 0.000111768089610047 0.363843295173311
-0.200124256906429 -0.0128921228560942 0.363843295173311
-0.218654709478264 -0.0232144966562244 0.363843295173311
-0.226913191358005 -0.0323492354781788 0.363843295173311
-0.231744502188928 -0.0422294162334138 0.363843295173311
-0.246499851236689 -0.0463828186027225 0.363843295173311
-0.253532586054525 -0.0592826278113521 0.363843295173311
-0.264312377388308 -0.0629795009974833 0.363843295173311
-0.26799197922752 -0.0631885818556644 0.363843295173311
-0.276962116468579 -0.0783674713748101 0.363843295173311
-0.295822703803753 -0.0958112002419804 0.363843295173311
-0.301759634070698 -0.0953447366478326 0.363843295173311
-0.308191370190018 -0.110688960902515 0.363843295173311
-0.324243912841886 -0.119374117135839 0.363843295173311
-0.33139697635111 -0.131890934856464 0.363843295173311
-0.337096839541437 -0.135237562571472 0.363843295173311
-0.356455772361158 -0.142975543963304 0.363843295173311
-0.370503505178561 -0.164084552662377 0.363843295173311
-0.380594212731626 -0.172355320808762 0.363843295173311
-0.382974557379324 -0.182895075604648 0.363843295173311
-0.390179449656651 -0.18483584614051 0.363843295173311
0.0623042560530103 0.218305977103983 0.360537576183866
0.0578431750667652 0.218305977103983 0.362351691360987
0.0521913899386 0.213953616991907 0.363843295173311
0.0407242525796154 0.199508977734683 0.363843295173311
0.040791050239277 0.195450145882238 0.363843295173311
0.031867236698289 0.192440681770704 0.363843295173311
0.0238033594263472 0.180920101795738 0.363843295173311
0.0116817442803883 0.181455085793125 0.363843295173311
0.00570109381284151 0.17572394704657 0.363843295173311
-0.0053323643599707 0.163201747589593 0.363843295173311
-0.0106151345556578 0.154642477458146 0.363843295173311
-0.0150144672978252 0.145658382979631 0.363843295173311
-0.0321729790038751 0.139548170191182 0.363843295173311
-0.0294798381359299 0.135387101232942 0.363843295173311
-0.0399226674416579 0.118359275556634 0.363843295173311
-0.0541465174943841 0.120507156325576 0.363843295173311
-0.0509870902311882 0.1135866337585 0.363843295173311
-0.0597631639181183 0.108444237941994 0.363843295173311
-0.0767036171587481 0.0943013514501357 0.363843295173311
-0.0829242262404657 0.0903388810292229 0.363843295173311
-0.0948691755694021 0.0755381215838503 0.363843295173311
-0.100315463956305 0.0739728155207295 0.363843295173311
-0.108134814086457 0.0634385882211242 0.363843295173311
-0.113625992305191 0.0619851636567636 0.363843295173311
-0.128038930801567 0.0426950518474761 0.363843295173311
-0.131406822754222 0.0403640839776346 0.363843295173311
-0.137898623308763 0.0350793282781562 0.363843295173311
-0.156147341130596 0.0191980436172692 0.363843295173311
-0.15590053410004 0.0163026883596999 0.363843295173311
-0.17174143096966 0.00477629640946449 0.363843295173311
-0.182132985498822 -0.00173328574165588 0.363843295173311
-0.184601416773946 -0.00812811232422547 0.363843295173311
-0.198169491014061 -0.0130523238110489 0.363843295173311
-0.208277608604811 -0.026997230538463 0.363843295173311
-0.214099460100197 -0.0325427364731496 0.363843295173311
-0.214992860027152 -0.0375856131584635 0.363843295173311
-0.232460743945165 -0.0488175762613819 0.363843295173311
-0.245441947292185 -0.0641125764816575 0.363843295173311
-0.253401475476966 -0.0683636157984424 0.363843295173311
-0.258296552444646 -0.0799899584868996 0.363843295173311
-0.272649568714946 -0.0892563526855232 0.363843295173311
-0.28333160481674 -0.0991496833665408 0.363843295173311
-0.282184275055109 -0.107353921380535 0.363843295173311
-0.305767263020607 -0.119314658869389 0.363843295173311
-0.310692829374079 -0.12806810322582 0.363843295173311
-0.317320787796733 -0.133335705378337 0.363843295173311
-0.328980164707161 -0.13966081590272 0.363843295173311
-0.344996052900847 -0.152462280192221 0.363843295173311
-0.349025791205264 -0.16002961745584 0.363843295173311
-0.371249810619429 -0.174841546418607 0.363843295173311
-0.371051618259462 -0.186914224587807 0.363843295173311
0.0699529567806101 0.218305977103983 0.353938772092046
0.0693333826388102 0.217146903061806 0.363843295173311
0.064584611458263 0.21297213163381 0.363843295173311
0.0620855750346258 0.210562194822814 0.363843295173311
0.0559871726418033 0.194247821022948 0.363843295173311
0.0403869386580417 0.191218601332665 0.363843295173311
0.0391558178208136 0.18505308396253 0.363843295173311
0.0284331623465007 0.184209632833057 0.363843295173311
0.0206618141742997 0.167752659266901 0.363843295173311
0.0130625242425004 0.164330818514932 0.363843295173311
0.00381700056624803 0.151600653750502 0.363843295173311
0.00335730598192823 0.149320250720011 0.363843295173311
-0.0109092751403571 0.140767323651683 0.363843295173311
-0.0190865909750422 0.131338948117533 0.363843295173311
-0.0285880440055639 0.12589909533672 0.363843295173311
-0.0306327903439408 0.119721640711757 0.363843295173311
-0.0430563836284042 0.116044643055466 0.363843295173311
-0.0460504952810923 0.104351816243222 0.363843295173311
-0.0511245379875553 0.100262428396926 0.363843295173311
-0.0654667024406507 0.0944368665782152 0.363843295173311
-0.0747349421143173 0.0811914593294457 0.363843295173311
-0.0806364645025037 0.0799144788613913 0.363843295173311
-0.0903075134913498 0.0644426296957875 0.363843295173311
-0.100376021766903 0.0654537569266079 0.363843295173311
-0.113719381488749 0.041622524196316 0.363843295173311
-0.118538577899426 0.0448670586622961 0.363843295173311
-0.131765945559436 0.033902022390343 0.363843295173311
-0.13294431964085 0.0267222387764861 0.363843295173311
-0.144399301264995 0.0105295442046729 0.363843295173311
-0.150564894026964 0.00851555813977592 0.363843295173311
-0.161390452117884 0.00653891304264897 0.363843295173311
-0.164732423010249 -0.00661648486577625 0.363843295173311
-0.17376004524831 -0.0128559828992075 0.363843295173311
-0.188925871904711 -0.0231291571279165 0.363843295173311
-0.202370381658204 -0.0376342567991339 0.363843295173311
-0.207075605302092 -0.0424082493640245 0.363843295173311
-0.221318546356146 -0.0562382676234459 0.363843295173311
-0.228778327028131 -0.0632306872569936 0.363843295173311
-0.236284549599878 -0.0703484078860647 0.363843295173311
-0.248561619948129 -0.0717314431624111 0.363843295173311
-0.255896663345071 -0.0845668006281177 0.363843295173311
-0.261497259905093 -0.10030605350785 0.363843295173311
-0.272751596220657 -0.109161455823173 0.363843295173311
-0.292565419764273 -0.113657339406711 0.363843295173311
-0.298453106500449 -0.131089046444319 0.363843295173311
-0.300039883993897 -0.134528300850746 0.363843295173311
-0.314959365508741 -0.139802304537425 0.363843295173311
-0.328717174411403 -0.155856529994707 0.363843295173311
-0.332223584212512 -0.16065001773235 0.363843295173311
-0.343395362095986 -0.169196308573645 0.363843295173311
-0.363132126579379 -0.18010324749893 0.363843295173311
-0.367683285675295 -0.189953652490865 0.363843295173311
0.0889735375880047 0.218228289640207 0.363843295173311
0.0802131989394594 0.216342237110885 0.363843295173311
0.0811113008798853 0.210805594117976 0.363843295173311
0.0736296973369394 0.20737738593309 0.363843295173311
0.0669340977449624 0.204068285381191 0.363843295173311
0.0543633640205989 0.182822832767934 0.363843295173311
0.0535001432980248 0.181662169241859 0.363843295173311
0.039224030168326 0.177029610080387 0.363843295173311
0.0307945776399336 0.163893788445997 0.363843295173311
0.0271169878877493 0.16351942207656 0.363843295173311
0.0200198072168051 0.157645066356422 0.363843295173311
0.0177907675781281 0.151520071246942 0.363843295173311
0.00929726331633122 0.146958298152055 0.363843295173311
-0.00216520102422252 0.137727109509301 0.363843295173311
-0.0136851011929378 0.126999801355996 0.363843295173311
-0.0127342502621298 0.120551347585227 0.363843295173311
-0.0291893929769693 0.111396857582039 0.363843295173311
-0.0268376511343628 0.110112524300656 0.363843295173311
-0.0488818725417124 0.0933892841298584 0.363843295173311
-0.0461375622870474 0.0881780421842692 0.363843295173311
-0.0631821565161991 0.0838489735392901 0.363843295173311
-0.0716121321587196 0.0679049496260069 0.363843295173311
-0.0745969444466992 0.0662896672638338 0.363843295173311
-0.0838035971003569 0.0553624217290078 0.363843295173311
-0.0923768417646992 0.0512458496203171 0.363843295173311
-0.0972208922184867 0.0428703480314823 0.363843295173311
-0.105062790244384 0.035494378069778 0.363843295173311
-0.116811177480448 0.0290950182769126 0.363843295173311
-0.12040752773883 0.0166580564340939 0.363843295173311
-0.135251264451619 0.00932989024073395 0.363843295173311
-0.149662412723205 -0.000674875546355277 0.363843295173311
-0.161282377385777 -0.00528115716185622 0.363843295173311
-0.158325341066871 -0.0159123112400497 0.363843295173311
-0.166918776269829 -0.0157345316067305 0.363843295173311
-0.179229715304186 -0.0299599030969668 0.363843295173311
-0.193613601131452 -0.041562035374465 0.363843295173311
-0.204656131378185 -0.0510135619538621 0.363843295173311
-0.212088331183615 -0.0564989837850451 0.363843295173311
-0.217592966657526 -0.0656278074022667 0.363843295173311
-0.226725268094964 -0.0784321818091093 0.363843295173311
-0.242949258532571 -0.0833670052661853 0.363843295173311
-0.239362522602789 -0.094628457680382 0.363843295173311
-0.259530712485149 -0.105533228621527 0.363843295173311
-0.258200518819097 -0.108271282444533 0.363843295173311
-0.277741104727653 -0.121412065057639 0.363843295173311
-0.279789975376849 -0.131935709129897 0.363843295173311
-0.297634128161086 -0.148756049219407 0.363843295173311
-0.306138724638642 -0.147645568365142 0.363843295173311
-0.32393142981121 -0.165736560834902 0.363843295173311
-0.327379253905734 -0.173377295251838 0.363843295173311
-0.341727410066655 -0.180597245403937 0.363843295173311
-0.342798462663196 -0.186149731639438 0.363843295173311
0.103345691595272 0.218305977103983 0.357647035782546
0.0985064501022722 0.218305977103983 0.360591948044678
0.0895916138139205 0.206694870953033 0.363843295173311
0.0819631297149735 0.202377406106346 0.363843295173311
0.0828091836586185 0.197730524325553 0.363843295173311
0.0739259583827354 0.188285659521244 0.363843295173311
0.0678935507801211 0.179190168498345 0.363843295173311
0.0571638285946534 0.172474072229136 0.363843295173311
0.0494601689984199 0.171118490042405 0.363843295173311
0.0418542010809241 0.16452872363758 0.363843295173311
0.0306409896933117 0.160919829561208 0.363843295173311
0.025539979238021 0.148690124172702 0.363843295173311
0.0206118106760657 0.138589982206322 0.363843295173311
0.00855942308949406 0.136931734543269 0.363843295173311
0.00957780708352237 0.132373389818679 0.363843295173311
-0.0084474788571304 0.117991060966793 0.363843295173311
-0.0163324040840026 0.11070169496099 0.363843295173311
-0.0183929708131778 0.101219269684391 0.363843295173311
-0.0209418216176588 0.0966294594413569 0.363843295173311
-0.0341907625045523 0.0921789362989137 0.363843295173311
-0.0432863831130268 0.0806149784080796 0.363843295173311
-0.0501660976520275 0.0747093849297629 0.363843295173311
-0.0640535487653386 0.0648531219337402 0.363843295173311
-0.0704581311670704 0.0597611941609991 0.363843295173311
-0.077100956246842 0.0452853914381125 0.363843295173311
-0.0872640104086394 0.0485844020646353 0.363843295173311
-0.0913925076182706 0.0389865029807418 0.363843295173311
-0.109528546524807 0.0275218647426474 0.363843295173311
-0.109037143726239 0.0198533803039118 0.363843295173311
-0.117511315997929 0.00775688672712006 0.363843295173311
-0.130057659033162 0.00238424049738986 0.363843295173311
-0.132631729796465 -0.0060911359204396 0.363843295173311
-0.142660529540383 -0.0185950376044613 0.363843295173311
-0.146589194379597 -0.0143803597721451 0.363843295173311
-0.158538830054236 -0.0275976672172531 0.363843295173311
-0.167179725457501 -0.0366273555077311 0.363843295173311
-0.183207773320703 -0.0454651946913148 0.363843295173311
-0.199980669714194 -0.0588658979859815 0.363843295173311
-0.202558545666474 -0.0631227836870898 0.363843295173311
-0.207117147761706 -0.0709338178769809 0.363843295173311
-0.217728950467617 -0.0807576185064922 0.363843295173311
-0.223547195914188 -0.0874028266714341 0.363843295173311
-0.235268691767395 -0.0973675245011598 0.363843295173311
-0.249931526842592 -0.109250781945562 0.363843295173311
-0.258048556557812 -0.119248529317848 0.363843295173311
-0.267809977015589 -0.129350950237992 0.363843295173311
-0.272399645823687 -0.137983020420902 0.363843295173311
-0.282359170784421 -0.146172672376566 0.363843295173311
-0.296027044046909 -0.15460755264853 0.363843295173311
-0.305507971151765 -0.164816072356611 0.363843295173311
-0.327806667810475 -0.178791651435442 0.363843295173311
-0.328455291343412 -0.187201843660029 0.363843295173311
-0.336631076822506 -0.200281936492026 0.363843295173311
0.118851182246939 0.218305977103983 0.354987693462096
0.10917245113515 0.215427088632272 0.363843295173311
0.110031645597195 0.211025889935799 0.363843295173311
0.0969784122449739 0.200362027740095 0.363843295173311
0.0935872196007147 0.201890989225928 0.363843295173311
0.0812876724111007 0.189744940486827 0.363843295173311
0.0770921707375591 0.185415237873543 0.363843295173311
0.068999968846959 0.174986402259147 0.363843295173311
0.0673826134255947 0.171699866661373 0.363843295173311
0.0530276641666338 0.168387327288647 0.363843295173311
0.0444985257392848 0.158179667950923 0.363843295173311
0.0405921422875931 0.145203642181014 0.363843295173311
0.0362992923063757 0.148253872330736 0.363843295173311
0.0234989250852819 0.138217125476532 0.363843295173311
0.0256497067756184 0.127349145716857 0.363843295173311
0.00573802772837673 0.115363166205834 0.363843295173311
-0.00374591040272092 0.109046463575156 0.363843295173311
-0.00349837133900595 0.102585191864133 0.363843295173311
-0.0073355222252779 0.09845499136265 0.363843295173311
-0.0296543496182315 0.0857846789030073 0.363843295173311
-0.0347751261112309 0.08319304522663 0.363843295173311
-0.0400487026701357 0.0760839751199658 0.363843295173311
-0.0434203032305058 0.0699125855207304 0.363843295173311
-0.0513893327514828 0.0594030422737338 0.363843295173311
-0.056493699763833 0.0604317343779087 0.363843295173311
-0.0665410782859544 0.0528570585442229 0.363843295173311
-0.0789070241060659 0.0325583557023903 0.363843295173311
-0.0926587501987908 0.0281864983154492 0.363843295173311
-0.0953293669616472 0.0174339364642591 0.363843295173311
-0.0972060783066133 0.0167159993123479 0.363843295173311
-0.107117577503606 0.0106618198908871 0.363843295173311
-0.119819842104111 0.000840229838985201 0.363843295173311
-0.12827364336026 -0.0109104425139767 0.363843295173311
-0.137983912116438 -0.0207061165442418 0.363843295173311
-0.143389340727392 -0.0245276109772425 0.363843295173311
-0.156072259477272 -0.0361793872558118 0.363843295173311
-0.167395677924692 -0.0509633018523323 0.363843295173311
-0.180767794463902 -0.0571322234650214 0.363843295173311
-0.189314074232632 -0.060398018562172 0.363843295173311
-0.197781503787313 -0.0752395692066175 0.363843295173311
-0.206440618375754 -0.0799335750534668 0.363843295173311
-0.213457346744378 -0.0966240561096218 0.363843295173311
-0.223461028422273 -0.10224840221915 0.363843295173311
-0.229584624585522 -0.111155555807187 0.363843295173311
-0.247860230148648 -0.121817426389816 0.363843295173311
-0.254384412227229 -0.128826412407232 0.363843295173311
-0.268249075832027 -0.139094380038142 0.363843295173311
-0.268563539134896 -0.143215927946517 0.363843295173311
-0.275694286790596 -0.158016231206318 0.363843295173311
-0.296794587399312 -0.174408598039902 0.363843295173311
-0.295868518496419 -0.172335523971614 0.363843295173311
-0.309712799896607 -0.175129223003646 0.363843295173311
-0.31937628071714 -0.191073401017024 0.363843295173311
0.127626885170006 0.218305977103983 0.363447215197503
0.124350989324353 0.218305977103983 0.361861726403506
0.120385351049637 0.211733798504963 0.363843295173311
0.113878002004223 0.20862752106864 0.363843295173311
0.103226956239049 0.194385257190168 0.363843295173311
0.0979007059273418 0.193202848601901 0.363843295173311
0.0911475595781769 0.182898304817168 0.363843295173311
0.0873784810210082 0.174675479793809 0.363843295173311
0.0815849939244082 0.173826241596523 0.363843295173311
0.0732487675750576 0.16625750509876 0.363843295173311
0.0619712209755449 0.154283550529522 0.363843295173311
0.050401930088139 0.146704134903984 0.363843295173311
0.0410560889139526 0.13601058989644 0.363843295173311
0.0446002903554213 0.133548199245598 0.363843295173311
0.0388920262690853 0.130180920676628 0.363843295173311
0.0251806757098128 0.117970468726901 0.363843295173311
0.0151325139292746 0.114325697877925 0.363843295173311
0.0162287662866244 0.109355206588656 0.363843295173311
0.00211033269573965 0.0977088352793269 0.363843295173311
