ply
format ascii 1.0
element vertex 1040
property float x
property float y
property float z
end_header
-0.138804034606489 0.156233107697929 0.2625
-0.137163598969839 0.147147862011797 0.2625
-0.125871354744996 0.141108929848104 0.2625
-0.112358559642468 0.125632561346998 0.2625
-0.111459057224732 0.124458567520491 0.2625
-0.0994283932580679 0.120027256737511 0.2625
-0.0950183171110494 0.107607849099802 0.2625
-0.0915590248321664 0.0996209609059817 0.2625
-0.0818599223800058 0.0970717008253327 0.2625
-0.0750264736785201 0.0920367322018752 0.2625
-0.0757446050754975 0.0835064872440444 0.2625
-0.0556129280855073 0.0691172058823181 0.2625
-0.0540494695281377 0.0646400250291214 0.2625
-0.0526852712912912 0.0634539446015638 0.2625
-0.0398739509496427 0.0610288299020308 0.2625
-0.0389963895688375 0.0490877145401511 0.2625
-0.0240327570484658 0.0413973640121479 0.2625
-0.0241502939095468 0.0378672460195987 0.2625
-0.00743482080961394 0.0228386223418649 0.2625
-0.00126379699773539 0.0150409470206122 0.2625
0.00752103597831327 0.0142820124696764 0.2625
0.0125237548146192 0.00168031089672685 0.2625
0.0175623110812244 -0.00483128747915623 0.2625
0.0322581372732858 -0.010538849381366 0.2625
0.0352600277966821 -0.0236612296389206 0.2625
0.0395881540344142 -0.0257245189116507 0.2625
0.0476300266085559 -0.0378359829964433 0.2625
0.0556181943772838 -0.0413613693882718 0.2625
0.0757965650321178 -0.0611572519437426 0.2625
0.0777368263845058 -0.0580624857471794 0.2625
0.0817075729164915 -0.0724598619517645 0.2625
0.09263632548345 -0.0735161887678904 0.2625
0.101952265714356 -0.0879909221491213 0.2625
0.112990604548524 -0.0941364450637944 0.2625
0.11500492371076 -0.0973912999459221 0.2625
0.1296947020721 -0.105937943049247 0.2625
0.140276559092486 -0.118894448901109 0.2625
0.140868817012549 -0.126551848322613 0.2625
0.156604307364096 -0.140646033342655 0.2625
0.16347741151826 -0.148261493061644 0.2625
0.172425059420462 -0.151701477592777 0.2625
0.179687487881247 -0.170052899928528 0.2625
0.188562525823251 -0.176433340563744 0.2625
0.198419428531151 -0.183576672056894 0.2625
-0.17283514327071 0.197710388232812 0.255877121985567
-0.164866458053378 0.193714652941742 0.260606793790016
-0.162588033025886 0.187094113603966 0.2625
-0.155702500618789 0.179001260245771 0.2625
-0.147582673945998 0.174303303581981 0.2625
-0.136316773568893 0.16514828978052 0.2625
-0.129771402767708 0.152882692721411 0.2625
-0.12704890902207 0.153824009694559 0.2625
-0.112025069226222 0.144134888680483 0.2625
-0.114178528069667 0.137882739589604 0.2625
-0.102208760993632 0.127787740028342 0.2625
-0.100209898081778 0.119179819053617 0.2625
-0.0918433027507258 0.118325243029316 0.2625
-0.087109727063878 0.118294162826018 0.2625
-0.077014624435118 0.0997589818740734 0.2625
-0.0670432374174181 0.0947253785077932 0.2625
-0.0634238432183593 0.0941982164223315 0.2625
-0.053219322065551 0.084960212478216 0.2625
-0.0420291963452342 0.0712602362156523 0.2625
-0.037312886028223 0.0664610039582945 0.2625
-0.0338829859795324 0.0637717277078945 0.2625
-0.0315896354165207 0.0523512339631415 0.2625
-0.0136267331688031 0.0393217633797875 0.2625
-0.0126227452569499 0.0431636604451672 0.2625
-0.00245288516118212 0.033722016930688 0.2625
0.0038881369355454 0.0209338743786759 0.2625
0.0181471822030194 0.0141609368374377 0.2625
0.0218957865665829 0.00499127554762869 0.2625
0.0341636072944543 -0.00282664109616556 0.2625
0.0324221267753957 -0.00926435429149606 0.2625
0.0472923146099329 -0.0183025809011804 0.2625
0.049648346002418 -0.0242324723795334 0.2625
0.0567838226460696 -0.0301079169288276 0.2625
0.0683452593358119 -0.0471520960471475 0.2625
0.0759638150739799 -0.0458358520610881 0.2625
0.0858628368869452 -0.0583574554412559 0.2625
0.0911758814469321 -0.0636936003459719 0.2625
0.0968184479438307 -0.0673287879372765 0.2625
0.109169459860658 -0.0789907925942018 0.2625
0.119837117967107 -0.0891084585701151 0.2625
0.120619333460809 -0.0916014793835236 0.2625
0.141469667993304 -0.102240526746751 0.2625
0.148345306895999 -0.113996452092897 0.2625
0.156443192137981 -0.128575240616586 0.2625
0.15814394731387 -0.133153094541703 0.2625
0.172787249764121 -0.13980603131072 0.2625
0.17504294365513 -0.148086777353947 0.2625
0.188140152703578 -0.160604874636036 0.2625
0.194614670522254 -0.169795128431526 0.2625
0.202601611571731 -0.172401752963377 0.2625
0.219612174554687 -0.181828797577339 0.2625
-0.16263047617465 0.198439404779267 0.253979124349063
-0.161158052530329 0.195976223035162 0.259612428954086
-0.151954264518337 0.190221920708109 0.2625
-0.14546665280035 0.18237546207968 0.2625
-0.138264745133191 0.179730234603726 0.2625
-0.14041035675536 0.173324843405762 0.2625
-0.129690638148141 0.165886163389913 0.2625
-0.121149416163299 0.151802329608793 0.2625
-0.113563704692529 0.149527585806489 0.2625
-0.104097797110658 0.143958691855359 0.2625
-0.100707438393662 0.140233996101976 0.2625
-0.098407496454002 0.134387421581307 0.2625
-0.0803055278645119 0.124413265258548 0.2625
-0.0748675763048008 0.113020295493317 0.2625
-0.0679727559578419 0.110206604812742 0.2625
-0.0661448267300782 0.103017987272062 0.2625
-0.0583381060347143 0.101473941774821 0.2625
-0.0453140238615529 0.0944328275954747 0.2625
-0.0477256884331075 0.081271548674036 0.2625
-0.0335553793668021 0.0733033877343219 0.2625
-0.0289430870671538 0.0686752643805715 0.2625
-0.0249333724971995 0.06225484075998 0.2625
-0.017770295708688 0.0510836195964258 0.2625
-0.00390258900518479 0.03835651551696 0.2625
0.00508961922747951 0.0373411169701735 0.2625
0.0175698242356764 0.0239017889552667 0.2625
0.023556715549498 0.0207476135391578 0.2625
0.0233572388969569 0.0137709472065881 0.2625
0.0363294628042291 0.00412736512033825 0.2625
0.0429474773651246 0.000870976783597104 0.2625
0.0500763688256588 -0.00873889327902778 0.2625
0.0599886714499525 -0.0156084318778728 0.2625
0.0656147176111776 -0.0187414961105271 0.2625
0.0779893589046902 -0.0352569959959008 0.2625
0.0809168775968733 -0.0405449626371833 0.2625
0.0987102884091123 -0.0550250366964353 0.2625
0.0965281645859034 -0.0527696608571484 0.2625
0.111621713511111 -0.0660379804396257 0.2625
0.113173961701934 -0.0639865701771332 0.2625
0.121718528423159 -0.0815597229633672 0.2625
0.136384472221492 -0.0918989777246206 0.2625
0.139221797373702 -0.0951705093617439 0.2625
0.144760463698163 -0.101551708832906 0.2625
0.163857128676765 -0.119469752122773 0.2625
0.16180604958249 -0.115354937502604 0.2625
0.180089408213683 -0.133410583446621 0.2625
0.192393567186386 -0.139564859332401 0.2625
0.202484279742522 -0.15741859004504 0.2625
0.205014020837838 -0.1580177666763 0.2625
0.212844194125214 -0.172535177759144 0.2625
0.222481389711134 -0.171674462617813 0.2625
0.234466654338978 -0.187183912273976 0.261382973092912
-0.145173628743326 0.199686513627265 0.251059754431912
-0.147881873228729 0.199493037933926 0.257833139831455
-0.139274424165065 0.19342360656239 0.261621530052138
-0.134167645308688 0.187480129810476 0.2625
-0.127506838918678 0.183345715953427 0.2625
-0.124630795804519 0.176099152055519 0.2625
-0.125119467517535 0.171755353833745 0.2625
-0.10810639996729 0.160136640058696 0.2625
-0.102724947184149 0.156093413759477 0.2625
-0.102749711020866 0.156245301438396 0.2625
-0.0917076424879605 0.147921178437991 0.2625
-0.0863191648726946 0.134077729658099 0.2625
-0.0773279348015177 0.135054158353099 0.2625
-0.0707380473498592 0.122943936183 0.2625
-0.0627999072161321 0.121415328288671 0.2625
-0.049663451022369 0.103908315741025 0.2625
-0.046549840073996 0.104460614504495 0.2625
-0.0418853404619921 0.0996934060688329 0.2625
-0.0414357039353544 0.0950762527161384 0.2625
-0.0248984491885548 0.0811012104532666 0.2625
-0.0130031279501853 0.0670578496784914 0.2625
-0.0172888307403361 0.0648750097446252 0.2625
0.00279992627587446 0.0601341714480891 0.2625
0.0032132029431665 0.0503792618768903 0.2625
0.00834760064149857 0.0487530691625295 0.2625
0.0217278501377809 0.0381823068265037 0.2625
0.0262802457095276 0.0354681249377267 0.2625
0.0355913146837871 0.0224629728552959 0.2625
0.0438177518358001 0.0124015534916556 0.2625
0.0472904151116557 0.00884117910800597 0.2625
0.0622773038468145 0.00122311832950685 0.2625
0.0685358601908883 -0.0114721356769649 0.2625
0.0675568016650943 -0.0146463056243855 0.2625
0.0790457124716154 -0.0243419099624048 0.2625
0.0914707529548539 -0.0360670137903767 0.2625
0.0972031563620982 -0.0416569990143993 0.2625
0.109434513492995 -0.0547207552428678 0.2625
0.114985875144115 -0.0619547166555018 0.2625
0.120990215193183 -0.0664029794039829 0.2625
0.132586711393739 -0.0750693743891394 0.2625
0.138189703077023 -0.0864268330895058 0.2625
0.151468869359896 -0.0947125107857706 0.2625
0.160073627365378 -0.103502391525279 0.2625
0.177102161175101 -0.109210769942002 0.2625
0.180807158224976 -0.121876153165487 0.2625
0.183673373734344 -0.124778924829695 0.2625
0.197066284672031 -0.131822891805552 0.2625
0.200412120873861 -0.144106875110571 0.2625
0.214684766781745 -0.148192789312271 0.2625
0.224900649761128 -0.15924587734405 0.2625
0.227451213119187 -0.164416541492383 0.2625
0.24348382990821 -0.181490405153597 0.2625
-0.142159145062168 0.199901866902575 0.257482154679234
-0.126184175595036 0.197435333584325 0.25961566654117
-0.123802542586514 0.18739095632287 0.2625
-0.119929132684228 0.187805746747596 0.2625
-0.116000304471447 0.182436156831673 0.2625
-0.107004700589513 0.174233705763856 0.2625
-0.0938356817200811 0.164529882531487 0.2625
-0.0916014453380534 0.157241512130569 0.2625
-0.0890148234622462 0.159735845919838 0.2625
-0.0731193092952115 0.141220009453413 0.2625
-0.0668829945675195 0.139502414433376 0.2625
-0.0664755300368927 0.135125262372428 0.2625
-0.0556832293131498 0.121106481925845 0.2625
-0.0554389243299549 0.11939019297415 0.2625
-0.0444194907344075 0.113298833835094 0.2625
-0.0321784272992642 0.106867189878704 0.2625
-0.0270954995557824 0.0954804064577214 0.2625
-0.0243571562190497 0.0896123394572353 0.2625
-0.00955637753131012 0.0813522081836679 0.2625
-0.00307761182539732 0.0772692951948707 0.2625
0.00827202480234307 0.068884509421612 0.2625
0.00347891358098061 0.0602362213910013 0.2625
0.0184389022387288 0.0553091938321875 0.2625
0.0214934495142352 0.0400180768360634 0.2625
0.0408606654209949 0.0321510413568577 0.2625
0.042783825574645 0.0328662426964044 0.2625
0.0480856063600495 0.0205121645334469 0.2625
0.0571058358181757 0.00816687994450186 0.2625
0.064184082043007 0.0120234066864161 0.2625
0.0729396904469604 8.53427987959658e-005 0.2625
0.0826916902121534 -0.00783361295041582 0.2625
0.0869313538721705 -0.0114146935697587 0.2625
0.100009324969262 -0.0203733970724997 0.2625
0.113520834666299 -0.0331765924718581 0.2625
0.113238827813163 -0.0438282241365002 0.2625
0.124494645662983 -0.0515332529322677 0.2625
0.130472271609155 -0.0610162716313203 0.2625
0.144500051647027 -0.0645450888965816 0.2625
0.154831387307363 -0.0787619109975741 0.2625
0.158890803369414 -0.0860767790409241 0.2625
0.167380506171235 -0.0867187529840583 0.2625
0.173202785517349 -0.0937242901898543 0.2625
0.189262114521411 -0.106370767211297 0.2625
0.192060130698277 -0.126006462118096 0.2625
0.208229422226106 -0.129681611413488 0.2625
0.212615803373326 -0.140836733573478 0.2625
0.218566076692168 -0.138604488376615 0.2625
0.233045007133371 -0.149917626887021 0.2625
0.245617878752453 -0.170117687739358 0.2625
0.256814939230216 -0.175587322257777 0.2625
0.259432080874958 -0.182921124402314 0.2625
-0.116585070793971 0.2 0.250276239110421
-0.120782527464759 0.199167517438111 0.258749574614278
-0.11122843684052 0.195082440022073 0.260792113322296
-0.107348283755488 0.185323613260696 0.2625
-0.103234934376789 0.177597292350901 0.2625
-0.0929323249155596 0.171904757766625 0.2625
-0.0883322915527807 0.161815841886167 0.2625
-0.0839428641396793 0.160663795413248 0.2625
-0.0684241096051613 0.15624296205624 0.2625
-0.0573080282154996 0.146319969183963 0.2625
-0.060826275405635 0.139131582482133 0.2625
-0.0477560309559035 0.130838860557024 0.2625
-0.0440650013837002 0.12170168744185 0.2625
-0.0380748990914831 0.11466721942094 0.2625
-0.0334454725708721 0.11691547438095 0.2625
-0.0168290821106334 0.0980953096533669 0.2625
-0.0141034834973442 0.095254451127815 0.2625
-0.00465393380279705 0.0830420642721273 0.2625
0.00241288433850304 0.0770608677702372 0.2625
0.00383102990385792 0.0775413387400268 0.2625
0.0146836752517103 0.0659769354896056 0.2625
0.0192228512936146 0.0657195790825211 0.2625
0.0317340292180623 0.0492794527263984 0.2625
0.0408755146590986 0.0361809356130713 0.2625
0.0464552520372605 0.0343127167525786 0.2625
0.0622328972371001 0.0212589154528473 0.2625
0.0599968606387424 0.021157445383605 0.2625
0.0706436649333994 0.0159064427684247 0.2625
0.0818820580300669 0.00134474374711851 0.2625
0.0836740579898274 -0.00274661538792784 0.2625
0.101851024378556 -0.015083321358721 0.2625
0.106927932288431 -0.0119096077550061 0.2625
0.112811686992053 -0.0326790985348651 0.2625
0.129402202006076 -0.0331675266365612 0.2625
0.128913748030529 -0.0449018512799294 0.2625
0.140271764877071 -0.0493331679405585 0.2625
0.145143217289296 -0.0601660312810982 0.2625
0.151761708264337 -0.0602276658337928 0.2625
0.165221594829736 -0.0720883733871417 0.2625
0.173360153896658 -0.0776058400617349 0.2625
0.181430253894545 -0.0966904934338245 0.2625
0.187014623812979 -0.102257224918952 0.2625
0.204332066945155 -0.110924250900643 0.2625
0.21403119342424 -0.121344722669282 0.2625
0.212742353800021 -0.122243433771391 0.2625
0.233685222241653 -0.136022989551494 0.2625
0.239974577033334 -0.145797416477799 0.2625
0.246064468732999 -0.151555639044665 0.2625
0.257291736155076 -0.165036337129561 0.2625
0.262057761446604 -0.175805403458191 0.2625
0.279597010650798 -0.184957231037708 0.260886244772683
-0.104393493311013 0.198251754322024 0.259207456172321
-0.109224433446077 0.196126564463989 0.260270051101338
-0.10253976146961 0.185923447272293 0.2625
-0.0912722750889685 0.182520056746343 0.2625
-0.0886508918731742 0.183100480352077 0.2625
-0.0784460692344456 0.173818980243452 0.2625
-0.0686018453500123 0.159185716380996 0.2625
-0.0644039635694059 0.157350055054654 0.2625
-0.0591545115763484 0.156571692147167 0.2625
-0.0502640776607402 0.142452985493899 0.2625
-0.0374705112399404 0.135847873522058 0.2625
-0.0352521778873602 0.136467742107364 0.2625
-0.0258366550869616 0.125320725589276 0.2625
-0.0193856643926287 0.115130605923627 0.2625
-0.0132050053997791 0.111087162576329 0.2625
-0.00455601394859897 0.100226248009922 0.2625
0.00588471746835874 0.0909614632066377 0.2625
0.00855171562532409 0.0932603880475185 0.2625
0.0173796503783788 0.0814934816542393 0.2625
0.0236844939122465 0.0802022967350287 0.2625
0.0347446247695818 0.0646379152636255 0.2625
0.0418399617555463 0.0562640925928309 0.2625
0.0450837410686972 0.0491289230899717 0.2625
0.0545549716623254 0.049547669464215 0.2625
0.0594852741720087 0.0433290659055143 0.2625
0.0767097115916563 0.0276609345260377 0.2625
0.0832301283203322 0.0185867065084044 0.2625
0.087000981455884 0.0169163090646425 0.2625
0.0975342521935211 0.00420612167334908 0.2625
0.102227501055846 -0.00153221206983734 0.2625
0.105088680394949 -0.00997912558875474 0.2625
0.11647637414219 -0.0130032374224169 0.2625
0.128299474367677 -0.0319128219284157 0.2625
0.131396200299116 -0.0370032691137718 0.2625
0.154693467463143 -0.051382968623101 0.2625
0.153375038873814 -0.0501425444193107 0.2625
0.161608633410748 -0.0544362040228056 0.2625
0.174854785168359 -0.0704427013256075 0.2625
0.180023861685053 -0.0813235245407393 0.2625
0.189950090961554 -0.090291744236985 0.2625
0.20573396098481 -0.0953906598422677 0.2625
0.209008503857837 -0.098311731536874 0.2625
0.217827513852469 -0.11823510786013 0.2625
0.224069470665069 -0.114511463487154 0.2625
0.240646276900152 -0.127131250736771 0.2625
0.24854696343289 -0.143225781858433 0.2625
0.255786604594054 -0.14795256207842 0.2625
0.270024438576725 -0.163841269030437 0.2625
0.276442526825262 -0.16169058440112 0.2625
0.288683275747832 -0.176187966916272 0.2625
-0.0882347110973602 0.197766838575314 0.259449914045676
-0.0836760600988343 0.184692017932749 0.2625
-0.0759823728424716 0.183512136546544 0.2625
-0.0686626353509221 0.180539467555255 0.2625
-0.0676034898441158 0.170917239457539 0.2625
-0.0615584905349427 0.173012858349893 0.2625
-0.0529241501484041 0.160666722230382 0.2625
-0.0435426456087854 0.153355900275295 0.2625
-0.0360826731530245 0.147784478875962 0.2625
-0.0353273529447552 0.138217881636497 0.2625
-0.0244493202495546 0.127798460169783 0.2625
-0.0155506905922994 0.123730877412668 0.2625
-0.00970136907206451 0.120869433132521 0.2625
0.00115653516820977 0.103339378328956 0.2625
0.000446462784198924 0.110455724614977 0.2625
0.0140857963391383 0.0930502381816214 0.2625
0.0231095738105595 0.0892245314393203 0.2625
0.0362767866508565 0.0823112385347893 0.2625
0.042095091326821 0.0768091323253948 0.2625
0.049143057642159 0.0675928038846853 0.2625
0.0533744873246644 0.0601424985849505 0.2625
0.066796313487608 0.0502617384185896 0.2625
0.0734910223049697 0.0458258639736598 0.2625
0.0730368619764896 0.0392671316197294 0.2625
0.0843102956306551 0.0254534624232443 0.2625
0.102154118690555 0.0145047699683651 0.2625
0.104104179417785 0.0149152526878978 0.2625
0.120182167488788 0.00346748564253066 0.2625
0.119106770991331 -0.000705425401322598 0.2625
0.123305252554855 -0.0114123986960362 0.2625
0.138422786301987 -0.0181345026533724 0.2625
0.145935870044352 -0.0245114594201515 0.2625
0.145723720194546 -0.0355390380660438 0.2625
0.168572019728229 -0.044019176055716 0.2625
0.172018685100431 -0.049575046585078 0.2625
0.180367509805923 -0.0553378758334152 0.2625
0.195227531732642 -0.0754658270605963 0.2625
0.193990264187487 -0.0778554227729619 0.2625
0.209975191336838 -0.0812012636873007 0.2625
0.207610826246895 -0.0939157759560392 0.2625
0.230201649145394 -0.101485900639175 0.2625
0.236095792441627 -0.10957387463171 0.2625
0.245866030025752 -0.121085886294033 0.2625
0.25881022741942 -0.127011204194623 0.2625
0.263109586395795 -0.136647814469092 0.2625
0.273972084573647 -0.148711866299623 0.2625
0.286573116562757 -0.165579286499606 0.2625
0.286758508200563 -0.159247623466796 0.2625
0.302086691400164 -0.172439955992459 0.2625
-0.0837450066957756 0.2 0.251551860651507
-0.0841521781727324 0.195708016303938 0.260479325181364
-0.0746310296883173 0.192658994296029 0.262003836185318
-0.0671411344937512 0.18190694674231 0.2625
-0.0613485969441329 0.181164602304384 0.2625
-0.0567263413599988 0.176431606287131 0.2625
-0.0432747233320758 0.168084861820602 0.2625
-0.0319691520717752 0.158147777163167 0.2625
-0.0289808986883393 0.149568106630886 0.2625
-0.0221714386283859 0.141956717900723 0.2625
-0.010799628838944 0.133317098836316 0.2625
-0.010557069764696 0.132115348809848 0.2625
-0.00750253611769534 0.130151242681306 0.2625
0.00194028244945219 0.121010223344539 0.2625
0.0172578064418575 0.10591555361117 0.2625
0.0255035049796474 0.0995140460403453 0.2625
0.0338215445214608 0.101036619397286 0.2625
0.0354298264189926 0.0903877887613106 0.2625
0.0462079681835218 0.0815878329994123 0.2625
0.053081093816515 0.0757852213179134 0.2625
0.0587809595325395 0.0676784823408338 0.2625
0.0698979213835529 0.0530743203992834 0.2625
0.0707860905345431 0.0509498370310981 0.2625
0.0817411539970321 0.0456299934042441 0.2625
0.0962773962707932 0.0300282600030793 0.2625
0.103086526412482 0.025276784800093 0.2625
0.114992102433354 0.0205827506525025 0.2625
0.116798805502359 0.0106484467984697 0.2625
0.124672169259701 -0.00135756819379503 0.2625
0.139496313624833 -0.00316081269473016 0.2625
0.144350075145847 -0.00988893321861747 0.2625
0.148432868018149 -0.0173030344405447 0.2625
0.167321952901585 -0.0296596222295278 0.2625
0.167136540500248 -0.0364812985863234 0.2625
0.186065907214599 -0.0455015251050431 0.2625
0.191667397510822 -0.0542138465909678 0.2625
0.201780668942481 -0.0575670075027015 0.2625
0.200950624121533 -0.0714629856233704 0.2625
0.215132703773277 -0.0780504499605394 0.2625
0.221769971895796 -0.0799843971789504 0.2625
0.230115384471414 -0.0978039423881725 0.2625
0.238506384740081 -0.106554841356662 0.2625
0.251911955913684 -0.113569122504128 0.2625
0.262509834911354 -0.126897243019333 0.2625
0.275407243953478 -0.132305691756006 0.2625
0.276430960863743 -0.131593121302922 0.2625
0.293490102802429 -0.154850697468059 0.2625
0.29608854680386 -0.156287582563133 0.2625
0.308137566753276 -0.169074361185693 0.2625
0.334418983424967 -0.18534707587613 0.258741628586085
-0.0635462790003241 0.2 0.250453740374048
-0.0630823212826125 0.194159095688645 0.26125378548901
-0.0546410787862942 0.187600494825968 0.2625
-0.0557700837773478 0.187090395652197 0.2625
-0.0478910417524821 0.182778260827635 0.2625
-0.0412825188707338 0.170690604112927 0.2625
-0.0269063053840701 0.157968793022909 0.2625
-0.0170763177288249 0.158923233135085 0.2625
-0.0146852921860639 0.150361977275741 0.2625
-0.00956545754198561 0.149002284389536 0.2625
-0.00320501170091549 0.136374409964552 0.2625
0.00145396018943812 0.129317384356198 0.2625
0.00922670349123708 0.123447753999176 0.2625
0.0230866242694396 0.11217754793456 0.2625
0.0328385283884118 0.105901750028912 0.2625
0.0343201511850105 0.106101610656045 0.2625
0.0486389543497832 0.0976287743973318 0.2625
0.0587954978908659 0.0864683318301012 0.2625
0.0678592120132964 0.0804404206823444 0.2625
0.0723159348175531 0.068822658880489 0.2625
0.0703134550865627 0.0718201973355673 0.2625
0.0847163048206362 0.0575453825336846 0.2625
0.0947317371102124 0.053411005879249 0.2625
0.10594388226224 0.0406521824587872 0.2625
0.107167787371892 0.0370408047077691 0.2625
0.117828002825406 0.0219483282718644 0.2625
0.131178644932408 0.0121730741290593 0.2625
0.135622655305818 0.0105810662371749 0.2625
0.138154892352143 -0.00018040769526421 0.2625
0.157433906021576 -0.00882474853928385 0.2625
0.167264268811865 -0.0220608423548772 0.2625
0.168013052700759 -0.0226095353954581 0.2625
0.181821077294034 -0.0326152124816436 0.2625
0.185826764383694 -0.0395861613587556 0.2625
0.191256693228118 -0.0474955376870502 0.2625
0.207651693154275 -0.0607064127880581 0.2625
0.206809448369871 -0.057928254144123 0.2625
0.226772408580217 -0.073181123307279 0.2625
0.225015500288456 -0.0719748423577855 0.2625
0.239781707226661 -0.0843168184139122 0.2625
0.257889745786423 -0.0961436440663007 0.2625
0.251144606580978 -0.105826993494336 0.2625
0.262399036980399 -0.109310692817087 0.2625
0.274179997954484 -0.123522804312362 0.2625
0.288631387633333 -0.133692554628926 0.2625
0.29571374545712 -0.13944725698696 0.2625
0.306439156083362 -0.146959962264009 0.2625
0.322246536621945 -0.168406641111286 0.2625
0.327870617382706 -0.167903422050243 0.2625
0.343305397889118 -0.181497168121466 0.26034279039737
-0.0544899743399454 0.197442820930524 0.259611922868071
-0.0527823403020731 0.194655118392876 0.261005774136895
-0.0436655492688707 0.19626240628175 0.260202130192458
-0.0349955681509267 0.182263742875608 0.2625
-0.0265975010383179 0.17601910097199 0.2625
-0.0229146570147979 0.169331091873452 0.2625
-0.0187790955738147 0.161670084654592 0.2625
-0.0113588236607993 0.158692431177814 0.2625
0.0049523053914081 0.150097773806038 0.2625
0.0014768862773181 0.144640756645493 0.2625
0.0179710770937437 0.131869977401456 0.2625
0.0248767025774936 0.128121518092858 0.2625
0.0356774596812875 0.119840478997466 0.2625
0.0424911641364587 0.11566409415406 0.2625
0.046261594490386 0.108479917607877 0.2625
0.0452384433329581 0.10775590212024 0.2625
0.0623850099648371 0.0882434425673173 0.2625
0.0715379218159108 0.0905620910123192 0.2625
0.0694433583209571 0.0783939156911892 0.2625
0.0862649523204879 0.0745537705614978 0.2625
0.0929989111809094 0.0716557459817868 0.2625
0.098444817179912 0.065013388131008 0.2625
0.109782238853446 0.0527343321706778 0.2625
0.10983709171333 0.0402142456909899 0.2625
0.126516310193268 0.0349469913604304 0.2625
0.136884064088306 0.0213448204163128 0.2625
0.137902888931997 0.0172802478991357 0.2625
0.145363048986104 0.00973213199910977 0.2625
0.164149814266871 0.00636173456213 0.2625
0.167021105379626 -0.00814870551245092 0.2625
0.180919920395875 -0.0194746034185532 0.2625
0.179164306932259 -0.0193056278457097 0.2625
0.187190646735945 -0.0249290839282859 0.2625
0.200529970821996 -0.0353308963410365 0.2625
0.218374949132141 -0.0527978592417748 0.2625
0.213990231217294 -0.0524202635580778 0.2625
0.23172949543443 -0.0646048188790829 0.2625
0.24072127130517 -0.0743525572147291 0.2625
0.255303195418793 -0.088279186151343 0.2625
0.250967665667826 -0.0851701187669505 0.2625
0.26189541142338 -0.0930239693523807 0.2625
0.283111239021421 -0.10556443371444 0.2625
0.288002870706416 -0.116212160270085 0.2625
0.304897386939884 -0.124989997182273 0.2625
0.296763465589898 -0.124797751785968 0.2625
0.318271676357187 -0.146654007959289 0.2625
0.325192034200395 -0.156957527039702 0.2625
0.333864188961317 -0.16523403229183 0.2625
0.346469132315458 -0.167891003004493 0.2625
-0.0478805164221957 0.2 0.256390962384205
-0.0401831603986173 0.2 0.257487239945731
-0.0369726056955221 0.2 0.256671462841062
-0.0348404694370526 0.195146980416392 0.260759843125137
-0.0306320318387395 0.189073096679188 0.2625
-0.0155336703373118 0.180623665952516 0.2625
-0.00519139620656552 0.168758632395907 0.2625
-0.000403562753760945 0.165775539797943 0.2625
0.00832501720206327 0.152321004898636 0.2625
0.0143508699582726 0.158288875456672 0.2625
0.0183703956851353 0.143084683862646 0.2625
0.0323422265432354 0.138199540847226 0.2625
0.0319139826758664 0.130577520345531 0.2625
0.0427834144002778 0.12157427171554 0.2625
0.0533470107135827 0.114994047741135 0.2625
0.0611918838928451 0.109464936331187 0.2625
0.0616448434757434 0.10643670704562 0.2625
0.0811279491482339 0.0913363613794611 0.2625
0.0894036788065569 0.0814033305449956 0.2625
0.0942580385322991 0.0764662406578942 0.2625
0.104622786800888 0.0723567265551767 0.2625
0.103849542362334 0.0661728833635917 0.2625
0.115558139627834 0.0574789467276578 0.2625
0.131010747646913 0.0428559156951991 0.2625
0.128784865416964 0.0493783385816887 0.2625
0.145229350325908 0.0371220520436608 0.2625
0.146903781913281 0.0288823429516417 0.2625
0.157601988591213 0.0205778987257578 0.2625
0.172204560578522 0.00363373400624543 0.2625
0.174966272903689 0.00590769555766802 0.2625
0.187678992280205 -0.00469972569935108 0.2625
0.187169845239364 -0.0142324912283958 0.2625
0.209589867291036 -0.0294470539378049 0.2625
0.214171678572155 -0.0284314711769847 0.2625
0.217426588000182 -0.0398324737614909 0.2625
0.226306373126303 -0.0404999125723321 0.2625
0.236124416221933 -0.054256535589217 0.2625
0.252052833507478 -0.0628137207142146 0.2625
0.260054405137053 -0.074513691954174 0.2625
0.261925526660509 -0.0827597505357881 0.2625
0.269854749131394 -0.085772339054445 0.2625
0.287894663885539 -0.0982393857164387 0.2625
0.289856564190952 -0.105011132671717 0.2625
0.300728033494744 -0.110274306400864 0.2625
0.312338578739088 -0.130259443810553 0.2625
0.328299468239395 -0.133370837338166 0.2625
0.33905929188995 -0.148996912805454 0.2625
0.349069001189484 -0.160954596323302 0.2625
0.358440910431612 -0.158533926988058 0.2625
0.356025279565496 -0.16849090313853 0.2625
-0.0172163610691918 0.2 0.257357025623365
-0.0251434428228143 0.190935733506671 0.2625
-0.0142031136024912 0.185159205245807 0.2625
-0.00784119403207923 0.177584203710031 0.2625
0.00337475310108572 0.177443384930883 0.2625
0.00949677696562054 0.169504726558745 0.2625
0.0235109332472433 0.159114999353087 0.2625
0.029464280359707 0.145255937968516 0.2625
0.0354421492398263 0.142277665933812 0.2625
0.0488763637549539 0.131248037278258 0.2625
0.0528005307290041 0.130031763856964 0.2625
0.0509499019606356 0.129882747097511 0.2625
0.066978822302742 0.109762644552321 0.2625
0.0766919762450655 0.105393208136685 0.2625
0.0874605734809585 0.104146185871889 0.2625
0.089653277215216 0.0933370781612884 0.2625
0.0986692047825434 0.0932106135251736 0.2625
0.10360563372791 0.0786006685871302 0.2625
0.116312156177965 0.0729830479887449 0.2625
0.119657910179404 0.0643625813840093 0.2625
0.131095291458313 0.0526817082483511 0.2625
0.148097691408594 0.0450794962024254 0.2625
0.143299173869687 0.0491308562611891 0.2625
0.151962034755223 0.0318249042513867 0.2625
0.16782826336128 0.0199574759748751 0.2625
0.169516176928373 0.0134923495742832 0.2625
0.184628339722283 0.00874127406789469 0.2625
0.192556558921356 0.000362097210363229 0.2625
0.202626543354534 -0.00714976374137037 0.2625
0.199343589582123 -0.00786002899733062 0.2625
0.216670858866183 -0.0149498121824194 0.2625
0.230434286909034 -0.0362078429237139 0.2625
0.234347301764087 -0.0394477669184378 0.2625
0.245188230533787 -0.0515446622991267 0.2625
0.251305393429086 -0.0504281727472526 0.2625
0.264843068971239 -0.0686799056185559 0.2625
0.280029352056527 -0.0795236155901928 0.2625
0.277377468773813 -0.0855183729990737 0.2625
0.288019378198976 -0.0931241376893832 0.2625
0.30088431121369 -0.0944379847434372 0.2625
0.31493342686516 -0.106190601701798 0.2625
0.31847428064364 -0.116298482468594 0.2625
0.326380047033863 -0.120150507254982 0.2625
0.338835434977695 -0.130565157747176 0.2625
0.346878822961281 -0.147105901723498 0.2625
0.354775787959325 -0.155475417946555 0.2625
0.373088592223291 -0.160128427413565 0.2625
0.381021036262632 -0.17715998062675 0.261160934921667
-0.0114377740359334 0.19315417207892 0.261756247293873
-0.00574963388137734 0.193093208950012 0.261786728858327
0.000785459264868631 0.187254494868888 0.2625
0.0106736442705833 0.17360503549096 0.2625
0.015716004703827 0.167377154604889 0.2625
0.0277008242441083 0.170812909772016 0.2625
0.0268050966050969 0.164740701077287 0.2625
0.0424395828859896 0.149942073989084 0.2625
0.0537764234900122 0.137728110837683 0.2625
0.0637942864603321 0.135595083425498 0.2625
0.0624511133564885 0.130837712397685 0.2625
0.0662616630200908 0.129402120979172 0.2625
0.0848638311770067 0.113937910643426 0.2625
0.090172722187592 0.111372217605566 0.2625
0.095821809343726 0.108750467782073 0.2625
0.102223576427796 0.0931915248125774 0.2625
0.107221761884963 0.0918618644909612 0.2625
0.119540420791276 0.0740943854087689 0.2625
0.127479980294003 0.0674687339948752 0.2625
0.141463897893477 0.0609685863742496 0.2625
0.150632007529294 0.0541632049358 0.2625
0.160142523277146 0.0494340384335082 0.2625
0.160645047406647 0.0409326987017721 0.2625
0.176982679866445 0.0246007530476826 0.2625
0.177481875096151 0.0233281133101494 0.2625
0.188294135081744 0.0159413470606104 0.2625
0.196984541138578 0.0156474807424667 0.2625
0.20129424214624 0.00100749803701508 0.2625
0.217645408676634 -0.0151868181616303 0.2625
0.224852894753753 -0.0096297591359108 0.2625
0.239599827702568 -0.0259406541595628 0.2625
0.235077213929106 -0.0284397014700303 0.2625
0.246952688238547 -0.0453570518827542 0.2625
0.261065634226396 -0.0496034922274963 0.2625
0.268755203714403 -0.0604817536617602 0.2625
0.279206108296413 -0.0668617024720542 0.2625
0.285043864233133 -0.0673059873293293 0.2625
0.303157368218927 -0.0933520634743734 0.2625
0.312011556903672 -0.101173481203244 0.2625
0.318176558842646 -0.104964884497101 0.2625
0.328591113626006 -0.118090873264591 0.2625
0.347850468448827 -0.126967431541954 0.2625
0.341019693435086 -0.122689979481686 0.2625
0.358483611422724 -0.142295634761085 0.2625
0.368200597528299 -0.151518503986647 0.2625
0.375235960772208 -0.161868957383793 0.2625
0.392424718269171 -0.176648983524258 0.261009698484524
0.0077139912535318 0.2 0.250837468823085
0.00334874410525282 0.196552732089648 0.26005696728851
0.0108349039254199 0.195261406591563 0.260702630037552
0.0171569608097724 0.184075929625804 0.2625
0.0226710680231669 0.176399875874168 0.2625
0.0338342656141796 0.173242843624661 0.2625
0.0427607318342879 0.166241851615639 0.2625
0.0534477099307356 0.153485463307164 0.2625
0.0594206525849599 0.153596716504042 0.2625
0.0700464029574595 0.142928879652161 0.2625
0.072275905811647 0.135904870047697 0.2625
0.0841643244417251 0.125635506315912 0.2625
0.0915882269658874 0.11954657935833 0.2625
0.0889426369597341 0.113028705943851 0.2625
0.100129651134777 0.107777863362591 0.2625
0.108190076833063 0.100714980483089 0.2625
0.123382186589721 0.0935332974077727 0.2625
0.130303883119919 0.0797675727881563 0.2625
0.14130498504067 0.0693681170425587 0.2625
0.144601865202189 0.07329450585126 0.2625
0.1534477551047 0.0654034391464021 0.2625
0.160108081960733 0.051508074081552 0.2625
0.170673500539808 0.043404933399204 0.2625
0.187262819906126 0.0309746299975941 0.2625
0.191859327248129 0.0315195946054747 0.2625
0.194807639705338 0.0318687919108628 0.2625
0.212336256855357 0.013109915544732 0.2625
0.209508909915216 0.00795039701307913 0.2625
0.228132606285628 0.00204307581451146 0.2625
0.228845265120135 -0.0126290541343578 0.2625
0.242737602005993 -0.020592401119264 0.2625
0.256906188815545 -0.0250948038533531 0.2625
0.2607887085863 -0.02946420000697 0.2625
0.2733304694728 -0.0432874982377981 0.2625
0.283736727860386 -0.0555382580176664 0.2625
0.287195081657821 -0.0615232085206386 0.2625
0.295843233391155 -0.0663030140322448 0.2625
0.307322860026682 -0.0810328959064014 0.2625
0.316037169663601 -0.0884191493013963 0.2625
0.331976908509099 -0.102241653156641 0.2625
0.333167264582902 -0.107370586930152 0.2625
0.347208891878613 -0.116195967541339 0.2625
0.363251197775343 -0.122212775002603 0.2625
0.375488466384908 -0.135167449389108 0.2625
0.38383493285917 -0.136013729783306 0.2625
0.385830625704226 -0.151028440273448 0.2625
0.392722734395671 -0.159145882708643 0.2625
0.411156145029787 -0.171171364552298 0.2625
0.0150869924809335 0.2 0.254845832650801
0.0180013167243409 0.193759369809674 0.261453648428496
0.0220056931525967 0.196691118097737 0.259987774284465
0.0368705715679825 0.183125453310483 0.2625
0.0400792458332278 0.175924099465956 0.2625
0.0524413111617235 0.172002597203071 0.2625
0.0547525617371067 0.165846928983409 0.2625
0.0654769082487932 0.150365366943758 0.2625
0.067229896345065 0.152104734261142 0.2625
0.0728363230743088 0.144130860473612 0.2625
0.0845081336219294 0.13867443839517 0.2625
0.0974710119671639 0.129423924729639 0.2625
0.108861544588515 0.119027855597542 0.2625
0.106218036395731 0.119981290483272 0.2625
0.121819336648886 0.109087296698895 0.2625
0.125935042165021 0.0970469498740644 0.2625
0.143873921499959 0.0870504277315393 0.2625
0.141689659268487 0.0861471709154197 0.2625
0.148596644985977 0.0790792181594786 0.2625
0.160670082243312 0.0726782634067987 0.2625
0.172010785734581 0.0566721154577706 0.2625
0.173721139802913 0.0554125549725903 0.2625
0.187648222256864 0.0523711066536367 0.2625
0.195162408355094 0.0346568013592474 0.2625
0.203426091719279 0.0335453970039919 0.2625
0.210274951572737 0.0258440326227514 0.2625
0.221815336665663 0.012059014301054 0.2625
0.227204694291405 0.00286343205760288 0.2625
0.23264038138097 5.85410367024864e-005 0.2625
0.2512638022889 -0.0137237886247708 0.2625
0.265155635100791 -0.0204905019625205 0.2625
0.268674896325805 -0.0241953860746969 0.2625
0.281077749027894 -0.0394725516300748 0.2625
0.286817649643908 -0.0392255267609992 0.2625
0.30206606865641 -0.0549578696854131 0.2625
0.309294479769895 -0.0589644998451987 0.2625
0.314082828814425 -0.0675232476509748 0.2625
0.318833504757813 -0.0711413389771716 0.2625
0.330426340481925 -0.0869766244028488 0.2625
0.344629791758344 -0.0996471932233822 0.2625
0.349223246755084 -0.0974693179520898 0.2625
0.36776730896375 -0.12140734522522 0.2625
0.365451483778347 -0.119021321464479 0.2625
0.380799056192572 -0.133623965766388 0.2625
0.392877787047184 -0.139940709788075 0.2625
0.410250850596205 -0.156739231541249 0.2625
0.412352593256237 -0.156088986527977 0.2625
0.429602371396317 -0.172431240805548 0.261787497869801
0.0304262912591138 0.2 0.251861301472753
0.0419718514303488 0.198021741879434 0.259322462393617
0.0376423238215104 0.194013583283178 0.261326541691745
0.0481634283332769 0.185580387428857 0.2625
0.0606472694973604 0.174935185624906 0.2625
0.0626471987438155 0.175270183176983 0.2625
0.0706574882361176 0.170280972477221 0.2625
0.0838178840489882 0.158683998823727 0.2625
0.0843001124014515 0.147843362739553 0.2625
0.0924280009501156 0.14608698826036 0.2625
0.0976309855673516 0.143980128038078 0.2625
0.115546211483253 0.131914742556816 0.2625
0.11959816226561 0.12660710556628 0.2625
0.125519568132968 0.112792794986972 0.2625
0.127162459146083 0.111923042658281 0.2625
0.14625329742083 0.0912115032998836 0.2625
0.159400982768934 0.0923324019461674 0.2625
0.158177517856818 0.084263765945704 0.2625
0.167814520769441 0.0831650531430521 0.2625
0.178205288576571 0.0677271379050831 0.2625
0.190772560353802 0.0592988710886175 0.2625
0.194878151106914 0.0565638151103004 0.2625
0.198238268850127 0.0543473230968883 0.2625
0.21884936601635 0.0331315409692737 0.2625
0.221550792126613 0.0229797286932732 0.2625
0.23588011934194 0.0231344309483769 0.2625
0.23193595715372 0.01904215222673 0.2625
0.241841294568196 0.0131083680899957 0.2625
0.260719973950827 -0.00993231964038178 0.2625
0.261519838815618 -0.0108035104247806 0.2625
0.268692622693738 -0.0199549500362024 0.2625
0.291392446214344 -0.034392956968314 0.2625
0.293643283035481 -0.0353925130532474 0.2625
0.303124493654685 -0.0453539706280755 0.2625
0.317567787700502 -0.0530118269441317 0.2625
0.322289679016269 -0.0639765405241841 0.2625
0.334622769602888 -0.0738904311393734 0.2625
0.340989911838891 -0.0760856807351999 0.2625
0.348029287730488 -0.0907338007734595 0.2625
0.361281303889306 -0.0980064805476744 0.2625
0.373160735833463 -0.108296361592214 0.2625
0.376039339689462 -0.109362428606969 0.2625
0.397976995348471 -0.126298096818374 0.2625
0.395501393265787 -0.135629242641288 0.2625
0.416295821153015 -0.150834930670281 0.2625
0.424557577157811 -0.160602989050649 0.2625
0.433920516442351 -0.15852923949041 0.2625
0.452890309686441 -0.167930291753839 0.2625
0.234374999999999 0.0332933953766584 0.000729664848876718
0.0402334774667531 0.198279136445656 0.259193765110505
0.0452168838751136 0.198395909101078 0.259135378782795
0.0501931489434919 0.190478418258585 0.2625
0.0606545389166633 0.183469419675215 0.2625
0.0727902471152705 0.173248355316412 0.2625
0.0715013035955145 0.177220044318488 0.2625
0.0798376585863734 0.165603329510673 0.2625
0.0912617182185883 0.160493440522857 0.2625
0.0975780902185229 0.157633952147917 0.2625
0.113264274417006 0.141303545332337 0.2625
0.116900072414989 0.140498585434766 0.2625
0.121979361961496 0.131895504580126 0.2625
0.12960813209009 0.12543656587623 0.2625
0.14037224384191 0.117986106763122 0.2625
0.144446159366135 0.109153291169086 0.2625
0.158881377686699 0.103927329033299 0.2625
0.170614367480928 0.0936765494247808 0.2625
0.172293770528474 0.0898751563383042 0.2625
0.183419033822937 0.0802938704110725 0.2625
0.189633769096219 0.0655768226160496 0.2625
0.198486519181941 0.0703909945856391 0.2625
0.210487001038882 0.0496918942196477 0.2625
0.225118633669201 0.0479537386385672 0.2625
0.235959041662332 0.0408528316367319 0.2625
0.236339679391195 0.0241593204657507 0.2625
0.249758682040041 0.0193233835816956 0.2625
0.260271047422638 0.010995146171259 0.2625
0.264835305714696 0.00055743348244229 0.2625
0.270864584480185 0.00380920217249112 0.2625
0.282870362176698 -0.00400027328905489 0.2625
0.292776064130038 -0.0198928060665016 0.2625
0.301045798554257 -0.0262394164387676 0.2625
0.312574328374366 -0.0322257964269691 0.2625
0.323153292970215 -0.0434984199881697 0.2625
0.329439275404546 -0.0500121122004553 0.2625
0.338974321290041 -0.057123264087393 0.2625
0.350465706772014 -0.0659543791270498 0.2625
0.357798402057583 -0.0719120300729244 0.2625
0.377772290552638 -0.0943270297598133 0.2625
0.379629776665651 -0.095471258600297 0.2625
0.395874665398502 -0.109757826331328 0.2625
0.403055955940828 -0.114549215140887 0.2625
0.406254404860934 -0.12747471267869 0.2625
0.426595134848319 -0.133640194164687 0.2625
0.424920637955526 -0.139775716611181 0.2625
0.434742163752215 -0.153093460396036 0.2625
0.461632487154653 -0.168884591182946 0.262414220688444
0.463203992546795 -0.167574809157178 0.2625
0.234374999999999 0.0470402154855404 0.00464207285712026
0.234374999999999 0.0458200019977923 0.0163763156696657
0.234374999999999 0.0494236502805613 0.0256852543399756
0.234374999999999 0.0518995033392864 0.0338867338845912
0.0644022683058859 0.2 0.254396693724856
0.0688716661277727 0.193046470345401 0.261810098160633
0.0686271900315394 0.187215274190216 0.2625
0.0876115715829968 0.175982165700107 0.2625
0.087966707044964 0.172244814687798 0.2625
0.0946528754749438 0.165632702501853 0.2625
0.108913800260297 0.158959704909119 0.2625
0.109232745868993 0.148585750820975 0.2625
0.120589569746875 0.14213629476614 0.2625
0.138340457136796 0.13428610653273 0.2625
0.134939455013109 0.129151440981231 0.2625
0.145486585462664 0.121997465468114 0.2625
0.152682842335145 0.118800831653644 0.2625
0.163277241913458 0.10808611896108 0.2625
0.169807855797215 0.0963900098520514 0.2625
0.182682705256264 0.0961705633849315 0.2625
0.191808830527245 0.0849684552847852 0.2625
0.201525596822652 0.0758436850529942 0.2625
0.212266077015586 0.0632442211427332 0.2625
0.210098172551761 0.0685032173636678 0.2625
0.222428035025224 0.0574837240805919 0.2625
0.243551807005246 0.0463941235975592 0.2625
0.242505909814482 0.0321437587644664 0.2625
0.253279839725565 0.0300103230790725 0.2625
0.26541940088525 0.020726135286273 0.2625
0.271943531332631 0.0121649557246795 0.2625
0.277434423086343 0.00124276121469524 0.2625
0.288968462644846 -0.00912915055197908 0.2625
0.300776884080934 -0.0115645335141401 0.2625
0.306778793890358 -0.0196799669264275 0.2625
0.323350284695487 -0.0290075143056739 0.2625
0.32797352289258 -0.0406830108808274 0.2625
0.337979913097206 -0.0510140507221749 0.2625
0.349594686268578 -0.0487399563913769 0.2625
0.356290635274689 -0.0652640633469843 0.2625
0.366731957818969 -0.0673324760004282 0.2625
0.374983448705399 -0.0826303982934614 0.2625
0.391157346665682 -0.0905206528482736 0.2625
0.408589417872985 -0.102627366351045 0.2625
0.414769675349829 -0.113818358713192 0.2625
0.419521683132261 -0.109218095505156 0.2625
0.432109519051333 -0.125894612955082 0.2625
0.447347859997953 -0.13482391364454 0.2625
0.451617030240602 -0.149309735365344 0.2625
0.46116384322724 -0.156373637808288 0.2625
0.234374999999999 0.0613995559364989 0.0115409882785804
0.234374999999999 0.0649771306522519 0.0155378430320412
0.234374999999999 0.0581095139882 0.0280992940410003
0.234374999999999 0.0641069611524981 0.037949284462549
0.234374999999999 0.0634845086102361 0.0457274439414653
0.0801203151126998 0.2 0.255283756905317
0.0814966947856467 0.2 0.257826895916271
0.0838543829274772 0.186134239031009 0.2625
0.0969559901915268 0.177810401782193 0.2625
0.0938731398235925 0.180993446826744 0.2625
0.105770285714255 0.170750841539788 0.2625
0.109499959921707 0.164361630914097 0.2625
0.122470062817902 0.159727108109504 0.2625
0.129447589062378 0.156470086344017 0.2625
0.138758629078549 0.137877149524186 0.2625
0.147874848554095 0.137276023599788 0.2625
0.149716840604285 0.131737451626708 0.2625
0.16803453259918 0.116147421470021 0.2625
0.175550355891574 0.115552459434702 0.2625
0.184903473910003 0.107362372360999 0.2625
0.187357214175047 0.0957306053305125 0.2625
0.196101003319986 0.0844033110713596 0.2625
0.210667154155692 0.0837814838453719 0.2625
0.217114596676861 0.0738191684188429 0.2625
0.23091801451176 0.0672151173806481 0.2625
0.237092705008746 0.062407989029199 0.2625
0.242087280475609 0.0549573190560837 0.2625
0.25077288539195 0.0505486054294318 0.2625
0.253918675670811 0.0342435044312412 0.2625
0.275178927572791 0.0299104156253532 0.2625
0.281054033013666 0.0218614010355861 0.2625
0.282583809539751 0.0108077864948278 0.2625
0.305984262794232 -0.00166732254398282 0.2625
0.312479254350269 -0.00676745145359655 0.2625
0.317951023639068 -0.0117083745888649 0.2625
0.328071938402135 -0.0197353169138802 0.2625
0.333507809733362 -0.0273385011072714 0.2625
0.339999912667215 -0.0320877544440373 0.2625
0.352033750876879 -0.044016404093585 0.2625
0.36025105893063 -0.0529716353298468 0.2625
0.375270844448679 -0.0642276742630003 0.2625
0.39215343172515 -0.0709821455864566 0.2625
0.395406777724427 -0.0770682283681618 0.2625
0.406638978143166 -0.0932158229030056 0.2625
0.420770483646555 -0.100943293901148 0.2625
0.425219408892679 -0.104689108625565 0.2625
0.437900349396794 -0.116196507623669 0.2625
0.454249533265554 -0.131345618580986 0.2625
0.456145331953402 -0.132385267546992 0.2625
0.463556261342163 -0.148788589546181 0.2625
0.484759542896604 -0.156448755822257 0.2625
0.234374999999999 0.0762332237422415 0.00215728609646637
0.234374999999999 0.080614935674488 0.0193660678862122
0.234374999999999 0.0725446477437273 0.0122602984553127
0.234374999999999 0.0710614143768097 0.0280836506850004
0.234374999999999 0.0693509207547175 0.0422070968641237
0.234374999999999 0.0749538085275776 0.0468312248139158
0.234374999999999 0.0717452464682829 0.0527304668784539
0.0854061922142648 0.2 0.256865413890312
0.0938236720667237 0.196160026315129 0.260253320175769
0.0937513504122254 0.194488046158741 0.261089310253963
0.100183367035319 0.19038663844069 0.2625
0.115689397681976 0.17734491199773 0.2625
0.120768422785582 0.175200963648552 0.2625
0.127188995727605 0.168242925738515 0.2625
0.139779440993647 0.164785155589124 0.2625
0.143157230183783 0.144605763451577 0.2625
0.149186417608639 0.150174794269826 0.2625
0.156422272780059 0.137423743830828 0.2625
0.172589371504972 0.127970111121541 0.2625
0.179530524679296 0.116711879145044 0.2625
0.189070382598004 0.106128858550655 0.2625
0.192533633084384 0.103043595214631 0.2625
0.201778208393105 0.103788061945665 0.2625
0.216782076640116 0.0852561996597525 0.2625
0.218799670161964 0.0802701428668094 0.2625
0.237903920630538 0.0700299209820478 0.2625
0.241516226952464 0.0693923437858425 0.2625
0.252319327220747 0.0599732544428214 0.2625
0.261565492483754 0.0515343855447883 0.2625
0.265903717987883 0.0438482530757618 0.2625
0.278118809839473 0.0392490226602954 0.2625
0.29190799427421 0.0274160892660269 0.2625
0.292074812872685 0.0224970333591294 0.2625
0.304592118746635 0.00944174252798002 0.2625
0.311803213793429 0.00380448500948768 0.2625
0.31900426570744 -0.00334124653348642 0.2625
0.328698779985466 -0.00672047815511944 0.2625
0.34221045721646 -0.0193853839706861 0.2625
0.347636547293198 -0.033865002673402 0.2625
0.368138818552063 -0.0431100393493106 0.2625
0.370580332416579 -0.0458977599576078 0.2625
0.3878506186269 -0.0638410595570226 0.2625
0.390352769245469 -0.0568702667793587 0.2625
0.409466778977181 -0.0690686833827982 0.2625
0.408016006234253 -0.0824293999745431 0.2625
0.429645522208336 -0.0987338760737653 0.2625
0.43745180370617 -0.09769550363158 0.2625
0.448554464912664 -0.115043127220874 0.2625
0.449284857043721 -0.111998504847647 0.2625
0.477846072706731 -0.128439034225129 0.2625
0.478152387167614 -0.131486188173147 0.2625
0.488354481446286 -0.149361979689143 0.2625
0.234374999999999 0.0837220993534551 0.00551066653944057
