ply
format ascii 1.0
element vertex 860
property float x
property float y
property float z
end_header
-0.343115027102008 -0.354442434792843 0.759310344827759
-0.362788320185695 -0.356703829701305 0.759310344827759
-0.373878382174679 -0.358611769802739 0.759310344827759
-0.406634465479132 -0.359767875652248 0.759310344827759
0.446106473861321 -0.265836572529861 0.439164597266212
0.441907931457447 -0.264289631480406 0.441782232860301
0.442192329671876 -0.265174012516655 0.452225132184314
0.443552397946567 -0.267034404259293 0.469894253657794
0.449029419780187 -0.267422873095641 0.550080529443855
0.452611551632452 -0.266045617551679 0.563899563408623
0.442502556535804 -0.263138307799291 0.569446762543075
0.447546209946095 -0.266555466788218 0.575202143002266
0.442640756307018 -0.267239346359998 0.58697192158201
0.442991041505964 -0.268435590044418 0.611234466865855
0.454150922669116 -0.267241379310345 0.644778931490131
0.45912926285358 -0.26699276008021 0.656154838452015
0.45912926285358 -0.259586714589422 0.671997114090088
0.45912926285358 -0.262098089502663 0.678632584148373
0.5 -0.259501201009293 0.726800195412581
0.5 -0.255686699662209 0.730887075045545
0.5 -0.254206842449241 0.738369068364297
0.5 -0.259500535318319 0.752223963127089
0.5 -0.255956031647238 0.752949381328763
0.490402725223645 -0.261278247176937 0.759310344827759
0.479204382298237 -0.259666026823332 0.759310344827759
0.466668947424919 -0.258333857390815 0.759310344827759
0.45701197838652 -0.265068163577767 0.759310344827759
0.46028100745255 -0.266673682136532 0.759310344827759
0.443109068997765 -0.261792131733734 0.759310344827759
0.436456535209391 -0.263394150144207 0.759310344827759
0.429088576252574 -0.263768076150879 0.759310344827759
0.416827495969944 -0.268695488358937 0.759310344827759
0.40610406001314 -0.270656864120846 0.759310344827759
0.397391502013722 -0.26651377046421 0.759310344827759
0.378166965343291 -0.267601133022374 0.759310344827759
0.375909565566107 -0.268400552926009 0.759310344827759
0.361507900991864 -0.268242872189644 0.759310344827759
0.355051555755723 -0.277077994184966 0.759310344827759
0.3412857753645 -0.271359487112822 0.759310344827759
0.326309196252268 -0.273444956614077 0.759310344827759
0.323712320923966 -0.274267671231879 0.759310344827759
0.310142926432591 -0.280068991094662 0.759310344827759
0.300128747887441 -0.277869526757106 0.759310344827759
0.29403207890111 -0.278911028127658 0.759310344827759
0.27151136123441 -0.284206267625006 0.759310344827759
0.265118950515739 -0.281940804614567 0.759310344827759
0.257799278898287 -0.27979980818491 0.759310344827759
0.247332019791754 -0.287599738148556 0.759310344827759
0.232888566106472 -0.283729398438149 0.759310344827759
0.225048417333947 -0.290077536720431 0.759310344827759
0.215299143194071 -0.288846098870307 0.759310344827759
0.198564583643595 -0.290440225797086 0.759310344827759
0.189681461573016 -0.295136134417361 0.759310344827759
0.181580201126024 -0.293013642115566 0.759310344827759
0.167562658720839 -0.294514611950626 0.759310344827759
0.147740957444951 -0.29193269433306 0.759310344827759
0.141155196177952 -0.291339760421115 0.759310344827759
0.132543779841501 -0.297608294306557 0.759310344827759
0.114250535637205 -0.296603893717543 0.759310344827759
0.107744503989071 -0.301867751522922 0.759310344827759
0.0865987496163573 -0.299214738119018 0.759310344827759
0.0685093182505978 -0.300756174720126 0.759310344827759
0.0607156177268614 -0.307395288536169 0.759310344827759
0.050585251560818 -0.300554202956195 0.759310344827759
0.0382267199528391 -0.310599523877633 0.759310344827759
0.0225764425151719 -0.303114656671794 0.759310344827759
0.0124370917095028 -0.310040737254427 0.759310344827759
-0.0121917831180481 -0.312021363929115 0.759310344827759
-0.0162364592478173 -0.307244454900973 0.759310344827759
-0.0274061442900532 -0.31743519259187 0.759310344827759
-0.0450885271815746 -0.315618783002728 0.759310344827759
-0.05025740117176 -0.312300105609059 0.759310344827759
-0.0762510980015149 -0.31251433109384 0.759310344827759
-0.0858173714181305 -0.316675029666779 0.759310344827759
-0.0943204118413457 -0.318652752783786 0.759310344827759
-0.103920371447938 -0.321719374978046 0.759310344827759
-0.128479777568183 -0.318910726631786 0.759310344827759
-0.146664609423315 -0.325985669012502 0.759310344827759
-0.149628821176893 -0.324477417306619 0.759310344827759
-0.167594960429011 -0.325910918052063 0.759310344827759
-0.183531021430801 -0.326683728179506 0.759310344827759
-0.201833831155363 -0.330366981581404 0.759310344827759
-0.212337477247373 -0.327918312637398 0.759310344827759
-0.226767397616417 -0.332513709164564 0.759310344827759
-0.240649286740557 -0.330066404881598 0.759310344827759
-0.262428222395391 -0.333077142428644 0.759310344827759
-0.282671207527584 -0.334752135450035 0.759310344827759
-0.299617224533257 -0.336521166691552 0.759310344827759
-0.319240565899073 -0.342310800952013 0.759310344827759
-0.318653918060667 -0.343042525024935 0.759310344827759
-0.343192905330981 -0.34817702079718 0.759310344827759
-0.356774209712272 -0.351860337138753 0.759310344827759
-0.38898994689688 -0.347229781918096 0.759310344827759
-0.401535017419593 -0.354415318677971 0.759310344827759
-0.417440437689949 -0.355506161223804 0.759310344827759
-0.430987003867704 -0.357407307803047 0.759310344827759
-0.45208939928903 -0.360779893178743 0.759310344827759
-0.462014611863075 -0.361109854878305 0.759310344827759
0.45912926285358 -0.258456023334309 0.662789327245137
0.45912926285358 -0.252422086041026 0.670339393334007
0.45912926285358 -0.252733406828013 0.681029317209046
0.45912926285358 -0.251321182062674 0.686343568899376
0.5 -0.250692367570681 0.731814195769828
0.5 -0.250710768018119 0.737441133434214
0.5 -0.253964023253441 0.752389996889482
0.5 -0.246249736242413 0.756323500525272
0.493825422700417 -0.249921235914994 0.759310344827759
0.484948662229046 -0.247650945851202 0.759310344827759
0.47405697382368 -0.254856783523272 0.759310344827759
0.460211509585793 -0.25131077783203 0.759310344827759
0.457410227268399 -0.255128962253892 0.759310344827759
0.444242860534392 -0.256138409860361 0.759310344827759
0.442921663473226 -0.252782520376338 0.759310344827759
0.430389638736705 -0.25644127028746 0.759310344827759
0.415617164707271 -0.257389506410988 0.759310344827759
0.412634105513668 -0.259897128984018 0.759310344827759
0.399072842767772 -0.256260719133571 0.759310344827759
0.376463872526514 -0.258433064165758 0.759310344827759
0.371438724041077 -0.262804805074155 0.759310344827759
0.358715893822952 -0.262200578115069 0.759310344827759
0.350484270619332 -0.263363579480912 0.759310344827759
0.337081242764178 -0.262547583647732 0.759310344827759
0.335324436955956 -0.263978085551229 0.759310344827759
0.31475706563461 -0.266044142768623 0.759310344827759
0.313723960088033 -0.265892582870219 0.759310344827759
0.303968412099251 -0.269526149908463 0.759310344827759
0.283961111904286 -0.274660240468246 0.759310344827759
0.278185818111613 -0.275406431007783 0.759310344827759
0.265171360059556 -0.270686164215425 0.759310344827759
0.254818968750085 -0.277018547035233 0.759310344827759
0.249386305166371 -0.275415123054893 0.759310344827759
0.234955116442028 -0.276908139358256 0.759310344827759
0.21590337159122 -0.281930325016936 0.759310344827759
0.213181869237659 -0.280810458737159 0.759310344827759
0.207695625093326 -0.276644636262205 0.759310344827759
0.192668347130243 -0.27733853848461 0.759310344827759
0.175589190955832 -0.278354172653476 0.759310344827759
0.162773712734455 -0.283260693780145 0.759310344827759
0.154602646884529 -0.288815217611461 0.759310344827759
0.139655008957925 -0.280940094769172 0.759310344827759
0.133816677170259 -0.284044855607922 0.759310344827759
0.113055169340856 -0.284318955639674 0.759310344827759
0.107808481522357 -0.291757120482955 0.759310344827759
0.0894396354799475 -0.286900379035469 0.759310344827759
0.0778684869960595 -0.292752824183392 0.759310344827759
0.0668602619319479 -0.293222077291982 0.759310344827759
0.0568094751219866 -0.298126881512508 0.759310344827759
0.0373318039671283 -0.298357510617733 0.759310344827759
0.0245801558390419 -0.29641730800458 0.759310344827759
0.0211675990567412 -0.296640139698336 0.759310344827759
0.00182849461620623 -0.295704842064557 0.759310344827759
-0.0114072132819787 -0.297598057092921 0.759310344827759
-0.0389069712949736 -0.308473496829774 0.759310344827759
-0.035332752159822 -0.308217189688599 0.759310344827759
-0.054876886921185 -0.304298065265335 0.759310344827759
-0.071825080390832 -0.306046320053225 0.759310344827759
-0.0870527439359937 -0.306939205989702 0.759310344827759
-0.103427492672454 -0.308022805297222 0.759310344827759
-0.110752637592119 -0.314502696240778 0.759310344827759
-0.125557374062566 -0.311060607358317 0.759310344827759
-0.15128977400665 -0.312143639807854 0.759310344827759
-0.155443014822727 -0.317280998520207 0.759310344827759
-0.177432409379931 -0.320113422824838 0.759310344827759
-0.19217812994247 -0.319772557409576 0.759310344827759
-0.207970430171372 -0.324914645318115 0.759310344827759
-0.214018872886264 -0.32434935519801 0.759310344827759
-0.224743064853142 -0.327155208518623 0.759310344827759
-0.248838870301413 -0.328533778950459 0.759310344827759
-0.262038964575915 -0.331263279418047 0.759310344827759
-0.275529551642847 -0.331721849564654 0.759310344827759
-0.283768557907392 -0.332838691918728 0.759310344827759
-0.314009219790628 -0.335261500655064 0.759310344827759
-0.331375504808248 -0.333850171690189 0.759310344827759
-0.339241648921164 -0.335991860493335 0.759310344827759
-0.355648168398126 -0.340725541285392 0.759310344827759
-0.38035668907363 -0.336585583793543 0.759310344827759
-0.392337427104724 -0.344872837618092 0.759310344827759
-0.406518970344486 -0.335453467312977 0.759310344827759
-0.440951533127292 -0.340721622233615 0.759310344827759
-0.445531522098909 -0.342631063714813 0.759310344827759
-0.465596011951281 -0.342168121846882 0.759310344827759
-0.484845058599741 -0.350702573845182 0.759310344827759
0.45912926285358 -0.246421134691348 0.658281105401753
0.45912926285358 -0.24348200102974 0.673447228347037
0.45912926285358 -0.244251589560845 0.676392403644313
0.45912926285358 -0.247158362765448 0.684878966830689
0.5 -0.24053409676013 0.729541380274923
0.5 -0.23864273593194 0.741186301132559
0.5 -0.239984807745474 0.744974743907078
0.5 -0.244042375983755 0.75345826064641
0.491754624865467 -0.244773166134096 0.759310344827759
0.48852201212432 -0.242273888416619 0.759310344827759
0.468373380277303 -0.24770325214339 0.759310344827759
0.455322000467644 -0.247796412291375 0.759310344827759
0.454748987068673 -0.248497781500799 0.759310344827759
0.441045960662784 -0.249792146932085 0.759310344827759
0.42983114492089 -0.252229172495794 0.759310344827759
0.42028389869791 -0.250030244840264 0.759310344827759
0.412956087619612 -0.253946015299396 0.759310344827759
0.412183952552091 -0.252480627802745 0.759310344827759
0.38802569099698 -0.250288568722616 0.759310344827759
0.38895762264411 -0.251363001035489 0.759310344827759
0.368866752549846 -0.25345278739081 0.759310344827759
0.368638089338383 -0.256820113772616 0.759310344827759
0.355220488522263 -0.257997608038742 0.759310344827759
0.344919366536258 -0.259830051924349 0.759310344827759
0.329044017218186 -0.255195122372825 0.759310344827759
0.32755742578938 -0.25697824275705 0.759310344827759
0.31001615468293 -0.255911756667493 0.759310344827759
0.302132128267913 -0.258829493970505 0.759310344827759
0.293242470194194 -0.258538227243846 0.759310344827759
0.277302365843615 -0.259249630153911 0.759310344827759
0.261201607803391 -0.265288875551266 0.759310344827759
0.26276968273122 -0.260201225280192 0.759310344827759
0.243281405816774 -0.261724866056502 0.759310344827759
0.22870919317231 -0.265862761222753 0.759310344827759
0.224809666079861 -0.26771094877185 0.759310344827759
0.217582499016163 -0.273719899440849 0.759310344827759
0.20393181639883 -0.274738980099579 0.759310344827759
0.192151180433713 -0.267380892496812 0.759310344827759
0.172505733567566 -0.277587612060024 0.759310344827759
0.16019889359421 -0.27304016439724 0.759310344827759
0.154250428502378 -0.275858277323916 0.759310344827759
0.134397389459417 -0.276304940323682 0.759310344827759
0.134024758094782 -0.277636506005933 0.759310344827759
0.112353103226071 -0.281626093062824 0.759310344827759
0.0936230477221501 -0.281460078803812 0.759310344827759
0.0849962003896362 -0.285633362292665 0.759310344827759
0.0836931987059086 -0.286790346802989 0.759310344827759
0.0726013698345576 -0.285159816108901 0.759310344827759
0.0574346714901195 -0.289125983200412 0.759310344827759
0.0476265733618257 -0.284552837663848 0.759310344827759
0.0318356918257293 -0.28944096170834 0.759310344827759
0.0126028141059216 -0.29385515968192 0.759310344827759
-0.000715591302335156 -0.288782536102314 0.759310344827759
-0.0137252703408709 -0.291255733182 0.759310344827759
-0.0345593824594751 -0.292520868525234 0.759310344827759
-0.0465501546941246 -0.293795757827698 0.759310344827759
-0.0510262662545377 -0.298882195937383 0.759310344827759
-0.0745158497127558 -0.296583022642005 0.759310344827759
-0.0836738004044665 -0.302680564738147 0.759310344827759
-0.0962975463335668 -0.298068624279392 0.759310344827759
-0.115275823425427 -0.298960939585486 0.759310344827759
-0.129379449975957 -0.30272539638239 0.759310344827759
-0.153028754626079 -0.306021420516752 0.759310344827759
-0.162108790125435 -0.309080761900441 0.759310344827759
-0.175233482917323 -0.309122894385802 0.759310344827759
-0.190434351290289 -0.305612253639637 0.759310344827759
-0.198611040268346 -0.308976419328794 0.759310344827759
-0.216941993950426 -0.314870345195129 0.759310344827759
-0.236632389484755 -0.31653673736651 0.759310344827759
-0.240560574944825 -0.309948745726804 0.759310344827759
-0.26002947558464 -0.317685563562785 0.759310344827759
-0.286988340596317 -0.318780837717799 0.759310344827759
-0.289136229649854 -0.3180707831436 0.759310344827759
-0.314060170827633 -0.320367682060307 0.759310344827759
-0.322300233852076 -0.320460061403726 0.759310344827759
-0.352870257363658 -0.321079023943846 0.759310344827759
-0.373551719218773 -0.328912276036115 0.759310344827759
-0.377652109929453 -0.321769351286563 0.759310344827759
-0.388151114030401 -0.328270562324326 0.759310344827759
-0.413205537018702 -0.329172783628209 0.759310344827759
-0.430351106254194 -0.332946664209488 0.759310344827759
-0.450493547846024 -0.328497155525225 0.759310344827759
-0.467833982102583 -0.336145210266066 0.759310344827759
-0.482976152943482 -0.337048147735512 0.759310344827759
0.459140309367503 -0.235222888268747 0.65586206896569
0.459129262853579 -0.235756453030046 0.671902580044217
0.45912926285358 -0.240658342659232 0.674120418244749
0.45912926285358 -0.233180769188087 0.686883945012685
0.5 -0.236963314727953 0.732844255829752
0.5 -0.230632691024448 0.743845571550029
0.5 -0.229782077044935 0.747268429378064
0.496726245976485 -0.233822962798254 0.759310344827759
0.491653209556626 -0.231257490238673 0.759310344827759
0.480897375194324 -0.239103816329591 0.759310344827759
0.473648987506944 -0.231697940535743 0.759310344827759
0.464601919043794 -0.23506915953165 0.759310344827759
0.45075294816542 -0.241423014574935 0.759310344827759
0.442184991294203 -0.23779542029356 0.759310344827759
0.435454554301836 -0.236436430007695 0.759310344827759
0.422258830867177 -0.24087443909817 0.759310344827759
0.411605042928604 -0.24078559995352 0.759310344827759
0.400958178349354 -0.240452873092311 0.759310344827759
0.389777159897957 -0.243753645815859 0.759310344827759
0.37958564258679 -0.241788423107529 0.759310344827759
0.376049782958018 -0.245591240672954 0.759310344827759
0.366865846796129 -0.244690990143263 0.759310344827759
0.358620462182934 -0.251032648893085 0.759310344827759
0.344399391373987 -0.244676993291318 0.759310344827759
0.334953336718057 -0.248306368420774 0.759310344827759
0.320777794956702 -0.246357418525763 0.759310344827759
0.317949571244321 -0.254769433359366 0.759310344827759
0.3043347616321 -0.252747295183886 0.759310344827759
0.292564884356529 -0.2515234119482 0.759310344827759
0.282493147412614 -0.256161453625591 0.759310344827759
0.270830935290816 -0.254430133202666 0.759310344827759
0.25835850560886 -0.25859724558355 0.759310344827759
0.250284430869658 -0.255979363608303 0.759310344827759
0.234528066580032 -0.262650812930865 0.759310344827759
0.217370946588986 -0.259735369921657 0.759310344827759
0.213403013126365 -0.261186007212872 0.759310344827759
0.200621124247862 -0.259054186222297 0.759310344827759
0.196023007709149 -0.266670851994675 0.759310344827759
0.178165697875733 -0.267332759424166 0.759310344827759
0.166443514248527 -0.267161036654645 0.759310344827759
0.146435718768997 -0.265793859730999 0.759310344827759
0.137531829292472 -0.268163607764465 0.759310344827759
0.123561404932728 -0.268227736959465 0.759310344827759
0.112911971388746 -0.266425367732626 0.759310344827759
0.0998501323737596 -0.274055993205492 0.759310344827759
0.0873315066095057 -0.275560303271507 0.759310344827759
0.0735839719976955 -0.274471431329687 0.759310344827759
0.0643477740413087 -0.26959300189091 0.759310344827759
0.0601541530190093 -0.279363945195107 0.759310344827759
0.0341025559305972 -0.279950153259593 0.759310344827759
0.0249720473837752 -0.28043890838953 0.759310344827759
0.00847464660947565 -0.277787939505657 0.759310344827759
-0.00837593958443658 -0.28319527031183 0.759310344827759
-0.008260468881042 -0.283663883522107 0.759310344827759
-0.0237361317179658 -0.281415182563233 0.759310344827759
-0.0506369223165356 -0.285696933120827 0.759310344827759
-0.0599492566820553 -0.290230541135112 0.759310344827759
-0.0787164601774202 -0.286284457615823 0.759310344827759
-0.0935228376722642 -0.2850357151129 0.759310344827759
-0.0996489684055526 -0.293862546575328 0.759310344827759
-0.107608904031956 -0.285814514279897 0.759310344827759
-0.12806428407062 -0.287473913531667 0.759310344827759
-0.147223374601768 -0.294182305020275 0.759310344827759
-0.145738938056011 -0.297205833874601 0.759310344827759
-0.181184178676276 -0.29880199613135 0.759310344827759
-0.185828585006553 -0.300365914286503 0.759310344827759
-0.211365216629377 -0.304790241197275 0.759310344827759
-0.211919588891569 -0.304278457086886 0.759310344827759
-0.231221925537172 -0.306822606837072 0.759310344827759
-0.245388958947199 -0.306719323204866 0.759310344827759
-0.267424172644915 -0.310097100096101 0.759310344827759
-0.278125351107141 -0.30488131682149 0.759310344827759
-0.296535265498452 -0.308799540784411 0.759310344827759
-0.316366448706228 -0.312706197320839 0.759310344827759
-0.328253758453483 -0.309206306960371 0.759310344827759
-0.337650284357672 -0.313901225375239 0.759310344827759
-0.351334315771175 -0.313710547046432 0.759310344827759
-0.369342868123117 -0.30897735633251 0.759310344827759
-0.400411198451054 -0.314435415692589 0.759310344827759
-0.41112476535227 -0.322632665383858 0.759310344827759
-0.425692640861211 -0.317500673368455 0.759310344827759
-0.44947444429431 -0.319516223233718 0.759310344827759
-0.471059952824629 -0.319640652667628 0.759310344827759
-0.488638214966974 -0.327604552635152 0.759310344827759
-0.49750079111161 -0.32385311750916 0.759310344827759
0.45912926285358 -0.225950088632346 0.666862634351057
0.45912926285358 -0.227664996830715 0.669249336247043
0.45912926285358 -0.227877335667499 0.67624791361864
0.5 -0.225017931095749 0.726805117231812
0.5 -0.226733071704516 0.736148529139219
0.5 -0.223587253296915 0.738051772156693
0.5 -0.227355346950134 0.755868595619006
0.499414466218533 -0.224889779329781 0.759310344827759
0.489571256031287 -0.224587860492081 0.759310344827759
0.483383697310074 -0.224492643628646 0.759310344827759
0.468866191350284 -0.223659632327724 0.759310344827759
0.464277083983839 -0.22806699368551 0.759310344827759
0.462747195020813 -0.226768918889344 0.759310344827759
0.445970239621689 -0.226410192300927 0.759310344827759
0.431242946189192 -0.235074639632809 0.759310344827759
0.420180326276772 -0.229099121276634 0.759310344827759
0.413604728575812 -0.234909121989418 0.759310344827759
0.406240353809568 -0.23355275437385 0.759310344827759
0.394494328985304 -0.231243971060905 0.759310344827759
0.390110570686064 -0.235933469401211 0.759310344827759
0.371979688747549 -0.237691201731152 0.759310344827759
0.363088877095234 -0.236326318954776 0.759310344827759
0.355901929295621 -0.24011343909009 0.759310344827759
0.34441216642982 -0.240238394252933 0.759310344827759
0.328538990105371 -0.241201483033024 0.759310344827759
0.316216885764986 -0.24201720238275 0.759310344827759
0.313217463191433 -0.245891052714606 0.759310344827759
0.297813341909517 -0.243074773221673 0.759310344827759
0.293413990522131 -0.243733354294766 0.759310344827759
0.284899409459236 -0.244727400888805 0.759310344827759
0.263983242047675 -0.250296998970884 0.759310344827759
0.249641329843988 -0.246794087657992 0.759310344827759
0.235942597469775 -0.243866288739708 0.759310344827759
0.241028629915112 -0.253135654467615 0.759310344827759
0.229130172435942 -0.253495989740703 0.759310344827759
0.211876897844556 -0.246685867266468 0.759310344827759
0.205357388480718 -0.255985338909622 0.759310344827759
0.193447173365301 -0.257360039061644 0.759310344827759
0.178319552197493 -0.254647824830095 0.759310344827759
0.167814635914299 -0.252752258543749 0.759310344827759
0.151891323775043 -0.25984633880515 0.759310344827759
0.146228416291788 -0.253614416577251 0.759310344827759
0.117755786968109 -0.256064382637388 0.759310344827759
0.107039323943095 -0.262905198712841 0.759310344827759
0.107433434968093 -0.262605301293247 0.759310344827759
0.0914641800417567 -0.26351273083134 0.759310344827759
0.080369713711906 -0.257973835804287 0.759310344827759
0.0694331078014438 -0.26719746294315 0.759310344827759
0.0524789991610817 -0.267456271611555 0.759310344827759
0.0398368597277236 -0.26878889027918 0.759310344827759
0.027546755060064 -0.26587484763039 0.759310344827759
0.0106256460873224 -0.266583539172727 0.759310344827759
-0.00120024780950399 -0.271418927342936 0.759310344827759
-0.00775392161681901 -0.269248970810972 0.759310344827759
-0.0201150418693563 -0.273432536367725 0.759310344827759
-0.0493332346520572 -0.270245049868965 0.759310344827759
-0.0608489290032272 -0.274317955124463 0.759310344827759
-0.0605660801495393 -0.278200592935397 0.759310344827759
-0.0850923046331934 -0.27354110973225 0.759310344827759
-0.0880194331681251 -0.277354766462327 0.759310344827759
-0.108175020852798 -0.285013888057908 0.759310344827759
-0.129261188554561 -0.276638281699138 0.759310344827759
-0.141657693850565 -0.287150611214192 0.759310344827759
-0.145808980898447 -0.281201079600908 0.759310344827759
-0.167783845583944 -0.28554584053713 0.759310344827759
-0.188883283368173 -0.283982661091144 0.759310344827759
-0.20656709302513 -0.288293418665967 0.759310344827759
-0.208134915069063 -0.290670273675718 0.759310344827759
-0.229502512271959 -0.292763266368625 0.759310344827759
-0.254306339751733 -0.290213980841054 0.759310344827759
-0.258178406216765 -0.295476046491519 0.759310344827759
-0.276743377294692 -0.293383108378331 0.759310344827759
-0.298015627861248 -0.301639250121158 0.759310344827759
-0.310009708401283 -0.292418196922402 0.759310344827759
-0.322602140187805 -0.302282566594581 0.759310344827759
-0.341888553504474 -0.29666621647298 0.759310344827759
-0.37105638693065 -0.307483667264085 0.759310344827759
-0.38822364594275 -0.309489847421771 0.759310344827759
-0.392621139374414 -0.303588735033432 0.759310344827759
-0.41196836709612 -0.3121673617927 0.759310344827759
-0.436608754067386 -0.313465616147532 0.759310344827759
-0.448161103895513 -0.312361225738453 0.759310344827759
-0.463447333099489 -0.316471083243356 0.759310344827759
-0.476358465641813 -0.311054554462518 0.759310344827759
0.45912926285358 -0.222489162065182 0.662871817651051
0.45912926285358 -0.222115961663108 0.668523244735625
0.459129262853579 -0.216138297206257 0.679020550490745
0.5 -0.214394803775106 0.730062680050716
0.5 -0.212938499578841 0.732179379002842
0.5 -0.214017974847873 0.741062983372411
0.5 -0.21601980318844 0.750632755149553
0.5 -0.213144672590948 0.758306556908748
0.496247978941695 -0.218341024408184 0.759310344827759
0.483814778764431 -0.219128502265422 0.759310344827759
0.477723736167614 -0.221541826674917 0.759310344827759
0.467798807846335 -0.219658310590293 0.759310344827759
0.461980221060686 -0.219094770339884 0.759310344827759
0.445938493525111 -0.217748013518289 0.759310344827759
0.437735273575213 -0.218511280977223 0.759310344827759
0.423954857499889 -0.22701684459454 0.759310344827759
0.421772482102148 -0.221812614243244 0.759310344827759
0.403603573818909 -0.224390898890726 0.759310344827759
0.396797038575263 -0.221411855814706 0.759310344827759
0.383718801555311 -0.221988781152199 0.759310344827759
0.373257562055601 -0.228737088872992 0.759310344827759
0.362573050622592 -0.229395629941543 0.759310344827759
0.351574669376593 -0.23091838074511 0.759310344827759
0.343623972948801 -0.230442339780267 0.759310344827759
0.332360552936841 -0.229629614519798 0.759310344827759
0.320424584195269 -0.234537866562369 0.759310344827759
0.317393109930961 -0.235614699536282 0.759310344827759
0.294960050685535 -0.235135462386991 0.759310344827759
0.293352258173201 -0.236664159301385 0.759310344827759
0.282580552032247 -0.235899307918011 0.759310344827759
0.264177896117179 -0.240830492134246 0.759310344827759
0.249057983371133 -0.235579670862185 0.759310344827759
0.242821594246493 -0.239556662094913 0.759310344827759
0.228574057781503 -0.241279370845142 0.759310344827759
0.223915654757703 -0.239424922963778 0.759310344827759
0.209517188806752 -0.241694997693862 0.759310344827759
0.197860803798145 -0.241361614604881 0.759310344827759
0.185456614245576 -0.24811457919196 0.759310344827759
0.171335246595776 -0.241596678615509 0.759310344827759
0.163242919920616 -0.246166504183143 0.759310344827759
0.151219327607549 -0.245950147161527 0.759310344827759
0.145212466656206 -0.246433684961816 0.759310344827759
0.136704095216069 -0.244216175209572 0.759310344827759
0.104929762932058 -0.251730510956548 0.759310344827759
0.103348367340482 -0.249645964986293 0.759310344827759
0.0993356113445033 -0.256328396683182 0.759310344827759
0.0703908739783349 -0.254448898677758 0.759310344827759
0.071140819947289 -0.250780026695747 0.759310344827759
0.0479836815250738 -0.253337977563046 0.759310344827759
0.039177846870375 -0.259892206540104 0.759310344827759
0.0298759252494345 -0.254986815752027 0.759310344827759
0.0165848591336761 -0.259255211732109 0.759310344827759
-0.00163336123877376 -0.255351663688604 0.759310344827759
-0.0112626473269046 -0.256948169533233 0.759310344827759
-0.0276335466328298 -0.266445956590482 0.759310344827759
-0.0435542578380144 -0.261051826654915 0.759310344827759
-0.0585329735106513 -0.268816174841127 0.759310344827759
-0.0806775857968879 -0.270374266702616 0.759310344827759
-0.0731832429831925 -0.264282271900204 0.759310344827759
-0.0956071923737881 -0.272817407729155 0.759310344827759
-0.111864635961313 -0.26844739773388 0.759310344827759
-0.126200898602956 -0.276159593188469 0.759310344827759
-0.145857321934109 -0.274723054940062 0.759310344827759
-0.152067040299678 -0.275894070386464 0.759310344827759
-0.168924289788983 -0.274026119827454 0.759310344827759
-0.186525940375057 -0.275488768269786 0.759310344827759
-0.205587645637997 -0.277383646926118 0.759310344827759
-0.211468142590554 -0.278539484046251 0.759310344827759
-0.227969931257866 -0.27464771556051 0.759310344827759
-0.246928748725983 -0.284479055594251 0.759310344827759
-0.26112464881361 -0.282143899701498 0.759310344827759
-0.277798982519781 -0.28638597676222 0.759310344827759
-0.290655173705492 -0.283596596491687 0.759310344827759
-0.31649973666851 -0.282899362786367 0.759310344827759
-0.33001348990125 -0.28425756715035 0.759310344827759
-0.346821192469399 -0.284563922481083 0.759310344827759
-0.365516985543728 -0.291137116781761 0.759310344827759
-0.382133417759641 -0.294231238033054 0.759310344827759
-0.394348720180858 -0.299048156906589 0.759310344827759
-0.415675947736704 -0.291131403836282 0.759310344827759
-0.435619403712685 -0.297390952823949 0.759310344827759
-0.449098179917207 -0.300978243975465 0.759310344827759
-0.468987406736118 -0.301374107016898 0.759310344827759
-0.476934936248766 -0.302648280214757 0.759310344827759
-0.489429462700528 -0.308339098442807 0.759310344827759
0.45912926285358 -0.212464437037964 0.668000159481122
0.45912926285358 -0.216169402232242 0.668043767637193
0.45912926285358 -0.210897708797746 0.675362658370996
0.45912926285358 -0.210242145089526 0.684038977987169
0.5 -0.209068090240022 0.73541573312663
0.5 -0.208482931135766 0.739511076541167
0.5 -0.20992499722809 0.748002518679925
0.5 -0.211414791911131 0.7565429904645
0.489686080877517 -0.20620106334919 0.759310344827759
0.485625606227595 -0.210679363780466 0.759310344827759
0.478330091663967 -0.209049943005066 0.759310344827759
0.461612898056951 -0.20844361901448 0.759310344827759
0.450684131586089 -0.214270153166771 0.759310344827759
0.442994974540782 -0.217057726651052 0.759310344827759
0.436740778731074 -0.212608819206862 0.759310344827759
0.425188797276949 -0.212629137736071 0.759310344827759
0.418127665147241 -0.216908225204131 0.759310344827759
0.406330781539164 -0.218523043181842 0.759310344827759
0.39348836647515 -0.218927923934521 0.759310344827759
0.389020080170323 -0.216146024842456 0.759310344827759
0.377187858775725 -0.220420070465349 0.759310344827759
0.360048341488946 -0.223865066390656 0.759310344827759
0.349426316478966 -0.219291154427552 0.759310344827759
0.344695828063626 -0.21991805881096 0.759310344827759
0.332614489944876 -0.226422686675919 0.759310344827759
0.316559882619496 -0.226658754641587 0.759310344827759
0.310819936193099 -0.227679403043571 0.759310344827759
0.300909370492833 -0.225966522956961 0.759310344827759
0.295171233814394 -0.226820078084473 0.759310344827759
0.278212054173966 -0.224255521462352 0.759310344827759
0.272557628243982 -0.223287012582518 0.759310344827759
0.250890819109344 -0.231135312034838 0.759310344827759
0.252769859384404 -0.226946471191264 0.759310344827759
0.242860519281318 -0.234221689092685 0.759310344827759
0.221047713106905 -0.234414615800489 0.759310344827759
0.202241466177184 -0.231086290531367 0.759310344827759
0.194433362300964 -0.233799752081881 0.759310344827759
0.188807076239172 -0.233967211488024 0.759310344827759
0.168924551270152 -0.238420518682679 0.759310344827759
0.165440789673672 -0.240827880754587 0.759310344827759
0.157570290288682 -0.237263076501969 0.759310344827759
0.144717466404594 -0.239992803925502 0.759310344827759
0.133927599247042 -0.238959794513698 0.759310344827759
0.112737352498491 -0.237550792326018 0.759310344827759
0.104621063212958 -0.243691558364347 0.759310344827759
0.0932652421590146 -0.242837575444126 0.759310344827759
0.0790538111635864 -0.245732603191948 0.759310344827759
0.0618614973065973 -0.242424055343433 0.759310344827759
0.0477473727682703 -0.248900470156785 0.759310344827759
0.0327411448602118 -0.250295285034755 0.759310344827759
0.0197136347216658 -0.244852959697893 0.759310344827759
0.0139725161805176 -0.244761013565266 0.759310344827759
0.00305423523382343 -0.24536756144737 0.759310344827759
-0.0106604034624837 -0.253875694452643 0.759310344827759
-0.0294047664537533 -0.247715090060886 0.759310344827759
-0.0301132000600918 -0.256079209002713 0.759310344827759
-0.052245912327618 -0.250103650214057 0.759310344827759
-0.0756912755193274 -0.25189552398568 0.759310344827759
-0.0914915689492532 -0.257347696992981 0.759310344827759
-0.0994883885218398 -0.25669097895571 0.759310344827759
-0.114357518276086 -0.261282333099512 0.759310344827759
-0.129186589950739 -0.259407188502588 0.759310344827759
-0.146496054642324 -0.257729041810138 0.759310344827759
-0.164684791930572 -0.259593965662501 0.759310344827759
-0.169824393855845 -0.262843580241358 0.759310344827759
-0.190093195982032 -0.265658981965435 0.759310344827759
-0.194591109034454 -0.261378443455066 0.759310344827759
-0.22583683474922 -0.272017812406301 0.759310344827759
-0.229941151943105 -0.266344693131131 0.759310344827759
-0.248821393982519 -0.270837135606992 0.759310344827759
-0.26723421387181 -0.273998278292011 0.759310344827759
-0.274156359666485 -0.272574360659104 0.759310344827759
-0.282934842251111 -0.271352851042187 0.759310344827759
-0.307879042971817 -0.278799037929249 0.759310344827759
-0.331389208381216 -0.276613117305854 0.759310344827759
-0.333187779070849 -0.274859781026045 0.759310344827759
-0.360962272912014 -0.284646656700472 0.759310344827759
-0.378321960165927 -0.282345258590093 0.759310344827759
-0.395717615581144 -0.277457620044914 0.759310344827759
-0.414504150459544 -0.28353923325892 0.759310344827759
-0.421065966219219 -0.283618480890755 0.759310344827759
-0.45106159208365 -0.286979610481025 0.759310344827759
-0.468864555535077 -0.283458038042754 0.759310344827759
-0.482609120441653 -0.286705398865311 0.759310344827759
0.459129262853579 -0.204178456447967 0.66363149024249
0.45912926285358 -0.202011271558801 0.666019406648038
0.45912926285358 -0.201633165348377 0.684244749015659
0.45912926285358 -0.202408827490695 0.687364033244837
0.5 -0.197210082784641 0.737600945410054
0.5 -0.202643948241497 0.747256365611846
0.5 -0.196539392926779 0.751418636476628
0.5 -0.198688053322196 0.75318476198259
0.483314513888733 -0.203563216413128 0.759310344827759
0.488890251710945 -0.197520314605374 0.759310344827759
0.470768759293335 -0.202378793012109 0.759310344827759
0.461386068822846 -0.205747778252604 0.759310344827759
0.450877927678401 -0.204724549466387 0.759310344827759
0.435264563901248 -0.208613073713214 0.759310344827759
0.433494560258775 -0.202081833344469 0.759310344827759
0.426929246949927 -0.210220249871683 0.759310344827759
0.419720630110005 -0.203347449780441 0.759310344827759
0.404496607662367 -0.204971512637317 0.759310344827759
0.39188526288907 -0.210023203996744 0.759310344827759
0.378055408440752 -0.207350486491363 0.759310344827759
0.376266409901608 -0.207550115408345 0.759310344827759
0.364067655474591 -0.207101118510177 0.759310344827759
0.35413400530443 -0.208356629159095 0.759310344827759
0.346120900973149 -0.210512233166085 0.759310344827759
0.326177571996877 -0.213516327231512 0.759310344827759
0.319009532113768 -0.217539799851222 0.759310344827759
0.315433162917386 -0.217477077075797 0.759310344827759
0.308367593730372 -0.216559832598556 0.759310344827759
0.282507621199942 -0.218591728192181 0.759310344827759
0.279174853773612 -0.218134886242207 0.759310344827759
0.267390971017402 -0.219449892133178 0.759310344827759
0.254596145965622 -0.216668499532281 0.759310344827759
0.246567490667824 -0.223158645244363 0.759310344827759
0.238824831018868 -0.219460737681818 0.759310344827759
0.222752728766223 -0.225604378101777 0.759310344827759
0.205746526234453 -0.227715527151216 0.759310344827759
0.204345280460526 -0.221623874278017 0.759310344827759
0.18378974606235 -0.221416020034773 0.759310344827759
0.17403471844832 -0.224598202449294 0.759310344827759
0.155478863470751 -0.229678533904739 0.759310344827759
0.148814439233798 -0.232491216200466 0.759310344827759
0.143834695532488 -0.224018670107607 0.759310344827759
0.122202387704241 -0.23482229076302 0.759310344827759
0.113162206137566 -0.232150588150998 0.759310344827759
0.100335246747642 -0.228904016332395 0.759310344827759
0.0882702141112214 -0.233606186008385 0.759310344827759
0.0752957691093071 -0.229484669602857 0.759310344827759
0.0651989521252545 -0.233726419310098 0.759310344827759
0.0475970106725837 -0.239938921199531 0.759310344827759
0.033447331735149 -0.241205573278115 0.759310344827759
0.0280705663259305 -0.236273156062966 0.759310344827759
0.0230617615536966 -0.233882530181983 0.759310344827759
0.00417926945946454 -0.240051427572169 0.759310344827759
-0.0116619181959481 -0.238761260954474 0.759310344827759
-0.0209768323576484 -0.237127966320661 0.759310344827759
-0.0380925689156694 -0.242528710255293 0.759310344827759
-0.0567198146348026 -0.2404389995241 0.759310344827759
-0.0774422451929721 -0.242402232114962 0.759310344827759
-0.0790461980944942 -0.242126694367678 0.759310344827759
-0.0931766309476931 -0.248466367435143 0.759310344827759
-0.122429295863506 -0.246843019413013 0.759310344827759
-0.133528449054823 -0.247050397236127 0.759310344827759
-0.140872087028243 -0.255608070401103 0.759310344827759
-0.159365784811901 -0.254369037646289 0.759310344827759
-0.171890259909342 -0.249704249589176 0.759310344827759
-0.189647615296006 -0.253571971986606 0.759310344827759
-0.21109279694684 -0.254382401762638 0.759310344827759
-0.22461347666494 -0.25302525798322 0.759310344827759
-0.240741580568502 -0.262075267243169 0.759310344827759
-0.241313141595209 -0.262428326864105 0.759310344827759
-0.261961766459657 -0.257423714301484 0.759310344827759
-0.285562929129864 -0.259606286434516 0.759310344827759
-0.298562747162902 -0.261008191974379 0.759310344827759
-0.309969875810519 -0.265066927513147 0.759310344827759
-0.326791291252849 -0.262719846085991 0.759310344827759
-0.340106448566685 -0.263319885380161 0.759310344827759
-0.362703180302292 -0.268971588877372 0.759310344827759
-0.372558765863115 -0.27307950474697 0.759310344827759
-0.387296575036823 -0.269942863929479 0.759310344827759
-0.424395430021952 -0.277619775878462 0.759310344827759
-0.423552240741427 -0.27961808769987 0.759310344827759
-0.436288770951115 -0.272357216445647 0.759310344827759
-0.467838167591085 -0.272445943057256 0.759310344827759
-0.477423521530632 -0.279070526033926 0.759310344827759
-0.492986032341299 -0.278859426980511 0.759310344827759
0.45912926285358 -0.192151730070853 0.658983693739559
0.45912926285358 -0.199156260080635 0.66644550425515
0.45912926285358 -0.193919132152892 0.686732897220307
0.459129262853579 -0.198515942731674 0.684544857627592
0.5 -0.189060615585546 0.729386654778726
0.5 -0.189425609922027 0.739845651802373
0.5 -0.189595729293893 0.748365450156993
0.5 -0.19583348868247 0.756427898416379
0.499467004782596 -0.191843062707574 0.759310344827759
0.489979660647007 -0.194267454710004 0.759310344827759
0.474403265184879 -0.192943965225172 0.759310344827759
0.46595805437993 -0.197636649277438 0.759310344827759
0.460945248338893 -0.194616869011181 0.759310344827759
0.444023663729734 -0.197613272286257 0.759310344827759
0.432892730778667 -0.196027530499903 0.759310344827759
0.426806043525241 -0.198912828087808 0.759310344827759
0.412608340817847 -0.194213057175785 0.759310344827759
0.403615042078911 -0.196016528384869 0.759310344827759
0.398616790596738 -0.199418938723236 0.759310344827759
0.380819901069061 -0.199846891733445 0.759310344827759
0.372628705385502 -0.200179643706335 0.759310344827759
0.361624751123663 -0.20348264688251 0.759310344827759
0.356317393309356 -0.201616874797288 0.759310344827759
0.341864106600578 -0.204689930975436 0.759310344827759
0.338202369253968 -0.201500776838169 0.759310344827759
0.322433720429182 -0.206642338843875 0.759310344827759
0.307564320181527 -0.204041923708983 0.759310344827759
0.309107774817195 -0.205355849659238 0.759310344827759
0.290766692694894 -0.211102475505445 0.759310344827759
0.27067083285177 -0.209687140570318 0.759310344827759
0.273387610428016 -0.213538959176534 0.759310344827759
0.255532737984232 -0.206064616539415 0.759310344827759
0.237975643953303 -0.215394388373215 0.759310344827759
0.227469594874794 -0.210776480101063 0.759310344827759
0.217966873045505 -0.212246288383517 0.759310344827759
0.206895996460059 -0.210813569920954 0.759310344827759
0.201167509666415 -0.215309877543735 0.759310344827759
0.195780403387629 -0.213996079401077 0.759310344827759
0.177851724682332 -0.217069145576469 0.759310344827759
0.165453437356688 -0.220154158897521 0.759310344827759
0.148615895169425 -0.216866115898773 0.759310344827759
0.135875627786078 -0.220069207286133 0.759310344827759
0.117090937486351 -0.225040290455401 0.759310344827759
0.10885666106588 -0.223121808050951 0.759310344827759
0.107392384379648 -0.226507960627242 0.759310344827759
0.0848085257497437 -0.225570204758529 0.759310344827759
0.0754413443003404 -0.220903023490416 0.759310344827759
0.0622021213699961 -0.221271049975692 0.759310344827759
0.0578641180312959 -0.22765013369018 0.759310344827759
0.0442609160317409 -0.225679651869702 0.759310344827759
0.0332273968865867 -0.228051363142878 0.759310344827759
0.0160253985267514 -0.227276418625731 0.759310344827759
-0.000181517713007227 -0.235351512289672 0.759310344827759
-0.0158143614217976 -0.228689194600569 0.759310344827759
-0.019482226357365 -0.227284243829612 0.759310344827759
-0.0467971424133239 -0.238054874427366 0.759310344827759
-0.054751268802491 -0.234182653789751 0.759310344827759
-0.0734396542617548 -0.236159701731523 0.759310344827759
-0.078167094926291 -0.235555588515781 0.759310344827759
-0.0935602329019865 -0.232136590815208 0.759310344827759
-0.10707363436046 -0.241523635010844 0.759310344827759
-0.127754644569065 -0.242566676598061 0.759310344827759
-0.144764090719799 -0.241911928656966 0.759310344827759
-0.158521871588699 -0.236868060855943 0.759310344827759
-0.177563290153185 -0.242170031567455 0.759310344827759
-0.190524986555896 -0.248411545365806 0.759310344827759
-0.194976951800156 -0.242586530166831 0.759310344827759
-0.227810772534245 -0.247147129398463 0.759310344827759
-0.238000813676708 -0.24599116035845 0.759310344827759
-0.243566467604749 -0.251267427741012 0.759310344827759
-0.255436937671633 -0.249651848281745 0.759310344827759
-0.276403875121787 -0.253874371730311 0.759310344827759
-0.29740336668603 -0.256489729421148 0.759310344827759
-0.311804538291119 -0.258251950011803 0.759310344827759
-0.335428927568496 -0.256062735079583 0.759310344827759
-0.351531046911103 -0.253238785543012 0.759310344827759
-0.369316597062807 -0.253748690636603 0.759310344827759
-0.3828989398323 -0.261396471202686 0.759310344827759
-0.398666530938133 -0.263507164717627 0.759310344827759
-0.410782162506621 -0.259088736145701 0.759310344827759
-0.424068486461956 -0.265469554435492 0.759310344827759
-0.452295903097151 -0.262605762681112 0.759310344827759
-0.470424927160307 -0.262148206507634 0.759310344827759
-0.473955918573324 -0.270367625968126 0.759310344827759
-0.497666243263506 -0.263994350727526 0.759310344827759
0.45912926285358 -0.186264145517472 0.656717656672644
0.45912926285358 -0.188633705312169 0.673843606668053
0.45912926285358 -0.187308629881472 0.675567775146739
0.45912926285358 -0.185591683271597 0.685080018125071
0.5 -0.185109759101904 0.731320894848278
0.5 -0.180409766072306 0.74306495230523
0.5 -0.180150007283947 0.751525280677425
0.499692897124576 -0.179388806256497 0.759310344827759
0.489361061323848 -0.185614405471431 0.759310344827759
0.482968283827423 -0.184620125061222 0.759310344827759
0.481293937534073 -0.181124689573246 0.759310344827759
0.461412799242449 -0.182528277001352 0.759310344827759
0.454818221068645 -0.184165793236684 0.759310344827759
0.441615233883251 -0.184173546364712 0.759310344827759
0.435297868882628 -0.190045247428595 0.759310344827759
0.429042347203172 -0.184312381107035 0.759310344827759
0.418485880782627 -0.189162552049605 0.759310344827759
0.404795108271859 -0.191159885994556 0.759310344827759
0.392900329986828 -0.193914819259915 0.759310344827759
0.38283645232374 -0.195004454701946 0.759310344827759
0.37398941447475 -0.196102237174519 0.759310344827759
0.359806860945324 -0.194118938382463 0.759310344827759
0.347364927104011 -0.19278225389478 0.759310344827759
0.348129756195736 -0.190227939579433 0.759310344827759
0.331606478924755 -0.191653189835877 0.759310344827759
0.318770595940417 -0.19908687648868 0.759310344827759
0.302228287948608 -0.20011150338102 0.759310344827759
0.299491829634254 -0.1998693030155 0.759310344827759
0.288195005780761 -0.194365621301403 0.759310344827759
0.280555121887842 -0.200240430241221 0.759310344827759
0.274290793747717 -0.202397454983897 0.759310344827759
0.256049372722521 -0.205619754431882 0.759310344827759
0.249430467471391 -0.205354670572089 0.759310344827759
0.231198287568506 -0.203211005302697 0.759310344827759
0.225226647522022 -0.205602368172523 0.759310344827759
0.212709911851761 -0.207336544082252 0.759310344827759
0.205175025050551 -0.202981911555545 0.759310344827759
0.179256833369101 -0.203606231710183 0.759310344827759
0.175096466362474 -0.202385708241322 0.759310344827759
0.161903720151935 -0.204700983254015 0.759310344827759
0.14978202972907 -0.211221667045642 0.759310344827759
0.136231173640302 -0.211614503161722 0.759310344827759
0.130133300189099 -0.208709707839733 0.759310344827759
0.119678616624761 -0.210998516767913 0.759310344827759
0.105317510800928 -0.212618137805483 0.759310344827759
0.0872112756524054 -0.216390266138413 0.759310344827759
0.0738439236187485 -0.212127163039136 0.759310344827759
0.0653390824552883 -0.219406155133913 0.759310344827759
0.047721795423073 -0.220275510374656 0.759310344827759
0.0364331288271611 -0.221450451133358 0.759310344827759
0.0197454372081699 -0.217414317917256 0.759310344827759
0.0201326367578078 -0.218528639567721 0.759310344827759
-0.00688174001704707 -0.221424674263372 0.759310344827759
-0.0121042430565853 -0.216208522517586 0.759310344827759
-0.0321177588363518 -0.221379312636295 0.759310344827759
-0.052180887000225 -0.218705978859834 0.759310344827759
-0.0496669384316051 -0.2220068917805 0.759310344827759
-0.0737151879549725 -0.229639884392525 0.759310344827759
-0.0797079334409575 -0.226199599209096 0.759310344827759
-0.0926407567401983 -0.231027801420236 0.759310344827759
-0.114784140187366 -0.228938334150236 0.759310344827759
-0.119615372762817 -0.227269827230452 0.759310344827759
-0.139471762413962 -0.23375540263033 0.759310344827759
-0.166254832783912 -0.230172809815714 0.759310344827759
-0.180573020422711 -0.231399872766778 0.759310344827759
-0.186065526467529 -0.233606613592375 0.759310344827759
-0.192976447967931 -0.239337011383695 0.759310344827759
-0.21584872546619 -0.235127145441091 0.759310344827759
-0.228661369199073 -0.231999609230258 0.759310344827759
-0.247658374885687 -0.238054356939248 0.759310344827759
-0.259650078609498 -0.244637628929186 0.759310344827759
-0.28252210184493 -0.245744451035046 0.759310344827759
-0.281921511015831 -0.244344365403876 0.759310344827759
-0.300917686429281 -0.245843902291735 0.759310344827759
-0.324951973412647 -0.241895781047038 0.759310344827759
-0.349437964260229 -0.246408024865753 0.759310344827759
-0.361816109184332 -0.24995483919461 0.759310344827759
-0.382969652964938 -0.243626579971287 0.759310344827759
-0.404177710423174 -0.253403369902732 0.759310344827759
-0.401639842602673 -0.244889652712577 0.759310344827759
-0.425276741061318 -0.250523103737075 0.759310344827759
-0.451321958243248 -0.253226070232371 0.759310344827759
-0.469949733680014 -0.2556696619565 0.759310344827759
-0.481817559710256 -0.250073478173818 0.759310344827759
-0.498330435412195 -0.251544268491032 0.759310344827759
0.45912926285358 -0.174353989351266 0.662997345972568
