ply
format ascii 1.0
element vertex 833
property float x
property float y
property float z
end_header
-0.032768678641395 -0.0167045450502363 0.241889161841523
-0.032768678641395 -0.0158655398096191 0.2461213026707
-0.032768678641395 -0.0171677750548311 0.258777268649603
-0.032768678641395 -0.0192611912555882 0.266766090682876
-0.032768678641395 -0.0239064994664745 0.273056353168356
-0.0327686786413954 -0.0227605101387704 0.288243205974148
-0.032768678641395 -0.0155779648056463 0.294670690347976
-0.032768678641395 -0.0210037272323732 0.312103798789552
-0.032768678641395 -0.0189248620267403 0.316594845163728
-0.499999999999998 -0.0175382581596675 0.750334432532635
-0.499999999999998 -0.0158385045505082 0.753181616220434
-0.499999999999998 -0.0163490405784449 0.764887624323004
-0.499999999999998 -0.0126306405937271 0.771738087893219
-0.499999999999998 -0.0128813112645497 0.78593394647049
-0.49743904075807 -0.0152583849491373 0.790532667469845
-0.490808789055303 -0.0156268490606968 0.790532667469845
-0.480848341169276 -0.020612950504897 0.790532667469845
-0.473117758668638 -0.0142703153132757 0.790532667469845
-0.461373267368151 -0.020947034927365 0.790532667469845
-0.45134777772669 -0.0204775695466314 0.790532667469845
-0.439406919873233 -0.017847495406999 0.790532667469845
-0.436431300877993 -0.0179307749321113 0.790532667469845
-0.41334110469727 -0.019511782803244 0.790532667469845
-0.403682660181999 -0.0175298205698512 0.790532667469845
-0.40439235376896 -0.0213230817387439 0.790532667469845
-0.387195960529347 -0.0145558002139519 0.790532667469845
-0.37331032722786 -0.0134088012613456 0.790532667469845
-0.369298207877647 -0.0168045653312736 0.790532667469845
-0.363980714622061 -0.0218983156686409 0.790532667469845
-0.350448285365424 -0.019074603713189 0.790532667469845
-0.334654859908511 -0.016222430780621 0.790532667469845
-0.320666035551298 -0.0184867424579275 0.790532667469845
-0.318544908096065 -0.0187091460405886 0.790532667469845
-0.305849206554167 -0.0207544006750062 0.790532667469845
-0.299110871925585 -0.020688386852532 0.790532667469845
-0.282552536619842 -0.0226452869457846 0.790532667469845
-0.27372634093074 -0.0141483889566189 0.790532667469845
-0.256663223575857 -0.0171250550057076 0.790532667469845
-0.255583385270136 -0.0220297327048915 0.790532667469845
-0.242317603268717 -0.018582831867627 0.790532667469845
-0.229773882685904 -0.0141502163359669 0.790532667469845
-0.216860651103705 -0.0193962668623647 0.790532667469845
-0.199310261832209 -0.0181666709616755 0.790532667469844
-0.193799880247338 -0.0194008033636114 0.790532667469845
-0.177301825599082 -0.0144321443259649 0.790532667469845
-0.165952530332801 -0.0197817998497145 0.790532667469845
-0.154050197682614 -0.0226335969145749 0.790532667469845
-0.146259652970533 -0.0170622440693569 0.790532667469845
-0.125154921802326 -0.0187687416129589 0.790532667469845
-0.117883084585991 -0.0167223547682907 0.790532667469845
-0.107869462669576 -0.0236786357374235 0.790532667469845
-0.0921798560641951 -0.0239630727386575 0.790532667469844
-0.080759424504126 -0.0172664547234025 0.790532667469845
-0.0707047529381482 -0.0219251387542979 0.790532667469845
-0.0544697442449683 -0.0213643155822219 0.790532667469845
-0.0426839621734083 -0.0197474969447511 0.790532667469845
-0.0360351354790023 -0.0188050189445294 0.790532667469845
-0.00843354877282503 -0.0239857058536651 0.790532667469845
-0.00714154366305326 -0.0239205096567793 0.790532667469845
0.0152961280702153 -0.0225702269167244 0.790532667469845
0.0317757431223818 -0.0151792174389116 0.790532667469845
0.0442504397353987 -0.0163652101864601 0.790532667469845
0.0525664988072019 -0.0168948763495209 0.790532667469845
0.0648522562955175 -0.016528724104018 0.790532667469845
0.0906860297380985 -0.0223988119979612 0.790532667469845
0.0897495347687389 -0.0184206142763895 0.790532667469845
0.11104471886543 -0.0225180107715005 0.790532667469845
0.134310820894856 -0.025537910342048 0.790532667469845
0.143139667063822 -0.0193322757119457 0.790532667469845
0.156506866289333 -0.0256910863235095 0.790532667469844
0.165534608336688 -0.0167709250181678 0.790532667469845
0.184387602340557 -0.0178443892396422 0.790532667469845
0.202507534527694 -0.022054272143055 0.790532667469845
0.223709355937391 -0.0185305292050361 0.790532667469844
0.224426081400336 -0.0169907751221087 0.790532667469845
0.257902937913136 -0.0220834759071299 0.790532667469845
0.272334238055792 -0.0222554727704887 0.790532667469845
0.293953923013949 -0.0211627645653961 0.790532667469845
0.303131814637704 -0.0243334602583251 0.790532667469845
0.322534696026955 -0.0254631823010729 0.790532667469845
0.330974190209963 -0.0190075743196164 0.790532667469845
0.341396569319506 -0.0166989684987286 0.790532667469844
0.359664896486818 -0.0220391293099066 0.790532667469845
0.379093209472803 -0.0266753923353594 0.790532667469845
0.406800962548411 -0.0180608725510445 0.790532667469845
0.424000391739232 -0.0184519684829223 0.790532667469845
0.433154951110827 -0.0266521820919974 0.790532667469845
0.453625462362654 -0.0188864239521481 0.790532667469845
0.461264708873571 -0.0174234312616375 0.790532667469845
0.487834611468904 -0.02745193193563 0.790532667469845
-0.0830239368825609 -0.00561789972427636 0.0732670138879026
-0.0763615557429325 -0.0106547222052907 0.074585689421254
-0.0617560903992701 -0.00930984214367964 0.0774765282067065
-0.0572426198799487 -0.00666163262252036 0.0783698729463116
-0.0536428492626435 -0.00999799833355282 0.0790823703761698
-0.0446848970242843 -0.00779139822501977 0.0808554050011917
-0.0377007072214056 -0.00771265524164689 0.0822377756612187
-0.0327686786413954 -0.00507722351811927 0.0889220174804062
-0.032768678641395 -0.00947972072064732 0.0950824672275056
-0.0327686786413946 -0.012593854339526 0.11435670816442
-0.0327686786413946 -0.00709897181927739 0.1247178334233
-0.032768678641395 -0.012503417281843 0.126601481956541
-0.0327686786413946 -0.0128728070875585 0.149931480231856
-0.0327686786413946 -0.00741779395079225 0.151959460171362
-0.032768678641395 -0.0124176410749044 0.157733146598395
-0.032768678641395 -0.00754793620299258 0.166470590123811
-0.032768678641395 -0.00965083186433373 0.178875838767547
-0.032768678641395 -0.0104832917563558 0.19025657057289
-0.032768678641395 -0.00667271364392175 0.201881120817659
-0.032768678641395 -0.00607097473185798 0.209484284800416
-0.032768678641395 -0.00491186059340749 0.222344192102406
-0.0327686786413946 -0.012334005406569 0.225437853793203
-0.032768678641395 -0.0125718763354029 0.236322456287237
-0.032768678641395 -0.0132081405671049 0.253760342222032
-0.032768678641395 -0.00985261525542189 0.266710409769452
-0.0327686786413946 -0.0109816204704846 0.260739151800289
-0.032768678641395 -0.00895298740499918 0.279199393745521
-0.032768678641395 -0.00553973062729637 0.289766988827163
-0.0327686786413954 -0.0138764807891697 0.298677882306018
-0.032768678641395 -0.00894004281280138 0.311186230162106
-0.032768678641395 -0.00937745667643213 0.320182237310567
-0.499999999999998 -0.00828718666599839 0.751758498079806
-0.499999999999998 -0.00426838519757243 0.760915805574586
-0.499999999999998 -0.0119287551732792 0.763975439229007
-0.499999999999998 -0.00703626720426898 0.776943429573832
-0.499999999999998 -0.0116743495522267 0.785490647743817
-0.499129629870431 -0.00866268567334577 0.790532667469845
-0.490096557099842 -0.00777350028492415 0.790532667469845
-0.47773598329763 -0.00637659163625651 0.790532667469845
-0.465233288599163 -0.00799314068320419 0.790532667469845
-0.455272437742364 -0.00905969098436342 0.790532667469845
-0.447271759187595 -0.0106554406336256 0.790532667469845
-0.437734894302423 -0.00634329759321221 0.790532667469845
-0.430032901909731 -0.00919570233679837 0.790532667469845
-0.42497703725605 -0.00485375839316645 0.790532667469845
-0.4109287456784 -0.00879577396840338 0.790532667469845
-0.399965269254583 -0.00502168320919305 0.790532667469845
-0.389528161370163 -0.00685791943847741 0.790532667469845
-0.373410720925187 -0.0064537232744768 0.790532667469845
-0.367112832536984 -0.00729428857072955 0.790532667469845
-0.365229760489376 -0.0120463463838942 0.790532667469845
-0.347690184056074 -0.00551407738371904 0.790532667469845
-0.328700231113486 -0.00679186383239255 0.790532667469845
-0.32952991354865 -0.00438074502911294 0.790532667469845
-0.314055151102423 -0.011336218396542 0.790532667469845
-0.302104998108528 -0.00478996671647252 0.790532667469845
-0.297067450751551 -0.00516069681637309 0.790532667469845
-0.282260871475837 -0.0113504589762794 0.790532667469845
-0.266471283745182 -0.0132873755813076 0.790532667469845
-0.267772161640226 -0.00840603417146164 0.790532667469845
-0.256483809240827 -0.00965603627247513 0.790532667469845
-0.23698594809706 -0.0104423620843502 0.790532667469845
-0.225483753019398 -0.0130736468221806 0.790532667469845
-0.213233536519964 -0.0105686819853703 0.790532667469845
-0.205426923311079 -0.010911347679483 0.790532667469845
-0.198377175341565 -0.00885939939046723 0.790532667469845
-0.183203031143789 -0.0120868385687801 0.790532667469845
-0.169784842721193 -0.0119977352495968 0.790532667469845
-0.156180262733744 -0.011592011890472 0.790532667469845
-0.144715516288468 -0.00580618861157741 0.790532667469844
-0.129955326250894 -0.00574635354042937 0.790532667469845
-0.116291322745652 -0.00675615139374553 0.790532667469845
-0.107506652246287 -0.0127661442342362 0.790532667469845
-0.0912445690680758 -0.00548741354897424 0.790532667469845
-0.0778526014087553 -0.0136998396455479 0.790532667469845
-0.0690479810046558 -0.0134730694707108 0.790532667469845
-0.0459367420813314 -0.0125438226353267 0.790532667469845
-0.0463363762417456 -0.0142547515616015 0.790532667469845
-0.0273928723986518 -0.00698441939390086 0.790532667469845
-0.0103774518107692 -0.0122192990190757 0.790532667469845
-0.00137501929677702 -0.00778279439180278 0.790532667469844
0.0131778888229008 -0.00802240111286199 0.790532667469845
0.0271143492922924 -0.00705738617773354 0.790532667469845
0.0435874269425763 -0.00951965454824781 0.790532667469845
0.0626643586437371 -0.00779138728966954 0.790532667469845
0.0702195889109849 -0.00732508148845169 0.790532667469845
0.0786450436854255 -0.0114499229986034 0.790532667469845
0.0968512125948092 -0.0126921030962082 0.790532667469844
0.107313315270342 -0.00760638547081691 0.790532667469845
0.128443915809896 -0.00647122631364375 0.790532667469845
0.143900260081336 -0.00731372925649531 0.790532667469845
0.155582223833608 -0.0102533251228647 0.790532667469845
0.17686882397862 -0.00660543056085128 0.790532667469845
0.190066276556946 -0.0142556564955439 0.790532667469844
0.199585471083026 -0.00704786477851083 0.790532667469845
0.226089746461689 -0.0109068789192619 0.790532667469845
0.226149357122971 -0.0107880617534125 0.790532667469845
0.24734445193492 -0.0147469265433604 0.790532667469845
0.255966716981164 -0.0121735793823754 0.790532667469845
0.275566413544815 -0.00949660491961585 0.790532667469845
0.301057933708085 -0.00854913132460903 0.790532667469845
0.312591052830892 -0.00734238540455711 0.790532667469845
0.326079453586244 -0.00800523495041813 0.790532667469845
0.342859138017779 -0.0129679501865327 0.790532667469845
0.374942590578351 -0.00895452654728975 0.790532667469844
0.381137858091967 -0.00781215843240056 0.790532667469845
0.406803775893912 -0.00957122497115292 0.790532667469845
0.424922848126616 -0.00914971420031217 0.790532667469845
0.429558837183965 -0.0169865693785519 0.790532667469845
0.448191783065391 -0.0143918100986164 0.790532667469845
0.481766420036595 -0.0133547960477129 0.790532667469845
0.498289020421695 -0.0079853548004345 0.790532667469845
-0.0822172712171357 0.000813731886445922 0.0734266760648779
-0.0741923358010575 0.00128659043732009 0.0750150400098596
-0.0612941189445408 -0.00196914948042164 0.0775679655534587
-0.0617258511693424 0.00444060240362808 0.0774825134140699
-0.0509720713885494 0.00378700666618397 0.0796109936061792
-0.0417900630417674 -4.80245143343201e-005 0.08142837533505
-0.0350610158287768 -0.00385220307462267 0.0827602459885852
-0.032768678641395 0.00320713105022844 0.0956279628999559
-0.032768678641395 0.0021974115836736 0.100667228753645
-0.032768678641395 0.00295070246418956 0.113488614615894
-0.0327686786413954 -0.00230809418021607 0.118718485676732
-0.032768678641395 -0.00166644008517443 0.123361430276208
-0.032768678641395 0.00431066455456102 0.140376135304583
-0.0327686786413946 -0.00272538102388982 0.146336187750946
-0.032768678641395 -0.000520342924129009 0.157441794444981
-0.0327686786413946 0.00126507607988848 0.17171698198891
-0.032768678641395 -0.0017812342974917 0.176075313105972
-0.0327686786413946 0.000353212005638471 0.189238895172356
-0.0327686786413946 -0.00223383808699986 0.206497091224236
-0.032768678641395 0.00258165156323246 0.216538242622345
-0.032768678641395 0.00052069141834158 0.215853907689566
-0.0327686786413954 -0.0027448271048644 0.232644310579213
-0.0327686786413954 0.00297635233400133 0.239851595032507
-0.0327686786413954 0.00327932488629556 0.255703929000373
-0.032768678641395 0.00169182795043935 0.262449829081757
-0.032768678641395 0.00110345076633506 0.262477024644199
-0.0327686786413954 -0.00136216058146708 0.273407315185609
-0.0327686786413954 -0.00108471281996025 0.287347974534297
-0.0327686786413946 0.00280093246288069 0.296296729102028
-0.0327686786413954 0.00472675365508928 0.312572344941908
-0.0327686786413946 -0.00110299726828 0.324527600109472
-0.032768678641395 -0.00136192707144992 0.325055129506012
-0.499999999999998 0.000664546468346753 0.752043751366633
-0.499999999999998 -0.00180016345318977 0.765420021707782
-0.499999999999998 0.000491447642791033 0.774918137172382
-0.499999999999998 0.00233297485424149 0.780833581730718
-0.499999999999998 -0.000492539525765628 0.786781087140102
-0.490961232363977 -0.000877148416488919 0.790532667469845
-0.487890268842444 -0.00414416130306651 0.790532667469845
-0.475910117903148 -0.00269808520513407 0.790532667469845
-0.460675453354657 -0.00379242761982088 0.790532667469845
-0.450284066060693 -0.000728726653990236 0.790532667469845
-0.441887680940024 -0.00416718903286011 0.790532667469845
-0.426473851837817 0.00323634305642956 0.790532667469845
-0.415446108567037 -0.00430192346826059 0.790532667469845
-0.416011574703923 0.00413667749073069 0.790532667469845
-0.402529173612492 -0.00136536371012819 0.790532667469845
-0.384343918176762 0.000676069932650958 0.790532667469845
-0.384537231484359 -0.00438640126412303 0.790532667469845
-0.371585656709706 -0.00108541043962717 0.790532667469845
-0.357322888665409 0.000301125274479257 0.790532667469845
-0.353153168554884 -0.00157042663461416 0.790532667469845
-0.345343029623387 0.00250439684681887 0.790532667469845
-0.327452268171183 0.00401569496899499 0.790532667469845
-0.317869129320485 -0.000130783157088066 0.790532667469845
-0.312117822197174 -0.00328944289267977 0.790532667469845
-0.295208146960764 -0.000526310274428 0.790532667469845
-0.280388013491137 0.000950964541427227 0.790532667469845
-0.269065768184678 0.00175808884121541 0.790532667469845
-0.255124343585677 0.00120579904337313 0.790532667469845
-0.246173509175903 -0.00466245616005301 0.790532667469845
-0.240528711262095 0.00151564045014441 0.790532667469845
-0.230384326133325 0.00447587088870795 0.790532667469845
-0.213546869264299 -0.00258415498548699 0.790532667469845
-0.205415947634494 0.00224725687342068 0.790532667469845
-0.187184080491798 -0.00344954324895827 0.790532667469844
-0.18919337719931 0.00211767126420491 0.790532667469845
-0.16883279742896 0.000989266016654086 0.790532667469845
-0.157974126375262 0.00401659076492753 0.790532667469845
-0.141955457328039 -0.00164096553874644 0.790532667469845
-0.127165496335224 0.004041990936743 0.790532667469845
-0.120096731957911 0.00307244660057992 0.790532667469845
-0.101422700256253 0.000480895888039678 0.790532667469845
-0.0995200379718786 -0.00306346255061214 0.790532667469844
-0.0846603318499858 -0.00226265559288359 0.790532667469845
-0.0651936407129361 0.0015137265408564 0.790532667469845
-0.0532313758390172 0.000285711814537564 0.790532667469845
-0.0371139176925176 0.00260013169299226 0.790532667469845
-0.0266678846954426 0.000491439894981788 0.790532667469845
-0.0150441797040666 -0.000952148408134188 0.790532667469845
0.000894767692143377 0.000405974987158699 0.790532667469845
0.0107386732185203 -0.00282552910534809 0.790532667469845
0.0316257914346492 -0.00447735118463515 0.790532667469845
0.0391664533264907 0.00268789355537739 0.790532667469845
0.0523794920179784 0.00478382963963955 0.790532667469845
0.0717902664394566 0.003617636495927 0.790532667469845
0.0905838121405228 -0.00202658840070601 0.790532667469845
0.0947252038999434 -0.00206960830150353 0.790532667469844
0.105498955103195 0.0035590940023606 0.790532667469844
0.122948938752307 0.00430628097220284 0.790532667469845
0.132789494941358 0.000435241771921713 0.790532667469845
0.155852218395026 -0.000768715602697857 0.790532667469845
0.169060006455976 -0.00317415851950759 0.790532667469845
0.187171650136303 0.00171531270232257 0.790532667469845
0.203741780445507 -0.000648632356233045 0.790532667469845
0.216285672241062 0.00257234904129885 0.790532667469844
0.235581874711261 -0.00159493302293361 0.790532667469845
0.252033681709615 0.00143010662013175 0.790532667469845
0.272562589264135 -0.00207426437214705 0.790532667469845
0.28405394622256 0.00227398730723007 0.790532667469845
0.30085914557208 -0.0016462771007939 0.790532667469844
0.326224927121 0.00200530017817922 0.790532667469845
0.33172147955012 -0.00360033551789616 0.790532667469844
0.343925464338957 -0.0055067597687975 0.790532667469845
0.370204843416453 -0.0051607886048572 0.790532667469845
0.3889407876213 -0.00444592515498465 0.790532667469845
0.397141043667211 -0.000444398367731667 0.790532667469845
0.421219094720552 -0.00386625411641393 0.790532667469845
0.444069514740073 0.00106706020905572 0.790532667469845
0.447161330818563 -0.00517443818900976 0.790532667469844
0.472044898571994 -7.53487610955722e-005 0.790532667469845
0.493564656413642 0.00201268216181706 0.790532667469845
-0.0831975171712535 0.0136522809604672 0.0732326573905822
-0.072118468933592 0.0118501942909334 0.0754255175013509
-0.0695750390095999 0.0110963645940443 0.0759289349344388
-0.0534641317249075 0.00693111263694758 0.0791177436818175
-0.0327686786413946 0.0143762578203505 0.0638860210670182
-0.03807426832092 0.0113448332688405 0.0821638372491379
-0.033149295092198 0.00887776748742922 0.0831386301291938
-0.032768678641395 0.0135990075972599 0.100215361773449
-0.0327686786413946 0.0141935996014845 0.109453888314144
-0.032768678641395 0.00756939799431331 0.115655863497802
-0.0327686786413946 0.0139256963439658 0.118375644969041
-0.0327686786413954 0.0135090088256422 0.125590699315234
-0.032768678641395 0.0141127185012744 0.149336024205053
-0.032768678641395 0.00516926709863771 0.151145232508941
-0.032768678641395 0.00550952154632862 0.159439284114236
-0.032768678641395 0.00693927372337459 0.175020897112242
-0.0327686786413946 0.0147122448061954 0.188829721077449
-0.0327686786413954 0.00884091460373221 0.19152891501952
-0.0327686786413946 0.00576554415983417 0.201702949664843
-0.032768678641395 0.0071806799375635 0.208876497585446
-0.032768678641395 0.00850443609263581 0.22255422618752
-0.032768678641395 0.0120851120452717 0.227609107230438
-0.032768678641395 0.0146068963503993 0.245037118231644
-0.032768678641395 0.00827108138438596 0.247769483881372
-0.032768678641395 0.00489121227030911 0.263902201643769
-0.0327686786413946 0.00634984342884047 0.271683463409794
-0.032768678641395 0.0147612221595116 0.27457227710022
-0.032768678641395 0.0111146073625386 0.287964829291378
-0.0327686786413954 0.012384660362096 0.295863288188908
-0.032768678641395 0.0102543364000491 0.308287440174647
-0.032768678641395 0.0126538416190566 0.320886306728003
-0.499999999999998 0.00706095115971909 0.749358720332835
-0.499999999999998 0.0110453546787335 0.757101856631855
-0.499999999999998 0.00511212175946134 0.769675608030951
-0.499999999999998 0.0106666821002542 0.776499982091735
-0.499999999999998 0.00681820715548589 0.786982287291883
-0.498731299464387 0.0103970173139449 0.790532667469845
-0.48965479978237 0.00768293680857857 0.790532667469845
-0.474213290520081 0.00725677560410016 0.790532667469845
-0.472731475740384 0.00996285268077427 0.790532667469845
-0.46017116649163 0.00738233649052123 0.790532667469845
-0.453218112614796 0.0118748946122748 0.790532667469845
-0.449047068344961 0.00453184450709048 0.790532667469845
-0.433946424849682 0.0127629584272678 0.790532667469845
-0.415671374460949 0.0100054698860261 0.790532667469845
-0.412828135682333 0.00813324315758525 0.790532667469845
-0.397616498642622 0.00483264365016797 0.790532667469845
-0.391672077375325 0.010209705841647 0.790532667469845
-0.387516650653857 0.00596973071316728 0.790532667469845
-0.37061676137547 0.00493782870706226 0.790532667469845
-0.359528082271216 0.00726561731440435 0.790532667469845
-0.347850521626071 0.0103003025710232 0.790532667469845
-0.331499768489021 0.00531761096848725 0.790532667469845
-0.32165697147904 0.00988248511463341 0.790532667469845
-0.31212391068378 0.0134956293561619 0.790532667469845
-0.298655916222114 0.00905216451112672 0.790532667469845
-0.295141071843757 0.0121214348706425 0.790532667469845
-0.281875705262678 0.00781154022093634 0.790532667469845
-0.2693824087971 0.013021822236013 0.790532667469845
-0.259320971581638 0.00995467315861539 0.790532667469845
-0.244701475313569 0.00764532197474597 0.790532667469845
-0.231863003626852 0.00683421560140096 0.790532667469845
-0.223734205310656 0.0135957699798751 0.790532667469845
-0.214976931837971 0.0127626360994325 0.790532667469845
-0.205750321641914 0.0133727983103753 0.790532667469844
-0.193787153457979 0.0125701284680177 0.790532667469844
-0.180802416048801 0.00977207418308236 0.790532667469845
-0.166740249631823 0.00898129029312332 0.790532667469845
-0.153993177899446 0.00892219439612072 0.790532667469845
-0.14130718130853 0.00485242802412403 0.790532667469845
-0.128352402016157 0.00647760955731649 0.790532667469845
-0.119801945376011 0.0097998094942056 0.790532667469845
-0.108090363721823 0.00887714934970789 0.790532667469845
-0.09315799049582 0.0145476119550762 0.790532667469845
-0.0797348558939563 0.014509011641503 0.790532667469845
-0.0607960857398901 0.00547471266440631 0.790532667469845
-0.0461931734265682 0.00684398195724381 0.790532667469845
-0.0383807259452099 0.00727053232280383 0.790532667469845
-0.0361977008192424 0.0136855758963011 0.790532667469845
-0.0095892940497741 0.0141601321734313 0.790532667469845
-0.00552444525582907 0.0143557790756879 0.790532667469845
0.0127270937516059 0.014097483423924 0.790532667469845
0.0345660482588281 0.00614956769873713 0.790532667469845
0.0368399810971715 0.013979527964721 0.790532667469845
0.0500801486022987 0.00736328707923734 0.790532667469845
0.0633132721547544 0.00674818667739086 0.790532667469845
0.0919448206594696 0.00563312814406839 0.790532667469845
0.10269813075999 0.00622355093478598 0.790532667469844
0.114274481637502 0.00985502628590228 0.790532667469845
0.12157268859988 0.0099923624180038 0.790532667469845
0.13779199497084 0.00846046139253554 0.790532667469845
0.157171120492454 0.013687800766848 0.790532667469845
0.164377498825729 0.0110886251214455 0.790532667469845
0.183132738867806 0.0114210481723749 0.790532667469845
0.201378642360387 0.0148325056714803 0.790532667469845
0.221625367445569 0.00993226476412257 0.790532667469845
0.22557324899621 0.01600505172784 0.790532667469845
0.24621637239757 0.0123902404787574 0.790532667469845
0.256125976138172 0.0106546194640837 0.790532667469845
0.277456943382358 0.0139669251238539 0.790532667469845
0.305987189831693 0.00907320668228951 0.790532667469845
0.322984581138168 0.0160055736475231 0.790532667469845
0.326710991361944 0.0118946268848198 0.790532667469845
0.352370793799545 0.00902074106876828 0.790532667469845
0.356273282390205 0.0123468641138645 0.790532667469845
0.389312260689856 0.00876467111401368 0.790532667469845
0.397571458094311 0.0148727962078093 0.790532667469845
0.409225805679444 0.00782734662532431 0.790532667469845
0.426336527073345 0.0110027602600446 0.790532667469845
0.456042005197462 0.0111893380359957 0.790532667469845
0.464977141982028 0.0111216295169786 0.790532667469845
0.482811961830335 0.0145714784700698 0.790532667469845
-0.032768678641395 0.0219977525575263 0.0167852698441308
-0.0327686786413946 0.0162241184232333 0.036057844990431
-0.0327686786413954 0.016763399520216 0.0377606803322901
-0.0327686786413954 0.0238747329421409 0.0573601040831947
-0.032768678641395 0.0216664582832059 0.0681200831006132
-0.032768678641395 0.0152976459606197 0.0712327459179753
-0.0327686786413946 0.0234335976759039 0.0807307741629971
-0.032768678641395 0.024433290403079 0.0986795832367402
-0.0327686786413946 0.0166188867885409 0.101483464800621
-0.0327686786413954 0.0213427499756093 0.112648051588857
-0.032768678641395 0.023890718903123 0.125625102068026
-0.032768678641395 0.0149923286367291 0.133646080727573
-0.032768678641395 0.0221000400487225 0.139496525402117
-0.032768678641395 0.0228231652525355 0.14847715933623
-0.032768678641395 0.018641997555948 0.157662616464903
-0.032768678641395 0.016905769468915 0.168131351426268
-0.032768678641395 0.0230375318514573 0.182498595517612
-0.032768678641395 0.0195914413876277 0.194179937311915
-0.0327686786413946 0.0211001545228515 0.20280287557493
-0.032768678641395 0.019579323661021 0.213800314981045
-0.032768678641395 0.0200916452370574 0.227994613765684
-0.032768678641395 0.0169249184987785 0.228833513942504
-0.032768678641395 0.0203185480573384 0.242865308153221
-0.032768678641395 0.0160367420155116 0.253139330904493
-0.032768678641395 0.0168697117191857 0.262841753896567
-0.032768678641395 0.017545891446447 0.27441708987639
-0.032768678641395 0.0237028747946967 0.28145432029918
-0.032768678641395 0.0150871306867647 0.286005238766206
-0.032768678641395 0.0226079707642142 0.297004999593356
-0.032768678641395 0.0175064707438354 0.30577297166137
-0.0327686786413946 0.0213054237688418 0.327000442078666
-0.499999999999998 0.0159710975699568 0.750546146701935
-0.499999999999998 0.017771258312505 0.759672386674321
-0.499999999999998 0.0180020332017767 0.766378099092214
-0.499999999999998 0.0186172498923461 0.772423477534828
-0.499999999999998 0.014886486821433 0.782441693356142
-0.499148975429046 0.0190494493841884 0.790532667469845
-0.486162543442751 0.0130637525518817 0.790532667469845
-0.479802331106306 0.0168492736945596 0.790532667469845
-0.472143929646129 0.0201535872197192 0.790532667469845
-0.456208684237581 0.0134415247488335 0.790532667469845
-0.44965315322218 0.0163699581244943 0.790532667469845
-0.446946382840913 0.013101030771938 0.790532667469845
-0.421962827151056 0.0144263596753896 0.790532667469845
-0.425168351866418 0.0135932603668595 0.790532667469845
-0.412278648083441 0.0154885905470269 0.790532667469845
-0.39965889786948 0.0154322247082907 0.790532667469845
-0.390086313719793 0.0159225865550629 0.790532667469845
-0.371580228175117 0.0177678868050916 0.790532667469845
-0.361965441811974 0.0185337203564309 0.790532667469845
-0.362302410712368 0.0202869443497013 0.790532667469845
-0.350022530797138 0.0142326472160358 0.790532667469845
-0.337690993073751 0.0194145429520179 0.790532667469845
-0.320279217752531 0.0213474464270982 0.790532667469845
-0.31705253699904 0.0169477489664603 0.790532667469845
-0.308358356102393 0.0136508946704911 0.790532667469845
-0.293328303569866 0.0205214898076749 0.790532667469845
-0.282650794583002 0.0169864153098399 0.790532667469845
-0.278384935949121 0.0225429242247905 0.790532667469845
-0.263271147513567 0.0176968008698123 0.790532667469845
-0.242242365290181 0.0229852604444487 0.790532667469845
-0.236694077386207 0.015810270794748 0.790532667469845
-0.22607211711356 0.0184314302280545 0.790532667469845
-0.213026723672204 0.01961581938324 0.790532667469845
-0.209754894435034 0.0151051342601614 0.790532667469845
-0.190355787866193 0.0184103811135345 0.790532667469845
-0.175770964668453 0.0196355779757608 0.790532667469845
-0.164937484738789 0.0179328104414313 0.790532667469845
-0.16144653107572 0.0207043027919057 0.790532667469845
-0.145067022421091 0.0160473686228345 0.790532667469845
-0.132680348849222 0.0159219587103976 0.790532667469845
-0.125378895198712 0.0228412115373235 0.790532667469845
-0.115412888215358 0.0166164358078085 0.790532667469845
-0.0917661861172159 0.0172867097249868 0.790532667469845
-0.0727522930674062 0.0153838055011187 0.790532667469844
-0.0712459458466692 0.0207495777192836 0.790532667469845
-0.0572353490026043 0.019482939420283 0.790532667469845
-0.0428993297000782 0.0229649801384901 0.790532667469845
-0.0267266635575934 0.0241938607683565 0.790532667469845
-0.018996158609947 0.017870104162197 0.790532667469845
0.00707534506897196 0.0237328595495268 0.790532667469845
0.0151056050293819 0.0246280697653785 0.790532667469845
0.0354304946012397 0.0250521270482766 0.790532667469845
0.0338632787098459 0.0212206248656808 0.790532667469845
0.0580819614900961 0.0182662193778979 0.790532667469845
0.0690500895903639 0.0243009384817587 0.790532667469845
0.0754461661554006 0.0234224233512881 0.790532667469845
0.0991173448744417 0.024874120842797 0.790532667469845
0.119311200091737 0.0163995684245549 0.790532667469845
0.122746241401261 0.0199758412953796 0.790532667469845
0.130813098778835 0.0178146220342077 0.790532667469845
0.156535661686403 0.0207744659783315 0.790532667469845
0.162899862573373 0.0246005253556359 0.790532667469845
0.188955540872229 0.0236970642827008 0.790532667469845
0.206696828974219 0.0253424702813194 0.790532667469845
0.214305750283401 0.018647990598762 0.790532667469845
0.231111415222764 0.0187634139718413 0.790532667469845
0.247129325639914 0.0240625356719033 0.790532667469845
0.274210199461616 0.0220620831620131 0.790532667469845
0.283566279015923 0.0240176393140686 0.790532667469845
0.307291530662744 0.0201622865784889 0.790532667469845
0.313560341460578 0.0194181829798672 0.790532667469845
0.335358257946921 0.0222384446355591 0.790532667469845
0.353610275960892 0.0227915693414728 0.790532667469845
0.35564587601498 0.0244160032305464 0.790532667469844
0.380748932521622 0.0199078387981776 0.790532667469845
0.397408568464713 0.0249395694085069 0.790532667469845
0.426965680555353 0.0175998899285017 0.790532667469845
0.443612879113572 0.0267686146773442 0.790532667469845
0.460589843759905 0.0216314773371361 0.790532667469845
0.463930460981931 0.0191599914701937 0.790532667469845
0.490758132665961 0.0185395622720844 0.790532667469845
-0.032768678641395 0.0339293847629221 0.0246218280442207
-0.032768678641395 0.0254606949265044 0.0360107027342228
-0.0327686786413954 0.0289701214944096 0.0484110367588065
-0.032768678641395 0.0324228460329127 0.0499893195868459
-0.032768678641395 0.0305660386555766 0.0594944240119145
-0.032768678641395 0.0276226619498851 0.0765371536075588
-0.0327686786413946 0.027256067656383 0.0825164895924798
-0.0327686786413946 0.0276248439690259 0.0913611570905322
-0.032768678641395 0.0342488926286971 0.100626914889783
-0.0327686786413946 0.0305266450558976 0.107874048528875
-0.0327686786413946 0.0314017842296481 0.129223212812804
-0.032768678641395 0.0278228877435457 0.135623308643169
-0.032768678641395 0.0278735214281662 0.139614072134293
-0.0327686786413954 0.0253412185094909 0.153720626398017
-0.032768678641395 0.0305432792467869 0.157077413193043
-0.032768678641395 0.0326230850158565 0.16959547014603
-0.032768678641395 0.0262357134831878 0.183651258367207
-0.0327686786413946 0.0316342894748849 0.195982716115667
-0.0327686786413946 0.0280080386256863 0.199213059978156
-0.032768678641395 0.0266699488585148 0.204910180627181
-0.0327686786413954 0.0319597577232929 0.224238650325395
-0.032768678641395 0.0253431402009217 0.23439667075419
-0.032768678641395 0.0294020991789599 0.245367106531794
-0.0327686786413954 0.0278707953989624 0.250078526028509
-0.032768678641395 0.0297887121192661 0.261501224300718
-0.032768678641395 0.0320333676744028 0.268367834296213
-0.0327686786413954 0.0294530353873866 0.286915183781733
-0.032768678641395 0.0325439973361545 0.288792893233606
-0.032768678641395 0.0247362164658475 0.299661711207774
-0.0327686786413946 0.0265263240709052 0.304630633191311
-0.0327686786413946 0.0260602865230857 0.31941769920463
-0.499999999999998 0.0256851911154174 0.751418442644172
-0.499999999999998 0.027961036443646 0.751244046323737
-0.499999999999998 0.023942159051702 0.767778568847745
-0.499999999999998 0.021001344686219 0.779622104666912
-0.499999999999998 0.0218118909790597 0.786877914394911
-0.495629972821179 0.0255842237629708 0.790532667469845
-0.491459803963635 0.0279294251714241 0.790532667469845
-0.47498049434089 0.0269075669002774 0.790532667469845
-0.472422832053674 0.0225519800098722 0.790532667469845
-0.458506018719522 0.0228751264698699 0.790532667469845
-0.458868267709197 0.0262058465383932 0.790532667469845
-0.437630463553144 0.0235096969828678 0.790532667469845
-0.425992557062207 0.0228314439402753 0.790532667469845
-0.422138405906405 0.0299327096246142 0.790532667469845
-0.410055357491629 0.0243462632267635 0.790532667469845
-0.398976245728924 0.0232669214358295 0.790532667469845
-0.396238025122718 0.0248490626280093 0.790532667469845
-0.375399522710506 0.0281641371347446 0.790532667469845
-0.365647893500115 0.022118639722833 0.790532667469845
-0.356202606160459 0.0270791167115555 0.790532667469845
-0.348247559258233 0.0280020761102073 0.790532667469845
-0.331359554172033 0.0300175609474904 0.790532667469845
-0.327813396604179 0.0247150832977295 0.790532667469845
-0.321087785947557 0.0241833516958773 0.790532667469845
-0.296834029461409 0.0254057345384062 0.790532667469845
-0.298526014598904 0.0274824852230178 0.790532667469845
-0.279958655679253 0.0254568005640627 0.790532667469845
-0.274555371606142 0.0246112316474491 0.790532667469845
-0.257586872454875 0.0283124714324273 0.790532667469845
-0.253488179657313 0.0292790415789241 0.790532667469845
-0.23798740654702 0.0264629516514843 0.790532667469845
-0.222458863111327 0.026415843114316 0.790532667469845
-0.221471455138387 0.0273520995435674 0.790532667469845
-0.19758151394657 0.0275142632986937 0.790532667469845
-0.185158681931346 0.0241944536936864 0.790532667469845
-0.184969327953604 0.0283899298584572 0.790532667469845
-0.174717957716852 0.0263622819694277 0.790532667469845
-0.152834816713804 0.0300271309049787 0.790532667469845
-0.14411361055008 0.0239109021803545 0.790532667469845
-0.126139657862987 0.0283790675239021 0.790532667469845
-0.122450313902298 0.0265362382983107 0.790532667469845
-0.0991050101966132 0.0299611649981761 0.790532667469845
-0.0946772246295489 0.0311899109076626 0.790532667469845
-0.0833649585963807 0.0279214872760245 0.790532667469845
-0.0699142602497537 0.0330735020595085 0.790532667469845
-0.0529542826209808 0.0344745819549152 0.790532667469845
-0.0365235869367501 0.0268232153845593 0.790532667469845
-0.0279502889378257 0.0251054259503117 0.790532667469845
-0.023216293585189 0.0251888384971279 0.790532667469845
-0.000601222399482648 0.0268494364753624 0.790532667469845
0.00819383049833734 0.0272469898683246 0.790532667469845
0.0174195730197826 0.0273251895631631 0.790532667469845
0.0388449939084946 0.0275318450499654 0.790532667469845
0.0567969810099398 0.027041117014025 0.790532667469845
0.0658464983333888 0.0315038960474333 0.790532667469845
0.0873855602014592 0.0278917676040775 0.790532667469844
0.094001134725581 0.0352985561665545 0.790532667469845
0.11126969116266 0.0266785005189071 0.790532667469845
0.130394621252763 0.0308110780939779 0.790532667469845
0.145022120262866 0.0321716798700827 0.790532667469845
0.155506221285473 0.0348677043894758 0.790532667469845
0.161187854151048 0.0326727087985903 0.790532667469845
0.185388372490745 0.0273288541416197 0.790532667469845
0.198864451350855 0.0331604915436467 0.790532667469845
0.218003733470555 0.0318506112731617 0.790532667469845
0.234691395047699 0.0366413414061794 0.790532667469845
0.247774335890504 0.0293054681999319 0.790532667469845
0.263474803767051 0.0343088135398841 0.790532667469845
0.284008273537424 0.0366282756381064 0.790532667469845
0.301430002579678 0.0293380182330052 0.790532667469845
0.31381885704378 0.0349066419792875 0.790532667469845
0.332168002481809 0.0288730216670141 0.790532667469845
0.348641535566679 0.0342116530431255 0.790532667469845
0.359168021338653 0.0385317496232694 0.790532667469845
0.392637613825563 0.0312666478515822 0.790532667469845
0.399645184993526 0.0373187745670305 0.790532667469844
0.415926384845582 0.0327148828582186 0.790532667469845
0.429189739268179 0.0371815127457754 0.790532667469844
0.45641810648532 0.0293459258779154 0.790532667469845
0.464185901266241 0.0392213393080622 0.790532667469845
0.485312093021712 0.0362199888002951 0.790532667469845
-0.0138689941661373 0.0407374795511423 0.00759565332733208
-0.0138689941661373 0.0426088995067166 0.0163787817278266
-0.0138689941661377 0.0371269709657078 0.0244653417499351
-0.0138689941661373 0.0445868599894956 0.0388321701385995
-0.0138689941661373 0.041199373102019 0.0391795607521266
-0.0138689941661373 0.0380549486864116 0.0497449505975789
-0.0138689941661377 0.0390403555039337 0.0689496309379703
-0.0138689941661377 0.038774075503751 0.0725255748545586
-0.0138689941661373 0.0368010963208155 0.0814606581021401
-0.00220217840664434 0.0364905801964778 0.0828541121071539
0.0117314611357465 0.0447162441679899 0.0812260182473945
-0.499999999999998 0.0324953564589868 0.752209520578361
-0.499999999999998 0.0310877797243846 0.763273344320498
-0.499999999999998 0.0335398106570162 0.770938196591701
-0.499999999999998 0.0354723228631573 0.771893080480551
-0.499999999999998 0.0312066851943352 0.782477601264431
-0.49790462986797 0.0358909066967234 0.790532667469845
-0.490988006924908 0.0340103374750198 0.790532667469845
-0.480827112763497 0.0370229152879929 0.790532667469845
-0.473098567497575 0.0300593012545295 0.790532667469845
-0.462882391784859 0.0365632116069754 0.790532667469845
-0.447780743946495 0.0378488815417898 0.790532667469845
-0.433441508414946 0.0338725641856103 0.790532667469845
-0.429853986572296 0.0350252021535456 0.790532667469845
-0.422252932571853 0.0335904530703341 0.790532667469845
-0.419216843235238 0.0322010944377933 0.790532667469845
-0.40329833157704 0.0333355442631058 0.790532667469845
-0.386351952007026 0.0373155847613687 0.790532667469845
-0.374681131304671 0.0371150810789755 0.790532667469845
-0.365484342625234 0.0342737226691076 0.790532667469845
-0.355351847301338 0.0367460146422313 0.790532667469845
-0.354876356102768 0.0337790547557907 0.790532667469845
-0.333769081379292 0.0366644222526111 0.790532667469845
-0.320318659524441 0.0364056366365535 0.790532667469845
-0.316461223875543 0.032779299756426 0.790532667469845
-0.298225994903174 0.0388276041994486 0.790532667469845
-0.290524397274022 0.0401810167341994 0.790532667469845
-0.277128029819071 0.0396211466103004 0.790532667469845
-0.268822750625751 0.0365465016776794 0.790532667469845
-0.260451953479816 0.0400417476079465 0.790532667469845
-0.251473955105205 0.0403261352504002 0.790532667469845
-0.236410865515114 0.0357389826291949 0.790532667469845
-0.228404649868283 0.0363305916908886 0.790532667469845
-0.222349289166177 0.0368095174663043 0.790532667469845
-0.206073590789149 0.0337591910540173 0.790532667469845
-0.192467806338305 0.0401188835964043 0.790532667469845
-0.17258519074147 0.0401812167740958 0.790532667469845
-0.172363392791064 0.0337263526194429 0.790532667469845
-0.147195919630372 0.038492422446317 0.790532667469845
-0.141319720830381 0.0426062328324003 0.790532667469845
-0.125931227643541 0.0342293728166307 0.790532667469845
-0.114030860883335 0.0402902191384148 0.790532667469845
-0.10722962817509 0.0394254064053174 0.790532667469845
-0.0919981038893459 0.0339362017924235 0.790532667469845
-0.0796871278982165 0.0438079355139102 0.790532667469845
-0.0721447578678116 0.0356763815048931 0.790532667469845
-0.0560324996776623 0.0368645971610442 0.790532667469845
-0.0487509713198719 0.04366444093316 0.790532667469845
-0.0273975346685312 0.0428692744710553 0.790532667469845
-0.0189568132059786 0.0380744327458644 0.790532667469845
-0.00633415954860488 0.0445569021598416 0.790532667469845
0.0147034529167897 0.0441547159324073 0.790532667469845
0.0212549039201108 0.0381068898437263 0.790532667469845
0.0433660581555277 0.0358703859053232 0.790532667469845
0.0553237719941146 0.042900083352626 0.790532667469845
0.0674672958679394 0.0384459605187939 0.790532667469845
0.0820134840003708 0.0422682796400872 0.790532667469845
0.0898485332441065 0.0425891096542732 0.790532667469845
0.10718827647036 0.0363235678147855 0.790532667469845
0.122048064226225 0.0465289579291647 0.790532667469845
0.143949756774302 0.0366383029964295 0.790532667469845
0.156824594108935 0.0404910807231082 0.790532667469845
0.175970744536559 0.0393755868091028 0.790532667469845
0.192309304024969 0.0474548531611096 0.790532667469845
0.208411404710817 0.0386729600263881 0.790532667469845
0.211927393597444 0.0397054091236636 0.790532667469845
0.224671203796006 0.0471993816437348 0.790532667469845
0.243587784100015 0.0422301220474613 0.790532667469845
0.257450588207984 0.0396030394635559 0.790532667469845
0.28837317895275 0.0475683586370453 0.790532667469845
0.298457975345478 0.0428094112033056 0.790532667469845
0.320573938066092 0.0486312094206033 0.790532667469845
0.335669129879987 0.0481122209510812 0.790532667469845
0.35800558251815 0.0482564324549276 0.790532667469845
0.364306913515244 0.0394932721743887 0.790532667469845
0.387070844693268 0.0458822929359526 0.790532667469845
0.406001225378519 0.039691797945234 0.790532667469845
0.413699220532796 0.0481415703838298 0.790532667469845
0.423677834633568 0.0461623933280405 0.790532667469845
0.451018211123319 0.0433236046886431 0.790532667469845
0.462125224504346 0.0445592009072131 0.790532667469845
0.486543584910105 0.0420344106776132 0.790532667469845
-0.0138689941661373 0.0536663584311436 0.0196438289519122
-0.0138689941661373 0.0447533656215848 0.0240622830152883
-0.0138689941661373 0.0452546340024451 0.034095264035805
-0.0138689941661373 0.049838061773015 0.0483558631152698
-0.0138689941661373 0.0532571736749958 0.0495648587847571
-0.0138689941661373 0.0522394679070373 0.0671641089682685
-0.0138689941661377 0.048867833210912 0.0765399707536519
-0.0116351657011088 0.0466580221647924 0.0808416849164244
-0.00289505180380914 0.0468902717228439 0.0807957160948547
-0.499999999999998 0.0389972454925873 0.749820639522204
-0.499999999999998 0.0421851333754097 0.757410100466577
-0.499999999999998 0.0428542543560325 0.770141616293075
-0.499999999999998 0.0396737348224659 0.77471824650907
-0.499999999999998 0.0438112616213758 0.786222771466801
-0.498444589219256 0.0450221478921609 0.790532667469845
-0.486824921420183 0.0383542330755401 0.790532667469845
-0.480921331190116 0.0393764072906434 0.790532667469845
-0.472678283875322 0.038620256359225 0.790532667469845
-0.46099469072488 0.0433244185865429 0.790532667469845
-0.443017026612155 0.045423776417417 0.790532667469845
-0.445234280404955 0.0396772308449141 0.790532667469845
-0.437466010552243 0.0434613130663151 0.790532667469845
-0.419425571057936 0.0415109316342097 0.790532667469845
-0.408201420826031 0.0438324419553836 0.790532667469845
-0.405542554720848 0.046849394555794 0.790532667469845
-0.391430940361997 0.0471244358434064 0.790532667469845
-0.380065453523004 0.0407202358697436 0.790532667469845
-0.373856429815044 0.0395638045037611 0.790532667469845
-0.357046212151483 0.0450798747825525 0.790532667469845
-0.347579132295882 0.0406535423163489 0.790532667469845
-0.338339925611857 0.0464824693551002 0.790532667469845
-0.326847601830705 0.0456913177170809 0.790532667469845
-0.316734537605409 0.0479260600215903 0.790532667469845
-0.30081545667094 0.0425722857336837 0.790532667469845
-0.289417657845036 0.0477334747968526 0.790532667469845
-0.288077142695935 0.0409981149744125 0.790532667469845
-0.271608778909148 0.0482605916500815 0.790532667469845
-0.266279740470092 0.0423922072163091 0.790532667469845
-0.247727364232244 0.0443899623752758 0.790532667469845
-0.241829888407687 0.0429104543541736 0.790532667469845
-0.221304737499912 0.0504752697919459 0.790532667469845
-0.213602258530707 0.0441365381881369 0.790532667469845
-0.208529703525179 0.0439066124850159 0.790532667469845
-0.192349333889737 0.0509370709490313 0.790532667469845
-0.187436756640447 0.0435815724952447 0.790532667469845
-0.170559033238069 0.0495176761507242 0.790532667469845
-0.16035958040225 0.0463719609366306 0.790532667469845
-0.140011109625817 0.044578332760638 0.790532667469845
-0.134823709981641 0.0463139819077514 0.790532667469845
-0.122431852725431 0.0510974625395758 0.790532667469845
-0.101536078405696 0.0516857820656419 0.790532667469845
-0.0888995252394835 0.0470482137611285 0.790532667469845
-0.0869721314970461 0.0490853184759955 0.790532667469845
-0.0616370179420245 0.04734727305771 0.790532667469845
-0.0546900050199399 0.0517058170037235 0.790532667469845
-0.0416396629838925 0.049941326466337 0.790532667469845
-0.0241629021581148 0.0446502868875713 0.790532667469845
-0.00804812273790044 0.0474481644398153 0.790532667469845
0.00664103393236356 0.0543028066194847 0.790532667469845
0.013236197354145 0.0530553324112992 0.790532667469845
0.0238655821577182 0.0506857039977958 0.790532667469845
0.0491552651201055 0.0506868082637311 0.790532667469845
0.056999884051488 0.0467275605410131 0.790532667469845
0.0685765702279732 0.0559040424806747 0.790532667469845
0.076163243117761 0.0476932652308194 0.790532667469845
0.10533980281243 0.0468493469126019 0.790532667469845
0.109105348772729 0.0531404943228073 0.790532667469845
0.119241606340348 0.0478653040809775 0.790532667469845
0.14933056604852 0.0517067262527995 0.790532667469845
0.157608166370607 0.0558330185806497 0.790532667469845
0.175304333655795 0.0494097024865616 0.790532667469844
0.187919974653464 0.0491773025451797 0.790532667469845
0.203106954717382 0.0515684505264667 0.790532667469845
0.216978581645194 0.0555945462816817 0.790532667469845
0.235935180629968 0.056871266326839 0.790532667469845
0.253544042774613 0.0554143682056588 0.790532667469845
0.276496970092885 0.0575213768464465 0.790532667469845
0.278843721286043 0.0495287655989494 0.790532667469845
0.296943216681477 0.0494509241022111 0.790532667469845
0.315507066472853 0.0592557842782875 0.790532667469845
0.322930345834714 0.0515462654878938 0.790532667469845
0.346818188502945 0.0531934883674443 0.790532667469844
0.362135455420176 0.0581021029857772 0.790532667469845
0.379815047934259 0.0525085082249926 0.790532667469845
0.400065678727104 0.0509590528618419 0.790532667469845
0.42167420182671 0.0583632524024005 0.790532667469845
0.429445714360571 0.0625276729278705 0.790532667469845
0.453498560505749 0.0623410695120046 0.790532667469845
0.465881673110481 0.0542052507821835 0.790532667469845
0.483321286004502 0.0617119457706379 0.790532667469845
0.498233914229181 0.0530107773740443 0.790532667469845
