ply
format ascii 1.0
element vertex 862
property float x
property float y
property float z
end_header
-0.198053685532622 0.175036693404202 0.63564637619895
-0.221773658554482 0.18814915014504 0.63564637619895
-0.21896931651272 0.186473525210958 0.63564637619895
-0.237296414551921 0.200390115671684 0.63564637619895
-0.24398766275999 0.218676345862663 0.63564637619895
-0.267043541701082 0.231585861759209 0.63564637619895
-0.273943177524953 0.248932656514502 0.63564637619895
-0.274764872870515 0.252305280649092 0.63564637619895
-0.285620171912428 0.255034455242588 0.63564637619895
-0.296236352873567 0.264220851030762 0.63564637619895
-0.322676686348751 0.29255932144973 0.63564637619895
-0.330679394464511 0.299287656891887 0.63564637619895
-0.349819231880949 0.31185392732611 0.63564637619895
-0.35157932423961 0.322565438212512 0.63564637619895
0.334049726276348 -0.3730570549102 0.616398247005692
0.336330905952319 -0.370775875234229 0.618750787947452
0.332108036248139 -0.369263541756435 0.627167525056968
0.330013743635219 -0.362769371102469 0.630204005364961
0.323819346617358 -0.362216948662378 0.632589366260041
0.316489490950004 -0.357290291935205 0.63564637619895
0.308893191820306 -0.34685042129324 0.63564637619895
0.304332190941329 -0.347942090208259 0.63564637619895
0.299234267154972 -0.340047677343085 0.63564637619895
0.291881646131039 -0.32748192460186 0.63564637619895
0.284726863077876 -0.324418542889644 0.63564637619895
0.272706840436817 -0.316627280204565 0.63564637619895
0.273640985765476 -0.302808787601369 0.63564637619895
0.26866344767443 -0.302686486848126 0.63564637619895
0.26131400365834 -0.297139494878858 0.63564637619895
0.250083223776061 -0.287600690850553 0.63564637619895
0.246139119907992 -0.28754835912477 0.63564637619895
0.238312365094843 -0.276870480017288 0.63564637619895
0.230770426628725 -0.265775268782577 0.63564637619895
0.22283766956891 -0.266160414485019 0.63564637619895
0.210521279140117 -0.24697814703879 0.63564637619895
0.209311998393627 -0.244540758510723 0.63564637619895
0.20526034296906 -0.241720829541057 0.63564637619895
0.195317651113723 -0.231620613134944 0.63564637619895
0.187256832061117 -0.219635752424133 0.63564637619895
0.180925723249579 -0.215861342096315 0.63564637619895
0.174029521183903 -0.2109981079328 0.63564637619895
0.164846346922452 -0.205617602595349 0.63564637619895
0.158098965414189 -0.196553221556167 0.63564637619895
0.146043633901183 -0.187375530443006 0.63564637619895
0.140874963906392 -0.182435004349708 0.63564637619895
0.13705570265303 -0.172362085770187 0.63564637619895
0.119849839232511 -0.16621066180337 0.63564637619895
0.125928024213081 -0.158604918599569 0.63564637619895
0.107122489616034 -0.146871265202427 0.63564637619895
0.0981301997132828 -0.143500198724338 0.63564637619895
0.0918594028882003 -0.138415664430104 0.63564637619895
0.0862701551386997 -0.123919645552194 0.63564637619895
0.0789115356951268 -0.120102275462127 0.63564637619895
0.0679270477659974 -0.108866162873625 0.63564637619895
0.0674956598978556 -0.107948988222291 0.63564637619895
0.0512156912505579 -0.0903679028984158 0.63564637619895
0.044664246989391 -0.081977650093976 0.63564637619895
0.04375646103517 -0.0761639356384983 0.63564637619895
0.0314249907705199 -0.0642762818915694 0.63564637619895
0.0195169540717633 -0.0557169709058127 0.63564637619895
0.0123307271206562 -0.0499522093727544 0.63564637619895
-0.00154884764374724 -0.0488224825420224 0.63564637619895
-0.00830433383616089 -0.0296505595312119 0.63564637619895
-0.0178073555256094 -0.024636691060226 0.63564637619895
-0.0243218071396055 -0.0223883037663455 0.63564637619895
-0.0347803271650674 -0.014204517649329 0.63564637619895
-0.0435973444365902 0.00434608218745886 0.63564637619895
-0.0512710813461595 0.0130515067109269 0.63564637619895
-0.064625982262088 0.0219361541982964 0.63564637619895
-0.0735838624084243 0.0250673787667177 0.63564637619895
-0.0782769749938274 0.0362334112255888 0.63564637619895
-0.0881057609364933 0.0460652839902337 0.63564637619895
-0.0972185274718167 0.0593712182818015 0.63564637619895
-0.104983644423173 0.0674099463064657 0.63564637619895
-0.121322469515621 0.0809664657550673 0.63564637619895
-0.13361021437105 0.0885681713388432 0.63564637619895
-0.134544219820984 0.0936728313052297 0.63564637619895
-0.146282581273281 0.106074630591266 0.63564637619895
-0.161085053019859 0.120117863988425 0.63564637619895
-0.170794017968748 0.128093833864088 0.63564637619895
-0.181796612559553 0.142401450657806 0.63564637619895
-0.199455908177648 0.144956366239924 0.63564637619895
-0.19875786339944 0.154501990889954 0.63564637619895
-0.213353717809149 0.164065269049836 0.63564637619895
-0.231259170249057 0.183962394214177 0.63564637619895
-0.232806787684899 0.18820842319596 0.63564637619895
-0.247396395101862 0.203786103618659 0.63564637619895
-0.257191496613095 0.2082076364744 0.63564637619895
-0.276289821448737 0.229921292134023 0.63564637619895
-0.271629859401623 0.227565993729547 0.63564637619895
-0.29740403858868 0.240518653180995 0.63564637619895
-0.299835129210894 0.251705037473752 0.63564637619895
-0.318933500302037 0.273837583678125 0.63564637619895
-0.324701815100133 0.279864875107264 0.63564637619895
-0.341685636529922 0.289793341224197 0.63564637619895
-0.338784755692743 0.295864049395091 0.63564637619895
-0.374181334248798 0.320826636317465 0.629417400043188
0.332325637030742 -0.374781144155807 0.618047755593872
0.324739789756256 -0.37815523500586 0.626628905290451
0.322674983915141 -0.374332810076828 0.628710355690442
0.319978829684659 -0.372882769528988 0.630176256912377
0.316497787510519 -0.365679010128064 0.633953904737058
0.31483435322219 -0.36239852964986 0.63564637619895
0.303534114261912 -0.357920196506456 0.63564637619895
0.298746290631137 -0.348602566926899 0.63564637619895
0.291754855748173 -0.343413334520096 0.63564637619895
0.28361479917692 -0.335168567838459 0.63564637619895
0.280227500172963 -0.324257471520821 0.63564637619895
0.278305796543249 -0.318729729402787 0.63564637619895
0.260895937456687 -0.31221436708693 0.63564637619895
0.262477078761674 -0.310592952201963 0.63564637619895
0.256275305700896 -0.303106867135629 0.63564637619895
0.244306903934086 -0.294579653318468 0.63564637619895
0.242560528922842 -0.294525399604789 0.63564637619895
0.230260808800903 -0.283049179782176 0.63564637619895
0.226430018012394 -0.27902142619144 0.63564637619895
0.216796636357569 -0.267873963611897 0.63564637619895
0.213020714218623 -0.25978300415895 0.63564637619895
0.207958079572378 -0.254646666946406 0.63564637619895
0.196605045385032 -0.246825334767129 0.63564637619895
0.184271517263252 -0.240654524693518 0.63564637619895
0.179948702319751 -0.231091519791087 0.63564637619895
0.169774923581629 -0.221390747393602 0.63564637619895
0.173514783015815 -0.22124276463763 0.63564637619895
0.159192085579308 -0.209724132872545 0.63564637619895
0.151549884375815 -0.208729450167743 0.63564637619895
0.1489885045167 -0.19755803443612 0.63564637619895
0.13294895603823 -0.185994158251008 0.63564637619895
0.130493454744496 -0.183506709464014 0.63564637619895
0.124967613636214 -0.175321024886804 0.63564637619895
0.109502681215573 -0.163960779328376 0.63564637619895
0.10721765049413 -0.154622941267014 0.63564637619895
0.100171346965221 -0.153819991792341 0.63564637619895
0.0921206902464838 -0.146958129333991 0.63564637619895
0.0775714127565513 -0.131624214742829 0.63564637619895
0.0653143561317725 -0.125424736454944 0.63564637619895
0.0634091633760735 -0.117760234573306 0.63564637619895
0.0485947293670875 -0.110366585917729 0.63564637619895
0.0451240013436869 -0.101829301096848 0.63564637619895
0.0414791593670159 -0.0931226496796325 0.63564637619895
0.0329762516412895 -0.0837807784333003 0.63564637619895
0.0184727711915057 -0.0748378618606527 0.63564637619895
0.0114108867611458 -0.0703379101486851 0.63564637619895
0.00605399683701434 -0.0558789029210634 0.63564637619895
-0.0129159296512821 -0.0460665673177836 0.63564637619895
-0.010772923075271 -0.047183275246851 0.63564637619895
-0.0245189055192777 -0.0368123314796687 0.63564637619895
-0.0307844931963268 -0.028293029786949 0.63564637619895
-0.0502125207833967 -0.00890704232205538 0.63564637619895
-0.0551458206093226 -0.000419904471622378 0.63564637619895
-0.0563265466084592 -0.00555869434084604 0.63564637619895
-0.0784424652512742 0.0200692092707499 0.63564637619895
-0.0747357137808702 0.0150062091243914 0.63564637619895
-0.0895371546558633 0.0337125328616112 0.63564637619895
-0.103338164400199 0.0486705306532926 0.63564637619895
-0.110539171067853 0.0527655193765076 0.63564637619895
-0.109088792856316 0.0576843550027341 0.63564637619895
-0.127765792726742 0.0693974473177672 0.63564637619895
-0.136711667961598 0.0804574728074714 0.63564637619895
-0.144583521901577 0.0805327801880345 0.63564637619895
-0.149932087605256 0.0953513477518105 0.63564637619895
-0.174314086323585 0.10432937629361 0.63564637619895
-0.174674317332833 0.117791940148523 0.63564637619895
-0.195137668945873 0.130380548272157 0.63564637619895
-0.197135510120418 0.135325021432274 0.63564637619895
-0.207888082216504 0.148323076773791 0.63564637619895
-0.221642197599766 0.162578145856076 0.63564637619895
-0.237061946545447 0.175545506732824 0.63564637619895
-0.240869810847916 0.179039825483085 0.63564637619895
-0.24575057264093 0.189035344040419 0.63564637619895
-0.266318459749911 0.205499944761581 0.63564637619895
-0.272832409259105 0.215447971044355 0.63564637619895
-0.288054535938454 0.222314308620511 0.63564637619895
-0.302623623738585 0.231559710544656 0.63564637619895
-0.311596462445349 0.242054111175065 0.63564637619895
-0.328543669102282 0.268155406441735 0.63564637619895
-0.340959157112315 0.273796518982636 0.63564637619895
-0.343567307300388 0.278429122158636 0.63564637619895
-0.36059479296704 0.286904410162205 0.63564637619895
-0.359686034070917 0.30002894133211 0.63564637619895
0.323418517939109 -0.383688263247439 0.613584336687875
0.322994144043344 -0.384112637143204 0.620307860128576
0.324167813250093 -0.378388650593389 0.626748604651157
0.3209780139107 -0.380989599536014 0.626956794705486
0.317685488758203 -0.373189141326193 0.630878756585029
0.308816753507061 -0.373036902415356 0.63406815258645
0.307387848071081 -0.364879060511314 0.63564637619895
0.299747133455732 -0.354091370663722 0.63564637619895
0.294695506682559 -0.358394408170424 0.63564637619895
0.287591460081692 -0.343057150038697 0.63564637619895
0.282172503327495 -0.337074817718986 0.63564637619895
0.277206980949186 -0.339851847455151 0.63564637619895
0.271047576194978 -0.327806019245023 0.63564637619895
0.262473347582519 -0.319090338358428 0.63564637619895
0.247920958297857 -0.309135371829036 0.63564637619895
0.242442616786658 -0.304311403656409 0.63564637619895
0.23929519266498 -0.29922094591781 0.63564637619895
0.236389597799366 -0.298748868328354 0.63564637619895
0.222707528513137 -0.284697778818383 0.63564637619895
0.217211906435039 -0.284395140583759 0.63564637619895
0.214330743284941 -0.275234500286958 0.63564637619895
0.202551986132311 -0.262011314940798 0.63564637619895
0.195223895168479 -0.261756924263896 0.63564637619895
0.195099990081051 -0.252237260850321 0.63564637619895
0.177221492276034 -0.247220347490223 0.63564637619895
0.169036635707418 -0.233630179611768 0.63564637619895
0.166468475185699 -0.233819262401058 0.63564637619895
0.158499990163244 -0.218468414304553 0.63564637619895
0.152993945686287 -0.216332538574817 0.63564637619895
0.143663724114238 -0.214280257503143 0.63564637619895
0.138976676188585 -0.19820484831942 0.63564637619895
0.12298062181287 -0.189252765171164 0.63564637619895
0.125481854041192 -0.190221335462654 0.63564637619895
0.107097812603143 -0.171703533625974 0.63564637619895
0.101775323396569 -0.169654202337807 0.63564637619895
0.0965964029216454 -0.160123982445748 0.63564637619895
0.0944109079711769 -0.156678488250039 0.63564637619895
0.0872561382840659 -0.151857395882149 0.63564637619895
0.0753441680451258 -0.140657423468401 0.63564637619895
0.0587485815091486 -0.129063827607051 0.63564637619895
0.0572631089776583 -0.12214012331131 0.63564637619895
0.0500860553024679 -0.117401555655607 0.63564637619895
0.0401033307581819 -0.110434626635298 0.63564637619895
0.0283006395640535 -0.097364065531639 0.63564637619895
0.0295195152980937 -0.0913131199671616 0.63564637619895
0.0154950930135147 -0.0795391846002294 0.63564637619895
0.003360014600369 -0.0708961218894821 0.63564637619895
-0.00972244505173843 -0.0669594490570566 0.63564637619895
-0.00979401886054064 -0.0560881908820833 0.63564637619895
-0.0247874516600831 -0.0512459391806314 0.63564637619895
-0.0250961711069391 -0.0416031099753414 0.63564637619895
-0.048311305990683 -0.0309520941722313 0.63564637619895
-0.0481561562526186 -0.0201504734043843 0.63564637619895
-0.0537789622988192 -0.012862274316134 0.63564637619895
-0.0673751653671153 -0.00648749208466108 0.63564637619895
-0.0812300227204194 0.00495462646084249 0.63564637619895
-0.076687834771674 0.011168853040605 0.63564637619895
-0.0904624460374652 0.0253990418488439 0.63564637619895
-0.104771296559754 0.0311722183667994 0.63564637619895
-0.116773312036552 0.0391417013937009 0.63564637619895
-0.120530711219208 0.0486784974451724 0.63564637619895
-0.129547465581499 0.0604349590390692 0.63564637619895
-0.147847307169907 0.0760813683628943 0.63564637619895
-0.153788578824546 0.0823895478749131 0.63564637619895
-0.165819775676025 0.0882076032112307 0.63564637619895
-0.177591028036895 0.0981169722054853 0.63564637619895
-0.193312926280313 0.115122028304947 0.63564637619895
-0.200609662489088 0.116181878004901 0.63564637619895
-0.200817119040058 0.12431811584462 0.63564637619895
-0.218909379989557 0.133112075125298 0.63564637619895
-0.233448481575107 0.160089875403992 0.63564637619895
-0.2296735005622 0.157299175321264 0.63564637619895
-0.251495113577645 0.173633773703195 0.63564637619895
-0.26948231397782 0.183851784896169 0.63564637619895
-0.273795013263165 0.191804284761595 0.63564637619895
-0.288963355686242 0.208336599539536 0.63564637619895
-0.293356315398425 0.212675427181446 0.63564637619895
-0.31455119921242 0.226972105820107 0.63564637619895
-0.317492180451142 0.246308491138113 0.63564637619895
-0.330523465147069 0.248395701541772 0.63564637619895
-0.333452704991202 0.252976438801412 0.63564637619895
-0.355981982767372 0.276380241344774 0.63564637619895
-0.36885176720169 0.286376614415469 0.63564637619895
-0.377319467754205 0.305278834924827 0.633804880200854
0.317549896982477 -0.389556884204071 0.610133692028085
0.316814123160737 -0.390292658025811 0.624038267116712
0.312745510031232 -0.385594849569151 0.628239222601399
0.306952904517474 -0.381231264452385 0.631829978234332
0.305833774585473 -0.376134320081003 0.634027692380473
0.295492163889145 -0.373699094189415 0.63564637619895
0.29708430356878 -0.368466848199296 0.63564637619895
0.283660107635234 -0.355913775868568 0.63564637619895
0.280898099240821 -0.348254961000551 0.63564637619895
0.277695156354649 -0.351962441383255 0.63564637619895
0.265110454313665 -0.342136108874937 0.63564637619895
0.257727438034847 -0.334429451182507 0.63564637619895
0.252896578919075 -0.329898487607249 0.63564637619895
0.244068241813425 -0.318739275987183 0.63564637619895
0.239291848023947 -0.319134231357785 0.63564637619895
0.233496796082757 -0.311594844962729 0.63564637619895
0.220349205358468 -0.299658173096158 0.63564637619895
0.221697003332073 -0.291759300250518 0.63564637619895
0.21265586672303 -0.2889276982498 0.63564637619895
0.204461347390243 -0.280599968598552 0.63564637619895
0.204027255999835 -0.271746604651766 0.63564637619895
0.198056730428383 -0.268674510740663 0.63564637619895
0.185846246804109 -0.259435319244753 0.63564637619895
0.178042865115134 -0.258998548590144 0.63564637619895
0.16878849467164 -0.246244362386746 0.63564637619895
0.164005233658568 -0.24446188074695 0.63564637619895
0.154859880386635 -0.228270489290893 0.63564637619895
0.14258256689314 -0.221477933201734 0.63564637619895
0.140571724346297 -0.212507507081872 0.63564637619895
0.124424999138251 -0.203326393170741 0.63564637619895
0.125620712662476 -0.200854697395784 0.63564637619895
0.112698281860001 -0.185834378217767 0.63564637619895
0.101598671543147 -0.180705869491706 0.63564637619895
0.0999574751940881 -0.176993706165773 0.63564637619895
0.08861223680432 -0.171083361022034 0.63564637619895
0.0831651893208884 -0.15669449437434 0.63564637619895
0.073009975768015 -0.15167415614338 0.63564637619895
0.067597405674071 -0.146342079788389 0.63564637619895
0.0618311655672605 -0.143158424612787 0.63564637619895
0.0490634567062417 -0.125043411440191 0.63564637619895
0.0409105956166399 -0.119816931298741 0.63564637619895
0.0343040906092558 -0.110263205005025 0.63564637619895
0.019603367414545 -0.104321893942457 0.63564637619895
0.0215314058128598 -0.0969924606514825 0.63564637619895
0.0140500296122474 -0.097128356467258 0.63564637619895
-0.00710676022352667 -0.0778080319397183 0.63564637619895
-0.00391081500440125 -0.0803247647229726 0.63564637619895
-0.0202257850003559 -0.0675242503501198 0.63564637619895
-0.0278159827154634 -0.0470809335573426 0.63564637619895
-0.0356478200398153 -0.0495371169022059 0.63564637619895
-0.0392673648906948 -0.043561314017417 0.63564637619895
-0.0505564262864429 -0.02803116701255 0.63564637619895
-0.0606082769784063 -0.0242597571696401 0.63564637619895
-0.0806950185433514 -0.015579661136493 0.63564637619895
-0.0820264545714992 -0.00138535590490082 0.63564637619895
-0.0975444925524157 0.00636014107618878 0.63564637619895
-0.101851155877042 0.0193544776132523 0.63564637619895
-0.118895536375382 0.0278492904850675 0.63564637619895
-0.128941754323965 0.0405935060318767 0.63564637619895
-0.135091714144939 0.0471648954332839 0.63564637619895
-0.143019369023046 0.0544170074867066 0.63564637619895
-0.15308352524236 0.0662323264618145 0.63564637619895
-0.168636887577321 0.0772426490497335 0.63564637619895
-0.182436986793987 0.0858774910563702 0.63564637619895
-0.188130537479129 0.0933969634220174 0.63564637619895
-0.198172307167612 0.100502843019302 0.63564637619895
-0.20203104119073 0.113650567878075 0.63564637619895
-0.206490687861514 0.120769247981973 0.63564637619895
-0.219668699763273 0.128047627111771 0.63564637619895
-0.236279211990944 0.143293516395966 0.63564637619895
-0.248859007912895 0.153778135916892 0.63564637619895
-0.257153562027577 0.157327026444259 0.63564637619895
-0.266503755086549 0.17398226646565 0.63564637619895
-0.275653431962358 0.187205988937952 0.63564637619895
-0.294226225545527 0.195082357798433 0.63564637619895
-0.311446712105786 0.216066468363478 0.63564637619895
-0.306885943480304 0.217991249227683 0.63564637619895
-0.329565974074712 0.235402618888896 0.63564637619895
-0.338662416310357 0.246558015096878 0.63564637619895
-0.341059511619967 0.250389079838089 0.63564637619895
-0.370523563574014 0.270469559637844 0.63564637619895
-0.371959228657185 0.28317404590459 0.63564637619895
-0.39144515550809 0.297752645675665 0.631200938678146
0.315985900315465 -0.391120880871083 0.615175852127502
0.309953226843997 -0.391983870113392 0.626967583913756
0.308266860206309 -0.391483487343618 0.627740716581142
0.30157008216333 -0.38241264717035 0.633315411463076
0.301052912296829 -0.381857429336757 0.633694557770475
0.296643970663783 -0.377761946240379 0.63564637619895
0.293151057955831 -0.373933149780819 0.63564637619895
0.286051551673507 -0.363709325182035 0.63564637619895
0.274620391430045 -0.361543956778371 0.63564637619895
0.264671516346717 -0.353606132558156 0.63564637619895
0.261397460555083 -0.349235222573098 0.63564637619895
0.257717538791071 -0.341689878960179 0.63564637619895
0.249285152048747 -0.334070396515392 0.63564637619895
0.246161920422573 -0.326339414089691 0.63564637619895
0.233519001485389 -0.320303384447467 0.63564637619895
0.223706989006986 -0.315322409392954 0.63564637619895
0.220928708353955 -0.302819739561645 0.63564637619895
0.213371234878675 -0.297529979249564 0.63564637619895
0.207609005741714 -0.297670351211286 0.63564637619895
0.193378102160645 -0.282380422139332 0.63564637619895
0.188957243149776 -0.274295530376871 0.63564637619895
0.179727016950818 -0.266294224121748 0.63564637619895
0.179713365681568 -0.269787931081611 0.63564637619895
0.174488450248979 -0.258345669065357 0.63564637619895
0.166398270093988 -0.253102440548923 0.63564637619895
0.152175215860581 -0.238424321821103 0.63564637619895
0.146780700108029 -0.231969515345301 0.63564637619895
0.138836970500201 -0.231867011014415 0.63564637619895
0.131370659840706 -0.215673291891871 0.63564637619895
0.124732886935403 -0.215726188017428 0.63564637619895
0.111143393706747 -0.205338759707972 0.63564637619895
0.103368808281153 -0.193775094433537 0.63564637619895
0.0975051508941333 -0.192992362033199 0.63564637619895
0.0858755655772978 -0.184234045689114 0.63564637619895
0.0788901589986369 -0.171182843442055 0.63564637619895
0.0693336034626855 -0.163243761798992 0.63564637619895
0.0676143405849633 -0.161063127694788 0.63564637619895
0.0587464190961438 -0.149574497441224 0.63564637619895
0.04964139108435 -0.142170037523212 0.63564637619895
0.0435455616492183 -0.139608458040195 0.63564637619895
0.0366804836012671 -0.125943060443253 0.63564637619895
0.0273250363173496 -0.116708409008471 0.63564637619895
0.0164789459512192 -0.116750885495512 0.63564637619895
0.00981741460084441 -0.0985690299316888 0.63564637619895
-0.00428935214573109 -0.0902106086318007 0.63564637619895
-0.015573813499811 -0.0803681713464239 0.63564637619895
-0.0158156185952786 -0.076238496002564 0.63564637619895
-0.0246283676320567 -0.075238845101933 0.63564637619895
-0.0393106558129186 -0.064084308447216 0.63564637619895
-0.0424918280723079 -0.0572582041506463 0.63564637619895
-0.0580431397479143 -0.0434440787045705 0.63564637619895
-0.0621775882196229 -0.0383379683119646 0.63564637619895
-0.0708251778240477 -0.0243445871851772 0.63564637619895
-0.0828895836342152 -0.022598355117403 0.63564637619895
-0.092420043738057 -0.0145597682616743 0.63564637619895
-0.109269224652859 0.00314816079112188 0.63564637619895
-0.113033943255422 0.0123093232601769 0.63564637619895
-0.112521891618083 0.0198035454957649 0.63564637619895
-0.137153351340642 0.0328152690904779 0.63564637619895
-0.146425835300047 0.0422656281425531 0.63564637619895
-0.156648652369551 0.0546885599368706 0.63564637619895
-0.158042402211972 0.0516174609774739 0.63564637619895
-0.172708630089234 0.069855765786676 0.63564637619895
-0.181698374061992 0.0802096077536243 0.63564637619895
-0.189052805356165 0.0834119351986929 0.63564637619895
-0.20450450706282 0.101044727006727 0.63564637619895
-0.207209599678197 0.107147340135364 0.63564637619895
-0.212645333346605 0.113880016236974 0.63564637619895
-0.231753251893937 0.122353244013545 0.63564637619895
-0.244112486561302 0.136019832895988 0.63564637619895
-0.253700855711917 0.148232447104343 0.63564637619895
-0.25923933060772 0.149925120306915 0.63564637619895
-0.282901901188135 0.173791927951721 0.63564637619895
-0.291309321552546 0.176331410294337 0.63564637619895
-0.306931625979778 0.190906524943758 0.63564637619895
-0.309584594323747 0.197962765506988 0.63564637619895
-0.328051451276197 0.215621552905755 0.63564637619895
-0.330003459259641 0.22763209081742 0.63564637619895
-0.349869954855744 0.232003744962434 0.63564637619895
-0.356797634726914 0.248853830840959 0.63564637619895
-0.363973827053701 0.25200060012618 0.63564637619895
-0.384493543561708 0.271530103489944 0.63564637619895
-0.38754730530796 0.279707182359217 0.63564637619895
0.306963005351895 -0.400125095418452 0.614086540726503
0.301854196239654 -0.398621409923379 0.627068141723318
0.304339234308037 -0.395454460329245 0.627725391071435
0.29635905282369 -0.395603619753093 0.629748669052688
0.292189084951242 -0.387488107886653 0.634305280741326
0.284137008440283 -0.384348768788461 0.63564637619895
0.285258368818515 -0.382720067502241 0.63564637619895
0.277304443706098 -0.371512343788406 0.63564637619895
0.267512751570114 -0.365059448689218 0.63564637619895
0.265683906719671 -0.35676271123031 0.63564637619895
0.253895508307577 -0.352483032440769 0.63564637619895
0.24911879739236 -0.339821994737747 0.63564637619895
0.242256808945507 -0.339039999073697 0.63564637619895
0.235398312610924 -0.337420790484213 0.63564637619895
0.227325310974597 -0.328847667635526 0.63564637619895
0.225341902827531 -0.3224888281415 0.63564637619895
0.216786728233256 -0.315290236687893 0.63564637619895
0.205694991092447 -0.303354168407634 0.63564637619895
0.193512270985612 -0.292186210346 0.63564637619895
0.188898679072453 -0.286646919621232 0.63564637619895
0.188735285824747 -0.287231808235678 0.63564637619895
0.175637005770321 -0.275277988445809 0.63564637619895
0.172667291710026 -0.276336108811983 0.63564637619895
0.163066928044241 -0.264252293799372 0.63564637619895
0.157136991061668 -0.256831115172364 0.63564637619895
0.152109484456039 -0.25241176638381 0.63564637619895
0.142253569249598 -0.240944882225597 0.63564637619895
0.134874213430301 -0.237037701082172 0.63564637619895
0.129274171767141 -0.233079078149146 0.63564637619895
0.12220197563437 -0.228167556679475 0.63564637619895
0.107575793051932 -0.206428498086293 0.63564637619895
0.096600436401723 -0.200415886833175 0.63564637619895
0.100038428629684 -0.205645054987355 0.63564637619895
0.0849410018021524 -0.191842069585093 0.63564637619895
0.0762668173989608 -0.184140019775537 0.63564637619895
0.0734396215510483 -0.176781209357727 0.63564637619895
0.0638934868626092 -0.167708950453338 0.63564637619895
0.0554888016486111 -0.166618598093472 0.63564637619895
0.0377627865297292 -0.154273278184336 0.63564637619895
0.0350895664324147 -0.147137925074068 0.63564637619895
0.032919985867701 -0.139052027256234 0.63564637619895
0.0202681943906514 -0.130777852203351 0.63564637619895
0.0152163832274943 -0.12734907287607 0.63564637619895
5.43460110122724e-005 -0.114123916076159 0.63564637619895
-0.00815603126770531 -0.107264544401861 0.63564637619895
-0.00942119278073664 -0.0992507361221899 0.63564637619895
-0.0281462742935217 -0.0826726642147387 0.63564637619895
-0.0337034964353242 -0.086598559045438 0.63564637619895
-0.0340281700439143 -0.0716881914520955 0.63564637619895
-0.0572472992774501 -0.0622930108173362 0.63564637619895
-0.0631581660059016 -0.0470368927011737 0.63564637619895
-0.0645783248660361 -0.0488045849835503 0.63564637619895
-0.0799727084593152 -0.0391667930524988 0.63564637619895
-0.0874112698470067 -0.0259369814777458 0.63564637619895
-0.0999831937855529 -0.0187696872856453 0.63564637619895
-0.105032258934863 -0.00585207658838523 0.63564637619895
-0.116763474309409 0.00591563355342355 0.63564637619895
-0.124296588890534 0.00742652753895798 0.63564637619895
-0.144994606447137 0.0206274072503417 0.63564637619895
-0.155886652160807 0.0351708594567049 0.63564637619895
-0.151973759828658 0.0396156024901252 0.63564637619895
-0.166145113288068 0.0443718544884619 0.63564637619895
-0.171369706175011 0.0582729214335979 0.63564637619895
-0.184753773703479 0.0675867306153145 0.63564637619895
-0.192778989355571 0.0739075156912672 0.63564637619895
-0.207777235811871 0.0806615917066331 0.63564637619895
-0.217846235029256 0.0986236640209053 0.63564637619895
-0.232722756185611 0.115338123766134 0.63564637619895
-0.235259488331144 0.112089284593616 0.63564637619895
-0.2481176918867 0.128244434800207 0.63564637619895
-0.25952179531658 0.138151489611154 0.63564637619895
-0.271642274117922 0.152565070791331 0.63564637619895
-0.284182963278418 0.151786726628706 0.63564637619895
-0.288667479492164 0.165590191186297 0.63564637619895
-0.310541109376587 0.18375826005962 0.63564637619895
-0.311634638031525 0.192536360263009 0.63564637619895
-0.329389962603382 0.204017470859513 0.63564637619895
-0.344769181142975 0.217706444966179 0.63564637619895
-0.350761423581249 0.228793766758772 0.63564637619895
-0.366828741335953 0.242301642567714 0.63564637619895
-0.375564059890838 0.244674638245101 0.63564637619895
-0.392728996784816 0.262205833398253 0.63564637619895
0.299686474569707 -0.404326202424316 0.616534842681067
0.299441475646314 -0.404467652618687 0.619987101693048
0.296877253485008 -0.399194712859478 0.628064129958617
0.28722918627513 -0.394616455535657 0.632458590334832
0.288015644097653 -0.390094676352941 0.634219963700469
0.283131729328027 -0.389731918089362 0.635598021328722
0.269097578276953 -0.378022086995819 0.63564637619895
0.269068424430379 -0.37741574686638 0.63564637619895
0.256873964764486 -0.372270744415181 0.63564637619895
0.252188199520593 -0.364146085164433 0.63564637619895
0.243445568886865 -0.359443529250352 0.63564637619895
0.242244527499302 -0.349099363809033 0.63564637619895
0.234565056139852 -0.342468211147081 0.63564637619895
0.234286281166615 -0.340184771672316 0.63564637619895
0.221426872976299 -0.32671023611132 0.63564637619895
0.213171343221544 -0.325212351512186 0.63564637619895
0.20742306518996 -0.320043760031668 0.63564637619895
0.204022801969557 -0.314634817495372 0.63564637619895
0.192331531656221 -0.311047072214321 0.63564637619895
0.17952024784654 -0.296649621276176 0.63564637619895
0.178628561300646 -0.294260759657066 0.63564637619895
0.165867203793825 -0.283712598510489 0.63564637619895
0.158424660712113 -0.276629956143012 0.63564637619895
0.15852092342663 -0.268227074718885 0.63564637619895
0.145584455447565 -0.264870445338697 0.63564637619895
0.14369994801483 -0.255239974822464 0.63564637619895
0.134385933558515 -0.250525555008354 0.63564637619895
0.131855856652482 -0.241505154157829 0.63564637619895
0.117998279654196 -0.232734888263687 0.63564637619895
0.103698568845915 -0.22859789627305 0.63564637619895
0.100237052364756 -0.225030702915733 0.63564637619895
0.10112601123158 -0.215251091192774 0.63564637619895
0.0892134720801364 -0.207000087998747 0.63564637619895
0.0740448664775124 -0.194939514612782 0.63564637619895
0.0694312689264218 -0.186243825825278 0.63564637619895
0.0670787300045046 -0.179892972399852 0.63564637619895
0.0587606238581489 -0.174692982084169 0.63564637619895
0.0540131609036196 -0.165900360520038 0.63564637619895
0.0352968886808797 -0.159498569165015 0.63564637619895
0.0266601342133663 -0.14880266953062 0.63564637619895
0.0251678363993034 -0.146693292024168 0.63564637619895
0.0189975062703094 -0.143426731360226 0.63564637619895
0.00445474551411282 -0.12726573173099 0.63564637619895
-0.0079768505424002 -0.120722565699626 0.63564637619895
-0.0214397385794523 -0.108233218442678 0.63564637619895
-0.0190249226126416 -0.0980454250243821 0.63564637619895
-0.0317012656945535 -0.0959199214424442 0.63564637619895
-0.0415900343376537 -0.0866997577984591 0.63564637619895
-0.0534100200978453 -0.0704769974266731 0.63564637619895
-0.056502948712914 -0.0753107048470217 0.63564637619895
-0.0621406673455504 -0.0642803715829172 0.63564637619895
-0.0759715218148962 -0.0464426323587647 0.63564637619895
-0.0823267387815261 -0.0462249216259574 0.63564637619895
-0.0940398887954991 -0.0352165163322531 0.63564637619895
-0.1110394551045 -0.0252834124455602 0.63564637619895
-0.122819060938139 -0.014802664926735 0.63564637619895
-0.121989586469944 -0.00271086546845953 0.63564637619895
-0.133768785412343 0.00590996517510412 0.63564637619895
-0.141394655568319 0.0154530181188389 0.63564637619895
-0.157170218644752 0.0303112675644815 0.63564637619895
-0.155889706889649 0.0294837243528106 0.63564637619895
-0.173141116721395 0.0433630513486942 0.63564637619895
-0.185001626367473 0.0493717241806443 0.63564637619895
-0.196192737144871 0.0664119214225796 0.63564637619895
-0.196226352990889 0.0682717576380453 0.63564637619895
-0.218616780798773 0.0868469899589395 0.63564637619895
-0.225421846727061 0.0911377787538437 0.63564637619895
-0.243081089802916 0.10418680860325 0.63564637619895
-0.244252542526487 0.105790961836623 0.63564637619895
-0.26139691256063 0.116255856871216 0.63564637619895
-0.266520941134371 0.132785329549049 0.63564637619895
-0.285679503054589 0.139563375031331 0.63564637619895
-0.293415054462963 0.160498233392669 0.63564637619895
-0.306240102960882 0.160453526011986 0.63564637619895
-0.318440576681684 0.166527536290002 0.63564637619895
-0.325567218085488 0.183177842458172 0.63564637619895
-0.343332931668104 0.195364215551582 0.63564637619895
-0.352747759882177 0.203959519671002 0.63564637619895
-0.372374933057132 0.224088197781809 0.63564637619895
-0.374402681368523 0.232775458502115 0.63564637619895
-0.387157555580228 0.238222168281544 0.63564637619895
-0.403778473971482 0.251392353156513 0.63564637619895
-0.418948522363639 0.274359873510271 0.625158973522047
0.291519174811697 -0.409041595138155 0.612240515817432
0.295686768684518 -0.406635433693808 0.613326996462681
0.290587348889469 -0.407705019319076 0.6259515353135
0.286103797814932 -0.412168164505001 0.624165945448259
0.281802657782912 -0.400284750000247 0.631360778956654
0.285358843965061 -0.39637372176599 0.632165257314009
0.27933515500494 -0.392442955485662 0.635373251281591
0.269128336486225 -0.387881678046993 0.63564637619895
0.260433520659558 -0.38248903074481 0.63564637619895
0.25394714509911 -0.381394398096295 0.63564637619895
0.252213346605168 -0.370894686736967 0.63564637619895
0.240842787267716 -0.362887614210672 0.63564637619895
0.238983258326566 -0.360520233261757 0.63564637619895
0.234787604224588 -0.357148026865371 0.63564637619895
0.223485596934001 -0.341503107457128 0.63564637619895
0.219523043429016 -0.343707308766564 0.63564637619895
0.214058699084162 -0.337086367937649 0.63564637619895
0.199228575733018 -0.318108765233843 0.63564637619895
0.194064498952485 -0.311666589886232 0.63564637619895
0.187323651099891 -0.316126694895324 0.63564637619895
0.184717080218984 -0.311512978715031 0.63564637619895
0.171847134231153 -0.29670922606795 0.63564637619895
0.160640012957795 -0.288469435551677 0.63564637619895
0.153306230807589 -0.284491966450456 0.63564637619895
0.149514967699865 -0.278159204535211 0.63564637619895
0.146564422814729 -0.268931131817951 0.63564637619895
0.132624829426282 -0.262124501835145 0.63564637619895
0.134277336274753 -0.258716398464267 0.63564637619895
0.118857523515852 -0.246879286058582 0.63564637619895
0.10786558160284 -0.239396021283987 0.63564637619895
0.110012827458981 -0.241266783858927 0.63564637619895
0.094969660687456 -0.228547846359777 0.63564637619895
0.0928833856935227 -0.214834359360536 0.63564637619895
0.0803357421971333 -0.218529916806123 0.63564637619895
0.0691764282838033 -0.207319393577707 0.63564637619895
0.0667016263529059 -0.192997445891817 0.63564637619895
0.0646107945433284 -0.193164008822596 0.63564637619895
0.0455069202589797 -0.182785056155435 0.63564637619895
0.033941061831771 -0.168781304499851 0.63564637619895
0.0365719465575175 -0.16911003685982 0.63564637619895
0.0188501739940164 -0.154057473645167 0.63564637619895
0.00555404414963383 -0.147493829259468 0.63564637619895
0.00520824451677469 -0.139132894596587 0.63564637619895
-0.00938939654345288 -0.128173793412264 0.63564637619895
-0.0154221499538676 -0.122935680652153 0.63564637619895
-0.0175835118082828 -0.123511437584441 0.63564637619895
-0.0271258728830778 -0.108374344420701 0.63564637619895
-0.039532265750092 -0.105333250152735 0.63564637619895
-0.0484069776265666 -0.0902176510869214 0.63564637619895
-0.0517851482022053 -0.087249285491041 0.63564637619895
-0.0611467381058196 -0.0767378803493941 0.63564637619895
-0.0750709524329459 -0.0709380351192977 0.63564637619895
-0.0890834502802133 -0.0585078741314511 0.63564637619895
-0.0963100379197018 -0.0515610224338244 0.63564637619895
-0.110962333247723 -0.0347794258104977 0.63564637619895
-0.109766479508691 -0.0328623285951752 0.63564637619895
-0.120308718047721 -0.0184738600748614 0.63564637619895
-0.13341021382839 -0.00595486503634646 0.63564637619895
-0.146298226615948 -0.00657071161859308 0.63564637619895
-0.152036993965668 0.00380965672931377 0.63564637619895
-0.155653977323866 0.0161093037182553 0.63564637619895
-0.173723839417614 0.0207038908638902 0.63564637619895
-0.180593945046108 0.0349151707722056 0.63564637619895
-0.190013464128523 0.0442607581354337 0.63564637619895
-0.204566488450553 0.0503311333710653 0.63564637619895
-0.218484389396453 0.0678343957007445 0.63564637619895
-0.22154712808127 0.0666966571595735 0.63564637619895
-0.233465036580264 0.0858608933675349 0.63564637619895
-0.240260047568712 0.0896022672570115 0.63564637619895
-0.258599301400744 0.100078426278389 0.63564637619895
-0.27516936878782 0.116440243165974 0.63564637619895
-0.275116588459444 0.11346310899008 0.63564637619895
-0.296011643697406 0.140837878832102 0.63564637619895
-0.300284700035849 0.145010964951218 0.63564637619895
-0.304157404928495 0.148258296720642 0.63564637619895
-0.32872071924485 0.162857919300614 0.63564637619895
-0.338871337037968 0.181657894563729 0.63564637619895
-0.348589547288785 0.189525090653206 0.63564637619895
-0.361318946564284 0.205519762349919 0.63564637619895
-0.375075754114607 0.209198844041655 0.63564637619895
-0.388387130169728 0.221829596274933 0.63564637619895
-0.396002379820497 0.223690481339335 0.63564637619895
-0.401135618603108 0.245849754437019 0.63564637619895
0.281988078754795 -0.414544376012279 0.614861994073718
0.283608814735153 -0.413608643657734 0.615566767315626
0.279617331986427 -0.415097777823479 0.625492881204833
0.276155495610558 -0.404901977522556 0.630773251335056
0.276815395031052 -0.409401294122663 0.628660015242252
0.270671808637052 -0.400579142885967 0.634016015384255
0.265507684407023 -0.399013129227107 0.63564637619895
0.258147446634171 -0.391778509562919 0.63564637619895
0.251974482904022 -0.380943231170862 0.63564637619895
0.238118430619809 -0.371516350167306 0.63564637619895
0.237482901613963 -0.368601225986632 0.63564637619895
0.226845279728216 -0.365849508615808 0.63564637619895
0.226477395989542 -0.364053104394425 0.63564637619895
0.213287853207768 -0.350293730397406 0.63564637619895
0.202080900159569 -0.344275195494326 0.63564637619895
0.200219632585586 -0.334690228262904 0.63564637619895
0.198339381179179 -0.32771960499342 0.63564637619895
0.184904462155372 -0.329703629941793 0.63564637619895
0.176735196464627 -0.316607778553302 0.63564637619895
0.170809390433267 -0.315419538362654 0.63564637619895
0.168301991131362 -0.305817950946833 0.63564637619895
0.159913190106327 -0.293456171570871 0.63564637619895
0.156958837316926 -0.292915861016448 0.63564637619895
0.141433712967069 -0.28807024736759 0.63564637619895
0.134802989443806 -0.278722471738795 0.63564637619895
0.130270948156147 -0.273036108112879 0.63564637619895
0.118659720303758 -0.261771155644382 0.63564637619895
0.116658258005497 -0.25372874916236 0.63564637619895
0.105835891861706 -0.253453354962385 0.63564637619895
0.0906978001251166 -0.235799800407961 0.63564637619895
0.0928396624188718 -0.235881250870841 0.63564637619895
0.0840387960340196 -0.226120093490225 0.63564637619895
0.0746097686699662 -0.212260491860834 0.63564637619895
0.0634695785330514 -0.214606470747456 0.63564637619895
0.0609296836495987 -0.206034429397858 0.63564637619895
0.0528487313477479 -0.19230347770643 0.63564637619895
0.0436734472299531 -0.193065536920144 0.63564637619895
0.0335801075994238 -0.187297789883246 0.63564637619895
0.0213342199586589 -0.172799470018063 0.63564637619895
0.00768530295318751 -0.156672109415753 0.63564637619895
0.0127197335579271 -0.1612958165053 0.63564637619895
-0.00176754601077383 -0.140823767745442 0.63564637619895
-0.0107691311470926 -0.138350227652938 0.63564637619895
-0.0177486427398387 -0.137442130647464 0.63564637619895
-0.0264891223636939 -0.12367623699538 0.63564637619895
-0.0301863914836415 -0.122358307538584 0.63564637619895
-0.0439874571804378 -0.115305213614928 0.63564637619895
-0.0575508958148564 -0.100020086359971 0.63564637619895
-0.0650712366557008 -0.092577529134041 0.63564637619895
-0.072435937304714 -0.0839107092808245 0.63564637619895
-0.0761279599940151 -0.0740808993147819 0.63564637619895
-0.0845484762660875 -0.0719966834709497 0.63564637619895
-0.0972795705342124 -0.060284949590682 0.63564637619895
-0.106323845093081 -0.0462216305492785 0.63564637619895
-0.120231278908005 -0.0405224309860359 0.63564637619895
-0.125768740899141 -0.032785342861902 0.63564637619895
-0.142982154665246 -0.0146587595000417 0.63564637619895
-0.149577092364232 -0.00906480516611599 0.63564637619895
-0.160527285669096 -0.00136884739683143 0.63564637619895
-0.16354756505467 0.00542196044826098 0.63564637619895
-0.180311968088452 0.0170015508232668 0.63564637619895
-0.191750975424003 0.0272108421745012 0.63564637619895
-0.204286063931972 0.0403626533701454 0.63564637619895
-0.205851683338746 0.0406617047967543 0.63564637619895
-0.213664142832357 0.0506472645140796 0.63564637619895
-0.225793584577319 0.0664292318605203 0.63564637619895
-0.238401139533935 0.0678593825995071 0.63564637619895
-0.250494863777051 0.0834449610886545 0.63564637619895
-0.269074327602801 0.0974230558719154 0.63564637619895
-0.273598344684307 0.111999887983271 0.63564637619895
-0.287197191867282 0.112413442598239 0.63564637619895
-0.295254184232164 0.121114711236108 0.63564637619895
-0.304243538249582 0.138663295006998 0.63564637619895
-0.321308092023395 0.140129501273422 0.63564637619895
-0.337009918360546 0.15696373384939 0.63564637619895
-0.346511067795173 0.167497928234013 0.63564637619895
-0.352706561185971 0.174534097124932 0.63564637619895
-0.368199904379045 0.195018705320931 0.63564637619895
-0.380936619554699 0.195722499154116 0.63564637619895
-0.38327163689868 0.208624780839075 0.63564637619895
-0.410461332170898 0.225800989853233 0.63564637619895
-0.418966202694335 0.242470882658951 0.633104416431305
0.27804116559624 -0.416823127386839 0.611145941032595
0.277121404763073 -0.417354151551458 0.622386360821739
0.276040192198596 -0.41797838991661 0.622691362500936
0.273033110853622 -0.410800572309401 0.628999681058271
0.267600088642704 -0.407323635011547 0.631863494624654
0.267176245220529 -0.404844871249013 0.633042791674365
0.256078605586197 -0.400902644322957 0.63564637619895
0.251599313925853 -0.394993738294171 0.63564637619895
0.245821082673321 -0.387511693794154 0.63564637619895
0.236128208594728 -0.380994192231128 0.63564637619895
0.233060616114465 -0.38316842207903 0.63564637619895
0.220002934471389 -0.372799645685019 0.63564637619895
0.219229283785327 -0.35803579825085 0.63564637619895
0.209990807897377 -0.353712013664398 0.63564637619895
0.203576083048246 -0.344302850911512 0.63564637619895
0.19590910080701 -0.349942067292212 0.63564637619895
0.182204642808942 -0.335259640848052 0.63564637619895
0.179411432822131 -0.333243839731952 0.63564637619895
0.182330139332396 -0.327574721173811 0.63564637619895
0.167099659029342 -0.3185186759708 0.63564637619895
0.156975771717847 -0.309990523037726 0.63564637619895
0.150956935470851 -0.307761919419884 0.63564637619895
0.145408665088149 -0.29708433711258 0.63564637619895
0.134107519148634 -0.285626593604177 0.63564637619895
0.138109299303754 -0.283417780848272 0.63564637619895
0.119171598648416 -0.270409711431168 0.63564637619895
0.117555944403219 -0.274192852781975 0.63564637619895
0.109450553556918 -0.267851491912302 0.63564637619895
0.103529679466493 -0.259361065152253 0.63564637619895
0.0916723163530657 -0.249415057415102 0.63564637619895
0.0887527677857802 -0.243342880685002 0.63564637619895
0.0764728421880197 -0.235925393704236 0.63564637619895
0.0761891401441065 -0.226285452441476 0.63564637619895
0.0544904163998905 -0.219791462071302 0.63564637619895
0.0554465778952836 -0.214607801645228 0.63564637619895
0.0420935896411928 -0.205160661746577 0.63564637619895
0.0352655387956331 -0.19556990231022 0.63564637619895
0.0279299283092341 -0.187636169211954 0.63564637619895
0.0129721524546028 -0.179644749635624 0.63564637619895
0.00639811845509785 -0.16756057396291 0.63564637619895
-0.00413077631951515 -0.165419963485558 0.63564637619895
-0.00771610551017415 -0.1636672121768 0.63564637619895
-0.0199678797006649 -0.148351014325354 0.63564637619895
-0.0176413544920073 -0.144759585370888 0.63564637619895
-0.036149959695104 -0.133190525561014 0.63564637619895
-0.0507144708614247 -0.119780895211775 0.63564637619895
-0.0488731474708633 -0.111905161579033 0.63564637619895
-0.0666674096478549 -0.102183904636225 0.63564637619895
-0.0661835640303488 -0.101035020864864 0.63564637619895
-0.0766774900264136 -0.0910469095183695 0.63564637619895
-0.0831233774510244 -0.0808366598732661 0.63564637619895
-0.0981640355920887 -0.0712069788923802 0.63564637619895
-0.1062518280352 -0.0673645139571464 0.63564637619895
-0.11223577954377 -0.0582003673127903 0.63564637619895
-0.132108972742822 -0.0367683008076016 0.63564637619895
-0.135350462412281 -0.0444659560158446 0.63564637619895
-0.143684769239823 -0.0314342125980279 0.63564637619895
-0.155317524497143 -0.0198455325274815 0.63564637619895
-0.165945491419255 -0.0100870972836573 0.63564637619895
-0.178875432201709 0.00497551614479572 0.63564637619895
-0.187478483635218 0.00938211700724367 0.63564637619895
-0.195506355347398 0.0130517061243309 0.63564637619895
-0.20571013193477 0.0214911375322776 0.63564637619895
-0.218626294450951 0.0359631092995341 0.63564637619895
-0.231151108946396 0.0438599964650061 0.63564637619895
-0.234357547397382 0.055501330272171 0.63564637619895
-0.252664626327529 0.0660147547580834 0.63564637619895
-0.256649569026877 0.0833259710573109 0.63564637619895
-0.270004573221577 0.0942702561150497 0.63564637619895
-0.290374559512253 0.0967212523869556 0.63564637619895
-0.291271291817624 0.106214549654558 0.63564637619895
-0.306498790809427 0.121149189352876 0.63564637619895
-0.31049846414191 0.128435903948752 0.63564637619895
-0.330665736545759 0.139644814213013 0.63564637619895
-0.339013357954611 0.148317697633015 0.63564637619895
-0.348889619953771 0.161024194030094 0.63564637619895
-0.369587699985232 0.177102456682854 0.63564637619895
-0.374176991261676 0.18130986246461 0.63564637619895
-0.386492985564959 0.19485073102536 0.63564637619895
-0.400102132338078 0.208236422622476 0.63564637619895
-0.409871387205974 0.218164847654197 0.63564637619895
0.266876833199539 -0.423268857701397 0.61002260054752
0.265335269296561 -0.424158880035754 0.615672059671889
0.267179026385876 -0.423094386383917 0.621763110280124
0.268512002155134 -0.419060905905132 0.626553128864074
0.263978819192899 -0.417885344345005 0.628195457692024
0.255601418646497 -0.414687947873862 0.631674321113615
0.253000706545693 -0.405516833416822 0.63564637619895
0.243489456893021 -0.401198554388307 0.63564637619895
0.241875551600124 -0.396947409745538 0.63564637619895
0.231518748956859 -0.394176709049849 0.63564637619895
0.226976258970296 -0.381470528565976 0.63564637619895
0.218404404618977 -0.382448583224613 0.63564637619895
0.210595306319563 -0.367436209698702 0.63564637619895
0.204704742601766 -0.370235453835997 0.63564637619895
0.197330692979956 -0.352518733071938 0.63564637619895
0.18996430378064 -0.353003796081834 0.63564637619895
0.185904076907607 -0.343578801269234 0.63564637619895
0.173127989312997 -0.334598400615242 0.63564637619895
0.167412424122386 -0.333201463877332 0.63564637619895
0.161939304726903 -0.325512557690521 0.63564637619895
0.15049065885602 -0.317283743158574 0.63564637619895
