ply
format ascii 1.0
element vertex 858
property float x
property float y
property float z
end_header
-0.366640745293004 0.0205847441285831 0.416666666666667
-0.35344342550886 0.0332137111026346 0.416666666666666
-0.35702900497209 0.0375042058952074 0.416666666666667
-0.350922682941279 0.0455217061389425 0.416666666666667
-0.339312753386906 0.0568961938927069 0.416666666666667
-0.341349593659357 0.0596902235068171 0.416666666666666
-0.33360591028231 0.0690611615165267 0.416666666666667
-0.322354432148061 0.0868848478780951 0.416666666666667
-0.31537395468877 0.0837654550009864 0.416666666666667
-0.303874770892749 0.0920434650985345 0.416666666666667
-0.307260636378186 0.10516155369038 0.416666666666667
-0.291990926531055 0.11106847562159 0.416666666666667
-0.285721603965139 0.120360820383167 0.416666666666666
-0.282112322740978 0.124489264276029 0.416666666666667
-0.268842794956603 0.141532350675105 0.416666666666667
-0.26823521873114 0.151879236882361 0.416666666666667
-0.262196147149917 0.155110485346662 0.416666666666666
-0.252563626332062 0.164385950484805 0.416666666666666
-0.246242758776075 0.166085017027731 0.416666666666667
-0.234866181532268 0.182859117684703 0.416666666666667
-0.224900313606323 0.193105745482459 0.416666666666666
-0.224772340228298 0.199871650394417 0.416666666666667
-0.21955440236227 0.200710407709558 0.416666666666667
-0.205952139964054 0.217917394024201 0.416666666666667
-0.204348090435045 0.227682107600106 0.416666666666666
-0.197114513601288 0.239912862451328 0.416666666666667
-0.188482800352544 0.245003648597485 0.416666666666667
-0.18116393910484 0.254304332898514 0.416666666666667
-0.180216439507208 0.254231186756435 0.416666666666667
-0.486776352683879 -0.10937475578325 0.416666666666667
-0.487762440766106 -0.111962589116467 0.416666666666667
-0.473587512030275 -0.0934224968896706 0.416666666666667
-0.477450002866389 -0.0931337585244903 0.416666666666667
-0.471290673848484 -0.0830688050953371 0.416666666666667
-0.461923902748592 -0.0828083956812574 0.416666666666666
-0.455393662476147 -0.0686936511998847 0.416666666666667
-0.446784910570822 -0.0679074952503599 0.416666666666667
-0.445365914449673 -0.0593876631496294 0.416666666666667
-0.440456553386639 -0.0482167662421242 0.416666666666667
-0.431614956163313 -0.0377154106316717 0.416666666666667
-0.422051380201964 -0.0340462607293097 0.416666666666667
-0.416807193566862 -0.0255145459250312 0.416666666666667
-0.41365381046634 -0.0213874749849613 0.416666666666666
-0.412311885707456 -0.0149319878864909 0.416666666666667
-0.397838144206536 -0.00519200219255496 0.416666666666667
-0.394971000407402 0.00485924099442254 0.416666666666667
-0.391470670303124 0.0133497454082132 0.416666666666666
-0.389421209571939 0.0132259752761454 0.416666666666667
-0.374090007096099 0.0238394575110193 0.416666666666667
-0.375440559579903 0.0264417452655927 0.416666666666667
-0.371034455838985 0.0366815114308146 0.416666666666667
-0.359590669367536 0.0446327342368623 0.416666666666667
-0.35342150086532 0.052367202503094 0.416666666666666
-0.348088852794092 0.0593442641600956 0.416666666666667
-0.345769376032585 0.0724190243194173 0.416666666666666
-0.332842679699798 0.0818102683466364 0.416666666666667
-0.332053329007609 0.0855889588160105 0.416666666666667
-0.317418398009163 0.0920903611605804 0.416666666666667
-0.318236748738152 0.0994040292361903 0.416666666666667
-0.305942306901884 0.110007655443084 0.416666666666667
-0.299896666106405 0.11717704900227 0.416666666666667
-0.294471061879992 0.126456341572578 0.416666666666667
-0.286555744515437 0.131429422733655 0.416666666666667
-0.276559547527375 0.139467335098189 0.416666666666667
-0.273647298045527 0.154647655203303 0.416666666666667
-0.273417769858908 0.16030942942652 0.416666666666667
-0.259574161988482 0.173730658268072 0.416666666666667
-0.250006362465463 0.182990372458822 0.416666666666667
-0.247171106234166 0.186406937919512 0.416666666666667
-0.231214620990527 0.197614032959452 0.416666666666667
-0.237460752802598 0.201794188756498 0.416666666666667
-0.22456288539857 0.213314581118271 0.416666666666667
-0.21690261388154 0.230064759353323 0.416666666666667
-0.209594389840274 0.226625253449454 0.416666666666667
-0.203751475522338 0.243223801653495 0.416666666666667
-0.195314411746761 0.243319080986373 0.416666666666667
-0.192664240221064 0.253477246195556 0.416666666666667
-0.180844485770777 0.270224543403484 0.416666666666667
-0.49368185150921 -0.111011241648866 0.416666666666667
-0.489425786399883 -0.102380342459585 0.416666666666667
-0.487283904909587 -0.0975053981552555 0.416666666666667
-0.473323880772081 -0.0834678807217595 0.416666666666667
-0.475514832326038 -0.0750177139942057 0.416666666666667
-0.463409078891321 -0.0662401232264732 0.416666666666667
-0.460452239153169 -0.0687164653324858 0.416666666666667
-0.46072959714416 -0.062766947305408 0.416666666666667
-0.451596480232246 -0.051119509403952 0.416666666666667
-0.447267880587061 -0.0411614363331831 0.416666666666667
-0.437478117992692 -0.0384428928062825 0.416666666666667
-0.434601458128649 -0.0305513895936115 0.416666666666667
-0.422782887131814 -0.0187355307053235 0.416666666666667
-0.424499753816779 -0.0128543090810799 0.416666666666667
-0.41704136592249 -0.00367410544267063 0.416666666666667
-0.413848176204978 -0.00782616053954869 0.416666666666667
-0.39875730754379 0.00622755489812001 0.416666666666666
-0.400218723555469 0.0104865095560109 0.416666666666667
-0.390106211241185 0.0230560222904036 0.416666666666667
-0.383460680220121 0.0277085281917545 0.416666666666667
-0.373627405905541 0.0398940578993167 0.416666666666667
-0.373882818211413 0.0410986443780621 0.416666666666667
-0.363385635352072 0.0530749834481819 0.416666666666667
-0.359381674409692 0.063517642851063 0.416666666666666
-0.360225483579103 0.0614253372368341 0.416666666666667
-0.351914818291363 0.0766066532022801 0.416666666666666
-0.33540646391764 0.0861501255691329 0.416666666666667
-0.333736101049449 0.0914921219486286 0.416666666666667
-0.330758329602324 0.104762681708273 0.416666666666667
-0.32395471360894 0.114056736444756 0.416666666666667
-0.314805145248609 0.109602096403501 0.416666666666667
-0.310235938976162 0.128369244900104 0.416666666666667
-0.300112105576196 0.136249936260082 0.416666666666667
-0.293064102234297 0.143250884461764 0.416666666666667
-0.290927429525158 0.155405113949789 0.416666666666667
-0.285475250355695 0.155693522629369 0.416666666666666
-0.277026226304349 0.162003712365454 0.416666666666667
-0.265338582430102 0.171771203125543 0.416666666666667
-0.258469157376281 0.190231520886567 0.416666666666667
-0.259111176668366 0.193631280035909 0.416666666666667
-0.244666545322517 0.202780491321391 0.416666666666667
-0.243601435821977 0.211966500108378 0.416666666666667
-0.232336690637699 0.216333817006799 0.416666666666667
-0.218456870039241 0.227270076965681 0.416666666666667
-0.212743916060042 0.238555926648955 0.416666666666667
-0.206340379150918 0.250739527497354 0.416666666666667
-0.202876162279018 0.256060820195631 0.416666666666667
-0.200971863259701 0.26431620000308 0.416666666666667
-0.5 -0.0955947671045216 0.413468965037964
-0.493678115125361 -0.0970407454300707 0.416666666666667
-0.490746486394387 -0.0923488219009039 0.416666666666667
-0.487580013990058 -0.0832989051349276 0.416666666666667
-0.479019231461796 -0.0654374186805133 0.416666666666667
-0.472695833084761 -0.0658914582907762 0.416666666666667
-0.468962400089694 -0.0579351356385961 0.416666666666667
-0.460947958187437 -0.0541822656273465 0.416666666666667
-0.4551575217489 -0.0432623005147905 0.416666666666666
-0.449245573567618 -0.0337497883012686 0.416666666666667
-0.443904395817371 -0.0337864818462447 0.416666666666667
-0.439215115603569 -0.02688597853035 0.416666666666666
-0.435849744852024 -0.019308177144487 0.416666666666667
-0.430974529102148 -0.0076110461855146 0.416666666666667
-0.423007253445736 0.00289509106207928 0.416666666666666
-0.420087837212228 0.00072316089514992 0.416666666666667
-0.414170809156877 0.0137266324076868 0.416666666666667
-0.404350773741539 0.0247622411504255 0.416666666666667
-0.402285035864703 0.0211894195204308 0.416666666666667
-0.393614580731934 0.0313401222337414 0.416666666666667
-0.382700939076937 0.0437975453820053 0.416666666666667
-0.381091484204171 0.0532289262844237 0.416666666666667
-0.37810519163372 0.0530386973491595 0.416666666666667
-0.365563535298306 0.0681601020185102 0.416666666666667
-0.360896055872949 0.0769501776410547 0.416666666666666
-0.352929025137258 0.0880142906193686 0.416666666666667
-0.351175402987322 0.0848967830678946 0.416666666666667
-0.34721399722875 0.094447689903703 0.416666666666667
-0.331623637424958 0.109824421716201 0.416666666666666
-0.328383782741215 0.117800144453977 0.416666666666667
-0.324074723504072 0.125796158999057 0.416666666666667
-0.316027473074356 0.127415556788399 0.416666666666667
-0.307351982189853 0.142380025323419 0.416666666666666
-0.301636578898251 0.146953767292005 0.416666666666667
-0.292814254566872 0.161929176447141 0.416666666666667
-0.286096441316637 0.167746991311721 0.416666666666667
-0.283921005615698 0.177836966340764 0.416666666666667
-0.272916152777124 0.17731816505888 0.416666666666667
-0.265931766355225 0.198542603256853 0.416666666666667
-0.259660268658907 0.202306018824578 0.416666666666667
-0.246040001285877 0.207791319130566 0.416666666666667
-0.247974751903227 0.212111893387025 0.416666666666667
-0.239213937948032 0.231152180250058 0.416666666666667
-0.232831846204293 0.231513780083213 0.416666666666667
-0.223480235330774 0.244181627232973 0.416666666666667
-0.214420267856099 0.256970339820628 0.416666666666666
-0.215009533520791 0.257308391973198 0.416666666666667
-0.205485403066593 0.270833333333333 0.416677789829601
-0.5 -0.0846184415364209 0.408161505139717
-0.5 -0.0819151900677289 0.410035843975826
-0.493133441963078 -0.0830262654130134 0.416666666666667
-0.489200318917497 -0.0725320194929382 0.416666666666667
-0.488271556725846 -0.0736459174198788 0.416666666666667
-0.482585957155176 -0.0613210498544327 0.416666666666667
-0.480797119094142 -0.0522315022231709 0.416666666666666
-0.470620007002993 -0.0487681002486903 0.416666666666667
-0.467899988327388 -0.0362630230381377 0.416666666666667
-0.453272882368613 -0.0311458697760789 0.416666666666667
-0.454930488567312 -0.0274573202899735 0.416666666666666
-0.441330051155063 -0.0201149419906027 0.416666666666667
-0.445774139483715 -0.0103736701753733 0.416666666666667
-0.429893366369601 0.00088405286625956 0.416666666666667
-0.432778097726896 0.00190854171509705 0.416666666666667
-0.422741163094343 0.015510372161208 0.416666666666667
-0.412819187072625 0.025044921591994 0.416666666666667
-0.406809535834522 0.0344411221719923 0.416666666666667
-0.404755388885786 0.0348094397906206 0.416666666666667
-0.398404933949754 0.0408522908678203 0.416666666666667
-0.393882329636891 0.0545039649750151 0.416666666666666
-0.386623955703167 0.0590949424778369 0.416666666666667
-0.383472574643538 0.0640095698998056 0.416666666666667
-0.374191590175489 0.0694301626257795 0.416666666666667
-0.369073942834131 0.0793521912869525 0.416666666666667
-0.364348390652693 0.0830324404980847 0.416666666666667
-0.354264077889971 0.104022094150091 0.416666666666667
-0.352186331276013 0.106818740469082 0.416666666666667
-0.345707456672161 0.108432656035271 0.416666666666666
-0.331386146312119 0.124120215974363 0.416666666666667
-0.323724862558428 0.130243887110871 0.416666666666666
-0.321251317878979 0.135790065391987 0.416666666666667
-0.311658185956358 0.141794021884646 0.416666666666667
-0.312101869257588 0.152102731192793 0.416666666666667
-0.304124263728913 0.161404098597855 0.416666666666667
-0.294381119994315 0.169608212884067 0.416666666666667
-0.290015011888333 0.186714893166313 0.416666666666667
-0.2798232301588 0.186080525360731 0.416666666666667
-0.272259681245562 0.204643581627653 0.416666666666667
-0.265036562489329 0.203749737848621 0.416666666666666
-0.260089729116171 0.217787330133252 0.416666666666666
-0.250126719779052 0.231882460385546 0.416666666666667
-0.245255106629618 0.233229795776383 0.416666666666667
-0.240094814571218 0.237427726957418 0.416666666666667
-0.234067743077554 0.253415584011386 0.416666666666667
-0.225495947241783 0.260077619178873 0.416666666666667
-0.212778654706392 0.270338195185508 0.416666666666667
-0.486111111111111 -0.0566514182351098 0.375032238193045
-0.500023647119129 -0.0698909373557089 0.402777777777778
-0.497944306836026 -0.0757973513144751 0.416666666666667
-0.499357143203707 -0.0662393380356898 0.416666666666667
-0.490469784093493 -0.0621330603945899 0.416666666666667
-0.490665258615625 -0.0506836177119709 0.416666666666667
-0.479470896931257 -0.0422136612537448 0.416666666666667
-0.478586444948298 -0.0455454104621512 0.416666666666667
-0.468289544650808 -0.0382970824779051 0.416666666666667
-0.460770120824223 -0.0249783736652097 0.416666666666667
-0.45640865835246 -0.0128268450532953 0.416666666666667
-0.455145254291303 -0.00829095552466314 0.416666666666667
-0.450894272202086 -0.00448712354621617 0.416666666666667
-0.442813592444944 -0.00247184126943238 0.416666666666667
-0.4363682492112 0.0108509119812054 0.416666666666667
-0.426832485653488 0.0222040087642376 0.416666666666666
-0.42571998694187 0.0215327929931896 0.416666666666667
-0.420170649358498 0.0371520996557011 0.416666666666667
-0.413673727647839 0.0420822733730444 0.416666666666667
-0.40177792648603 0.0488951966589315 0.416666666666667
-0.40497793377676 0.0509372536881129 0.416666666666667
-0.390336529051045 0.0628574569546159 0.416666666666667
-0.390196100236904 0.0700472591483429 0.416666666666666
-0.380515410902576 0.0825273915733363 0.416666666666667
-0.369653475180356 0.0873415087526354 0.416666666666667
-0.370797224867703 0.0972024494020692 0.416666666666667
-0.360338972736424 0.105802615583487 0.416666666666667
-0.354023732286255 0.119621230983306 0.416666666666667
-0.346963936773118 0.118654805551242 0.416666666666667
-0.343381816109267 0.125989562720396 0.416666666666667
-0.337518066219355 0.135380446719739 0.416666666666667
-0.329385467653764 0.150857506892244 0.416666666666667
-0.31653182161692 0.158767258808115 0.416666666666667
-0.31684031537056 0.163612271503705 0.416666666666667
-0.30888087912463 0.169489057444344 0.416666666666667
-0.29868963331087 0.176828847498759 0.416666666666667
-0.29867177237919 0.18288778038527 0.416666666666667
-0.288265420435107 0.192996414629289 0.416666666666667
-0.278325528655369 0.201955522452681 0.416666666666667
-0.270087207259126 0.213816036326012 0.416666666666667
-0.263284638058307 0.229715770147434 0.416666666666667
-0.259571501870067 0.236511209474836 0.416666666666667
-0.254911050137335 0.243352942334401 0.416666666666667
-0.245520378190187 0.248034151004218 0.416666666666667
-0.237668836093554 0.25836466817041 0.416666666666667
-0.228727340748918 0.270298741624681 0.416666666666667
-0.5 -0.0630293623531079 0.404466277432122
-0.5 -0.0594737603653747 0.412648846643755
-0.5 -0.0568890897174693 0.41583949404193
-0.494393438273717 -0.0460397069722995 0.416666666666667
-0.48162261483281 -0.0374785121659712 0.416666666666666
-0.477723233481104 -0.0285366155250022 0.416666666666666
-0.476590680789775 -0.0285544441422728 0.416666666666667
-0.469443659783727 -0.0202775401437843 0.416666666666667
-0.461749041425178 -0.00668988253390399 0.416666666666667
-0.459538601235208 -0.00225659705734373 0.416666666666666
-0.456860118346952 -0.00214060529235946 0.416666666666666
-0.448946002520021 0.0118422735084475 0.416666666666667
-0.436188465962116 0.0171537496979593 0.416666666666667
-0.432475541659435 0.03065418066953 0.416666666666667
-0.424412500451895 0.0346460991209143 0.416666666666667
-0.417007817133749 0.0386122070873457 0.416666666666667
-0.412705268933498 0.0491139804620227 0.416666666666666
-0.407927247553653 0.0530962600236629 0.416666666666666
-0.403856137014865 0.0594501520300346 0.416666666666666
-0.399162658003174 0.0744932047734707 0.416666666666667
-0.392580583832186 0.072871233482449 0.416666666666667
-0.384970243177222 0.0928943770480113 0.416666666666666
-0.374352911250545 0.0993166736358228 0.416666666666667
-0.375736435105027 0.107958076664339 0.416666666666667
-0.369847779871863 0.110978294760313 0.416666666666667
-0.366210777952424 0.113336285520191 0.416666666666667
-0.349470245685662 0.130983030963565 0.416666666666667
-0.346567142146369 0.136037293365022 0.416666666666667
-0.344452092577429 0.140462044004118 0.416666666666667
-0.332476045556972 0.157199759040811 0.416666666666667
-0.331248945482044 0.15942370266478 0.416666666666667
-0.316952978210202 0.172176932076842 0.416666666666667
-0.312207236999645 0.176467535475213 0.416666666666667
-0.312739643821508 0.18213365459401 0.416666666666667
-0.303508305090103 0.198691809167417 0.416666666666667
-0.294498567369004 0.203410696119993 0.416666666666667
-0.290648662774433 0.216247181924285 0.416666666666667
-0.2852222780115 0.223392609625228 0.416666666666667
-0.280622283423049 0.226324271112999 0.416666666666667
-0.262758563980646 0.245869010391935 0.416666666666666
-0.262957715897205 0.249923711819569 0.416666666666667
-0.249057691704683 0.255410864788934 0.416666666666667
-0.245868902177702 0.268453657089193 0.416666666666666
-0.486111111111111 -0.0254709363783286 0.378385505682596
-0.5 -0.0497742052661092 0.415922408297618
-0.498966929553708 -0.0393812653914452 0.416666666666667
-0.490760212829267 -0.0305344275694582 0.416666666666667
-0.484939661116063 -0.0254458604617051 0.416666666666667
-0.47699590004032 -0.0144475241844313 0.416666666666667
-0.47679017753632 -0.0122117734143265 0.416666666666667
-0.472472877380335 -0.0036041295237364 0.416666666666667
-0.466092894255044 0.00262833849200944 0.416666666666667
-0.461114505098193 0.010106821828935 0.416666666666667
-0.449598394414392 0.0213911243336717 0.416666666666667
-0.452551744158519 0.0259700418409738 0.416666666666667
-0.4388929397709 0.0331237306999881 0.416666666666667
-0.435883607565306 0.0354629535910062 0.416666666666667
-0.431304157047297 0.0414540224626981 0.416666666666667
-0.423937841280015 0.0560537270701326 0.416666666666667
-0.417681691844156 0.0554987990541715 0.416666666666666
-0.408879236240267 0.0688080434273975 0.416666666666667
-0.409235175217901 0.0744146618184602 0.416666666666667
-0.404349285189338 0.0839203715743769 0.416666666666667
-0.397477851863804 0.0870035569745802 0.416666666666667
-0.384171737617684 0.0989680934668029 0.416666666666667
-0.3749619196663 0.11485904588551 0.416666666666667
-0.378017863382955 0.120524753952108 0.416666666666667
-0.367044778479484 0.125080477938735 0.416666666666667
-0.363889317422747 0.130148437058267 0.416666666666667
-0.355187660446299 0.145774005491667 0.416666666666667
-0.348269608067895 0.153277257650234 0.416666666666666
-0.336864744859446 0.166541411276794 0.416666666666667
-0.328914557174796 0.174805557805317 0.416666666666667
-0.327548357810417 0.177180359832417 0.416666666666667
-0.328014536726733 0.184944373414522 0.416666666666667
-0.315056889587374 0.193659225345759 0.416666666666667
-0.308242732474448 0.198039356539769 0.416666666666667
-0.296935864199778 0.211307577116988 0.416666666666667
-0.294750841850641 0.217394237620989 0.416666666666667
-0.288598198432472 0.227139211730463 0.416666666666667
-0.281768840065518 0.236769709048583 0.416666666666666
-0.274145619734795 0.252184694507353 0.416666666666667
-0.267858744346142 0.260240353426435 0.416666666666667
-0.5 -0.0392897608569837 0.410451345231743
-0.5 -0.031637959076787 0.413195902518613
-0.497830110983123 -0.0301046754261505 0.416666666666667
-0.492510901225254 -0.0196592732088171 0.416666666666667
-0.486058765750205 -0.0194508197918955 0.416666666666667
-0.487604565450589 -0.00905680893167805 0.416666666666666
-0.475409462639414 0.000535246828432221 0.416666666666667
-0.472727488902015 0.0093932197219093 0.416666666666667
-0.464916401924444 0.0173405291257518 0.416666666666667
-0.453845926740514 0.0257761953418033 0.416666666666667
-0.454328593595721 0.0262398846508748 0.416666666666667
-0.449452189492148 0.0364359669291656 0.416666666666667
-0.443478360525011 0.0427544229940301 0.416666666666667
-0.437857839240585 0.0539141753471591 0.416666666666667
-0.431603893105161 0.0578464170007527 0.416666666666666
-0.425044000684053 0.0637905031188398 0.416666666666667
-0.416084634549574 0.0801042873797771 0.416666666666667
-0.410158667027878 0.080699212813999 0.416666666666667
-0.410369646279084 0.0926566619713215 0.416666666666667
-0.393068153107701 0.10698356276151 0.416666666666667
-0.391495279052369 0.103152875828604 0.416666666666666
-0.390200984279834 0.115762927250097 0.416666666666667
-0.382039813915274 0.124017159633586 0.416666666666667
-0.377627770139787 0.129287121761016 0.416666666666667
-0.369206677414075 0.136635802149591 0.416666666666667
-0.363543751067641 0.145469817263368 0.416666666666667
-0.352627660932776 0.158135618746773 0.416666666666667
-0.346148700741859 0.16400930034561 0.416666666666667
-0.344501761476948 0.173724361976271 0.416666666666667
-0.339239552405024 0.180143760329047 0.416666666666667
-0.327397180172634 0.186585815533824 0.416666666666667
-0.326791099744191 0.196343088347017 0.416666666666667
-0.321572185642467 0.201551148161532 0.416666666666667
-0.314779738690463 0.219185693254274 0.416666666666667
-0.299507111020115 0.228494107267907 0.416666666666667
-0.298003278998622 0.229639598649679 0.416666666666667
-0.286389879610715 0.245244303974204 0.416666666666667
-0.282183708414112 0.25520288007907 0.416666666666667
-0.27256724706038 0.269851317380172 0.416666666666667
-0.271543200145686 0.269609053390517 0.416666666666667
-0.5 -0.0140753958033587 0.407407270115065
-0.5 -0.0110874451876616 0.406731015568071
-0.489921569218814 -0.00773194368149999 0.416666666666667
-0.491269756289387 -0.00162957776839891 0.416666666666666
-0.482413945339282 0.011038596038044 0.416666666666667
-0.476523123625759 0.0183000547173018 0.416666666666666
-0.470028875012681 0.0252708477897702 0.416666666666667
-0.462450873658155 0.0294704729179658 0.416666666666667
-0.456813579328745 0.0390379778757799 0.416666666666667
-0.453273887439362 0.0411625640825986 0.416666666666667
-0.448645319527443 0.0461503039694531 0.416666666666666
-0.445654521436386 0.059500997235261 0.416666666666667
-0.435578997055416 0.07173962112829 0.416666666666667
-0.435471586333105 0.0740406617729178 0.416666666666666
-0.42644006156038 0.0807541385922098 0.416666666666666
-0.415118699351249 0.0944627857775368 0.416666666666666
-0.415921598243861 0.0909137014098193 0.416666666666667
-0.403512640589886 0.113075410724772 0.416666666666667
-0.401847225517821 0.113091851730942 0.416666666666667
-0.39815712269785 0.122176023849586 0.416666666666667
-0.383075769481322 0.135338025981841 0.416666666666667
-0.377805107307073 0.137211895732462 0.416666666666667
-0.369811223932461 0.152999573969036 0.416666666666667
-0.367582197730479 0.157636944203344 0.416666666666667
-0.365489044949714 0.157831577000213 0.416666666666667
-0.352230977177325 0.174063733878537 0.416666666666667
-0.34808233600439 0.180043122397781 0.416666666666667
-0.339301718769715 0.191352067844703 0.416666666666667
-0.336370639343607 0.197751712021336 0.416666666666667
-0.330472833469478 0.198220314785524 0.416666666666667
-0.325172396985505 0.214260951643439 0.416666666666667
-0.318761739864269 0.223828904817075 0.416666666666667
-0.310739759830755 0.23539003218299 0.416666666666667
-0.308836099274179 0.237120132906483 0.416666666666667
-0.299072773403781 0.24966028051542 0.416666666666667
-0.290121151731839 0.255803661659174 0.416666666666667
-0.486111111111111 0.0134383031456046 0.3778573899421
-0.5 -0.00343602735948934 0.405611473356863
-0.497426231972955 -0.000496371230925564 0.416666666666667
-0.494203142425865 0.00621235959754195 0.416666666666666
-0.486326041052777 0.0144667624198242 0.416666666666667
-0.478332467758699 0.0230242287882958 0.416666666666667
-0.479559134687476 0.0279301994504915 0.416666666666667
-0.471991929715129 0.0335626510141957 0.416666666666667
-0.470694867818 0.0373134607902585 0.416666666666667
-0.462937402306364 0.0465505961820748 0.416666666666667
-0.457615294422036 0.0529263301885831 0.416666666666667
-0.452956228376104 0.0647455415059337 0.416666666666666
-0.439964253104987 0.0749978688318657 0.416666666666667
-0.437691946316844 0.0852317137950776 0.416666666666667
-0.432232804399157 0.0854180476783044 0.416666666666667
-0.42840826337916 0.0957957660378519 0.416666666666667
-0.415951522905085 0.103823702424436 0.416666666666667
-0.40924558129526 0.1127970068819 0.416666666666667
-0.409409743972889 0.118794652985448 0.416666666666667
-0.399730014889415 0.131997458850996 0.416666666666667
-0.391964864228133 0.134983636694484 0.416666666666667
-0.38151511378374 0.152043896373432 0.416666666666667
-0.381520912444869 0.155531319629627 0.416666666666667
-0.377570547571412 0.162513115504009 0.416666666666667
-0.364449347528404 0.169210781126223 0.416666666666667
-0.361640654043358 0.172354533762796 0.416666666666667
-0.355972546531528 0.183334617363097 0.416666666666667
-0.34867977405167 0.191980954884777 0.416666666666667
-0.339829106489488 0.202592985673178 0.416666666666667
-0.337930931420501 0.214552821083609 0.416666666666667
-0.328717346304607 0.225680378410927 0.416666666666667
-0.32715122822476 0.22763339229967 0.416666666666667
-0.318962636890494 0.238296016997283 0.416666666666667
-0.311239299419332 0.245690666524517 0.416666666666666
-0.298657417864296 0.263482801203976 0.416666666666667
-0.291014191890427 0.266773677002779 0.416666666666667
-0.5 0.00423046084484974 0.409508678006253
-0.5 0.0218317971470466 0.408285837963395
-0.488691372459609 0.0229044216620247 0.416666666666667
-0.488745636251973 0.0230868167806129 0.416666666666667
-0.48499910084175 0.0413608444494676 0.416666666666667
-0.478500455482937 0.03532716754155 0.416666666666667
-0.469734289158766 0.0516560338010902 0.416666666666667
-0.466867484246758 0.0630428581348419 0.416666666666667
-0.460963258452739 0.0671611762258661 0.416666666666666
-0.459472386908908 0.0673136659312937 0.416666666666667
-0.446734681332441 0.0773774011681748 0.416666666666667
-0.44537062426184 0.0870985863179633 0.416666666666667
-0.443005793824012 0.0914580877740978 0.416666666666667
-0.432266346303714 0.100390819917603 0.416666666666667
-0.423529306503755 0.11425042126977 0.416666666666666
-0.423588881679213 0.116343832482762 0.416666666666667
-0.407982023243077 0.131883865135711 0.416666666666667
-0.40841281382901 0.138919750153498 0.416666666666667
-0.393314014965654 0.152335553103207 0.416666666666667
-0.395241797644638 0.150471917120722 0.416666666666667
-0.39027223989585 0.160396614939537 0.416666666666667
-0.378706258584415 0.169672399910053 0.416666666666667
-0.378159835582497 0.175649552591576 0.416666666666667
-0.364999822868033 0.187331183498181 0.416666666666667
-0.36544936338057 0.198870216423761 0.416666666666667
-0.351672977656033 0.204491696805896 0.416666666666667
-0.356570984097623 0.21065360536209 0.416666666666667
-0.339337119502756 0.219697587547127 0.416666666666667
-0.338786364992546 0.221799753660706 0.416666666666667
-0.330982273466107 0.234894175171969 0.416666666666667
-0.322589067062561 0.248179809211209 0.416666666666667
-0.317903266262757 0.252220046616872 0.416666666666667
-0.308088999100375 0.260496709717967 0.416666666666667
-0.308761387098821 0.266467898016247 0.416666666666667
-0.5 0.0223548344846654 0.412184417792898
-0.5 0.0346877458845434 0.409692329527359
-0.494480177150738 0.0336168198816566 0.416666666666667
-0.490373672704194 0.0393487754370376 0.416666666666666
-0.48655904514994 0.0451519134062998 0.416666666666667
-0.478508322957639 0.0486884525552604 0.416666666666667
-0.472027793951131 0.0668867622163963 0.416666666666667
-0.468077393322554 0.065829253808386 0.416666666666667
-0.458157964060284 0.0812539787749132 0.416666666666667
-0.456442760429309 0.0857780191663958 0.416666666666667
-0.452869684557666 0.0952892688799424 0.416666666666667
-0.441516923009549 0.101011604902897 0.416666666666667
-0.435361165934686 0.116122683927608 0.416666666666667
-0.437893141440912 0.116112079817278 0.416666666666667
-0.426868831102753 0.122556402181741 0.416666666666667
-0.414631226230629 0.134847658391813 0.416666666666667
-0.415382832447141 0.142199697074162 0.416666666666667
-0.404957796958825 0.14755080532637 0.416666666666667
-0.39994257075595 0.156518936472388 0.416666666666667
-0.395316096476877 0.163663206568629 0.416666666666667
-0.387118565171198 0.179561071374597 0.416666666666667
-0.378046130332356 0.189604277769003 0.416666666666667
-0.374643532216898 0.184311332177522 0.416666666666667
-0.367190043885732 0.196053721101422 0.416666666666666
-0.357377828731795 0.207741230438632 0.416666666666667
-0.36189679762235 0.215689414363017 0.416666666666667
-0.354129864123536 0.219567021251771 0.416666666666667
-0.341140013440752 0.242993727679099 0.416666666666667
-0.331608939953361 0.249996324699393 0.416666666666667
-0.33362431009628 0.253883127392353 0.416666666666667
-0.320912862730943 0.262910193673361 0.416666666666667
-0.5 0.0414888790025036 0.410843321976232
-0.499623470127845 0.0392332119027002 0.416666666666667
-0.496327520003616 0.0513439124526133 0.416666666666667
-0.492257037398635 0.0522806471884673 0.416666666666667
-0.483791848959535 0.0561736385866066 0.416666666666666
-0.475140398350671 0.0707560907752938 0.416666666666667
-0.470850794854861 0.0755846660762161 0.416666666666667
-0.472791362684252 0.0843017197647996 0.416666666666667
-0.464845166831046 0.0976196622051166 0.416666666666667
-0.456784312252847 0.101643984834151 0.416666666666667
-0.452552418597341 0.105544019642566 0.416666666666667
-0.443324130851244 0.118409055260747 0.416666666666667
-0.432236704716681 0.12312436872371 0.416666666666667
-0.42928062225113 0.134495504824169 0.416666666666667
-0.426474894988882 0.141823741734543 0.416666666666667
-0.4147999667386 0.155270456624429 0.416666666666667
-0.417713539430802 0.155405148822429 0.416666666666667
-0.402765041261482 0.16872148131101 0.416666666666667
-0.403002249445475 0.174336214247003 0.416666666666667
-0.395876637941904 0.186756689805989 0.416666666666667
-0.389189504287722 0.19681141056942 0.416666666666666
-0.383737334103203 0.197619374406693 0.416666666666667
-0.374623910061597 0.210167595429697 0.416666666666667
-0.367270368577097 0.214153449686177 0.416666666666667
-0.356466655919543 0.230703557722578 0.416666666666667
-0.358875373302517 0.23823236480847 0.416666666666667
-0.349988383626409 0.23595410000739 0.416666666666667
-0.343590096995814 0.2522104785667 0.416666666666667
-0.341655104514143 0.263320038253703 0.416666666666667
-0.486111111111111 0.0705534199802971 0.376770581428796
-0.486111111111111 0.0841757060786117 0.378426782493215
-0.5 0.0553727030615578 0.416080116105507
-0.499442267071271 0.0673734259025673 0.416666666666667
-0.493338457419917 0.0698159090482053 0.416666666666667
-0.482203584115579 0.0744680488925543 0.416666666666667
-0.482169644932896 0.086415318520488 0.416666666666667
-0.474018414482059 0.0862313411093682 0.416666666666667
-0.46972543433512 0.0961692961063225 0.416666666666666
-0.465615879061651 0.106813083854136 0.416666666666667
-0.457159568963024 0.109832976039747 0.416666666666667
-0.450442154049485 0.116562000623642 0.416666666666667
-0.447555071863727 0.126533327722014 0.416666666666666
-0.439968114178463 0.138792216522163 0.416666666666667
-0.433913975007576 0.15266692738876 0.416666666666667
-0.422241757860344 0.162233700312128 0.416666666666667
-0.415503387441618 0.168146105990672 0.416666666666667
-0.408888426377702 0.172946834657387 0.416666666666666
-0.411633387772823 0.179584129764843 0.416666666666667
-0.395540007664696 0.19009174993915 0.416666666666667
-0.392777462011982 0.199646336515476 0.416666666666666
-0.388200091168321 0.202635649957217 0.416666666666667
-0.382540614020702 0.205964008861095 0.416666666666667
-0.371304235107682 0.229911098296897 0.416666666666667
-0.373131939534405 0.228179217469695 0.416666666666667
-0.367327059272401 0.242728295350058 0.416666666666667
-0.358639713894421 0.242533568529083 0.416666666666667
-0.355986421824883 0.257233891828592 0.416666666666667
-0.340067827630127 0.270617955639756 0.416666666666667
-0.486111111111111 0.0892882368986257 0.379900331778233
-0.486111111111111 0.0935115453081238 0.378580606720787
-0.5 0.0699750544519552 0.410518467111239
-0.49592809275102 0.0762973756486214 0.416666666666667
-0.492545960575994 0.0831647455565322 0.416666666666667
-0.48320528950569 0.0934303177618165 0.416666666666667
-0.488208383838892 0.097639574763464 0.416666666666667
-0.477167509794728 0.100830771175216 0.416666666666667
-0.463817608731871 0.114997994002551 0.416666666666667
-0.470685017490604 0.118319955826562 0.416666666666667
-0.459847924103557 0.128260360485743 0.416666666666667
-0.44809285011754 0.138000776658951 0.416666666666667
-0.449492841900986 0.142424139534346 0.416666666666667
-0.435024464403778 0.152138127953937 0.416666666666667
-0.431838984323999 0.166949065896697 0.416666666666666
-0.422019404678258 0.172116763465533 0.416666666666666
-0.422794204510512 0.176416362959345 0.416666666666667
-0.416338354265682 0.18408372420182 0.416666666666667
-0.409438775283546 0.196901031061993 0.416666666666667
-0.402214524644722 0.205346872390883 0.416666666666667
-0.39462391237521 0.215252146169553 0.416666666666667
-0.388453920484221 0.223715071265227 0.416666666666667
-0.384532473532958 0.237995221955584 0.416666666666667
-0.375131993586999 0.241111896733982 0.416666666666667
-0.367946265669174 0.242573315968731 0.416666666666667
-0.356878125283501 0.261641445444942 0.416666666666667
-0.360855253974313 0.267242390185765 0.416666666666667
-0.486111111111111 0.0971658094675815 0.375380531119516
-0.486111111111111 0.109036312901125 0.37975519978643
-0.486111111111111 0.111898584159143 0.378830460559897
-0.5 0.0961829134754413 0.409426381270805
-0.498843262524162 0.0915249818666425 0.416666666666667
-0.485480798442897 0.109760837829887 0.416666666666667
-0.479479680529818 0.112148918994371 0.416666666666667
-0.473552397798485 0.12253565127638 0.416666666666667
-0.466901346502988 0.133287341805626 0.416666666666667
-0.465533871953011 0.130882951078315 0.416666666666667
-0.45932248737315 0.140165581169628 0.416666666666667
-0.452581476387196 0.152602628448484 0.416666666666667
-0.447639660042506 0.155352202311348 0.416666666666666
-0.43428642677449 0.167972474143471 0.416666666666667
-0.429723837339513 0.181372099286583 0.416666666666667
-0.433190998991811 0.181310168667942 0.416666666666667
-0.424636161313423 0.188337201748081 0.416666666666667
-0.418906127064417 0.205314596201869 0.416666666666666
-0.407885700219278 0.210291742007891 0.416666666666667
-0.396218370895393 0.22251768448997 0.416666666666667
-0.399016769242766 0.232476490811093 0.416666666666666
-0.392787050047176 0.235245076192673 0.416666666666667
-0.385382053577269 0.242869423471981 0.416666666666667
-0.368901415219629 0.258151087144582 0.416666666666667
-0.366165285221379 0.266580965902741 0.416666666666666
-0.486111111111111 0.127362533540663 0.37765979436214
-0.5 0.0982981786283002 0.41568410720319
-0.494836157999124 0.107891165598915 0.416666666666667
-0.495269095262211 0.110336865305675 0.416666666666667
-0.480826971577044 0.122474088760802 0.416666666666667
-0.483786986107741 0.123863819999163 0.416666666666667
-0.474313032920277 0.134465776835697 0.416666666666667
-0.471936377674989 0.148831966334172 0.416666666666667
-0.462444459286193 0.153089651588375 0.416666666666667
-0.461248988229346 0.152377224598445 0.416666666666667
-0.451156686505286 0.169153671964685 0.416666666666667
-0.449945563028407 0.170084904609439 0.416666666666666
-0.437046647607897 0.186440833032163 0.416666666666666
-0.437242695000545 0.191689778819437 0.416666666666666
-0.429817460218202 0.19672383740334 0.416666666666667
-0.423044805645481 0.208797540873613 0.416666666666666
-0.419194228565067 0.221500306297927 0.416666666666666
-0.405445817314914 0.222790421660586 0.416666666666667
-0.400383388954464 0.238318808721512 0.416666666666667
-0.396338978816507 0.240745630521065 0.416666666666667
-0.392028201292205 0.249787256313796 0.416666666666667
-0.385934083803275 0.255618681953255 0.416666666666666
-0.375496435799915 0.268794733728171 0.416666666666667
-0.438131545763605 0.204861111111111 0.170599974404043
-0.438246894178988 0.204861111111111 0.17800975633897
-0.434736496258335 0.204861111111111 0.174244191878415
-0.435865598371021 0.204861111111111 0.192971429306468
-0.440269027636463 0.204861111111111 0.201485523291661
-0.439838162432824 0.204861111111111 0.20938315808907
-0.43633156815934 0.204861111111111 0.221266252064401
-0.436062419447118 0.204861111111111 0.232536060144311
-0.441323327516799 0.204861111111111 0.239732873260253
-0.436384839803796 0.204861111111111 0.257838062710189
-0.43661624452253 0.204861111111111 0.255296981445048
-0.435311173518609 0.204861111111111 0.268413163254816
-0.435907714434149 0.204861111111111 0.277414759842901
-0.437007458300163 0.204861111111111 0.288228074129401
-0.486111111111111 0.132692806713665 0.378966962856291
-0.5 0.120085787492386 0.407939821476162
-0.5 0.115755165194037 0.415664592031394
-0.49351270389746 0.119394122214086 0.416666666666667
-0.489436445166539 0.135855574526319 0.416666666666667
-0.485977096958999 0.1403758186876 0.416666666666667
-0.473015797257803 0.144522815734528 0.416666666666667
-0.477260571622332 0.155134197439924 0.416666666666667
-0.46224240831963 0.16507424037231 0.416666666666667
-0.461817691831232 0.172530941613264 0.416666666666667
-0.456403411723297 0.179453323520113 0.416666666666667
-0.445500923416514 0.189331171748204 0.416666666666667
-0.441847292328924 0.199294349248615 0.416666666666667
-0.432417568230208 0.212644197138326 0.416666666666667
-0.422404336883764 0.216024968374636 0.416666666666667
-0.418537552992379 0.223155010222951 0.416666666666667
-0.418902303328212 0.23117377064883 0.416666666666667
-0.411316888716867 0.242184592029448 0.416666666666667
-0.40899827587004 0.246058439131487 0.416666666666667
-0.392826536172475 0.266695110627982 0.416666666666667
-0.396452452678866 0.269289356017514 0.416666666666667
-0.4490089583102 0.204861111111111 0.163265689267769
-0.447157408420979 0.204861111111111 0.179814097819997
-0.44878001948193 0.204861111111111 0.181672727435241
-0.454708194705107 0.204861111111111 0.194185876199209
-0.446795054203957 0.204861111111111 0.204183784130683
-0.449628214561247 0.204861111111111 0.21387211148766
-0.452583931600154 0.204861111111111 0.224716159559112
-0.446768081761678 0.204861111111111 0.230041734137786
-0.451515415507646 0.204861111111111 0.237059376091302
-0.444510027507163 0.204861111111111 0.250676080187136
-0.452983397467735 0.204861111111111 0.2581469149329
-0.445599799989254 0.204861111111111 0.268559614050365
-0.446038879266917 0.204861111111111 0.280585475650303
-0.449559148146174 0.204861111111111 0.285727583902193
-0.450118151356996 0.204861111111111 0.290166353045871
-0.447187521742459 0.204861111111111 0.303909917404653
-0.452717742711031 0.204861111111111 0.320853390903072
-0.486111111111111 0.154287041303954 0.378398377487461
-0.5 0.126730030062108 0.414538561794995
-0.488687985864457 0.141954546579113 0.416666666666667
-0.491377922683309 0.146509607603129 0.416666666666667
-0.485899681263534 0.151908735103278 0.416666666666667
-0.482035523033471 0.160411501798325 0.416666666666667
-0.473134622084287 0.167398295057494 0.416666666666667
-0.471928200008737 0.177507123633421 0.416666666666667
-0.453767951942825 0.186977830810599 0.416666666666667
-0.459147898398281 0.197467685008187 0.416666666666666
-0.445654978957649 0.207217544532403 0.416666666666667
-0.444569857941102 0.216065274818965 0.416666666666667
-0.432628806473828 0.22439466705775 0.416666666666667
-0.429121941702563 0.23565811285245 0.416666666666667
-0.423818757200707 0.240708288347298 0.416666666666667
-0.420530588947163 0.2456215356261 0.416666666666666
-0.414036708597467 0.259303979006351 0.416666666666667
-0.401089535133902 0.270055979675047 0.416666666666667
-0.457770873460246 0.204861111111111 0.169805638654293
-0.465949178781527 0.204861111111111 0.181382345656366
-0.463414731411436 0.204861111111111 0.190726734122596
-0.46363074516707 0.204861111111111 0.207764880079653
-0.457411592026283 0.204861111111111 0.207671312214065
-0.46329441855364 0.204861111111111 0.219750172548637
-0.464951330764743 0.204861111111111 0.231432900203633
-0.462248695708355 0.204861111111111 0.241401166442613
-0.463057992745603 0.204861111111111 0.24349427094547
-0.46132131780156 0.204861111111111 0.258518268882397
-0.456757867229675 0.204861111111111 0.259720242480316
-0.455280294135701 0.204861111111111 0.273651357631948
-0.45669394151832 0.204861111111111 0.280693315246403
-0.453240157393648 0.204861111111111 0.285301975703769
-0.455842208947261 0.204861111111111 0.300465520834282
-0.462903426207856 0.204861111111111 0.313962576313491
-0.458433612450273 0.204861111111111 0.329455051463976
-0.459827031130274 0.204861111111111 0.332068662697008
-0.5 0.150821847430774 0.403739568039529
-0.5 0.154717872640162 0.410761433281314
-0.494814408918998 0.15259564685163 0.416666666666667
-0.490069207088085 0.160841737713765 0.416666666666667
-0.489495094573006 0.166181586373817 0.416666666666667
-0.482146572631044 0.172270094187954 0.416666666666667
-0.476649020199723 0.179249552447902 0.416666666666667
-0.464276514944318 0.192590104194798 0.416666666666667
-0.462108706436014 0.207260319379353 0.416666666666667
-0.460148564715767 0.212095392649689 0.416666666666667
-0.449478814035496 0.221600845062503 0.416666666666667
-0.437540954618336 0.231597927389154 0.416666666666667
-0.434634645665565 0.237572235304974 0.416666666666667
-0.430288679810373 0.252059943403127 0.416666666666667
-0.422464516895805 0.258893441408267 0.416666666666667
-0.469454079895956 0.204861111111111 0.173509401582273
-0.467699408399882 0.204861111111111 0.182817739495292
-0.46920088478037 0.204861111111111 0.192921791784546
-0.470517285068979 0.204861111111111 0.205753688547662
-0.466601530541997 0.204861111111111 0.210568858553533
-0.468152482707515 0.204861111111111 0.221997733877277
-0.466494391012884 0.204861111111111 0.23228545376144
-0.470199889174328 0.204861111111111 0.245509270429662
-0.473108758637364 0.204861111111111 0.26017302231772
-0.475335159786756 0.204861111111111 0.26998060358536
-0.469245297376909 0.204861111111111 0.271852492782346
-0.465407906715567 0.204861111111111 0.274120123246304
-0.468605680280396 0.204861111111111 0.296454387237625
-0.470405316849776 0.204861111111111 0.298723962622341
-0.469681660452017 0.204861111111111 0.301567048307514
-0.475694444444445 0.207397049882986 0.318593713280011
-0.470298108682295 0.204861111111111 0.328461081818253
-0.475293209223068 0.204861111111111 0.341127532992432
-0.486111111111111 0.183040918083972 0.377229112904321
-0.486111111111111 0.18438786526327 0.376345396454825
-0.5 0.16755226464802 0.4077579831297
-0.498773697798232 0.167393998798938 0.416666666666667
-0.494154036744651 0.179237957784786 0.416666666666667
-0.484768321330928 0.184690261091021 0.416666666666666
-0.480844600647591 0.195528947912085 0.416666666666666
-0.474350330457157 0.198021944253751 0.416666666666667
-0.465400410393818 0.211175066025228 0.416666666666667
-0.461489413160496 0.222814498674707 0.416666666666666
-0.449795361255436 0.233676920503688 0.416666666666667
-0.441796178712158 0.235072217999215 0.416666666666666
-0.437363452471137 0.248334734703582 0.416666666666667
-0.440355641877252 0.257723607679705 0.416666666666667
-0.422875372229168 0.267971875229996 0.416666666666666
-0.427030944711792 0.266918852927547 0.416666666666667
-0.475694444444445 0.213373853970379 0.171307900273676
-0.475694444444445 0.215902825304755 0.182480260523325
-0.475694444444445 0.217602181574055 0.194621359865096
-0.475694444444445 0.213941144968099 0.203704561358508
-0.475694444444445 0.215408925586173 0.21141224402965
-0.475694444444445 0.220697346785378 0.21728795187241
-0.475694444444445 0.21604578077821 0.232268813692595
-0.475694444444445 0.208632868162383 0.243781450161093
-0.475694444444445 0.214366169076465 0.244547012282555
-0.475694444444445 0.214148388048956 0.264199991875391
-0.475694444444445 0.221766206923356 0.265585708019881
-0.475694444444445 0.210284422564356 0.280518811826364
-0.475694444444445 0.214941190905404 0.280771385745015
-0.475694444444445 0.220606330518699 0.293239944834359
-0.475694444444445 0.214113554611621 0.310506879139992
-0.475694444444445 0.209677715231274 0.321462097421527
-0.475694444444445 0.217571186713004 0.327318263761208
-0.475694444444445 0.221885569790711 0.334278299621795
-0.475694444444445 0.211949197732798 0.350583051838193
-0.486111111111111 0.189991858205797 0.379533805556082
-0.486111111111111 0.202418440805857 0.379725855276507
-0.5 0.181475869393958 0.406324753765549
-0.495570947223255 0.177798376583053 0.416666666666667
-0.491872873630522 0.192077151418523 0.416666666666667
-0.491289853412473 0.194748200530847 0.416666666666666
-0.475705203707547 0.211972392605836 0.416666666666667
-0.469140734610605 0.215199696764503 0.416666666666667
-0.471476246609028 0.230837109513374 0.416666666666667
-0.466093501526349 0.232199328296165 0.416666666666667
-0.456253741714303 0.2402510349841 0.416666666666667
-0.446962888059793 0.245086456580906 0.416666666666667
-0.445788159354014 0.254727818697032 0.416666666666667
-0.475694444444445 0.237826335806112 0.161225316506552
-0.475694444444445 0.226920272923214 0.168110615458512
-0.475694444444445 0.230019060362542 0.184723331328329
-0.475694444444445 0.235423374142339 0.18101650592917
-0.475694444444445 0.22325252613643 0.207782028030329
-0.475694444444445 0.226281462390766 0.213787807420328
-0.475694444444445 0.232207770375721 0.225535240147781
-0.475694444444445 0.233397585207222 0.228813652017492
-0.475694444444445 0.234449761545065 0.240453240341814
-0.475694444444445 0.22742918610388 0.257789338837956
-0.475694444444445 0.230031275577143 0.26384086903827
-0.475694444444445 0.236478142566066 0.266445296531095
-0.475694444444445 0.229814691525382 0.285845822668375
-0.475694444444445 0.240615728272039 0.279732742309753
-0.475694444444445 0.227367734865461 0.301333389871604
-0.475694444444445 0.235338649614361 0.301451396091073
-0.475694444444445 0.235855390545657 0.308733909654447
-0.475694444444445 0.22583917809629 0.331705432175443
-0.475694444444445 0.230197059742523 0.32922449903671
-0.475694444444445 0.226204947754105 0.353552466438944
-0.475694444444445 0.228680781234508 0.354291320018792
-0.486111111111111 0.218018030376816 0.376925477481696
-0.5 0.192994825004157 0.410366959207736
-0.497545919543593 0.201573458374933 0.416666666666667
-0.49559067166592 0.209220286960381 0.416666666666666
-0.48869736182938 0.21048894037477 0.416666666666667
-0.481111781337311 0.223935851878956 0.416666666666667
-0.476004918629102 0.238180642085344 0.416666666666667
-0.460963616696681 0.244968801719066 0.416666666666667
