ply
format ascii 1.0
element vertex 844
property float x
property float y
property float z
end_header
0.0313218154078891 0.110146322610498 0.759310344827759
0.0415057844856125 0.116094033828064 0.759310344827759
0.0522926076966083 0.134282726877492 0.759310344827759
0.063324215173936 0.140762778267603 0.759310344827759
0.0701934928708851 0.138427873731064 0.759310344827759
0.0855891750719722 0.161434568850513 0.759310344827759
0.0964893039008945 0.168077112865108 0.759310344827759
0.106790748228383 0.183312051146878 0.759310344827759
0.116537880663827 0.195077780889744 0.759310344827759
0.125250174897318 0.197701824091303 0.759310344827759
0.133953542219304 0.211848935140971 0.759310344827759
0.156845602381105 0.223739745493005 0.759310344827759
0.150561383303772 0.228272332424359 0.759310344827759
0.173952997711387 0.25206047392507 0.759310344827759
0.185734763901915 0.267654595133383 0.759310344827759
0.191139023899023 0.273901498507258 0.759310344827759
0.203587519712339 0.279298310477603 0.759310344827759
0.219580619425577 0.294832057313401 0.759310344827759
0.228461263700625 0.309699498562312 0.759310344827759
0.241294204537738 0.325846202941514 0.759310344827759
0.241995882412153 0.324250685170918 0.759310344827759
0.267171179256052 0.349235762148731 0.759310344827759
-0.40609017478772 -0.336206896551724 0.648447163920736
-0.406872560659631 -0.336206896551724 0.653974232959818
-0.406654665045594 -0.336206896551724 0.663532914310514
-0.406848479390313 -0.336206896551724 0.675730481532765
-0.410072770208086 -0.336206896551724 0.686450692953519
-0.387703856222038 -0.318965517241354 0.66344288887643
-0.42574592415522 -0.362068965517241 0.726871170514829
-0.433293358458791 -0.362068965517241 0.737013404600006
-0.433955766487049 -0.362068965517241 0.756266923828236
-0.428294683418356 -0.362068965517241 0.756722522894679
-0.42427183139539 -0.359969936994179 0.759310344827759
-0.422191963468051 -0.353295718429529 0.759310344827759
-0.416246065989591 -0.341730201758804 0.759310344827759
-0.405778858465396 -0.335618399021211 0.759310344827759
-0.404138774464137 -0.329795037874963 0.759310344827759
-0.393300624130083 -0.328552827973594 0.759310344827759
-0.39031238032292 -0.319144115934612 0.759310344827759
-0.385959608646675 -0.312172786450153 0.759310344827759
-0.371603031971716 -0.307741882103371 0.759310344827759
-0.362645497841094 -0.29618397564207 0.759310344827759
-0.363128422775997 -0.290495604736326 0.759310344827759
-0.356032949071655 -0.286955944577961 0.759310344827759
-0.347032137017024 -0.277015157178153 0.759310344827759
-0.339452741969099 -0.265780813196939 0.759310344827759
-0.336050058957829 -0.255988239727638 0.759310344827759
-0.335902453727523 -0.260669936526882 0.759310344827759
-0.321098908035696 -0.254288400103062 0.759310344827759
-0.31244502524868 -0.236695495413442 0.759310344827759
-0.307102538930634 -0.237250367515997 0.759310344827759
-0.301950143592168 -0.225917466849492 0.759310344827759
-0.29569614966336 -0.214686037846287 0.759310344827759
-0.29014550728578 -0.214171559224388 0.759310344827759
-0.275546083142962 -0.19969413259142 0.759310344827759
-0.277783727847458 -0.194892743348158 0.759310344827759
-0.26993583227162 -0.19085228040342 0.759310344827759
-0.262133743675022 -0.185989837506489 0.759310344827759
-0.254022102899219 -0.174822666129955 0.759310344827759
-0.24480592403306 -0.166065896358822 0.759310344827759
-0.241479325150486 -0.157321042355312 0.759310344827759
-0.223070523538387 -0.153736090412546 0.759310344827759
-0.217500388763639 -0.140019744532735 0.759310344827759
-0.215431825598037 -0.138110667969685 0.759310344827759
-0.204284270087384 -0.125892118754744 0.759310344827759
-0.199513593307421 -0.121149341743046 0.759310344827759
-0.187385281947027 -0.107174756829775 0.759310344827759
-0.181145251793777 -0.0957252103355693 0.759310344827759
-0.166613162627275 -0.0887130121252504 0.759310344827759
-0.164533852304435 -0.0851134314345319 0.759310344827759
-0.15760387816735 -0.075188133135932 0.759310344827759
-0.153561443668044 -0.0741322826911611 0.759310344827759
-0.139461629101197 -0.0576224088534359 0.759310344827759
-0.130436212339059 -0.0494350102978454 0.759310344827759
-0.119715848577396 -0.0337408946402992 0.759310344827759
-0.113134854541207 -0.0282877647693603 0.759310344827759
-0.0990170159453706 -0.0229317845894528 0.759310344827759
-0.0964382483567451 -0.0217680920490875 0.759310344827759
-0.0922238079589275 -0.00333225976571061 0.759310344827759
-0.0742324907662028 0.0104320664046673 0.759310344827759
-0.0678907745163873 0.0110206191186967 0.759310344827759
-0.0514342027756435 0.0312050416648078 0.759310344827759
-0.0539874636809797 0.0264762151980858 0.759310344827759
-0.046324690642915 0.0454878372988477 0.759310344827759
-0.0355059500434789 0.0503957623367488 0.759310344827759
-0.0307181561800345 0.0606661727789071 0.759310344827759
-0.0166490445998216 0.0664451949358581 0.759310344827759
-0.00302550498942708 0.0820147681303001 0.759310344827759
-0.00127583788757671 0.090361195650214 0.759310344827759
0.0167507846950282 0.107542124737803 0.759310344827759
0.0264057920953643 0.110556886362104 0.759310344827759
0.0326259241762317 0.127651025190116 0.759310344827759
0.0418238281189055 0.130607434642921 0.759310344827759
0.0515761915675684 0.147215374710028 0.759310344827759
0.0674401869452329 0.159285478440511 0.759310344827759
0.0818241751109209 0.169614169815788 0.759310344827759
0.0837808073847497 0.175457758614393 0.759310344827759
0.103251831777635 0.191479227081241 0.759310344827759
0.108413841376912 0.202281120533595 0.759310344827759
0.114115123633092 0.214754445186464 0.759310344827759
0.125560515145309 0.220770123070726 0.759310344827759
0.136520221851782 0.234119203012073 0.759310344827759
0.146392624078302 0.235214362912726 0.759310344827759
0.163080594214698 0.251943853541794 0.759310344827759
0.17372914901736 0.268553067381582 0.759310344827759
0.187486992284564 0.278072376958904 0.759310344827759
0.200156512262217 0.289195986954873 0.759310344827759
0.211843679573122 0.309533255471572 0.759310344827759
0.2230566698086 0.313050383915318 0.759310344827759
0.23199698237525 0.320968851337339 0.759310344827759
0.238493428871881 0.329438282292761 0.759310344827759
0.248494648217286 0.355995228681631 0.759310344827759
-0.41855233538312 -0.33291357074269 0.564722538132443
-0.415333471826927 -0.330515664215006 0.569336386107248
-0.413468944520691 -0.329120121534274 0.572037366215232
-0.418294980850983 -0.336206896551724 0.642315541752502
-0.418858462330527 -0.336206896551724 0.650703813941897
-0.420607483885286 -0.336206896551724 0.65847062470821
-0.423257598751553 -0.336206896551724 0.670335680599559
-0.421992510830327 -0.336206896551724 0.674611923502996
-0.41909031762712 -0.336206896551724 0.683617513011441
-0.418057296491929 -0.336206896551724 0.688321895649341
-0.439505098816421 -0.362068965517241 0.727821087116348
-0.442723425757088 -0.362068965517241 0.739192486106941
-0.441550595743569 -0.362068965517241 0.745337604064169
-0.438311487888746 -0.360550432472222 0.759310344827759
-0.436511401046938 -0.359240785795184 0.759310344827759
-0.432360780866633 -0.357559387180626 0.759310344827759
-0.429749758179295 -0.349782552651369 0.759310344827759
-0.422360419935985 -0.337021328003907 0.759310344827759
-0.412376389953787 -0.332406030831891 0.759310344827759
-0.407481100983667 -0.322678797438253 0.759310344827759
-0.403183570498037 -0.317252598519712 0.759310344827759
-0.391378132502021 -0.313948713170888 0.759310344827759
-0.385166850107257 -0.30735509180691 0.759310344827759
-0.383026690445288 -0.304427590581388 0.759310344827759
-0.374810357630174 -0.297118535608174 0.759310344827759
-0.363882939381801 -0.285719891197107 0.759310344827759
-0.357160041655305 -0.273966946754814 0.759310344827759
-0.357819123728813 -0.274582613433305 0.759310344827759
-0.35135480608815 -0.268142390645968 0.759310344827759
-0.346658409993923 -0.258805993457914 0.759310344827759
-0.336892890778871 -0.25277852842022 0.759310344827759
-0.329923502365955 -0.241056724342936 0.759310344827759
-0.320685439332472 -0.231672524634175 0.759310344827759
-0.320370570732261 -0.227894932182566 0.759310344827759
-0.307530375774886 -0.223966769887291 0.759310344827759
-0.301697544511678 -0.207862925994353 0.759310344827759
-0.287534221660037 -0.204852593076586 0.759310344827759
-0.284771518655033 -0.196881299454953 0.759310344827759
-0.282064271404722 -0.190055831745459 0.759310344827759
-0.268673571975252 -0.179125721436699 0.759310344827759
-0.265548299801998 -0.181786940520375 0.759310344827759
-0.256082921003866 -0.165878756506424 0.759310344827759
-0.246260665934444 -0.16096669913938 0.759310344827759
-0.242405200947725 -0.148353993362298 0.759310344827759
-0.233112988372335 -0.145430327143281 0.759310344827759
-0.231911227036774 -0.139401936220467 0.759310344827759
-0.225504589997879 -0.129032614406773 0.759310344827759
-0.211476173521494 -0.113423885611514 0.759310344827759
-0.199946331500173 -0.107350565537902 0.759310344827759
-0.192968422745104 -0.0995942342053153 0.759310344827759
-0.187136389052889 -0.0863205109415341 0.759310344827759
-0.178865112649851 -0.0815112038421283 0.759310344827759
-0.171968556873852 -0.073879742821587 0.759310344827759
-0.164372173569882 -0.0707724920939128 0.759310344827759
-0.152592248522777 -0.0552065927961676 0.759310344827759
-0.141620480915792 -0.0489314053526861 0.759310344827759
-0.145955311712068 -0.0481607460288375 0.759310344827759
-0.125647619487621 -0.0391918805964599 0.759310344827759
-0.122087530845392 -0.0228688655016007 0.759310344827759
-0.108963038311675 -0.0164784356118988 0.759310344827759
-0.107929507769486 -0.00585733506640999 0.759310344827759
-0.0982133590704459 -0.00330027334156017 0.759310344827759
-0.083389669935131 0.00646635847530912 0.759310344827759
-0.0763814605252817 0.018473768225871 0.759310344827759
-0.0627937933894499 0.0327961607514044 0.759310344827759
-0.0509939283832557 0.0412286235875955 0.759310344827759
-0.0551946863941519 0.0476101899986056 0.759310344827759
-0.0447054184240207 0.0576594114213847 0.759310344827759
-0.0290104382636417 0.0748327981457379 0.759310344827759
-0.0189588374847681 0.0821741843981029 0.759310344827759
-0.0172412268293035 0.0890066295924997 0.759310344827759
-0.00028396280375008 0.101168806010565 0.759310344827759
0.00880606023555023 0.1081222819512 0.759310344827759
0.0252485863300986 0.124734070371188 0.759310344827759
0.0237042418852106 0.128348815735251 0.759310344827759
0.0396044615653877 0.140131956205927 0.759310344827759
0.0504697120411105 0.147067929744057 0.759310344827759
0.0498201997711474 0.160822710717739 0.759310344827759
0.0688076437370342 0.179524195812574 0.759310344827759
0.0780856578416596 0.176586536873458 0.759310344827759
0.0918684239982199 0.194140846319368 0.759310344827759
0.10097490014128 0.210831858387478 0.759310344827759
0.109829493508904 0.207808769666133 0.759310344827759
0.122572420775307 0.225070753356032 0.759310344827759
0.125198820903452 0.241245063339996 0.759310344827759
0.146380596852392 0.248433253972423 0.759310344827759
0.148226509678762 0.265145453983198 0.759310344827759
0.170322308813166 0.276455360281121 0.759310344827759
0.179332813293766 0.289959072003947 0.759310344827759
0.189121042590442 0.308387906930009 0.759310344827759
0.198751224628459 0.30619253438274 0.759310344827759
0.207470919080004 0.319361305953776 0.759310344827759
0.223279453151825 0.337496032326316 0.759310344827759
0.23556574133352 0.35669834121554 0.759310344827759
0.250421861719059 0.359428645766008 0.759310344827759
-0.42247766784509 -0.32940972836877 0.522289285290754
-0.418227769530251 -0.325418231955814 0.528078855358002
-0.42165330492696 -0.332555918519778 0.554540104237699
-0.43271695439513 -0.338649197727436 0.565292656198015
-0.424912216370595 -0.333477180639056 0.573696790618678
-0.427265380345293 -0.333789353713873 0.576568130414614
-0.420802997972657 -0.329677732665608 0.582786387912522
-0.421707403279704 -0.329322216474571 0.585950668346361
-0.41976164457941 -0.329133716644022 0.606293103448449
-0.419513856127749 -0.328779858658181 0.606944996868175
-0.429521869111342 -0.332509905269731 0.625264320239108
-0.427532695585105 -0.335112347179068 0.635337041537376
-0.428917014524675 -0.336206896551724 0.649836761919479
-0.427078932823944 -0.336206896551724 0.649786014232601
-0.428807164475847 -0.336206896551724 0.661013284198397
-0.430929858020681 -0.336206896551724 0.676365961114049
-0.433000021940239 -0.336206896551724 0.681808163265577
-0.430645125181636 -0.336206896551724 0.689134149546973
-0.44799528644889 -0.362068965517241 0.728603719674591
-0.45154513239418 -0.362068965517241 0.733377419033296
-0.447091074847919 -0.362068965517241 0.741829250342945
-0.448257732255386 -0.362068965517241 0.74801058137413
-0.450359349607346 -0.362068965517241 0.758871752723112
-0.447961354564244 -0.354888239339315 0.759310344827759
-0.442603704431548 -0.345050532215361 0.759310344827759
-0.433433948419942 -0.340009307546983 0.759310344827759
-0.426554223125857 -0.328959319257895 0.759310344827759
-0.424292295500031 -0.326965341753468 0.759310344827759
-0.413169232700913 -0.317424335045463 0.759310344827759
-0.405590149597154 -0.310413177859045 0.759310344827759
-0.405778821170921 -0.30647815655765 0.759310344827759
-0.399072249229582 -0.299805863719057 0.759310344827759
-0.389166212854876 -0.289364795861748 0.759310344827759
-0.381981563622486 -0.291975884245943 0.759310344827759
-0.380485601109312 -0.282331964312644 0.759310344827759
-0.364377508441833 -0.268443069595471 0.759310344827759
-0.361308073631244 -0.268989099564096 0.759310344827759
-0.357744622151094 -0.258980575216237 0.759310344827759
-0.349855050167678 -0.249925688898626 0.759310344827759
-0.344434933797664 -0.238401726997996 0.759310344827759
-0.334684736668482 -0.238098317444308 0.759310344827759
-0.325874318675303 -0.228183382781526 0.759310344827759
-0.320412392547321 -0.226365234433722 0.759310344827759
-0.309016561359469 -0.213340646787062 0.759310344827759
-0.309086715424676 -0.206814416550937 0.759310344827759
-0.296652937744441 -0.201381320800146 0.759310344827759
-0.290459254080194 -0.18860132246349 0.759310344827759
-0.287278690968946 -0.184512279434449 0.759310344827759
-0.283395937887398 -0.177474844769823 0.759310344827759
-0.271179802716943 -0.169059036657704 0.759310344827759
-0.255840850334025 -0.161185313140371 0.759310344827759
-0.252020714598343 -0.151801711787537 0.759310344827759
-0.245936189875564 -0.150529264880352 0.759310344827759
-0.243039869257634 -0.139789818702855 0.759310344827759
-0.236308879174153 -0.133896910794887 0.759310344827759
-0.228366103889595 -0.121924609569236 0.759310344827759
-0.218243463902105 -0.118298364870515 0.759310344827759
-0.209845276397078 -0.0987633649002201 0.759310344827759
-0.204217518956118 -0.101853829386792 0.759310344827759
-0.19289340406983 -0.0831357641798877 0.759310344827759
-0.185195838392916 -0.0800162190642461 0.759310344827759
-0.175925020787257 -0.0658418054751813 0.759310344827759
-0.169302915774853 -0.0651064937714074 0.759310344827759
-0.156655790160405 -0.0520254252448054 0.759310344827759
-0.155659210073756 -0.044584627454356 0.759310344827759
-0.139778159648855 -0.0286008043063134 0.759310344827759
-0.128732246903422 -0.0224779613117327 0.759310344827759
-0.122120261046604 -0.0207822013624949 0.759310344827759
-0.120086161763503 -0.00726749416944121 0.759310344827759
-0.11459180495451 -0.00462674971978237 0.759310344827759
-0.0996689457449981 0.00714661993592369 0.759310344827759
-0.0957967563547237 0.0188893113624691 0.759310344827759
-0.084162288863502 0.0223464316229164 0.759310344827759
-0.0763394862982153 0.0361863225548886 0.759310344827759
-0.0660685510068353 0.0409335301930072 0.759310344827759
-0.0596704601863565 0.0546292647120903 0.759310344827759
-0.0446627794774939 0.0719324527263758 0.759310344827759
-0.0409835442689426 0.0704650384550568 0.759310344827759
-0.033962425273636 0.0831807182393918 0.759310344827759
-0.0119105926515896 0.10015741879422 0.759310344827759
-0.0107959128628666 0.104456732300917 0.759310344827759
-0.0019062078016506 0.11126284317407 0.759310344827759
0.0129651269351713 0.122644001075963 0.759310344827759
0.0229113928653832 0.133400133905374 0.759310344827759
0.0286390703158227 0.145823091883209 0.759310344827759
0.0486437414305125 0.159563804454315 0.759310344827759
0.0535204936410192 0.167476965766311 0.759310344827759
0.0616240143386762 0.180734272085994 0.759310344827759
0.0738461996451903 0.189464674541259 0.759310344827759
0.0815280585218681 0.211550044428658 0.759310344827759
0.0999999952145358 0.212880058223581 0.759310344827759
0.103194128898228 0.219148589176062 0.759310344827759
0.108378591274197 0.22985522781513 0.759310344827759
0.134860663224874 0.250340183227408 0.759310344827759
0.139613206932029 0.266298969447668 0.759310344827759
0.143570978880572 0.268629380509614 0.759310344827759
0.151782371700103 0.282651308603868 0.759310344827759
0.170664885552606 0.293285373655968 0.759310344827759
0.182135241413864 0.305238938985719 0.759310344827759
0.18898017356809 0.312488709576966 0.759310344827759
0.199721176908769 0.326309629707229 0.759310344827759
0.209672277599592 0.334720519922005 0.759310344827759
0.217969424426355 0.355010274840047 0.759310344827759
-0.442117020167815 -0.336521540628369 0.543830037053479
-0.441045339900683 -0.340455093152113 0.558953614423146
-0.443574233851108 -0.340255240411648 0.56375211862188
-0.441626052239241 -0.339999259374414 0.568358749433103
-0.442484638268057 -0.33917086195374 0.570407613378213
-0.440238479532124 -0.338126136356975 0.578967446476226
-0.441332781414415 -0.334583362098734 0.592356844371984
-0.433745684848861 -0.333299589429625 0.590323714939244
-0.440155571651941 -0.336845045865498 0.607127540596443
-0.440581197878376 -0.335462435330631 0.619569786203551
-0.436177607168621 -0.333429159997972 0.612791445797559
-0.437656550277437 -0.335947823435296 0.625086769392206
-0.428566965204343 -0.330848305878297 0.628549637768453
-0.441661616722045 -0.336206896551724 0.65306105814022
-0.439612661058755 -0.336206896551724 0.657050720706193
-0.443535824706671 -0.336206896551724 0.669625481259758
-0.43791001718416 -0.336206896551724 0.666440358308609
-0.445730982681289 -0.336206896551724 0.684835127348696
-0.465579711343542 -0.362068965517241 0.726726940232195
-0.465914528027413 -0.362068965517241 0.733844572995332
-0.466747139839418 -0.362068965517241 0.741340511778883
-0.461853660849613 -0.362068965517241 0.73736370116582
-0.457910711565946 -0.362068965517242 0.748021617613658
-0.464535542779823 -0.357166236334812 0.759310344827759
-0.457124714227134 -0.355957772295937 0.759310344827759
-0.457214476708242 -0.349376840880022 0.759310344827759
-0.449049974634247 -0.34430139957783 0.759310344827759
-0.44069894590003 -0.336890575383899 0.759310344827759
-0.431749427422051 -0.32862242188021 0.759310344827759
-0.425386247190832 -0.324384452395893 0.759310344827759
-0.420708281417487 -0.31040413115045 0.759310344827759
-0.416332733664325 -0.305303901401616 0.759310344827759
-0.409057309493247 -0.301733373249369 0.759310344827759
-0.402784194843015 -0.29403039705941 0.759310344827759
-0.390982930147019 -0.288342274448768 0.759310344827759
-0.389740103336437 -0.279425389754007 0.759310344827759
-0.379285730501932 -0.273530393837726 0.759310344827759
-0.372036545583638 -0.259107405542461 0.759310344827759
-0.363291024444487 -0.256849565861308 0.759310344827759
-0.363296715295423 -0.25897916530089 0.759310344827759
-0.355213376033189 -0.249263022944217 0.759310344827759
-0.35100892902868 -0.235100527735712 0.759310344827759
-0.344443004947888 -0.234855941820292 0.759310344827759
-0.335873279663245 -0.22607671367559 0.759310344827759
-0.332389442694643 -0.217050599369767 0.759310344827759
-0.322236554094685 -0.203355463995763 0.759310344827759
-0.318459377847739 -0.203345996451245 0.759310344827759
-0.303656638597938 -0.197151056076327 0.759310344827759
-0.301721160964199 -0.187309875382244 0.759310344827759
-0.291398964955463 -0.180976653338557 0.759310344827759
-0.280205326070285 -0.170281696124939 0.759310344827759
-0.275787198037815 -0.165629426524374 0.759310344827759
-0.272198891982663 -0.154359805184326 0.759310344827759
-0.268051301072837 -0.152287575434099 0.759310344827759
-0.258624598074842 -0.136463472181986 0.759310344827759
-0.246473760388669 -0.134403983892906 0.759310344827759
-0.244068677390402 -0.120308211054067 0.759310344827759
-0.231098463588742 -0.113693868053908 0.759310344827759
-0.221001435585944 -0.106899047216676 0.759310344827759
-0.210792856054872 -0.092884621401953 0.759310344827759
-0.207754922143407 -0.0864907940554346 0.759310344827759
-0.19412254671163 -0.081835638285718 0.759310344827759
-0.191062011261622 -0.0773193747028704 0.759310344827759
-0.183460470145102 -0.0689616735470727 0.759310344827759
-0.181517521764675 -0.0607776155517598 0.759310344827759
-0.162302632392402 -0.0472176304458607 0.759310344827759
-0.163728311294389 -0.0412006070900915 0.759310344827759
-0.150950901912916 -0.0286784669474968 0.759310344827759
-0.141121543702612 -0.0195065473907214 0.759310344827759
-0.136088346950593 -0.00469327787915677 0.759310344827759
-0.126096197595241 -0.000455080435195703 0.759310344827759
-0.115760410460798 0.0106628961510227 0.759310344827759
-0.10923137796193 0.017087968582839 0.759310344827759
-0.0922901249983512 0.0258586255591866 0.759310344827759
-0.0865628261267105 0.0364214092214831 0.759310344827759
-0.08584086977622 0.038004403618207 0.759310344827759
-0.0772974187153965 0.0590867490182164 0.759310344827759
-0.0624496562598579 0.0552169426557071 0.759310344827759
-0.0554239988779082 0.0761828238817328 0.759310344827759
-0.0419373072766128 0.0867554881466473 0.759310344827759
-0.0338472302531874 0.0965852253373536 0.759310344827759
-0.0336686692311283 0.0994181749830042 0.759310344827759
-0.0199410123347267 0.108117677178055 0.759310344827759
-0.00732771669062803 0.119716239348843 0.759310344827759
0.00809698439886806 0.13823704896191 0.759310344827759
0.0139083304641394 0.145483236006527 0.759310344827759
0.0236243893695265 0.156395722566363 0.759310344827759
0.0271980793070423 0.163515073320327 0.759310344827759
0.038020109913782 0.168489262495262 0.759310344827759
0.0586653746195536 0.188180906152983 0.759310344827759
0.0554070749161898 0.19146390918576 0.759310344827759
0.0786860729580852 0.220388753954447 0.759310344827759
0.0878169487027167 0.229387942542647 0.759310344827759
0.0948312813143267 0.232879602562162 0.759310344827759
0.10817143617425 0.242037158310277 0.759310344827759
0.117069474313253 0.262526797863446 0.759310344827759
0.132499946026065 0.265701983396855 0.759310344827759
0.142784376505542 0.274042297432458 0.759310344827759
0.159676238486488 0.29021967907836 0.759310344827759
0.157302067182117 0.30024992417705 0.759310344827759
0.17455165377089 0.310457738010115 0.759310344827759
0.18376532104817 0.325550758095559 0.759310344827759
0.192956347694321 0.337732610730842 0.759310344827759
0.209515399058393 0.351884701054837 0.759310344827759
-0.451086154412299 -0.333478994167973 0.546744937268619
-0.453774628287264 -0.335562622008302 0.560601222402442
-0.450975629274985 -0.336198943459902 0.568044954706367
-0.453236250917014 -0.333937910996707 0.573785786364717
-0.447212333240458 -0.335335438287863 0.578542874358022
-0.448717618636233 -0.33315049328555 0.585309885978126
-0.44783024397395 -0.331774849176932 0.592864665618198
-0.444825395021431 -0.331938031580024 0.597551570000494
-0.450027342325132 -0.331221798245181 0.611108710336867
-0.448651584951738 -0.330524046546487 0.614398033927755
-0.449390378747525 -0.331115052420603 0.629311721499779
-0.449399515217952 -0.33477715785491 0.634331473564903
-0.448279424766491 -0.336206896551724 0.639431524406446
-0.449017289306526 -0.336206896551724 0.653796139061716
-0.456766597479398 -0.336206896551724 0.671802693995594
-0.447637171344564 -0.336206896551724 0.67339436791419
-0.455177094690134 -0.336206896551724 0.686728334057505
-0.452095402960376 -0.336206896551724 0.686404806743116
-0.475989519076872 -0.361044801010346 0.725681513500237
-0.47962202924809 -0.36007147284347 0.739772192741899
-0.476261856394244 -0.360971828446087 0.740830457737404
-0.471858111759127 -0.362068965517241 0.75190085186259
-0.468805940865332 -0.358093827187632 0.759310344827759
-0.465170823172722 -0.348443709218873 0.759310344827759
-0.461191414503341 -0.351221910043734 0.759310344827759
-0.457457132627327 -0.343907549465943 0.759310344827759
-0.450715501192437 -0.334840541955179 0.759310344827759
-0.445254926182932 -0.331529544468393 0.759310344827759
-0.438425275092889 -0.327836331435041 0.759310344827759
-0.427294481560132 -0.31617828918709 0.759310344827759
-0.426410372137924 -0.308958419242081 0.759310344827759
-0.420844907151598 -0.305547482707382 0.759310344827759
-0.41918649760367 -0.299483586369554 0.759310344827759
-0.404644696962817 -0.284308655276874 0.759310344827759
-0.398100069872366 -0.285112934655682 0.759310344827759
-0.396078824239724 -0.27048968927524 0.759310344827759
-0.385757779069962 -0.269273051229165 0.759310344827759
-0.380169948136176 -0.2663532545407 0.759310344827759
-0.371492302578932 -0.251515562787378 0.759310344827759
-0.367352048347189 -0.25178094625372 0.759310344827759
-0.360560431208379 -0.234170582564249 0.759310344827759
-0.348460578320342 -0.228170076001385 0.759310344827759
-0.346586291710384 -0.224535448452543 0.759310344827759
-0.336100830929828 -0.219373461323882 0.759310344827759
-0.335954653648266 -0.212955468438622 0.759310344827759
-0.325503892324772 -0.205865215764898 0.759310344827759
-0.316572216594962 -0.194291551697098 0.759310344827759
-0.312991823202288 -0.187409302710809 0.759310344827759
-0.307162798612652 -0.181398192202766 0.759310344827759
-0.296227282362789 -0.174473706039387 0.759310344827759
-0.290485395456816 -0.170251010315691 0.759310344827759
-0.278724278745447 -0.159282152170726 0.759310344827759
-0.272296367793905 -0.148453859892215 0.759310344827759
-0.275007451753847 -0.144288590146131 0.759310344827759
-0.267143248678594 -0.135069206441133 0.759310344827759
-0.2559984829921 -0.127014366273329 0.759310344827759
-0.248049892287266 -0.114656684615566 0.759310344827759
-0.240610056945661 -0.104202215624949 0.759310344827759
-0.238441914327209 -0.105553237881016 0.759310344827759
-0.220062911047762 -0.0955039805511073 0.759310344827759
-0.211146498375231 -0.0777053551216088 0.759310344827759
-0.205825726387828 -0.0786130127917264 0.759310344827759
-0.196477976787193 -0.0644566969481066 0.759310344827759
-0.192486180401763 -0.0663475780504873 0.759310344827759
-0.185600261100675 -0.0503080213146813 0.759310344827759
-0.175643954735829 -0.0380543928370104 0.759310344827759
-0.158294935099979 -0.0238591823353719 0.759310344827759
-0.155669391349973 -0.0206191814937426 0.759310344827759
-0.15652319439422 -0.013191886977722 0.759310344827759
-0.148217869846303 -0.00973134490782976 0.759310344827759
-0.132751102068649 0.00788824780126056 0.759310344827759
-0.124341774337178 0.0174796104626211 0.759310344827759
-0.112475638928169 0.0241282589470491 0.759310344827759
-0.109648696359112 0.0290978079307423 0.759310344827759
-0.0927354565798702 0.0514160069479216 0.759310344827759
-0.0897553769922442 0.0479985449979427 0.759310344827759
-0.0767387773231127 0.0636594539586198 0.759310344827759
-0.0771117424194611 0.0685115704133762 0.759310344827759
-0.0615444577321179 0.0832504444230819 0.759310344827759
-0.0502718393981726 0.0957630060748442 0.759310344827759
-0.0381846104106999 0.102279442101396 0.759310344827759
-0.0370921978932346 0.104048790303731 0.759310344827759
-0.0224757625378881 0.115960630444645 0.759310344827759
-0.0171769525054654 0.136303798982338 0.759310344827759
-0.00277582297754746 0.139225792952333 0.759310344827759
0.00863863298753748 0.151878994606641 0.759310344827759
0.0112465580111694 0.161972801967161 0.759310344827759
0.0296626709930489 0.174380250612601 0.759310344827759
0.0377331266901049 0.178650652952203 0.759310344827759
0.0448989537478864 0.194927116999512 0.759310344827759
0.0587906613613451 0.204228159609502 0.759310344827759
0.0709711702635099 0.226652652939114 0.759310344827759
0.0712538386575362 0.223526331746042 0.759310344827759
0.089824559034246 0.233870095872219 0.759310344827759
0.098329024261766 0.251825913832438 0.759310344827759
0.109153800205977 0.258719613300985 0.759310344827759
0.111798275936425 0.270720094828854 0.759310344827759
0.13453990178917 0.28861592937478 0.759310344827759
0.145865310047797 0.299746909421907 0.759310344827759
0.149244490807068 0.31182727901064 0.759310344827759
0.16750874942791 0.316331122053816 0.759310344827759
0.17631564662923 0.334866295529346 0.759310344827759
0.184123128974383 0.338943843183169 0.759310344827759
0.193773674684156 0.356678268882073 0.759310344827759
-0.463250828609562 -0.330927761362939 0.557525539459724
-0.459954334921769 -0.331671375365465 0.554830591155354
-0.455475756329203 -0.334396808620175 0.567776781786469
-0.45771714914553 -0.331119083623804 0.577958314904213
-0.458247781525739 -0.329214824270632 0.585258513910887
-0.457218403701276 -0.328517071657713 0.590130334951149
-0.454982872871098 -0.328793968684917 0.59294338807793
-0.457349852477801 -0.328960095406094 0.603479153924638
-0.457182572624303 -0.326859510039611 0.614737669762538
-0.457497483920408 -0.32917886397322 0.625622068070323
-0.461945319990662 -0.336206896551724 0.638875502716879
-0.462611207134237 -0.336206896551724 0.64044587099434
-0.463983383675308 -0.336206896551724 0.651604945945465
-0.458230578432201 -0.336206896551724 0.659637617580884
-0.463902262746599 -0.336206896551724 0.666051168152376
-0.463130674078691 -0.336206896551724 0.680885014185629
-0.464358927962547 -0.336206896551724 0.691257379324512
-0.462614805104859 -0.336206896551724 0.692296582903082
-0.484185653868966 -0.358848653311747 0.726753919056384
-0.485610923154276 -0.358466753557752 0.739672915935947
-0.483241761419514 -0.35910156853132 0.745796517069727
-0.47906425761219 -0.36022092730287 0.756983932677588
-0.474533330309402 -0.352630377151134 0.759310344827759
-0.472817077664626 -0.344725203672222 0.759310344827759
-0.470767534214436 -0.346945980592478 0.759310344827759
-0.465779937175814 -0.3365879311824 0.759310344827759
-0.453916567946141 -0.32812710404832 0.759310344827759
-0.451264356252094 -0.324375168291157 0.759310344827759
-0.446032543873002 -0.311936197602506 0.759310344827759
-0.439037511383801 -0.306732822682234 0.759310344827759
-0.430319504364453 -0.305724913335079 0.759310344827759
-0.425806280886171 -0.296090312885006 0.759310344827759
-0.421893079893242 -0.284722620722422 0.759310344827759
-0.416025723765188 -0.279649669848116 0.759310344827759
-0.409991447847434 -0.27654136566523 0.759310344827759
-0.399559563380802 -0.272111568507998 0.759310344827759
-0.392967480818871 -0.255720418099244 0.759310344827759
-0.385804947799295 -0.25859547671505 0.759310344827759
-0.386021281496715 -0.248137977953422 0.759310344827759
-0.369495159290296 -0.240587223867523 0.759310344827759
-0.371667715949579 -0.231740080950174 0.759310344827759
-0.360477151298594 -0.224826693397587 0.759310344827759
-0.35649859757611 -0.218252399240065 0.759310344827759
-0.344039535356492 -0.206965647874257 0.759310344827759
-0.337847606186878 -0.203316090435517 0.759310344827759
-0.335976824924768 -0.198193073602569 0.759310344827759
-0.32122870088664 -0.185668187832654 0.759310344827759
-0.315727022772272 -0.180034407901017 0.759310344827759
-0.309253540540123 -0.171886748217596 0.759310344827759
-0.31191255067382 -0.166250726438174 0.759310344827759
-0.294757477232791 -0.158893516512734 0.759310344827759
-0.296123377628828 -0.155829551466795 0.759310344827759
-0.280856999103019 -0.146084891831881 0.759310344827759
-0.272920210744447 -0.133023914879845 0.759310344827759
-0.263153348861998 -0.119012932830679 0.759310344827759
-0.254799105978531 -0.119933865413331 0.759310344827759
-0.255379996129486 -0.109838887055818 0.759310344827759
-0.248355354893664 -0.102081021960197 0.759310344827759
-0.235494314128132 -0.0966494614973297 0.759310344827759
-0.227766471645579 -0.0800488411464313 0.759310344827759
-0.225597404293325 -0.0750868081206448 0.759310344827759
-0.21606946602108 -0.0700343277268847 0.759310344827759
-0.201384589496078 -0.0546152158721791 0.759310344827759
-0.191460562796835 -0.0487939599709968 0.759310344827759
-0.190225177035072 -0.039795432167273 0.759310344827759
-0.175715329507964 -0.0334706732371169 0.759310344827759
-0.172751214654749 -0.0253312684068428 0.759310344827759
-0.167751783582294 -0.016892113940267 0.759310344827759
-0.150912421822592 -0.00828419037963404 0.759310344827759
-0.148303787416053 -0.00433252598160638 0.759310344827759
-0.147042294667958 0.0126666846702055 0.759310344827759
-0.130204074549438 0.0148755827287581 0.759310344827759
-0.124958857385538 0.0277332080444451 0.759310344827759
-0.113305611134823 0.0398885811734475 0.759310344827759
-0.102670404554618 0.0516385804121029 0.759310344827759
-0.100743708240863 0.0507330828708815 0.759310344827759
-0.0820184597647148 0.0661372218855168 0.759310344827759
-0.0703738802924603 0.0809934892790809 0.759310344827759
-0.0656024401263749 0.0896637927790293 0.759310344827759
-0.0593243674954251 0.0983124144901573 0.759310344827759
-0.0542384802190275 0.107312760070541 0.759310344827759
-0.0356459125593268 0.117079162644548 0.759310344827759
-0.0285184457715036 0.13391377706497 0.759310344827759
-0.0218528698618308 0.13146348586984 0.759310344827759
-0.0100914340873788 0.14534063369026 0.759310344827759
0.00184201716236431 0.160357689467003 0.759310344827759
0.0143692223532998 0.171329429349228 0.759310344827759
0.0182673865851293 0.178243250479209 0.759310344827759
0.0347547938312042 0.190691021408844 0.759310344827759
0.038992998811909 0.204922283507172 0.759310344827759
0.0458514422559802 0.206905420591519 0.759310344827759
0.065186177639704 0.234395668969114 0.759310344827759
0.0669995171611715 0.238016714796918 0.759310344827759
0.0785768031423776 0.246641962339531 0.759310344827759
0.0919927934754035 0.258135444467379 0.759310344827759
0.108614019050511 0.278267721869987 0.759310344827759
0.107282121635626 0.281657725986838 0.759310344827759
0.115189387842241 0.292358837195468 0.759310344827759
0.132324237963012 0.306062541102183 0.759310344827759
0.14102918560842 0.314108799594722 0.759310344827759
0.160597282718779 0.339707323825766 0.759310344827759
0.162323296371632 0.342886593711584 0.759310344827759
0.178049604348805 0.346645197338399 0.759310344827759
-0.468201751723291 -0.329964191832357 0.563015338082309
-0.466162999374633 -0.330036129679637 0.567490219278083
-0.466975465506455 -0.327055702675882 0.573899632914777
-0.466129391530307 -0.326425823759936 0.578697100410993
-0.46281086498398 -0.327001730311566 0.586658356927737
-0.464104061718062 -0.325081492090382 0.589887813882103
-0.461635196746267 -0.325839996395935 0.593803609960489
-0.462633926711564 -0.324470499912559 0.597355957992687
-0.459711884098172 -0.32730494679335 0.610863188073535
-0.465834273017378 -0.324045299250498 0.624118126956336
-0.470278898509152 -0.336206896551724 0.644783374147849
-0.474137931034483 -0.333002965734008 0.652697328299724
-0.474137931034483 -0.335555784237609 0.66350370662932
-0.469044576530371 -0.336206896551724 0.667566639707399
-0.474137931034483 -0.334782645620146 0.678613204952348
-0.474137931034483 -0.335713426758496 0.681050278160585
-0.474137931034483 -0.335654677603354 0.699151416502776
-0.49164738652313 -0.352776344804961 0.729158875467346
-0.490553318549729 -0.353870412778361 0.735847601780726
-0.493724627005653 -0.350699104322438 0.739719197420967
-0.490869743663291 -0.3535539876648 0.745432901336514
-0.490838968893245 -0.353584762434846 0.757798211909172
-0.486858547536358 -0.344847987254142 0.759310344827759
-0.477410264387621 -0.335876887743525 0.759310344827759
-0.477351952644268 -0.337726433731874 0.759310344827759
-0.46980854833768 -0.327245715064331 0.759310344827759
-0.462559991468428 -0.321546866157245 0.759310344827759
-0.452845303122722 -0.321961893716939 0.759310344827759
-0.44806761420459 -0.312130489516255 0.759310344827759
-0.44589007829897 -0.304008066852244 0.759310344827759
-0.434461258111006 -0.295138864761623 0.759310344827759
-0.432008731573253 -0.292333306840441 0.759310344827759
-0.420058839501209 -0.285196145059688 0.759310344827759
-0.413599867915481 -0.272266863197709 0.759310344827759
-0.412453659226859 -0.271558698628355 0.759310344827759
-0.400572262812699 -0.260209375945806 0.759310344827759
-0.40270681190652 -0.254323906826313 0.759310344827759
-0.395238272303 -0.246242728258844 0.759310344827759
-0.391323405430018 -0.243061435029211 0.759310344827759
-0.378168417122716 -0.234322249664714 0.759310344827759
-0.373245448514407 -0.228136255333341 0.759310344827759
-0.371004953902616 -0.222586478416004 0.759310344827759
-0.363417980764605 -0.214667110896183 0.759310344827759
-0.346376430277748 -0.200051085862052 0.759310344827759
-0.349032370431434 -0.200968175835615 0.759310344827759
-0.338262252478402 -0.190877829234058 0.759310344827759
-0.33417262998478 -0.184895642795039 0.759310344827759
-0.325115843962222 -0.174035314671079 0.759310344827759
-0.321220687460063 -0.169761329248579 0.759310344827759
-0.303972294140644 -0.151534854503111 0.759310344827759
-0.303533499641121 -0.150028095398714 0.759310344827759
-0.293106723186065 -0.138535817462123 0.759310344827759
-0.289671390408501 -0.135183659807101 0.759310344827759
-0.279002504995077 -0.126829353996895 0.759310344827759
-0.272728390292611 -0.122244665604377 0.759310344827759
-0.266892444660119 -0.111285149583324 0.759310344827759
-0.25717385609507 -0.10879925351537 0.759310344827759
-0.254353756064682 -0.0997391782097949 0.759310344827759
-0.242945096551063 -0.0824185017402373 0.759310344827759
-0.230744411955416 -0.0733436025020086 0.759310344827759
-0.226224775053962 -0.0663284077397756 0.759310344827759
-0.220250735592265 -0.0591775169165629 0.759310344827759
-0.212006722514496 -0.0566369169838901 0.759310344827759
-0.208588196216049 -0.0449719206355286 0.759310344827759
-0.199698433127253 -0.0358009159151008 0.759310344827759
-0.188681849980885 -0.0256150383485934 0.759310344827759
-0.183006397522329 -0.0193156068072513 0.759310344827759
-0.17767609662117 -0.0148868523149176 0.759310344827759
-0.160454753380904 0.00810685936209883 0.759310344827759
-0.157485527935549 0.0105717126379453 0.759310344827759
-0.148895637922102 0.0161211191291747 0.759310344827759
-0.135904424602692 0.0300828761763705 0.759310344827759
-0.131275144510372 0.033364481174104 0.759310344827759
-0.12017664366413 0.0414245561799709 0.759310344827759
-0.114033206615741 0.0470785603111952 0.759310344827759
-0.0939491040628662 0.0716956355348847 0.759310344827759
-0.0941007732739551 0.0760222632033677 0.759310344827759
-0.0776220545165282 0.0917269875661446 0.759310344827759
-0.0679648600902166 0.0976940196315809 0.759310344827759
-0.068861811854149 0.108539579538606 0.759310344827759
-0.0580889434269336 0.112413644168373 0.759310344827759
-0.044080737828035 0.126266593095042 0.759310344827759
-0.0432717284667781 0.129293819344904 0.759310344827759
-0.0320266472630087 0.144154511293542 0.759310344827759
-0.0188184366725054 0.157586316361894 0.759310344827759
-0.00852113679035953 0.174524979341231 0.759310344827759
0.00310497712675011 0.179946107966654 0.759310344827759
0.0157704395084675 0.195024079663236 0.759310344827759
0.0140289445656178 0.196582154795082 0.759310344827759
0.026399779323925 0.202724174504006 0.759310344827759
0.0429156341063389 0.220969646042279 0.759310344827759
0.0575932653306592 0.23586427022149 0.759310344827759
0.062527848675525 0.247124995768924 0.759310344827759
0.0728208269375487 0.247721403498527 0.759310344827759
0.0847259468491961 0.26418166482429 0.759310344827759
0.0945688767808497 0.280169209759354 0.759310344827759
0.100461698099881 0.284663302172447 0.759310344827759
0.113141967747342 0.294053139311963 0.759310344827759
0.122093801688172 0.314254222614409 0.759310344827759
0.145941287961563 0.335521355870805 0.759310344827759
0.149902527695586 0.345063701209977 0.759310344827759
0.160280838322893 0.352645701371645 0.759310344827759
-0.467648782170847 -0.320776100770344 0.544124988386439
-0.470892365243712 -0.322857672996346 0.561918863636573
-0.469613123621404 -0.320680689316128 0.573912456223825
-0.467217922156914 -0.323952976029111 0.578418679084265
-0.467184046942797 -0.32152051212863 0.582932091021687
-0.464815733782342 -0.322253702268587 0.591879806523591
-0.466289762350654 -0.317219198409184 0.599554414312272
-0.467178266208258 -0.319907358183447 0.607836857178078
-0.464278396717091 -0.321293385576156 0.613871975870578
-0.465759606549365 -0.322815808961958 0.625633389953858
-0.474137931034483 -0.327349728915673 0.643805639236657
-0.473287716631226 -0.316996190002202 0.636070046445577
-0.474137931034483 -0.326786370928148 0.654768562558313
-0.474137931034483 -0.322644291743419 0.666055221091651
-0.474137931034483 -0.321481952032561 0.663247992593163
-0.474137931034483 -0.320659175558273 0.673365520706438
-0.474137931034483 -0.327550076069531 0.684661397026727
-0.495082470321929 -0.349341261006162 0.728474401823625
-0.494725838178625 -0.349697893149466 0.737750334784634
-0.495690440713483 -0.348733290614609 0.734578890844698
-0.494193885450141 -0.350229845877949 0.747956174179854
-0.495687524517235 -0.348736206810856 0.752178035265443
-0.487559620336174 -0.34315555695593 0.759310344827759
-0.487641998461621 -0.341100982713981 0.759310344827759
-0.481075106872382 -0.332112543843172 0.759310344827759
-0.474175489613636 -0.326795404513794 0.759310344827759
-0.472773106612355 -0.324385083886162 0.759310344827759
-0.465411059331121 -0.31321283481566 0.759310344827759
-0.45409063037768 -0.306106139224416 0.759310344827759
-0.442899482532734 -0.296962177160804 0.759310344827759
-0.441489442316539 -0.287713519915198 0.759310344827759
-0.438062454625175 -0.282649697139202 0.759310344827759
-0.430077889154734 -0.27970871898737 0.759310344827759
-0.427604961080579 -0.275200460532191 0.759310344827759
-0.422123342783796 -0.267644896158559 0.759310344827759
-0.411545958982493 -0.255261995003173 0.759310344827759
-0.399891563431801 -0.24816647679843 0.759310344827759
-0.400508996182105 -0.244658351332017 0.759310344827759
-0.395134012280262 -0.234337130763149 0.759310344827759
-0.385191961415902 -0.222199337710534 0.759310344827759
-0.374879687255524 -0.219252899051482 0.759310344827759
-0.37153689998102 -0.209700708720299 0.759310344827759
-0.368622112160803 -0.205481596957125 0.759310344827759
-0.364687989631239 -0.204740870873167 0.759310344827759
-0.356692312599248 -0.196419851063824 0.759310344827759
-0.342500889405036 -0.183484303990837 0.759310344827759
-0.342589423936768 -0.176480019766634 0.759310344827759
-0.334312827819144 -0.171687015690842 0.759310344827759
-0.325830581037366 -0.164880533670806 0.759310344827759
-0.312878724449565 -0.149290651092017 0.759310344827759
-0.308194501462523 -0.147035522835528 0.759310344827759
-0.302154476766008 -0.138698546020665 0.759310344827759
-0.292452424662465 -0.13422659759634 0.759310344827759
-0.286295599985802 -0.1161693093424 0.759310344827759
-0.282508538513383 -0.119919952316549 0.759310344827759
-0.274096140126366 -0.10331161549226 0.759310344827759
-0.259257785064295 -0.0952761489198808 0.759310344827759
-0.255767745893878 -0.0936212619253636 0.759310344827759
-0.255443024651821 -0.0823798654742414 0.759310344827759
-0.242722659135868 -0.0703262448108988 0.759310344827759
-0.23676537112263 -0.0624015371327888 0.759310344827759
-0.22567147031568 -0.0604558008898944 0.759310344827759
-0.220219385916478 -0.0472004381144997 0.759310344827759
-0.211047517081138 -0.0414497453832251 0.759310344827759
-0.201329836526869 -0.0288830817009431 0.759310344827759
-0.199494597446511 -0.0211378906893446 0.759310344827759
-0.184351943828514 -0.00518799091822157 0.759310344827759
-0.170422751682331 0.00705675747267674 0.759310344827759
-0.169124258968648 0.00535631425957703 0.759310344827759
-0.161377357582233 0.0086602617320931 0.759310344827759
-0.158810532243116 0.0201847856011403 0.759310344827759
-0.143266324754209 0.035061130992683 0.759310344827759
-0.141577455178508 0.0436531301845282 0.759310344827759
-0.132007301615855 0.0523487171928026 0.759310344827759
-0.120419333941165 0.0589455868571189 0.759310344827759
-0.107519627754986 0.0759234613200406 0.759310344827759
-0.0970464425745493 0.0890014058743373 0.759310344827759
-0.0978041897907713 0.0877573423210893 0.759310344827759
-0.0817745450233614 0.099010322192991 0.759310344827759
-0.0690463646333316 0.114940345886041 0.759310344827759
-0.0626663776369926 0.12919642073985 0.759310344827759
-0.0565319696009705 0.125388476574322 0.759310344827759
-0.0461081224049331 0.142661401349794 0.759310344827759
-0.0304968100858194 0.155985231860001 0.759310344827759
-0.0327512167256294 0.160051880952439 0.759310344827759
-0.0145179399857645 0.173179610407308 0.759310344827759
-0.00657517651149085 0.188429000447607 0.759310344827759
0.00188908814594566 0.201569435945833 0.759310344827759
0.0145175703813986 0.209520229911926 0.759310344827759
0.0206681974706296 0.211351384119833 0.759310344827759
0.0259865170910734 0.223348172596735 0.759310344827759
0.0438148169976677 0.247902845322703 0.759310344827759
0.0506158030933067 0.245688077486453 0.759310344827759
0.0647234168668502 0.265597957643974 0.759310344827759
0.0676777541847028 0.273555126512818 0.759310344827759
0.0838641927687453 0.284456838748652 0.759310344827759
0.100787655348278 0.300145037988456 0.759310344827759
0.109359447519755 0.3042016862922 0.759310344827759
0.122393386745287 0.322757188598678 0.759310344827759
0.125052658178089 0.332436889567694 0.759310344827759
0.144727483007099 0.345803515993357 0.759310344827759
0.148650524715807 0.356244473247673 0.759310344827759
-0.473332089333605 -0.30788897914316 0.545621405403004
-0.474514429833724 -0.30946839087446 0.55358073833915
-0.473295637503381 -0.314730339760707 0.568634712413483
-0.475789679070854 -0.308497517161141 0.569014695235691
-0.470649174756617 -0.313380154211096 0.582527825359774
-0.471955833376885 -0.311226857771849 0.580730434284808
-0.469596869165834 -0.309827335973877 0.593466139727765
-0.470189553101806 -0.309221135711141 0.601077323683238
-0.470658428418273 -0.309741680099748 0.609732692668524
-0.469947948723043 -0.311146863486806 0.619761620495727
-0.469015531468534 -0.315560202565499 0.624983225523863
-0.473700696216396 -0.309072480567678 0.637308985201085
-0.474137931034483 -0.319331230444114 0.654063706121805
-0.474137931034483 -0.314323077437567 0.660943103354899
-0.474137931034483 -0.311513069834325 0.663806531112826
-0.474137931034483 -0.315456163831534 0.675826194173932
-0.474137931034483 -0.311678412711635 0.676112759942166
-0.474137931034483 -0.317073214681718 0.689821472844074
-0.498283228438116 -0.34064332931301 0.737433042972326
