ply
format ascii 1.0
element vertex 861
property float x
property float y
property float z
end_header
0.33634901874889 0.0929524675745706 0.759310344827759
0.339036641190274 0.102365111197242 0.759310344827759
0.33968568714587 0.126642209047446 0.759310344827759
0.349694102973832 0.13137134795522 0.759310344827759
0.344471620914157 0.153258275551599 0.759310344827759
0.352456078170508 0.176623143005061 0.759310344827759
0.350717452102839 0.186530212780991 0.759310344827759
0.350716084050317 0.198343585228323 0.759310344827759
0.359708384211914 0.220979808551194 0.759310344827759
0.360923567635965 0.233655972423415 0.759310344827759
0.355455307911947 0.249461694338552 0.759310344827759
0.358740568210035 0.264397608603138 0.759310344827759
0.35741413604172 0.286898163994278 0.759310344827759
0.368484342859999 0.302237632633066 0.759310344827759
0.361955582327992 0.31272282317172 0.759310344827759
0.367977262888221 0.329416897874449 0.759310344827759
0.371169715391879 0.336442357563837 0.759310344827759
0.301877474736048 -0.318965517241376 0.656170780400588
0.3015632563086 -0.318965517241376 0.670637382035852
0.308416309456958 -0.318965517241376 0.676999535750895
0.306131566512872 -0.318965517241376 0.682475075204422
0.299355208015021 -0.362068965517241 0.7349254309507
0.29592225490766 -0.362068965517241 0.74470750851957
0.29879689907659 -0.362068965517241 0.745111033458005
0.302286972079991 -0.362068965517241 0.758439252057646
0.298017638433123 -0.357151610427377 0.759310344827759
0.302736046474457 -0.339330759608789 0.759310344827759
0.302999182359269 -0.33240327054834 0.759310344827759
0.305023655257813 -0.3153102437675 0.759310344827759
0.303704289107861 -0.309821691417842 0.759310344827759
0.307284057813342 -0.29748885354764 0.759310344827759
0.306668363764777 -0.287656642171319 0.759310344827759
0.31066975457913 -0.280695407136633 0.759310344827759
0.308707386021035 -0.269316934451265 0.759310344827759
0.307468003190846 -0.25829203928209 0.759310344827759
0.310433460330086 -0.236821814238934 0.759310344827759
0.312859810831233 -0.228184429800641 0.759310344827759
0.309998999785371 -0.227522714940472 0.759310344827759
0.318626869091047 -0.210029594682406 0.759310344827759
0.320868081676972 -0.198094766486413 0.759310344827759
0.31996638541632 -0.178865226212575 0.759310344827759
0.322041211029674 -0.180772062770343 0.759310344827759
0.321415022231474 -0.159029696830344 0.759310344827759
0.327022402582914 -0.145339742614574 0.759310344827759
0.32642014044121 -0.138966504091896 0.759310344827759
0.325741584915049 -0.129082573978716 0.759310344827759
0.328309479000521 -0.11660611541972 0.759310344827759
0.328603241659412 -0.104707679268328 0.759310344827759
0.332557962943186 -0.0922704062580825 0.759310344827759
0.331023469838638 -0.0792133541610465 0.759310344827759
0.337427026637418 -0.0638377436032566 0.759310344827759
0.330782729603311 -0.0488634763890211 0.759310344827759
0.335131245785978 -0.0356847109716874 0.759310344827759
0.341342432859203 -0.0286008079204315 0.759310344827759
0.334546253736891 -0.0164401188293221 0.759310344827759
0.334852894385735 0.000121452442994374 0.759310344827759
0.338576598047668 0.0160144334484974 0.759310344827759
0.342042534495231 0.0262298855908151 0.759310344827759
0.340775739316457 0.0482799526516748 0.759310344827759
0.349286078507197 0.0491049131458522 0.759310344827759
0.349315261901795 0.0588658538897944 0.759310344827759
0.354218974121001 0.0811757786492592 0.759310344827759
0.35602812727333 0.101859535846592 0.759310344827759
0.356680027989073 0.111900324306348 0.759310344827759
0.359028651084132 0.128819294325251 0.759310344827759
0.352201249875709 0.143710295964812 0.759310344827759
0.355413342256659 0.160908256313498 0.759310344827759
0.361597588540164 0.17017343218025 0.759310344827759
0.362380175304918 0.18861027420395 0.759310344827759
0.367256582255299 0.205790377425057 0.759310344827759
0.361036001567899 0.214640521067824 0.759310344827759
0.368627826550421 0.229189257636688 0.759310344827759
0.362765822723369 0.241858421489058 0.759310344827759
0.371471207221974 0.261585095556147 0.759310344827759
0.376097018368303 0.270136211904365 0.759310344827759
0.368403862603805 0.293342346978065 0.759310344827759
0.377600055643159 0.305816144266471 0.759310344827759
0.376270975726752 0.326276927936022 0.759310344827759
0.382451304204025 0.34166153280551 0.759310344827759
0.380632003551821 0.361421567690212 0.759310344827759
0.310208621380828 -0.318965517241376 0.666274389485106
0.312194726237925 -0.318965517241376 0.67950094474332
0.315821696689005 -0.318965517241377 0.682658369221064
0.303670916001215 -0.362068965517241 0.728682650752906
0.305861221688376 -0.362068965517241 0.740115760606854
0.305340393062331 -0.362068965517241 0.748218038010566
0.3073043966638 -0.362068965517241 0.757760007473884
0.311017051193549 -0.353391226126259 0.759310344827759
0.309982744656171 -0.343171705104427 0.759310344827759
0.309621716873871 -0.332107863476432 0.759310344827759
0.313213618805741 -0.322773101164094 0.759310344827759
0.310611961845235 -0.314067404117165 0.759310344827759
0.314158570940126 -0.307169750165453 0.759310344827759
0.319213534807166 -0.295347847040883 0.759310344827759
0.32097193588642 -0.274000894404751 0.759310344827759
0.320999015483755 -0.267261576785653 0.759310344827759
0.323488118441303 -0.251225916661827 0.759310344827759
0.319985824735945 -0.243946958416751 0.759310344827759
0.326046804073844 -0.233005870683464 0.759310344827759
0.319495323483434 -0.230860566483423 0.759310344827759
0.321786724731401 -0.204190720169785 0.759310344827759
0.331116673665363 -0.196290382893715 0.759310344827759
0.331616206244911 -0.184728369301765 0.759310344827759
0.330196074593554 -0.176905923261733 0.759310344827759
0.32710220277358 -0.160210333278192 0.759310344827759
0.330852563863252 -0.157547868468042 0.759310344827759
0.337301325705448 -0.144050249831922 0.759310344827759
0.334530163009544 -0.123969155508241 0.759310344827759
0.33409940020788 -0.117448047307985 0.759310344827759
0.339843072774164 -0.106545817921968 0.759310344827759
0.340743399042863 -0.0870181194158062 0.759310344827759
0.340579944834535 -0.0793347606234447 0.759310344827759
0.342321783670045 -0.0678294073715661 0.759310344827759
0.348233431865133 -0.0522348187626589 0.759310344827759
0.346823564651521 -0.0460304259649742 0.759310344827759
0.345723485075649 -0.0353635367678216 0.759310344827759
0.350034972760162 -0.0217427761931986 0.759310344827759
0.344664935571368 -0.00256730423862551 0.759310344827759
0.349346678360589 0.0174223335539929 0.759310344827759
0.35792127102094 0.0340720725817675 0.759310344827759
0.356339227680949 0.0440451313087438 0.759310344827759
0.353196042780626 0.0447973548806729 0.759310344827759
0.359962978606444 0.0613266513543751 0.759310344827759
0.363669055455789 0.0877876596379018 0.759310344827759
0.361126496777506 0.0927512281419757 0.759310344827759
0.36643254678193 0.107930448078561 0.759310344827759
0.360335534512215 0.128505422686548 0.759310344827759
0.368591027554594 0.143724191018663 0.759310344827759
0.364745031672698 0.157253534903688 0.759310344827759
0.373219425604203 0.176340962451898 0.759310344827759
0.369723194997786 0.18482842645472 0.759310344827759
0.368932335360561 0.208129023070464 0.759310344827759
0.372281483709407 0.221879028409953 0.759310344827759
0.378048551740788 0.234298146312535 0.759310344827759
0.377384649284441 0.246873502329376 0.759310344827759
0.377089555482694 0.269203762356874 0.759310344827759
0.38297992890503 0.276661425148816 0.759310344827759
0.381427021566627 0.293119597157172 0.759310344827759
0.381275384127973 0.304311909271904 0.759310344827759
0.386208882481769 0.337749715888007 0.759310344827759
0.391484845668085 0.33311431693629 0.759310344827759
0.391128600686476 0.349092623784509 0.759310344827759
0.324896426868946 -0.318965517241376 0.669380578091226
0.319761746316268 -0.318965517241377 0.673653194550628
0.319034021779277 -0.318965517241377 0.685430867249396
0.318520579229039 -0.362068965517242 0.736222898191518
0.320083630143391 -0.362068965517241 0.740086561418501
0.314762075377903 -0.362068965517241 0.752147607564059
0.321027103900369 -0.356552721627889 0.759310344827759
0.318396310271606 -0.351990674801669 0.759310344827759
0.316321061878575 -0.340763217288494 0.759310344827759
0.317911708951591 -0.334476756014697 0.759310344827759
0.323399343850812 -0.321823233656039 0.759310344827759
0.321083330640853 -0.317000915571809 0.759310344827759
0.323933501599798 -0.303150715445623 0.759310344827759
0.321768841177773 -0.284324215284081 0.759310344827759
0.32945066631573 -0.273847162736384 0.759310344827759
0.331365738954418 -0.269181821946926 0.759310344827759
0.332543681164977 -0.259537710817952 0.759310344827759
0.330867901790433 -0.244306346014554 0.759310344827759
0.328302187566146 -0.230609309454341 0.759310344827759
0.3358675502197 -0.220577660411186 0.759310344827759
0.337309661494617 -0.210120791346196 0.759310344827759
0.336250118713328 -0.201258795993245 0.759310344827759
0.337994106394852 -0.190232822893598 0.759310344827759
0.338745314572569 -0.174863027900525 0.759310344827759
0.343477267411581 -0.165164687350879 0.759310344827759
0.344837801480091 -0.14579973813143 0.759310344827759
0.339217252101844 -0.138596809433486 0.759310344827759
0.341531902680201 -0.124392998114738 0.759310344827759
0.351264702192677 -0.107044682217365 0.759310344827759
0.344359546094342 -0.102439796723699 0.759310344827759
0.347543149264665 -0.0910108991837746 0.759310344827759
0.354809393778814 -0.0762494000063292 0.759310344827759
0.352429787730403 -0.0600211477729075 0.759310344827759
0.352660131088153 -0.0524430546544657 0.759310344827759
0.357306100005818 -0.0386481733519293 0.759310344827759
0.361949256346903 -0.0252905214160591 0.759310344827759
0.362680675026516 -0.0075880996639505 0.759310344827759
0.359077461757101 0.00195600372041419 0.759310344827759
0.363491511877385 0.00972640716033801 0.759310344827759
0.364905984915831 0.0173508582385227 0.759310344827759
0.36035202122512 0.0393234022490125 0.759310344827759
0.370105097891598 0.0578446266350885 0.759310344827759
0.373977928416928 0.0742427138189785 0.759310344827759
0.374100592480563 0.0834386146137732 0.759310344827759
0.369719599501212 0.0940543154865006 0.759310344827759
0.369206415650166 0.110835173084081 0.759310344827759
0.3775409414569 0.135216188973524 0.759310344827759
0.372853492262275 0.142500167475454 0.759310344827759
0.380707810254834 0.155577427365018 0.759310344827759
0.378064210300479 0.174342064156648 0.759310344827759
0.384717056374516 0.193861718567207 0.759310344827759
0.381211733901846 0.197095181343997 0.759310344827759
0.38999386411039 0.223810309567355 0.759310344827759
0.387257465513571 0.239243415745474 0.759310344827759
0.387915496399731 0.257589614783565 0.759310344827759
0.395333267455515 0.262738871859638 0.759310344827759
0.398429052079401 0.271763295750085 0.759310344827759
0.394943527940499 0.296882895254603 0.759310344827759
0.394844518377888 0.321019308594211 0.759310344827759
0.397169900021629 0.3292049947235 0.759310344827759
0.397600736982308 0.353594145586265 0.759310344827759
0.403077405319005 0.358915439534343 0.759310344827759
0.329706471112606 -0.318965517241377 0.657135393501003
0.328915682149671 -0.318965517241377 0.663098447486011
0.331120343000835 -0.318965517241377 0.677190247592506
0.333181954592081 -0.318965517241377 0.685244731528074
0.327766955374714 -0.362068965517241 0.732219763549187
0.32569043633692 -0.362068965517241 0.739757807928349
0.327714894640163 -0.362068965517242 0.749387501480777
0.322416211834991 -0.359115049353955 0.759310344827759
0.326480695126101 -0.355081260082815 0.759310344827759
0.323633834212293 -0.344833289748149 0.759310344827759
0.327001738709904 -0.328135869216965 0.759310344827759
0.333000480406107 -0.319353053132456 0.759310344827759
0.327339698983556 -0.307827176510975 0.759310344827759
0.331723269388079 -0.29777225534666 0.759310344827759
0.337807426340286 -0.285225896330181 0.759310344827759
0.332797348837176 -0.279053107190911 0.759310344827759
0.340666573425459 -0.273127883769071 0.759310344827759
0.337951500542469 -0.252662571850061 0.759310344827759
0.336602337895133 -0.243234561501594 0.759310344827759
0.338162289129052 -0.237509818169293 0.759310344827759
0.346460840299123 -0.228678445624946 0.759310344827759
0.339964642820356 -0.217004219961095 0.759310344827759
0.341440928547458 -0.204263851242981 0.759310344827759
0.346985571841933 -0.188661547695527 0.759310344827759
0.34358242982349 -0.176455910566465 0.759310344827759
0.353502453638884 -0.162423944979459 0.759310344827759
0.34814752406782 -0.1520641372085 0.759310344827759
0.35102235323938 -0.142885298765324 0.759310344827759
0.35163714334942 -0.128313832901084 0.759310344827759
0.35981175488793 -0.11538228801672 0.759310344827759
0.357056324460585 -0.107812660478226 0.759310344827759
0.356958602338824 -0.0887789196533076 0.759310344827759
0.363604225218625 -0.0758640192572735 0.759310344827759
0.364892564329122 -0.0635164924844002 0.759310344827759
0.366721708426435 -0.0432644869913943 0.759310344827759
0.363050343931388 -0.032851880639071 0.759310344827759
0.363936210956076 -0.0261933804549405 0.759310344827759
0.364632991194686 -0.00936282847361338 0.759310344827759
0.366014021565419 -0.0077755427686045 0.759310344827759
0.37418108681867 0.0171250992191194 0.759310344827759
0.370337627714297 0.0392415465231764 0.759310344827759
0.374061853735745 0.0461257391865937 0.759310344827759
0.373459495377314 0.0598180194289122 0.759310344827759
0.378450727378731 0.0734134313539083 0.759310344827759
0.381254211228785 0.0758342765819358 0.759310344827759
0.37773293776 0.0965113994734845 0.759310344827759
0.38106438530146 0.118729084077283 0.759310344827759
0.382807947360759 0.128099800913291 0.759310344827759
0.388693564008707 0.133471061042995 0.759310344827759
0.384072053851912 0.155822102070812 0.759310344827759
0.390338003112085 0.173449468457105 0.759310344827759
0.38717875013908 0.186432898009108 0.759310344827759
0.390800501677387 0.203759193493748 0.759310344827759
0.399420790131162 0.220643023602064 0.759310344827759
0.400058295213383 0.237453827929985 0.759310344827759
0.402753978097818 0.248044476296907 0.759310344827759
0.402662015342241 0.25627778289417 0.759310344827759
0.402702988488821 0.278348416550427 0.759310344827759
0.406140065227347 0.300625480717237 0.759310344827759
0.403754714532822 0.303904067135218 0.759310344827759
0.414842870425024 0.335519232127479 0.759310344827759
0.415851264250142 0.346212176768749 0.759310344827759
0.409580789509694 0.360738776079322 0.759310344827759
0.420972340554479 0.287249474640763 0.0207372243226998
0.416516211051305 0.311811230027602 0.00648792558149824
0.42087144330534 0.287783349759438 0.0400057889707504
0.413785657743771 0.301149785367853 0.0556429411706931
0.42161181983853 0.289661133218876 0.0723831904336804
0.421530133754319 0.29115695115399 0.0771852782955032
0.416136470009872 0.301448347029194 0.10161941543795
0.418605203269968 0.294204778160957 0.113106961280372
0.337063982282321 -0.318965517241377 0.665254784990632
0.338861790565262 -0.318965517241377 0.663398755111788
0.340823317194183 -0.318965517241377 0.673087003606497
0.33547352192853 -0.318965517241377 0.685900804414478
0.338514386059049 -0.362068965517241 0.729822647111318
0.337657865027856 -0.362068965517241 0.743751908373732
0.333583022574051 -0.362068965517242 0.751063205341897
0.333697656626562 -0.35911523280322 0.759310344827759
0.338974799620713 -0.348284721805459 0.759310344827759
0.336684853415738 -0.342533989298976 0.759310344827759
0.340002583188263 -0.336267502306533 0.759310344827759
0.338881018229502 -0.318524979299498 0.759310344827759
0.33958039666701 -0.30330813603495 0.759310344827759
0.343103474078028 -0.295891927477236 0.759310344827759
0.343742714737883 -0.288890859410815 0.759310344827759
0.347913965951212 -0.283171158738247 0.759310344827759
0.347722266275873 -0.266463784125172 0.759310344827759
0.348448232530567 -0.25252042944095 0.759310344827759
0.34510417247082 -0.237818334061453 0.759310344827759
0.354532993298776 -0.232746261478406 0.759310344827759
0.354301469099756 -0.220144444905496 0.759310344827759
0.350228436243326 -0.2081122222703 0.759310344827759
0.355183369930694 -0.198608501954564 0.759310344827759
0.358548247977449 -0.191142774648918 0.759310344827759
0.359927614045761 -0.170424909537114 0.759310344827759
0.356233383210176 -0.163115374429978 0.759310344827759
0.359693414683364 -0.147002223162975 0.759310344827759
0.359829489914591 -0.147286975935308 0.759310344827759
0.358351341854336 -0.131040035891274 0.759310344827759
0.367621911838169 -0.121287941053517 0.759310344827759
0.36387328947348 -0.0971740383295056 0.759310344827759
0.365652751179303 -0.0897677427801401 0.759310344827759
0.373029276672884 -0.0783445679625187 0.759310344827759
0.368568503051059 -0.062020707332746 0.759310344827759
0.369946676131944 -0.0458665656940701 0.759310344827759
0.372619434006717 -0.0428200487690575 0.759310344827759
0.376520496575176 -0.0288942577305616 0.759310344827759
0.38034663530817 -0.0188237482510754 0.759310344827759
0.38193470554399 -0.00246319393722946 0.759310344827759
0.387409777408899 0.0182702690738896 0.759310344827759
0.381113331814746 0.0337388447401332 0.759310344827759
0.380654448666914 0.0327186587928594 0.759310344827759
0.383384999610824 0.0587228083336671 0.759310344827759
0.384718924282131 0.0676363294860548 0.759310344827759
0.386850330863533 0.0846030215598728 0.759310344827759
0.388501700941175 0.0887803916157189 0.759310344827759
0.389401313394206 0.112141540856396 0.759310344827759
0.393646175554103 0.133754789724169 0.759310344827759
0.400266128642366 0.148759524511625 0.759310344827759
0.396278640356739 0.150007593059264 0.759310344827759
0.398015012410534 0.169510713038715 0.759310344827759
0.40696367498948 0.188316361542835 0.759310344827759
0.403792835452684 0.193419448531899 0.759310344827759
0.403450438372639 0.21810070326351 0.759310344827759
0.407968167436652 0.235998013734086 0.759310344827759
0.417065680218037 0.251412754748925 0.759310344827759
0.416562589407184 0.256762927570391 0.759310344827759
0.411823181590021 0.278953058666522 0.759310344827759
0.414890857239909 0.302399261507569 0.759310344827759
0.422367777468548 0.319624840744564 0.759310344827759
0.42468789342529 0.324044978015971 0.759310344827759
0.420662863437102 0.345170764205781 0.759310344827759
0.424964350919188 0.280727495783077 0.0088439636378057
0.426658401155823 0.282569235004596 0.0120024953436199
0.423047040095473 0.281493668272898 0.0239226259063857
0.422188365827442 0.283979558509176 0.0391492224016538
0.431725183051299 0.280442465149342 0.044844832288266
0.425879589027611 0.279795962551596 0.0555717304809271
0.431639802949789 0.27836620680343 0.0696902119011038
0.422415260641177 0.288732164374571 0.0797620065152196
0.42347364720331 0.285828711867832 0.0828791367245146
0.425395487648324 0.282756005034989 0.0966994881353164
0.425764806856437 0.281889752945976 0.112111434763371
0.427932298711916 0.280488221768525 0.122995606530347
0.346573909397932 -0.318965517241377 0.658555024106799
0.351918602786383 -0.318965517241377 0.671524687548698
0.343841406248848 -0.318965517241377 0.683321099133153
0.345075022776717 -0.362068965517241 0.725633360584255
0.34306473436181 -0.362068965517241 0.734470124353489
0.342699281699397 -0.362068965517241 0.745567903913623
0.340574881878204 -0.362068965517241 0.751497573267515
0.345684642271831 -0.362068965517241 0.755973099708519
0.342533766591708 -0.357458851847432 0.759310344827759
0.348704069929568 -0.348979075199863 0.759310344827759
0.350335302955321 -0.327497205171363 0.759310344827759
0.348003552465669 -0.32237295844693 0.759310344827759
0.346191897110055 -0.308956848525347 0.759310344827759
0.349918779018585 -0.293337114887038 0.759310344827759
0.35686519875721 -0.286054547121978 0.759310344827759
0.352040905129403 -0.275080957251947 0.759310344827759
0.356840846902953 -0.266361087304754 0.759310344827759
0.35904915886958 -0.261106423996054 0.759310344827759
0.355559495229888 -0.250240101169358 0.759310344827759
0.361258173392556 -0.23784081052655 0.759310344827759
0.358078268067181 -0.228296976390519 0.759310344827759
0.365531691376215 -0.21522835223731 0.759310344827759
0.362235946572918 -0.189942946140969 0.759310344827759
0.362022049229648 -0.18146611487941 0.759310344827759
0.368493874415389 -0.177536174243047 0.759310344827759
0.37067068541057 -0.165793572432743 0.759310344827759
0.36838439632097 -0.154455129228837 0.759310344827759
0.370941226265554 -0.135065949735877 0.759310344827759
0.369605837946933 -0.119710708921363 0.759310344827759
0.375489434879048 -0.11145437141616 0.759310344827759
0.375725783840902 -0.110162778042035 0.759310344827759
0.373233211580764 -0.0983533394118728 0.759310344827759
0.384322704803925 -0.0696010979552722 0.759310344827759
0.382779258844673 -0.0689666444189253 0.759310344827759
0.378626205703058 -0.0486632398253436 0.759310344827759
0.385052001600272 -0.0434029340241841 0.759310344827759
0.383253826343586 -0.026099219983627 0.759310344827759
0.391465998294183 -0.0186889893492642 0.759310344827759
0.387967966429895 0.000178148788657421 0.759310344827759
0.393859659900531 0.0138264967676321 0.759310344827759
0.390763364022299 0.0175531242615213 0.759310344827759
0.399330653252256 0.0486169455462932 0.759310344827759
0.395109430662717 0.0575694696581818 0.759310344827759
0.403243813822239 0.0707189421869264 0.759310344827759
0.396199542302381 0.0794184860656052 0.759310344827759
0.402029540084106 0.090409569712487 0.759310344827759
0.408459038467454 0.1079622371251 0.759310344827759
0.409136152188276 0.133399833639164 0.759310344827759
0.404891172428151 0.143367705135881 0.759310344827759
0.411818394602516 0.160703049148581 0.759310344827759
0.415653469926807 0.169564877686365 0.759310344827759
0.418150726326298 0.190898717156825 0.759310344827759
0.412115188780002 0.198624934648447 0.759310344827759
0.416301136062444 0.208512226333602 0.759310344827759
0.421033610288578 0.227162343622229 0.759310344827759
0.424034442012844 0.236016135742113 0.759310344827759
0.423277233463568 0.26570764055414 0.759310344827759
0.429786856579699 0.278933821251002 0.759310344827759
0.43173824794756 0.295930513257334 0.759310344827759
0.435767067475411 0.31733195353789 0.759310344827759
0.438003648203633 0.332154231143014 0.759310344827759
0.429668150405959 0.332396576199763 0.759310344827759
0.442096705199518 0.272967576129379 0.00780521819899212
0.435479374376066 0.277774884412777 0.0105860776712847
0.433464685286531 0.276249198690602 0.0333446360698888
0.433436348384971 0.278357375222239 0.0402871231731125
0.440772666918419 0.273736360370719 0.0557074788463394
0.432696941463333 0.278632514070354 0.0576336636391061
0.434883764555938 0.279752563288293 0.0766753305508808
0.43297354582799 0.280296657942763 0.0820154412782585
0.431930605512824 0.280051293310118 0.0966514610263133
0.434645641473397 0.278321090064701 0.109736808690605
0.438666083139543 0.2764364448261 0.114475802754962
0.433502173600225 0.277764878430282 0.131989117370925
0.355911107894339 -0.318965517241378 0.656528342775523
0.355535747707057 -0.318965517241378 0.661199608678994
0.360932992750686 -0.318965517241377 0.669637148484575
0.355378667931061 -0.362068965517241 0.729372604236805
0.352224969428646 -0.362068965517241 0.727769389394113
0.349661371423276 -0.362068965517242 0.733769014831622
0.351334775800056 -0.362068965517241 0.75206382438758
0.349657460434248 -0.358385419201551 0.759310344827759
0.351266534741883 -0.35618510575395 0.759310344827759
0.353389729216709 -0.347064143012005 0.759310344827759
0.359854213053683 -0.328619904479492 0.759310344827759
0.352881578562755 -0.320690574426359 0.759310344827759
0.360381445444898 -0.315207661013408 0.759310344827759
0.363847279266645 -0.293014412040528 0.759310344827759
0.357415980601258 -0.293901546078228 0.759310344827759
0.359207687730504 -0.279644210206625 0.759310344827759
0.361883923483019 -0.268336764430444 0.759310344827759
0.3700402636329 -0.260381828847912 0.759310344827759
0.36754443709688 -0.235235756255268 0.759310344827759
0.370446933898857 -0.232704608489973 0.759310344827759
0.370771621042083 -0.22240076784493 0.759310344827759
0.370439601883151 -0.210621908817431 0.759310344827759
0.37663450408917 -0.207166923257668 0.759310344827759
0.370020478463208 -0.186915765680578 0.759310344827759
0.376147120643972 -0.173805332335981 0.759310344827759
0.374465669583979 -0.167686722123818 0.759310344827759
0.376501980867468 -0.148324163693928 0.759310344827759
0.379631965917414 -0.140091488957736 0.759310344827759
0.379612883827926 -0.125382972481963 0.759310344827759
0.387604840651596 -0.115563216991563 0.759310344827759
0.386814319864326 -0.113132061687312 0.759310344827759
0.386664699871345 -0.0913321778342747 0.759310344827759
0.39334593126432 -0.076858707176497 0.759310344827759
0.389932716172334 -0.0621515175814434 0.759310344827759
0.38991450277843 -0.0571964153915474 0.759310344827759
0.395338650735327 -0.042767852319188 0.759310344827759
0.393574821282237 -0.0308459216438136 0.759310344827759
0.393076631664605 -0.0201962889034259 0.759310344827759
0.399054158005213 0.00567915770460362 0.759310344827759
0.398127257884888 0.0218997785725082 0.759310344827759
0.404194063836192 0.0220040030173785 0.759310344827759
0.402498856080207 0.039022369770429 0.759310344827759
0.404650828749484 0.0596920819240742 0.759310344827759
0.407091298352332 0.0653438144213069 0.759310344827759
0.414793497356765 0.0864695472408721 0.759310344827759
0.409918493678147 0.0923390923964561 0.759310344827759
0.417341342361893 0.107877888022745 0.759310344827759
0.419686808871111 0.125867676458421 0.759310344827759
0.421260928698463 0.136806226505376 0.759310344827759
0.424288726176014 0.162020332267178 0.759310344827759
0.421625224615946 0.178650901168837 0.759310344827759
0.430278014071024 0.193305685051705 0.759310344827759
0.42720243298957 0.197497454922911 0.759310344827759
0.429942239404126 0.21738663451501 0.759310344827759
0.427919678288738 0.235665984761534 0.759310344827759
0.437403942957532 0.247798542432558 0.759310344827759
0.436538843804545 0.26756771955256 0.759310344827759
0.442158474881749 0.287636971780802 0.759310344827759
0.439923023908158 0.291538330209865 0.759310344827759
0.43919889093854 0.31295994311412 0.759310344827759
0.443362257238676 0.329243613955918 0.759310344827759
0.449512667357967 0.350721625376061 0.759310344827759
0.452519293886622 0.281400681879753 -6.26238323146096e-013
0.449480709097145 0.278195322896549 0.0104989983858736
0.449501068826454 0.276538356325491 0.0249315384201358
0.442680009994559 0.272831207581715 0.0324932412678377
0.453819818716125 0.278862658933875 0.0371863583492872
0.451689254906933 0.275844646525322 0.0539010260848433
0.449642236480806 0.277961760254443 0.057539657787138
0.453366282651548 0.276984638120251 0.0673416730860094
0.446854324371889 0.278940621349884 0.0759819093561829
0.453307570449791 0.281131919673096 0.0863906572437028
0.446917005507801 0.277603654722938 0.105431143638491
0.445412687205406 0.276720080891294 0.111059083858284
0.452402794414457 0.279357616958582 0.116630766291042
0.444597116967 0.275218474122257 0.136205365510451
0.364465322113106 -0.318965517241378 0.663894413260252
0.364275511472422 -0.318965517241377 0.675295528899349
0.36392416687049 -0.362068965517241 0.725572665005576
0.362136605831837 -0.362068965517241 0.736636254160376
0.364880707466041 -0.362068965517241 0.733144511277274
0.36400724015226 -0.362068965517241 0.74597053016935
0.361327228457736 -0.357938171123319 0.759310344827759
0.365397267497555 -0.350918325489739 0.759310344827759
0.36635945894983 -0.338349564973888 0.759310344827759
0.361178595813152 -0.3352859460545 0.759310344827759
0.364291824719531 -0.321475406680396 0.759310344827759
0.365084651818503 -0.311738872367001 0.759310344827759
0.372123162230425 -0.297490593503022 0.759310344827759
0.369993551346146 -0.28431273875069 0.759310344827759
0.376093281485475 -0.276549344264737 0.759310344827759
0.371060015647576 -0.270730564619658 0.759310344827759
0.374758394083299 -0.259843157187572 0.759310344827759
0.37825101344699 -0.238467969160175 0.759310344827759
0.377707595196462 -0.240476829576684 0.759310344827759
0.376293583279237 -0.221184262726848 0.759310344827759
0.385297592269527 -0.207880879481523 0.759310344827759
0.387394576168664 -0.193758087969458 0.759310344827759
0.387980067652731 -0.181901407389258 0.759310344827759
0.381168442251446 -0.172056580238972 0.759310344827759
0.387920162515808 -0.159426357008129 0.759310344827759
0.386960237239937 -0.146907240422486 0.759310344827759
0.387684845558511 -0.141758571984456 0.759310344827759
0.397661699899532 -0.126658941165394 0.759310344827759
0.390157588518991 -0.114173027044542 0.759310344827759
0.396907134465734 -0.110773818944738 0.759310344827759
0.402320864757973 -0.0883176269558623 0.759310344827759
0.399534512421241 -0.0804096707612526 0.759310344827759
0.405071653154266 -0.0618098293799791 0.759310344827759
0.402125226259358 -0.0568534299955441 0.759310344827759
0.410221225615406 -0.0285992184140733 0.759310344827759
0.408477072504189 -0.0184594470060062 0.759310344827759
0.410256605818549 -0.00587993341869044 0.759310344827759
0.413480468848451 0.00311517275964334 0.759310344827759
0.416010139212424 0.00976317737051289 0.759310344827759
0.411801246934746 0.0313158537858321 0.759310344827759
0.415309646551371 0.0413086974804056 0.759310344827759
0.41417090793284 0.0499920637629274 0.759310344827759
0.415910412898316 0.0725495312465056 0.759310344827759
0.421823421754011 0.0914985380574992 0.759310344827759
0.424644279465411 0.0962155622295043 0.759310344827759
0.426226243030013 0.112858666972178 0.759310344827759
0.430085522394851 0.131003029705823 0.759310344827759
0.431595193233361 0.134050141881 0.759310344827759
0.43354946625638 0.155934676987506 0.759310344827759
0.430858592789816 0.16215892934096 0.759310344827759
0.430527723165733 0.180583473627822 0.759310344827759
0.432831724918291 0.202822503567915 0.759310344827759
0.4361125767101 0.222254459604383 0.759310344827759
0.443163837638001 0.236772726266787 0.759310344827759
0.439951627425285 0.247320671562038 0.759310344827759
0.452348633247392 0.271980860816023 0.759310344827759
0.443164443378787 0.281889095832248 0.759310344827759
0.454666471865012 0.291629474385791 0.759310344827759
0.451028817492106 0.308245601588418 0.759310344827759
0.461099356063485 0.339910927088374 0.759310344827759
0.458262883859144 0.345471963352251 0.759310344827759
0.454826608387727 0.356501181261407 0.759310344827759
0.457740381852833 0.280197428299044 0.00419440337643
0.460847845278293 0.282261352253078 0.00970125234369366
0.464256672928869 0.293823959232339 0.0115808374564338
0.464633063787921 0.285187172971898 0.0307198002588972
0.457173201651929 0.282825660841077 0.0457102691993278
0.453906024475164 0.281289774247956 0.0594792748814512
0.453981001940556 0.281715247195291 0.0729001095370498
0.46576093437541 0.295705283916433 0.0710253450755892
0.46327395001926 0.293987504239441 0.074070871771603
0.457605579582002 0.282295748040618 0.099710806615455
0.462810845724501 0.289559869701731 0.103691926775992
0.455964142754692 0.280489133745755 0.124055941181821
0.378818510648002 -0.318965517241378 0.66061542951568
0.376709856901373 -0.318965517241378 0.668514839262465
0.374263400781066 -0.318965517241378 0.684386497768292
0.376596132193246 -0.318965517241378 0.681948266864272
0.373304419599664 -0.362068965517241 0.728895468566331
0.370632487384048 -0.362068965517241 0.732874614835737
0.372415887142922 -0.362068965517241 0.747613284092501
0.373182583908999 -0.362068965517241 0.754793578719639
0.373200231312916 -0.357520039643119 0.759310344827759
0.368444936651419 -0.347202249437265 0.759310344827759
0.374256166430527 -0.328709694686654 0.759310344827759
0.375048278166069 -0.322963305404105 0.759310344827759
0.37799502790237 -0.303303975340165 0.759310344827759
0.38136759818622 -0.299372246086262 0.759310344827759
0.37829700313334 -0.284789688571973 0.759310344827759
0.38133121528578 -0.279491030525519 0.759310344827759
0.383323859529103 -0.26561571548225 0.759310344827759
0.3863922016747 -0.25831852899556 0.759310344827759
0.383672677913921 -0.251184651201993 0.759310344827759
0.382857699858128 -0.232284522453234 0.759310344827759
0.385353782065213 -0.219003477790602 0.759310344827759
0.393566502932296 -0.211813633661324 0.759310344827759
0.387364380513858 -0.200013868402866 0.759310344827759
0.392721226917555 -0.190416730913873 0.759310344827759
0.394641610450838 -0.176348306344846 0.759310344827759
0.399449101350156 -0.15293064987633 0.759310344827759
0.397441112030184 -0.146932445772394 0.759310344827759
0.396292666850478 -0.135552987780356 0.759310344827759
0.404367293472321 -0.12758747798256 0.759310344827759
0.403560459954925 -0.115669837681272 0.759310344827759
0.405492323199875 -0.1095053346835 0.759310344827759
0.407784132197958 -0.0979876049070815 0.759310344827759
0.407343044700868 -0.0725020623979162 0.759310344827759
0.412124224729423 -0.0734537049395998 0.759310344827759
0.408677718269247 -0.0499261230841729 0.759310344827759
0.412903902519565 -0.0457904489021762 0.759310344827759
0.413103417731929 -0.029569346106851 0.759310344827759
0.415965738538436 -0.0147806639765901 0.759310344827759
0.418522278406806 -0.00601085898817176 0.759310344827759
0.418217650626433 0.0152198228281832 0.759310344827759
0.427129488296182 0.026038270183305 0.759310344827759
0.424715132543749 0.044626977894381 0.759310344827759
0.423517503741012 0.050514614066348 0.759310344827759
0.426204278808926 0.0706686095634709 0.759310344827759
0.435678675940694 0.0754965375473527 0.759310344827759
0.431989140920347 0.105379234423451 0.759310344827759
0.431894024964463 0.121957063111842 0.759310344827759
0.43481170218304 0.134712021705496 0.759310344827759
0.443634010596476 0.143529669118764 0.759310344827759
0.446180174580662 0.156320826542004 0.759310344827759
0.445308843719301 0.163093528219882 0.759310344827759
0.448728688782956 0.190175074290796 0.759310344827759
0.445974842462737 0.199388061945778 0.759310344827759
0.44962229551179 0.219311721789391 0.759310344827759
0.453622872456192 0.238029990253294 0.759310344827759
0.45133161188055 0.245064225520043 0.759310344827759
0.455640772847521 0.262997425617338 0.759310344827759
0.457666025213417 0.280103526656996 0.759310344827759
0.464224703748527 0.287192122374797 0.759310344827759
0.466962446094473 0.298834856161121 0.759310344827759
0.461912493848688 0.32031715731084 0.759310344827759
0.470102614795641 0.350006580496965 0.759310344827759
0.381978017209246 -0.318965517241379 0.656755100526916
0.381634651491196 -0.318965517241379 0.666017781559036
0.38499928559659 -0.318965517241379 0.67855686903429
0.388221767590954 -0.318965517241379 0.684609728368642
0.379733063892351 -0.362068965517241 0.727591089446095
0.373467433527981 -0.362068965517242 0.7377777373556
0.383038778985079 -0.362068965517241 0.74212779360158
0.381685402382861 -0.362068965517241 0.756422243434054
0.379010298745268 -0.359642734859627 0.759310344827759
0.380990853212418 -0.346268937687021 0.759310344827759
0.383657037014409 -0.331194314848347 0.759310344827759
0.387097132338578 -0.318732934107361 0.759310344827759
0.386259388389924 -0.316414367448622 0.759310344827759
0.387731136813056 -0.296244506380136 0.759310344827759
0.3915448235742 -0.285488454824824 0.759310344827759
0.393077083591651 -0.279169627121223 0.759310344827759
0.389307903531538 -0.262902734612514 0.759310344827759
0.393506689203835 -0.264790748672732 0.759310344827759
0.39609788674779 -0.247564033398401 0.759310344827759
0.394149734602059 -0.242315159923782 0.759310344827759
0.394082619454284 -0.218356729813548 0.759310344827759
0.398465440314083 -0.217818688098074 0.759310344827759
0.404044257077522 -0.194295866322847 0.759310344827759
0.402115284177088 -0.190269515442963 0.759310344827759
0.404025408638859 -0.172230774527719 0.759310344827759
0.410642333910743 -0.159173297110976 0.759310344827759
0.410793435888454 -0.157471513348337 0.759310344827759
0.414645490067497 -0.137956338642146 0.759310344827759
0.416933574166545 -0.126279989741446 0.759310344827759
0.418400508584897 -0.108354198551657 0.759310344827759
0.414310854648986 -0.103783310432039 0.759310344827759
0.419837475214641 -0.0832642752165489 0.759310344827759
0.423830359550828 -0.0672928439144482 0.759310344827759
0.423204613014123 -0.0639777867245674 0.759310344827759
0.423573257359839 -0.0523211513483048 0.759310344827759
0.425846715360859 -0.0441358390729888 0.759310344827759
0.42480003003592 -0.0195257102023151 0.759310344827759
0.432740696857332 -0.0107673066238594 0.759310344827759
0.429650536745191 -0.00107937180620511 0.759310344827759
0.430536401033761 0.0120638255909168 0.759310344827759
0.430005984062288 0.0293155109822194 0.759310344827759
0.437161119640669 0.0407499501315836 0.759310344827759
0.438144260659742 0.0578539304026984 0.759310344827759
0.43769920295989 0.0679233310682335 0.759310344827759
0.439835573625987 0.0872957866481592 0.759310344827759
0.446474980487975 0.100194503414281 0.759310344827759
0.445724001006806 0.114401421726675 0.759310344827759
0.451473277803597 0.12442974404833 0.759310344827759
0.455954520378803 0.147181830223997 0.759310344827759
0.453525612678744 0.146235556737959 0.759310344827759
0.456353933404479 0.16290341099344 0.759310344827759
0.456925723431041 0.177610879437467 0.759310344827759
0.460622698637888 0.200263134512729 0.759310344827759
0.460564320349083 0.214114254984176 0.759310344827759
0.465476209907913 0.223789351798779 0.759310344827759
0.464243624734145 0.249649753209743 0.759310344827759
0.472807875835549 0.268650354945177 0.759310344827759
0.464150208551353 0.272440511320552 0.759310344827759
0.468160850132715 0.28787319676871 0.759310344827759
0.472375714650782 0.303605164583661 0.759310344827759
0.473842767893062 0.327689551905464 0.759310344827759
0.480366439760191 0.352254943519322 0.759310344827759
0.47658762890927 0.356644434057596 0.759310344827759
0.392066088793449 -0.318965517241379 0.656675573755486
0.396368346672047 -0.318965517241379 0.657906892348199
0.393145817661844 -0.318965517241379 0.668015060818803
0.389820581182087 -0.318965517241379 0.683337726677938
0.390183931353786 -0.318965517241379 0.686006865613668
0.386595788856244 -0.362068965517241 0.729169165639175
0.390324521082197 -0.362068965517242 0.735289950219033
0.384557405979726 -0.362068965517241 0.74915429249621
0.388336295206844 -0.35851562582621 0.759310344827759
0.385266228134706 -0.351452775142327 0.759310344827759
0.390070116309622 -0.33616741293843 0.759310344827759
0.387021795682181 -0.33874347319776 0.759310344827759
0.393473480870507 -0.312147780844657 0.759310344827759
0.392157670891021 -0.307851163174793 0.759310344827759
0.400930961027761 -0.299259089874133 0.759310344827759
0.400512782291268 -0.286625427296257 0.759310344827759
0.398947908367538 -0.273354567348564 0.759310344827759
0.40398641525515 -0.263083815862904 0.759310344827759
0.401347781478136 -0.259474921966737 0.759310344827759
0.402185711815186 -0.239552950203396 0.759310344827759
0.403060172892939 -0.237114883071595 0.759310344827759
0.404695316158346 -0.224894001573318 0.759310344827759
0.411022044954648 -0.208891906867293 0.759310344827759
0.412075759752904 -0.205995793514798 0.759310344827759
0.409903903920951 -0.186945919684392 0.759310344827759
0.41538847173297 -0.182617077721992 0.759310344827759
0.416865931763658 -0.16402780609594 0.759310344827759
0.413395643890391 -0.159770480054628 0.759310344827759
0.424134686042287 -0.13642135554232 0.759310344827759
0.419629413978735 -0.128899611110546 0.759310344827759
0.419862110266614 -0.117178729074471 0.759310344827759
0.422344708896147 -0.0995512937083144 0.759310344827759
0.430840973616916 -0.0881463306207233 0.759310344827759
0.43024060012675 -0.079682107663146 0.759310344827759
0.433371944536072 -0.064561182329666 0.759310344827759
0.434587307611723 -0.051963911749058 0.759310344827759
0.439037969805563 -0.0339515376344244 0.759310344827759
0.437167584327185 -0.0186006281688366 0.759310344827759
0.441045928130777 -0.0164289183319237 0.759310344827759
0.437622895983195 -0.00358379849956829 0.759310344827759
0.43991247326083 0.02030389997411 0.759310344827759
0.449446363636536 0.0334268727660558 0.759310344827759
0.443327066659562 0.0337094706738249 0.759310344827759
0.450312201078091 0.0525682207353862 0.759310344827759
0.452750634066416 0.0701077693684176 0.759310344827759
0.45718078940082 0.0817570019974609 0.759310344827759
0.459970014036292 0.10513262785106 0.759310344827759
0.454373856129966 0.114906610521605 0.759310344827759
0.453753264530976 0.125301817079089 0.759310344827759
0.457233604253886 0.143276165468046 0.759310344827759
0.458404256717049 0.149023079172546 0.759310344827759
0.469581018068012 0.174590310834739 0.759310344827759
0.467268384063974 0.185235182330603 0.759310344827759
0.469747351954291 0.196940111043523 0.759310344827759
0.47571237173815 0.221070758586336 0.759310344827759
0.475182610394598 0.230432954560882 0.759310344827759
0.475329082944975 0.250484754512013 0.759310344827759
0.481159408466277 0.266065794903679 0.759310344827759
0.479623564808581 0.279693079760642 0.759310344827759
0.484709185020931 0.301402660982418 0.759310344827759
0.489771018848628 0.311311210535561 0.759310344827759
0.48877183570802 0.326161119195869 0.759310344827759
0.48862683652972 0.351381852131034 0.759310344827759
0.407361259381564 -0.303217355210733 0.304592351570409
0.406746626920534 -0.304257585366434 0.327182995180186
0.406900758996664 -0.304941567462351 0.32997428173479
0.405483665554743 -0.303038202626402 0.34355865824686
0.407498707560311 -0.309006244988139 0.353433238254623
0.402935997732089 -0.304042161513608 0.407592343161658
0.406417001808499 -0.310507222330698 0.419084816854881
0.405273592780678 -0.307581828016507 0.420015643516436
0.406362330123635 -0.307366250204847 0.436063655219032
0.406132270705874 -0.306291480352945 0.438994241199006
0.408352211781394 -0.302690488028883 0.489555262662314
0.404602803502821 -0.303665351370246 0.572702685984191
0.407424909535454 -0.308489476365335 0.57627328517692
0.405840162882445 -0.302469651937625 0.580211646411464
0.406970705313632 -0.303492717191539 0.606293103448449
0.408138649108285 -0.304855619424754 0.62510027679874
0.398152800615718 -0.318965517241379 0.660207440900218
0.400215566245577 -0.318965517241379 0.66721835109083
0.404011930708143 -0.318965517241379 0.677091319903943
0.398175210153439 -0.318965517241379 0.684587508997269
0.394587707221895 -0.362068965517241 0.735336119166824
0.398768858980546 -0.362068965517241 0.746889224981401
0.399761515941146 -0.362068965517241 0.745410532107023
0.394614255583414 -0.357233466359372 0.759310344827759
0.399189192177141 -0.360461632194301 0.759310344827759
0.401379571336564 -0.346963911026422 0.759310344827759
0.399557742340223 -0.331510918295554 0.759310344827759
0.404808351722261 -0.3233028463574 0.759310344827759
0.405630086484885 -0.313887545442356 0.759310344827759
0.406250673668122 -0.304193635770231 0.759310344827759
0.407848977984918 -0.289589437760074 0.759310344827759
0.404120942797687 -0.280938862363453 0.759310344827759
0.408900228447564 -0.261632238584838 0.759310344827759
0.414508137357175 -0.255393855535315 0.759310344827759
0.408679972426349 -0.252335636532128 0.759310344827759
0.411826364858619 -0.234428280071596 0.759310344827759
0.414404572067278 -0.221109519409645 0.759310344827759
0.420524955412411 -0.204171760879075 0.759310344827759
0.41607082440259 -0.193964012379536 0.759310344827759
0.419135663472654 -0.181851660592719 0.759310344827759
0.422818463522126 -0.173484991676637 0.759310344827759
0.428587391633367 -0.164605601724727 0.759310344827759
0.430852950109173 -0.154032379022067 0.759310344827759
0.431156838142993 -0.143087166763569 0.759310344827759
0.426773783092216 -0.12681059639032 0.759310344827759
0.434271494672146 -0.118795989106704 0.759310344827759
0.433717586759923 -0.100512438697734 0.759310344827759
0.437669852124911 -0.092251554819567 0.759310344827759
0.437229667894738 -0.076429740094265 0.759310344827759
0.440200557422965 -0.0637542475033681 0.759310344827759
0.445832356372421 -0.0509503593543694 0.759310344827759
0.443675522804329 -0.0382443092984883 0.759310344827759
0.448327160054313 -0.0215747149520413 0.759310344827759
0.445882056602138 -0.00465715641872644 0.759310344827759
0.446943997461295 0.00022103128402824 0.759310344827759
0.454491454494354 0.0163754678510549 0.759310344827759
0.456117619695822 0.0309279800743862 0.759310344827759
0.455539793997656 0.0443645031823024 0.759310344827759
0.458460679894939 0.0459428125828694 0.759310344827759
0.460012084138856 0.0672101444425557 0.759310344827759
0.462621981051237 0.0831819341537396 0.759310344827759
0.465319113942284 0.0945406607666671 0.759310344827759
0.471973137655373 0.117964306483094 0.759310344827759
0.466844422727838 0.127856807071754 0.759310344827759
0.468262278575969 0.142898662177369 0.759310344827759
0.476673115644513 0.146615826239776 0.759310344827759
0.474777951646369 0.174042872557726 0.759310344827759
0.4750323354602 0.191489675112363 0.759310344827759
0.476199276466556 0.199443993892197 0.759310344827759
0.485734971273044 0.214281665238086 0.759310344827759
0.484418457012593 0.231738665240466 0.759310344827759
0.485861940694418 0.241108091914077 0.759310344827759
0.484695017328233 0.270900225509408 0.759310344827759
0.497916617237282 0.290088920799768 0.759310344827759
0.492609087910894 0.292866516471435 0.759310344827759
0.498841957247297 0.303684431295537 0.759310344827759
0.498329847447144 0.33554788775659 0.759310344827759
0.495884357940633 0.338746892644075 0.759310344827759
0.410259826238021 -0.31074869408559 0.309367906793953
0.412316910248166 -0.316117876948029 0.312974258773193
0.409231291691208 -0.309375779897516 0.319304127855446
0.411250299823949 -0.315694821418144 0.332234465589187
0.408489531989296 -0.309928805068961 0.340281145578986
0.408671493258795 -0.310462124113548 0.341122678774764
0.411370663151196 -0.319438787156246 0.363142366510394
0.410303763916809 -0.317805198662953 0.371574500448194
0.409601374339041 -0.317438463366956 0.383468947125519
0.408328186166129 -0.314147039044489 0.381520737642701
0.40945116829669 -0.318842882217927 0.399284092702034
0.411657650877187 -0.323757395873112 0.415709752960478
0.413365640299682 -0.325815773477181 0.427362378196806
0.410487053359466 -0.319523848304296 0.423651736452503
0.411125197858473 -0.319355379767089 0.433295622386764
0.412457740554629 -0.32040322345768 0.445535797379123
0.410713376521113 -0.316060920344652 0.446275195295667
0.409732687443739 -0.312059693362302 0.455493329627455
0.413187150223713 -0.318053848836622 0.468729198422377
0.409874629865196 -0.309275807997035 0.473135648098363
0.410470626428967 -0.309905337708171 0.477702486417978
0.413545062486086 -0.315394756918835 0.488609440146082
