ply
format ascii 1.0
element vertex 1048
property float x
property float y
property float z
end_header
0.197246080246351 0.141523369026002 0.2625
0.181999620909794 0.156404236294302 0.2625
0.175822109438513 0.157492325838466 0.2625
0.169147145726004 0.162213616209332 0.2625
0.162342971626362 0.17505110964109 0.2625
0.153198423052976 0.184628692375263 0.2625
0.343060015969563 -0.0498203620422378 0.2625
0.331303347566521 -0.0354344743994926 0.2625
0.328766718332909 -0.02907967879328 0.2625
0.321510804983792 -0.0289012359600801 0.2625
0.314916937966911 -0.0183348694351513 0.2625
0.306605086804066 -0.0128488537199331 0.2625
0.303762230428799 -0.00370215331275047 0.2625
0.292688608924324 0.00997991825252782 0.2625
0.29506199421262 0.00838358723216638 0.2625
0.282462337808869 0.0235639163823852 0.2625
0.277997524340407 0.0255970159672633 0.2625
0.271450218706925 0.0362238870312945 0.2625
0.2618020498192 0.0446492095505367 0.2625
0.261106557348908 0.0439795018405102 0.2625
0.250692972137733 0.0558834141204926 0.2625
0.249109584010748 0.0651800627445562 0.2625
0.243076249603741 0.0711835851012376 0.2625
0.2406594210162 0.0755279426598662 0.2625
0.231198356609244 0.0907189412854966 0.2625
0.222921222326044 0.095467181935741 0.2625
0.211269271418133 0.108961190858055 0.2625
0.20902824669732 0.112567217438055 0.2625
0.207119072733777 0.118293295590675 0.2625
0.1899046405515 0.133512292354098 0.2625
0.178993992091231 0.140428852897689 0.2625
0.173121308735915 0.146419546890934 0.2625
0.168542022820094 0.155229964780177 0.2625
0.16258304271056 0.153233167741087 0.2625
0.157842321348675 0.169463422796338 0.2625
0.147883182565793 0.177574868256086 0.2625
0.140476274752551 0.178226391293739 0.2625
0.130488000940646 0.197545664736148 0.259560500965259
0.334124002499579 -0.0506364121741375 0.2625
0.327245558331326 -0.047336435489768 0.2625
0.320333994886614 -0.0388366448354825 0.2625
0.317747068491734 -0.0278245455183878 0.2625
0.310199564108277 -0.0298465273693769 0.2625
0.307186678121062 -0.0174517530781938 0.2625
0.292505574416088 -0.00194282085849 0.2625
0.289995437717931 0.00147439736155324 0.2625
0.283255905547337 0.00959691927740441 0.2625
0.275696182633142 0.0178134299016998 0.2625
0.279141189168262 0.0200662717577107 0.2625
0.267094859859945 0.0339782867719705 0.2625
0.262541726600259 0.0344390816330204 0.2625
0.251902831872308 0.0439166472268652 0.2625
0.246169753887399 0.0542506979878036 0.2625
0.234118845795775 0.0551985061163719 0.2625
0.229984164971288 0.0701319227694066 0.2625
0.228342416750068 0.0690132902216542 0.2625
0.217473775529703 0.0841092610254838 0.2625
0.205874093529427 0.0895470520294301 0.2625
0.208727047922981 0.0931526060538171 0.2625
0.195586980657701 0.102474176409884 0.2625
0.193577771530656 0.114112294755457 0.2625
0.180395778313832 0.123890814185756 0.2625
0.17418728865435 0.125878628250416 0.2625
0.172665304148159 0.13728193508225 0.2625
0.168053579500307 0.140644941331267 0.2625
0.163474079965172 0.147674356561126 0.2625
0.15015808398505 0.164916179658605 0.2625
0.141674014142257 0.165414885515599 0.2625
0.13848105044556 0.176037110357091 0.2625
0.127974662245882 0.190602411683929 0.2625
0.329336526443336 -0.0605639506494185 0.2625
0.323087337711321 -0.043775438534418 0.2625
0.315618412156598 -0.0382254791381323 0.2625
0.307695566505896 -0.0364821244304302 0.2625
0.306260949447798 -0.0342677570718756 0.2625
0.302197265148803 -0.0224603444728536 0.2625
0.294268205477147 -0.0165145087617285 0.2625
0.286906383187952 -0.0117458930738907 0.2625
0.278157547465136 -0.00166918110719051 0.2625
0.268227029975447 0.00479863586535713 0.2625
0.261170338650203 0.021283295024755 0.2625
0.260527689596205 0.0251277329147086 0.2625
0.255587564683359 0.0311318318004547 0.2625
0.244265065725817 0.0407984986656771 0.2625
0.241032108707724 0.036584558004985 0.2625
0.227791766372192 0.0542852674026245 0.2625
0.232031983112631 0.0567114042050107 0.2625
0.215685770279226 0.0649725442180378 0.2625
0.214712160052551 0.0738774957843863 0.2625
0.202777960845933 0.0880326520673558 0.2625
0.200931209360457 0.090318640259891 0.2625
0.18723286509325 0.104209016687659 0.2625
0.185609262509425 0.103778517000069 0.2625
0.183270767805891 0.108603319869797 0.2625
0.166095775070517 0.12611192382636 0.2625
0.167845092410672 0.130772154091272 0.2625
0.159438832797527 0.141329794224542 0.2625
0.147527473296222 0.149555793473847 0.2625
0.141437218072054 0.150534217757196 0.2625
0.138140821424654 0.158607710875273 0.2625
0.130014337888607 0.170720581769993 0.2625
0.128392526857363 0.177350935442704 0.2625
0.121463142134056 0.18096667134333 0.2625
0.322972723265655 -0.0659015723908948 0.2625
0.313175910842133 -0.0562066551223987 0.2625
0.314043122682893 -0.0545989067576388 0.2625
0.299939958485754 -0.0415633737085282 0.2625
0.29349775804289 -0.0366117403345261 0.2625
0.288333730637154 -0.0233319814880992 0.2625
0.279736678845907 -0.0166592065599336 0.2625
0.280757270227327 -0.0210072566032361 0.2625
0.274825183731481 -0.00999468135575128 0.2625
0.27104170937634 -0.00479535880038658 0.2625
0.261882728851987 0.0103019249634696 0.2625
0.248672669255467 0.0146095267798562 0.2625
0.241814351481272 0.0276810420269768 0.2625
0.240452133256351 0.0307234814059209 0.2625
0.227248459439565 0.0351239582038673 0.2625
0.224432406950755 0.0498513428554043 0.2625
0.216998086336408 0.0562161498894497 0.2625
0.208824831898873 0.0652469969104203 0.2625
0.2052466426855 0.0706933618283941 0.2625
0.201094292334531 0.0760545592480649 0.2625
0.189147428677101 0.0866772639455562 0.2625
0.186103373053222 0.0970565277182729 0.2625
0.181507530223214 0.102568882979226 0.2625
0.173493077522802 0.103000959741611 0.2625
0.162729054853487 0.11436831629122 0.2625
0.161417186658302 0.119238091618777 0.2625
0.147790977150221 0.128656555494448 0.2625
0.149526392194257 0.13386263251695 0.2625
0.132401800846775 0.147214758095789 0.2625
0.129320607184015 0.158822261699033 0.2625
0.114839180399354 0.167403651239856 0.2625
0.114589284114079 0.175184184191895 0.2625
0.10748348745923 0.183311249814586 0.2625
0.31643130909302 -0.0744810559526681 0.2625
0.307546166479776 -0.0571534249131503 0.2625
0.302946886855702 -0.050088418020978 0.2625
0.291423660552496 -0.0510164878989286 0.2625
0.289219469496592 -0.0467209182312101 0.2625
0.289023360180102 -0.0336938470713877 0.2625
0.275443515818485 -0.025730375651212 0.2625
0.273928104205763 -0.0185574919739965 0.2625
0.264721959043195 -0.0103913422745272 0.2625
0.263532501003132 -0.00615315462242776 0.2625
0.255714128251231 0.000839589050873417 0.2625
0.245152353876886 0.00554125577319974 0.2625
0.237056797796838 0.0220447936701262 0.2625
0.230393518508524 0.0279618218937666 0.2625
0.2290365692109 0.0303126561099423 0.2625
0.225748599673772 0.0310472671918925 0.2625
0.220121403770337 0.0442646129450523 0.2625
0.203655472620612 0.0493985806874481 0.2625
0.194906124099468 0.0627354855945157 0.2625
0.19255271802901 0.0650461382240759 0.2625
0.184880688931841 0.0727615736264279 0.2625
0.175863145241828 0.0863796421881437 0.2625
0.176695237236739 0.0913234813814086 0.2625
0.166921569589446 0.0974159425599784 0.2625
0.165294758692187 0.100741107872227 0.2625
0.156229638669809 0.110718560602561 0.2625
0.146835195985433 0.125509948641109 0.2625
0.138648595224292 0.135160161714997 0.2625
0.123586886748912 0.141858380782714 0.2625
0.124556872614736 0.146959141493865 0.2625
0.114113922512953 0.160489021293527 0.2625
0.106276755510187 0.161098045700851 0.2625
0.0970461423306428 0.176458043606889 0.2625
0.0876306297244165 0.183402158708719 0.2625
0.0822317707011863 0.198375416316362 0.259145625175152
0.304385854282765 -0.0769816470918639 0.2625
0.297830536858817 -0.0704635317990662 0.2625
0.289491369662727 -0.0581822032491961 0.2625
0.294355491736136 -0.0554351607309868 0.2625
0.277266638463029 -0.0453701171708488 0.2625
0.275742499297503 -0.0477711411279777 0.2625
0.273219400378039 -0.0331237144062292 0.2625
0.263071790650922 -0.0284877088574797 0.2625
0.262190188364178 -0.0207598486620952 0.2625
0.253232005148386 -0.0161411873436575 0.2625
0.240146237953278 -0.00523045074279711 0.2625
0.237254605472513 0.00387546461410337 0.2625
0.235301593861887 0.00310238227843976 0.2625
0.225132673190004 0.0168432610619712 0.2625
0.218448458039588 0.0283133545935939 0.2625
0.218943229223753 0.0327622343808064 0.2625
0.205988136079079 0.0401459584289213 0.2625
0.19624584674328 0.0507468183681358 0.2625
0.19042217843321 0.0581344974249584 0.2625
0.181965029988873 0.0637838704791425 0.2625
0.178736846052999 0.0639175675432312 0.2625
0.171610986844522 0.083136905319617 0.2625
0.171308830550158 0.0811514679527534 0.2625
0.156492568174861 0.0880573538760402 0.2625
0.15559998997971 0.0934468874864237 0.2625
0.145116812371486 0.116185461026093 0.2625
0.130710058045499 0.119792027987232 0.2625
0.12480348885484 0.125117386869556 0.2625
0.125057113391732 0.135300230857527 0.2625
0.114500559126439 0.14128005005351 0.2625
0.102901921140624 0.149645085928123 0.2625
0.100408547324329 0.152752932186048 0.2625
0.0872910916306182 0.17091399996355 0.2625
0.0857784581337849 0.170372908877638 0.2625
0.0773124139051375 0.185784567264673 0.2625
0.0679913706748562 0.198064432219603 0.259301117223532
0.0667448316764872 0.19721784392959 0.259724411368538
0.299901517770879 -0.0852533409619407 0.2625
0.298333974560361 -0.0758344405941282 0.2625
0.283816108703956 -0.0651731751201995 0.2625
0.280332414719628 -0.0646989579881608 0.2625
0.272542506850301 -0.0573971124174718 0.2625
0.273743574723493 -0.0484574882757599 0.2625
0.26093732704588 -0.0427165525503097 0.2625
0.260141247137965 -0.0348069194290843 0.2625
0.2516451985935 -0.0296358961179935 0.2625
0.238393447311982 -0.0193758188172073 0.2625
0.240739239080092 -0.016169882474773 0.2625
0.237097985239663 -0.00675942144884842 0.2625
0.224613335465657 0.00557791221785037 0.2625
0.225402089954044 0.00535659708150688 0.2625
0.209762157518316 0.0187893080449867 0.2625
0.206633641027171 0.0234916454143354 0.2625
0.198319887784243 0.0249305673811079 0.2625
0.189747242670027 0.0456709433240514 0.2625
0.189959618357048 0.0395510094353241 0.2625
0.181000680726356 0.0575676465412608 0.2625
0.175560987568768 0.0558363065033177 0.2625
0.163823100473679 0.0743737182405643 0.2625
0.162451336671468 0.0751481541075525 0.2625
0.154808385047029 0.0834153769515235 0.2625
0.140561708227693 0.0923618299618184 0.2625
0.134681580211128 0.0984166410610669 0.2625
0.129126943932539 0.101943393802049 0.2625
0.116974212130524 0.115225968552934 0.2625
0.111324406618741 0.122401668392306 0.2625
0.107369571568049 0.13203919342896 0.2625
0.0990528792365228 0.146240201089182 0.2625
0.0991197477926835 0.147684789154009 0.2625
0.084934157126848 0.158364587620776 0.2625
0.0742880700502856 0.168925640360925 0.2625
0.0658672096510039 0.177082551651362 0.2625
0.0605287365011634 0.190401294706271 0.2625
0.0542770627810293 0.195214986917058 0.260725839874804
0.294357768096177 -0.0897857922938063 0.2625
0.2857432573156 -0.0799903981573313 0.2625
0.278879220362994 -0.0686250635177529 0.2625
0.276030665457412 -0.0634580569154832 0.2625
0.271096284497407 -0.056429487830813 0.2625
0.261243929568362 -0.0597970167829163 0.2625
0.259437048779029 -0.0484018091821106 0.2625
0.250887757344126 -0.0400442427709256 0.2625
0.241942977704397 -0.0332489098425666 0.2625
0.234813124250508 -0.0298395665858604 0.2625
0.224634947829691 -0.0171141588634538 0.2625
0.22699043540515 -0.0106004434157592 0.2625
0.214466994444716 0.00207107063604533 0.2625
0.217657647054139 0.0010818973684545 0.2625
0.21200402796484 0.00470000718962987 0.2625
0.202521034106344 0.0165809343845547 0.2625
0.19698700377626 0.0217084306880323 0.2625
0.187118883048573 0.0313755147007034 0.2625
0.179413354336335 0.0398320516394709 0.2625
0.171125301926547 0.0546913558320218 0.2625
0.164460677403527 0.0553063329269146 0.2625
0.157345860530132 0.0592540432073515 0.2625
0.150662191562514 0.069638376023516 0.2625
0.14550938032851 0.0777953681920863 0.2625
0.134473589523042 0.0831385461103163 0.2625
0.123390386405292 0.0941615006761524 0.2625
0.122675302947929 0.101963488547545 0.2625
0.114990558481307 0.114755973771351 0.2625
0.112184561039153 0.118562958817732 0.2625
0.0964577976115985 0.12639642798402 0.2625
0.093913869307345 0.129941676149535 0.2625
0.0828907297273294 0.147471392314997 0.2625
0.0771077603213642 0.157961830063999 0.2625
0.0684846315312519 0.162310325228123 0.2625
0.0622104442047402 0.16698610610152 0.2625
0.0585124481443302 0.179917149747007 0.2625
0.0496980966076245 0.187044550432142 0.2625
0.0386781430063203 0.19957522913681 0.258545718764929
0.288603921496419 -0.0965456943942035 0.2625
0.287782097325574 -0.0923944659182013 0.2625
0.276700895668837 -0.0859751144334344 0.2625
0.27310944329696 -0.0772327980062073 0.2625
0.256840658167119 -0.0630685141854982 0.2625
0.254486335520519 -0.0576149470143482 0.2625
0.255222018148186 -0.0561023494457634 0.2625
0.241517798471259 -0.043109683237134 0.2625
0.240428246745694 -0.0472636307414734 0.2625
0.237080389883316 -0.035477262404184 0.2625
0.222834373796601 -0.0187117841137087 0.2625
0.219512092652593 -0.0155277612592854 0.2625
0.207928434203568 -0.0133557914975739 0.2625
0.199931903148674 -0.00234049427456468 0.2625
0.202276588130029 0.002918136421515 0.2625
0.192626199718031 0.0150179217500171 0.2625
0.187742968997363 0.018395572708296 0.2625
0.173703044402833 0.0326914778119975 0.2625
0.172354884286905 0.0360013105693534 0.2625
0.165530788600102 0.0354973035079155 0.2625
0.162126749878515 0.0466712166045605 0.2625
0.14857943438803 0.0588490650700403 0.2625
0.147695090977366 0.0627475640498877 0.2625
0.135523301014029 0.0715592332839198 0.2625
0.127303563116224 0.0815363977528667 0.2625
0.125314254691442 0.0849305959950958 0.2625
0.114213276450077 0.0903347862803462 0.2625
0.109488631748239 0.101720266850826 0.2625
0.101472365230877 0.111914417507405 0.2625
0.0885089224976442 0.121448159809257 0.2625
0.0888744475598312 0.130297457850188 0.2625
0.085050517328441 0.13015298179718 0.2625
0.0697603435264575 0.145446891298532 0.2625
0.0554630023708896 0.158018827846719 0.2625
0.0549244829631935 0.161775744893485 0.2625
0.0404333848112581 0.173924968107268 0.2625
0.038581007972954 0.176012469079671 0.2625
0.0259329235229273 0.189914797705557 0.2625
0.2783936340728 -0.106951737691859 0.2625
0.277137837642976 -0.095733457493486 0.2625
0.270273966263854 -0.0867383017218844 0.2625
0.265333629960834 -0.0801076974377357 0.2625
0.256900459151327 -0.0762867666505966 0.2625
0.25175875244599 -0.0692265506658565 0.2625
0.250119929773208 -0.060610076195289 0.2625
0.236312811534669 -0.0568409363112302 0.2625
0.232642075096627 -0.0448314056568153 0.2625
0.227835426686013 -0.038617131232025 0.2625
0.21556912764723 -0.029249000949035 0.2625
0.207206783384852 -0.0258856032111057 0.2625
0.205889886027015 -0.0174236636325893 0.2625
0.193860491330905 -0.0100344134786112 0.2625
0.188347499888588 6.85952169281616e-005 0.2625
0.187418694356506 -0.000542207959707675 0.2625
0.179402214471351 0.0158991015552904 0.2625
0.172067383107891 0.021090654130702 0.2625
0.162566877809696 0.0315097012888363 0.2625
0.158838612309418 0.0278599601641966 0.2625
0.156572035114726 0.0332875198239563 0.2625
0.146471943257819 0.0460111524829562 0.2625
0.141139379230924 0.0578506487859395 0.2625
0.125844299904765 0.0628839557060677 0.2625
0.11957031711148 0.0750508481516211 0.2625
0.115647707448931 0.0782814868209565 0.2625
0.104930218713226 0.0903357818132638 0.2625
0.0965233356132378 0.101052331077354 0.2625
0.0928853071657514 0.111643144298284 0.2625
0.0778263426448416 0.117803740239084 0.2625
0.0761449161924016 0.125657785742106 0.2625
0.0716577411554289 0.134476946734206 0.2625
0.0619278311937749 0.137681526590962 0.2625
0.0530415392272956 0.153622133286624 0.2625
0.0476196502777696 0.162097055928311 0.2625
0.0364506990615409 0.166831444384005 0.2625
0.0375232760659334 0.166115304824895 0.2625
0.0283491664184709 0.176627844911895 0.2625
0.0143577675675433 0.191931189205097 0.262367738730785
0.279319148975309 -0.104541920620633 0.2625
0.266553275044197 -0.104852363038125 0.2625
0.262422082907233 -0.0914680310412566 0.2625
0.257889780079392 -0.0855976051456461 0.2625
0.244919131213819 -0.0751563304543261 0.2625
0.240509817678062 -0.0766412759018126 0.2625
0.241299206665148 -0.0709684701049281 0.2625
0.232447661778989 -0.0595383248549192 0.2625
0.230588111107366 -0.053654645969533 0.2625
0.221407948329758 -0.0436746693767785 0.2625
0.213462085753685 -0.0422814926312841 0.2625
0.202677409886142 -0.0301110230247076 0.2625
0.19766154324671 -0.0286796057381034 0.2625
0.195836237738629 -0.0194542321424144 0.2625
0.183982641245042 -0.0112670566200113 0.2625
0.176564655696855 -0.00334461652198422 0.2625
0.17043737247546 0.00758415999802266 0.2625
0.16740522680245 0.0106475192234299 0.2625
0.158802662894826 0.0193029642821414 0.2625
0.151536673608857 0.0195118790727936 0.2625
0.14384721114342 0.0367800592132733 0.2625
0.133592510188411 0.042879118266786 0.2625
0.122980667892211 0.0506690275515704 0.2625
0.123108988845513 0.0563709193160003 0.2625
0.115541461949988 0.0603106957669022 0.2625
0.104894982656631 0.0795109589096081 0.2625
0.0946492439625067 0.0881588247395124 0.2625
0.0924436227816743 0.0954302469292382 0.2625
0.0901439106358938 0.0985846238194166 0.2625
0.0752842141831585 0.107474267255188 0.2625
0.0659825405145261 0.120113813360115 0.2625
0.0701409830156975 0.118455823291249 0.2625
0.056595435121978 0.125995402304292 0.2625
0.0426929636866871 0.138577038997118 0.2625
0.035992435111972 0.150021229522585 0.2625
0.0336015694504321 0.148655636321829 0.2625
0.0242060852912385 0.173212707052335 0.2625
0.0238596068652042 0.174481549818941 0.2625
0.0122660908419396 0.184521764863796 0.2625
0.00446465266752903 0.189369234250659 0.2625
0.271176182795499 -0.119502592020808 0.2625
0.268057870903449 -0.112385946311405 0.2625
0.259038943504365 -0.095251467981268 0.2625
0.245193555759927 -0.0966813737794351 0.2625
0.246836169513998 -0.0888060936950803 0.2625
0.238367400914486 -0.0856283889494338 0.2625
0.233843872372386 -0.0805566976304985 0.2625
0.222020669863729 -0.0697986040245423 0.2625
0.213952100682117 -0.0569192367561994 0.2625
0.218191853696689 -0.0563657270961904 0.2625
0.203334056734169 -0.0447719132667536 0.2625
0.202082627681996 -0.0424395433362304 0.2625
0.188188897974829 -0.032721186088973 0.2625
0.184004846366306 -0.0236769127073174 0.2625
0.181558596904547 -0.0126004585004428 0.2625
0.177091573606796 -0.016822148636349 0.2625
0.170749305225533 -0.00463153632631658 0.2625
0.160450286026652 -0.00160987035166726 0.2625
0.154760085356757 0.0120482675558484 0.2625
0.146317333186086 0.0202615490647119 0.2625
0.133248549240963 0.0285334189827006 0.2625
0.124886386144787 0.0386032337827771 0.2625
0.124374136271854 0.0418219374293803 0.2625
0.119245995913485 0.0543836793425882 0.2625
0.104832828129164 0.0566059447828886 0.2625
0.0963261177738622 0.0681181085704807 0.2625
0.0934734986477073 0.0786190806876831 0.2625
0.0880448033120578 0.084373724837152 0.2625
0.0854535693527323 0.0915296709896287 0.2625
0.0709745551205402 0.0984807999527817 0.2625
0.0600724742671406 0.105714902423337 0.2625
0.0634772400364612 0.110213967452718 0.2625
0.0514538512778757 0.130169035489296 0.2625
0.036853147404355 0.137091262583485 0.2625
0.0303503472691297 0.136854567501917 0.2625
0.0280319159767491 0.145354271268653 0.2625
0.0199143028502601 0.15995234826891 0.2625
0.00603213572780135 0.166152647217225 0.2625
0.00285311643197511 0.180391196163326 0.2625
-0.00832501760074968 0.185032861133483 0.2625
-0.0102025627414539 0.190722312931702 0.2625
0.266420298277128 -0.120610614414241 0.2625
0.254307503373535 -0.109922524427621 0.2625
0.251406570804745 -0.10874693902401 0.2625
0.239901481273681 -0.0956201572413344 0.2625
0.236290136212247 -0.0918432867566144 0.2625
0.230760456145761 -0.0910394814523083 0.2625
0.227818655294636 -0.0819223102415073 0.2625
0.217746755949327 -0.0704152252648159 0.2625
0.214310910857592 -0.0672219198847884 0.2625
0.208089347297139 -0.0616006375898256 0.2625
0.197618778956067 -0.0494337483823014 0.2625
0.198351742050007 -0.0504246424681904 0.2625
0.192425530701767 -0.0371714228211026 0.2625
0.181206571341675 -0.0357439783286257 0.2625
0.169886712713621 -0.0285033724076458 0.2625
0.161555800353044 -0.0150495482834306 0.2625
0.159621118286024 -0.0075625262708695 0.2625
0.157601309784318 -0.00655881291925216 0.2625
0.146272748164235 0.00458782435763272 0.2625
0.131906497783423 0.0143181694808182 0.2625
0.132626174710425 0.0193380716858953 0.2625
0.115152748334007 0.0313247080653279 0.2625
0.119086447910088 0.038045128091611 0.2625
0.116608601670887 0.0426156567217503 0.2625
0.105723861729119 0.0492824623093687 0.2625
0.0906675510733933 0.0584102860021213 0.2625
0.0841723495688583 0.0651748021452979 0.2625
0.0791394940382934 0.0776977896344254 0.2625
0.0695644995107705 0.0853013833162459 0.2625
0.0731754158762889 0.0921639656805435 0.2625
0.0588576360174298 0.104734460303733 0.2625
0.0497541695424639 0.110591594954157 0.2625
0.0424837258876276 0.121431828042426 0.2625
0.0355949124623857 0.121925208140784 0.2625
0.0273809192014963 0.128625901266189 0.2625
0.0218682144128251 0.140046834914554 0.2625
0.00947013077676544 0.150576477025833 0.2625
-0.00473078859913325 0.16597237940031 0.2625
-0.00893606224356792 0.16320890150863 0.2625
-0.0142979070365878 0.178090912801859 0.2625
-0.0167683355663376 0.186274146013223 0.2625
-0.0311949239847675 0.199058877606939 0.258803894529864
0.256189226688412 -0.130022176870319 0.2625
0.247555388245114 -0.122450026689218 0.2625
0.249360623367419 -0.112600609271193 0.2625
0.232670587721355 -0.10446726517881 0.2625
0.229021384763874 -0.105415938559761 0.2625
0.225796977503622 -0.094343915807984 0.2625
0.213029277235866 -0.080740823917039 0.2625
0.210617609241268 -0.0808834988603953 0.2625
0.203594540456894 -0.0770882269353784 0.2625
0.194200054965964 -0.0673390320113633 0.2625
0.189111005733521 -0.0619407301013441 0.2625
0.185209733248557 -0.0595816508704165 0.2625
0.177977959908138 -0.051585261586749 0.2625
0.172911220870496 -0.036890027163435 0.2625
0.166669465190594 -0.0275541673586794 0.2625
0.154665215069458 -0.0216280219133433 0.2625
0.152314341196129 -0.012090215737205 0.2625
0.138708851261128 -0.0102674763799186 0.2625
0.136083619421841 -0.000611045074733774 0.2625
0.12730435463539 0.00659064418738632 0.2625
0.125537357406366 0.00989542360764157 0.2625
0.116665830386144 0.0226073719569167 0.2625
0.108123479651547 0.0318528050925157 0.2625
0.0988151589166442 0.0406165954860142 0.2625
0.0953721232836464 0.050704305624699 0.2625
0.0851439006385428 0.0604975512872319 0.2625
0.0820380258510521 0.0628137143860291 0.2625
0.0756713882389608 0.0666720979994423 0.2625
0.0647137011188618 0.0767393441845665 0.2625
0.0579421621740178 0.0795251369391224 0.2625
0.047993033265305 0.0939376351686586 0.2625
0.0460563761066326 0.0968212518116985 0.2625
0.0314810092506119 0.108791587294733 0.2625
0.0228713111121041 0.115644916073973 0.2625
0.0202527967023372 0.122428458483464 0.2625
0.0083498053618462 0.131304610467861 0.2625
-0.000316414801379909 0.148498065034247 0.2625
-0.00832386867977118 0.145812827746519 0.2625
-0.0126515411056947 0.157262156834925 0.2625
-0.0280869044312263 0.168984043282853 0.2625
-0.0367471988340818 0.18046465463429 0.2625
-0.0380470897522434 0.191113578725815 0.2625
-0.0459294307203026 0.192487879121686 0.26208939377249
0.248510760889636 -0.139097350797741 0.2625
0.246150946070569 -0.128151908031655 0.2625
0.234046159817089 -0.113311357726409 0.2625
0.234439992062315 -0.115934186427473 0.2625
0.218360369999087 -0.103565971252818 0.2625
0.222377683627613 -0.0979562346096619 0.2625
0.214297010803634 -0.0909724422777645 0.2625
0.199354497943167 -0.0800576464600527 0.2625
0.201509415615098 -0.0821389144153483 0.2625
0.188557225038158 -0.073825382859682 0.2625
0.187485680442367 -0.065783133058076 0.2625
0.182870204660903 -0.0554239130541752 0.2625
0.173831650483016 -0.0465182775891001 0.2625
0.168680247313646 -0.0413284677778518 0.2625
0.156722656334811 -0.0387942763222492 0.2625
0.146504866297542 -0.0261589087923151 0.2625
0.140932856504584 -0.0192983158964111 0.2625
0.133926903311012 -0.0142602337859315 0.2625
0.136746624111217 -0.00485685406866541 0.2625
0.121900288261453 0.000684561757097828 0.2625
0.118652113704508 0.0093118735488097 0.2625
0.112179156018159 0.00995593313947504 0.2625
0.105231387556189 0.0200706775154643 0.2625
0.0969341456427259 0.0229383668560638 0.2625
0.0882047130680341 0.035674752449276 0.2625
0.0857202478665592 0.0470218080169104 0.2625
0.075085781988364 0.0515833026661757 0.2625
0.069721410868424 0.0592400927745771 0.2625
0.058347391162135 0.0695015572597005 0.2625
0.0518317137546114 0.0845708429559953 0.2625
0.0435824236589718 0.0880930022659309 0.2625
0.0335496311201069 0.0860176962316222 0.2625
0.0245689257861296 0.0991669540932013 0.2625
0.0157146823599268 0.111225052465812 0.2625
0.00869169507092357 0.123197803339038 0.2625
0.00133585637678285 0.132668284658862 0.2625
-0.00126101609591576 0.131657652968526 0.2625
-0.0111317675084 0.146833608788572 0.2625
-0.018722661641891 0.15568739541422 0.2625
-0.0299274083527305 0.166340344118798 0.2625
-0.036204064024046 0.16520709768892 0.2625
-0.0417070195980197 0.185616979598077 0.2625
-0.0536672844890416 0.189203599645394 0.2625
-0.0556522047427343 0.194256169898977 0.261205248383844
0.24976733061586 -0.14489719674574 0.2625
0.234491705162179 -0.137216617646052 0.2625
0.232393805977252 -0.133689696913057 0.2625
0.217487641820693 -0.121601738646038 0.2625
0.224015629556957 -0.118072439779994 0.2625
0.209236269345816 -0.101478309349992 0.2625
0.211401113461552 -0.0986557361183794 0.2625
0.199665001547072 -0.096303905655923 0.2625
0.193398832651334 -0.0855280620268362 0.2625
0.191309203947234 -0.0841672893942565 0.2625
0.180867667066097 -0.0738109520245139 0.2625
0.176773972464049 -0.0710816134565377 0.2625
0.17267683692621 -0.0574540218639463 0.2625
0.156070854822516 -0.0529300332827172 0.2625
0.158626054765056 -0.0432885136911174 0.2625
0.144010110745718 -0.0352374427804738 0.2625
0.135191420808431 -0.0299546350218645 0.2625
0.132400656442841 -0.0239131128565579 0.2625
0.129170853303932 -0.0183134089241332 0.2625
0.117363734395272 -0.00717167187098292 0.2625
0.106170379620656 0.000385068267943882 0.2625
0.10235906992107 0.00883560231384658 0.2625
0.0907316356168044 0.014233976306392 0.2625
0.088870429455592 0.0233462012278091 0.2625
0.0865292749394303 0.0282616562959115 0.2625
0.0752468154330511 0.0331049643986906 0.2625
0.0685790667175192 0.0461897180287323 0.2625
0.0597305872453839 0.0561184011262189 0.2625
0.0575590622871519 0.0635786762455401 0.2625
0.044736022567874 0.0698230421763384 0.2625
0.0394844375984851 0.0756069320148531 0.2625
0.0282954001913204 0.0878040486875193 0.2625
0.0248705756060348 0.0939318611302374 0.2625
0.00887285324077337 0.105308392259234 0.2625
-0.00257337269306532 0.118268204753205 0.2625
-0.00201602246077653 0.11475624693965 0.2625
-0.0112132692954499 0.129934425724928 0.2625
-0.026938449242264 0.135737070936482 0.2625
-0.0270577889067087 0.146773453964223 0.2625
-0.0297653016673969 0.146955127618243 0.2625
-0.0453279496636022 0.15959118379702 0.2625
-0.0499961642879444 0.170162092957942 0.2625
-0.0595501859222474 0.1771845377803 0.2625
-0.0725284553609301 0.189656648572257 0.2625
0.231798974161602 -0.146592003102974 0.2625
0.227814192068377 -0.138817334723701 0.2625
0.218885394908713 -0.133015171748911 0.2625
0.217421435317019 -0.126473751092188 0.2625
0.207858096623883 -0.124263908673448 0.2625
0.206028359127791 -0.116510328945486 0.2625
0.198996007752941 -0.0989150445625429 0.2625
0.19222556780037 -0.1001846086689 0.2625
0.187014001286399 -0.0902127465228328 0.2625
0.179471040109918 -0.0887604379708328 0.2625
0.173543223744429 -0.0715092852813955 0.2625
0.164096666618662 -0.067740792649432 0.2625
0.157211970253624 -0.0636253733618953 0.2625
0.15083351513407 -0.0592424143725109 0.2625
0.146458139863068 -0.0508194027658724 0.2625
0.139618879393838 -0.0462181537767563 0.2625
0.13202343212161 -0.0374724410649091 0.2625
0.128624359250447 -0.0330859236578833 0.2625
0.11451812940053 -0.0157014473225927 0.2625
0.113143519642256 -0.0162723801281093 0.2625
0.103132905774825 -0.0141490464435776 0.2625
0.0971875674022736 -0.000287495968828407 0.2625
0.092012908375993 0.00715332018541488 0.2625
0.0780322084995838 0.0131445372770398 0.2625
0.0717532329608549 0.0216313793190503 0.2625
0.0682219122538386 0.0315825331196322 0.2625
0.0574467854647911 0.038461537642137 0.2625
0.0534501012348051 0.0453661868675041 0.2625
0.0415561238257834 0.0601968749320458 0.2625
0.0354695972129215 0.0613894094028377 0.2625
0.02311672283889 0.0792446167890328 0.2625
0.0206411156950403 0.0768686533682048 0.2625
0.00490791832888835 0.0920963363789691 0.2625
0.00268577263138212 0.0923775543083101 0.2625
-0.00555873425589576 0.110833463603407 0.2625
-0.0109617441114536 0.117310215453534 0.2625
-0.0234062544582784 0.123374780750586 0.2625
-0.0215584328977053 0.132389959588843 0.2625
-0.0407686467687923 0.136985673347675 0.2625
-0.0419127945961516 0.150688023167347 0.2625
-0.0526985622653714 0.156664668069091 0.2625
-0.0611526140848817 0.163397276684548 0.2625
-0.0672119064197235 0.179744019294237 0.2625
-0.076062324907418 0.179307587808674 0.2625
-0.079596809299356 0.191417214609344 0.2625
0.236372539666244 -0.154545519474718 0.2625
0.223025810435501 -0.143172175459647 0.2625
0.214902145142397 -0.136676765417771 0.2625
0.209740417479351 -0.137836696517788 0.2625
0.20176317486011 -0.126605533658794 0.2625
0.205897710249912 -0.124784744716628 0.2625
0.190806640468927 -0.120035975826202 0.2625
0.188082029882163 -0.106654842136178 0.2625
0.177856198395298 -0.0993512332522798 0.2625
0.178689007305316 -0.0960531925958485 0.2625
0.171191456446142 -0.0920250116236879 0.2625
0.163180378907433 -0.0866397268949835 0.2625
0.146928694616567 -0.0717708025972501 0.2625
0.139832505327964 -0.0596017930735584 0.2625
0.142613329111895 -0.0584813285627222 0.2625
0.13475379620571 -0.0511051408131642 0.2625
0.123554001627548 -0.041812028579236 0.2625
0.118862553905836 -0.0344433783961221 0.2625
0.108919066558076 -0.0242891470729226 0.2625
0.104190976312481 -0.0187167230103582 0.2625
0.102038998338786 -0.0190863069310504 0.2625
0.084847051752595 -0.00531894952562192 0.2625
0.0803981298019814 0.00825577866399072 0.2625
0.0803227877276583 0.00234847496111067 0.2625
0.0666198732651146 0.0140537729682336 0.2625
0.0625666392261854 0.0201689251611332 0.2625
0.0469279949396596 0.0369737489947937 0.2625
0.0410553681910473 0.0387288372639593 0.2625
0.0402658848636539 0.0467798290506754 0.2625
0.0304177928400591 0.0530978611141506 0.2625
0.0214693615427348 0.0620100649687458 0.2625
0.015452325919726 0.0732596818432029 0.2625
0.00965769649098707 0.0781490757866611 0.2625
0.00185123322780765 0.0904499570949189 0.2625
-0.0166069432743896 0.0999015140756348 0.2625
-0.0186720992886933 0.104861932119521 0.2625
-0.0265568717945009 0.109655970180788 0.2625
-0.0322864816811428 0.121391949322931 0.2625
-0.0416773936203752 0.132582286667372 0.2625
-0.0441267381469452 0.139410769486214 0.2625
-0.0608650973491903 0.150369046773985 0.2625
-0.0679944638448519 0.158873258493899 0.2625
-0.08030817562902 0.173396940432212 0.2625
-0.084123116778116 0.176874037348085 0.2625
-0.092156931170235 0.184489564637157 0.2625
-0.113070195621891 0.19674330803762 0.259961679314523
0.227748742065501 -0.159538031388908 0.2625
0.218271255331816 -0.148104911834321 0.2625
0.206116892116263 -0.14527705845217 0.2625
0.20552685973453 -0.140141759402977 0.2625
0.199410225636628 -0.127238549704112 0.2625
0.194082634798065 -0.124354377424048 0.2625
0.185268568364833 -0.119746719985247 0.2625
0.180815256269338 -0.111344724806054 0.2625
0.171074390683917 -0.101024471181072 0.2625
0.168070796858276 -0.104000577162904 0.2625
0.157460647675222 -0.0895225908026821 0.2625
0.147179454723579 -0.0775681947218897 0.2625
0.14394682826788 -0.0821195750851111 0.2625
0.142312102838985 -0.0774461099287019 0.2625
0.130854766051193 -0.064441637087355 0.2625
0.119298622139891 -0.0523666905873919 0.2625
0.120254593201036 -0.0472947643212076 0.2625
0.106728289929282 -0.0394398630118788 0.2625
0.102470228297351 -0.0392557196751099 0.2625
0.0923331925854629 -0.0229766078963123 0.2625
0.0808010043809067 -0.0149924281906959 0.2625
0.081618128078687 -0.0122443026312483 0.2625
0.0770041202013105 -0.00750605862707866 0.2625
0.0650776838110053 0.0031712284415488 0.2625
0.0559522214934349 0.00859720239126502 0.2625
0.057624086065106 0.0159501384316196 0.2625
0.0440919199114123 0.0242639795165535 0.2625
0.0387857546584287 0.0400485288680376 0.2625
0.0252927609345747 0.044353420192804 0.2625
0.016672855152876 0.0526762726346523 0.2625
0.0139830792067114 0.0639404457734585 0.2625
0.00637073074023374 0.0718001852905971 0.2625
0.00333307488013836 0.0651681316393526 0.2625
-0.0125221741222615 0.0751685823199448 0.2625
-0.019034435466739 0.0904122143014335 0.2625
-0.0201078006146765 0.0933773242565438 0.2625
-0.0396851571533827 0.111762653136044 0.2625
-0.0492624494099997 0.116594514885068 0.2625
-0.0518881524465331 0.118787067299191 0.2625
-0.056955778664581 0.136265641283131 0.2625
-0.0730659103741532 0.147366595811143 0.2625
-0.0753473764013396 0.143538065805537 0.2625
-0.0828820478148756 0.159910220674476 0.2625
-0.0989357430564301 0.176146394065641 0.2625
-0.101793504489512 0.170252538668424 0.2625
-0.109775882620413 0.176147306266096 0.2625
-0.121442930154713 0.196320880388113 0.260172893139277
0.218218568310246 -0.163370853919762 0.2625
0.207101393722439 -0.157271210114187 0.2625
0.204886947661033 -0.146623209358395 0.2625
0.198648306435617 -0.144819048172333 0.2625
0.196626180083593 -0.14699595582097 0.2625
0.18165663389633 -0.133259556182037 0.2625
0.173402849530479 -0.124604789480679 0.2625
0.175080907577402 -0.126483109862367 0.2625
0.15809811033565 -0.111590079020453 0.2625
0.156352627874876 -0.107091161694297 0.2625
0.155613981174375 -0.0987387583146877 0.2625
0.150108633334302 -0.0968654135593437 0.2625
0.141739479084445 -0.0872989617353897 0.2625
0.134152374643005 -0.0780581047155922 0.2625
0.12517483136307 -0.0760997541975856 0.2625
0.118670346954416 -0.0718770389015541 0.2625
0.112386911084426 -0.0542063662671414 0.2625
0.107098576926156 -0.056400235546116 0.2625
0.103786711684763 -0.0452640455250578 0.2625
0.0896810599106346 -0.0394884005674195 0.2625
0.0843964758650628 -0.0290520258785027 0.2625
0.0812116910458274 -0.017932449476946 0.2625
0.0612596581041442 -0.00806352146611828 0.2625
0.0564137594999233 0.000213141295133035 0.2625
0.0536165107229982 0.00780560399669757 0.2625
0.0439946121091602 0.00654227140646047 0.2625
0.0349757641428778 0.0231904712493592 0.2625
0.031361547958943 0.0276376361931966 0.2625
0.0261445665469988 0.0306405659624322 0.2625
0.0093626236340431 0.0418418903239943 0.2625
0.00522659813475422 0.055043338047686 0.2625
-0.000536016251603874 0.0593929922844956 0.2625
-0.00501671728748423 0.0653742270024827 0.2625
-0.0223139847058409 0.0720986740083036 0.2625
-0.0263387498648322 0.0808386761841808 0.2625
-0.0337018918342054 0.0880796592308737 0.2625
-0.0397528250910765 0.100907957820713 0.2625
-0.0469961532322013 0.101971527873001 0.2625
-0.0631229252368908 0.116094549724572 0.2625
-0.0671287846478178 0.127228212749726 0.2625
-0.0724284665663441 0.131253661682295 0.2625
-0.0807081350003006 0.135459990891999 0.2625
-0.0969113299558631 0.152192197240706 0.2625
-0.101406659046466 0.151415518166301 0.2625
-0.109754750792959 0.170313263415006 0.2625
-0.115993592721003 0.182491610195453 0.2625
-0.124623068014689 0.189118905688093 0.2625
-0.137187678977481 0.196163101718509 0.260251782474079
0.207916554432232 -0.16975408489675 0.2625
0.203861033074069 -0.171328158415994 0.2625
0.198575164697805 -0.154547655032436 0.2625
0.190501417134103 -0.15196587055197 0.2625
0.179448412077712 -0.146181797755492 0.2625
0.176219544371949 -0.135974662196528 0.2625
0.168230522069669 -0.130299901097506 0.2625
0.160920219266215 -0.127066007692165 0.2625
0.159758100295305 -0.124023491381273 0.2625
0.153223388114267 -0.109082098137858 0.2625
0.143458284903248 -0.110556464577213 0.2625
0.142735845028834 -0.100971135739752 0.2625
0.125835213891706 -0.0911452220781257 0.2625
0.130023126877884 -0.0913652212232402 0.2625
0.121226304440595 -0.0768895496815631 0.2625
0.112004627952679 -0.0667154359366869 0.2625
0.101039327854672 -0.0662303527401735 0.2625
0.094765114396808 -0.0571862253133084 0.2625
0.0924188446929065 -0.0539751057700753 0.2625
0.0838285164804115 -0.0444405446252593 0.2625
0.077430219261679 -0.0348063523107512 0.2625
0.0643559206743686 -0.0286334773735288 0.2625
0.061898245850091 -0.0209491897589721 0.2625
0.0496039296399583 -0.00654495368629681 0.2625
0.0505186775013876 -0.0031860288327905 0.2625
0.0389233805014149 0.00434353353817721 0.2625
0.029319426827911 0.00714806173595164 0.2625
0.0288012789109018 0.0163571583803024 0.2625
0.0160101229993908 0.0290959796872726 0.2625
0.0042570005473061 0.0357456032233794 0.2625
-0.00295528959698638 0.0420167904337021 0.2625
-0.00704757618649937 0.0440254479331875 0.2625
-0.0166467825480445 0.0634431975106367 0.2625
-0.0292427302284632 0.0676837338835489 0.2625
-0.0266133060533021 0.0784264122346103 0.2625
-0.0455585921451124 0.083240157561321 0.2625
-0.0515444620536703 0.0952573281282403 0.2625
-0.0477527453079714 0.0952179330947498 0.2625
-0.0661938677980279 0.106561393707752 0.2625
-0.0700487641516964 0.116532727472468 0.2625
-0.0872724510386771 0.129296550504625 0.2625
-0.0880328592898083 0.137055956855912 0.2625
-0.0993846546902339 0.147920776992017 0.2625
-0.112878679455954 0.149974260347275 0.2625
-0.110390711409359 0.158213476168247 0.2625
-0.126234665647574 0.164565073939627 0.2625
-0.13778729364715 0.183446356110119 0.2625
-0.138381297859441 0.191701394149896 0.262482636258385
0.209853053600868 -0.182521539389913 0.2625
0.200805424697238 -0.176774710229143 0.2625
0.195589108129522 -0.164650129423875 0.2625
0.182120749301384 -0.161587377573282 0.2625
0.177562775633421 -0.159387195275413 0.2625
0.172695659647302 -0.147653650898945 0.2625
0.168650938929093 -0.143911834445698 0.2625
0.158125046539429 -0.132454616946334 0.2625
0.147809726565473 -0.124884555786349 0.2625
0.144312630799071 -0.120701705725278 0.2625
0.132443261531635 -0.105086807488542 0.2625
0.129996207216186 -0.101355622304019 0.2625
0.121360373767375 -0.0968352810712209 0.2625
0.113383900870105 -0.089833659991037 0.2625
0.113437928570214 -0.0843422746541627 0.2625
0.105941407512246 -0.0825660377535044 0.2625
0.0949629083568388 -0.0644889917680452 0.2625
0.0841042621827407 -0.0578772423900166 0.2625
0.0806521558156774 -0.0515914630479547 0.2625
0.0726986175442781 -0.0431610192672288 0.2625
0.0712828830459164 -0.0437608445086769 0.2625
0.064954948174669 -0.0323332815095708 0.2625
0.0507671066100293 -0.0327422772097489 0.2625
0.0443623976021364 -0.0229292554460862 0.2625
0.0389472723636982 -0.00995029096981947 0.2625
0.0359361056627475 -0.00613570384994512 0.2625
0.0236122078815537 0.00934340629051528 0.2625
0.0130833353120427 0.0164940107428771 0.2625
0.00647895440022204 0.0141582296547966 0.2625
0.000884959745472477 0.0270559258309001 0.2625
-0.00621492124000713 0.0389781842687328 0.2625
-0.0147273800143673 0.0453334259340405 0.2625
-0.024403229155453 0.0575333780725511 0.2625
-0.0241340573686169 0.058118557354186 0.2625
-0.0381850649420966 0.0737947320170369 0.2625
-0.0485310379850306 0.0781616198047299 0.2625
-0.0587661180644029 0.0855944429260562 0.2625
-0.0646560403072345 0.0885399168540276 0.2625
-0.0780813991711892 0.107959320388544 0.2625
-0.0782720187577697 0.114570405992 0.2625
-0.0952587285640891 0.121513427983504 0.2625
-0.105391402424101 0.129175044383798 0.2625
-0.11173946977446 0.14226725130989 0.2625
-0.109355449659162 0.144724276819529 0.2625
-0.128362464170524 0.154424957949822 0.2625
-0.136736356045536 0.163617746591727 0.2625
-0.144940945533699 0.173087617443272 0.2625
-0.154628099541995 0.183196099495941 0.2625
-0.158352874343848 0.187276202446263 0.2625
0.201927065113304 -0.188216904536057 0.26202622365263
0.186931739067257 -0.175535314892924 0.2625
0.182463039005876 -0.175621234122394 0.2625
0.182476951217123 -0.164396455559357 0.2625
0.167392456145124 -0.153423935971581 0.2625
0.162996112271548 -0.152119006955709 0.2625
0.161032477910212 -0.143482441662374 0.2625
0.153539959502831 -0.137565214165842 0.2625
0.142347697229436 -0.132165548543757 0.2625
0.137603415023787 -0.121843303360901 0.2625
0.129366627718794 -0.111448884520798 0.2625
0.122321647989838 -0.109835369820448 0.2625
0.11966366451644 -0.101396073101238 0.2625
0.111880334032121 -0.103683243619305 0.2625
0.0993046747338728 -0.0887277817053771 0.2625
0.100847387417106 -0.0880572598657058 0.2625
0.0915480018058078 -0.0804631636807398 0.2625
0.0846249406583771 -0.0724305249827798 0.2625
0.0747499003390963 -0.0681909851663408 0.2625
0.073922973669829 -0.057220299394856 0.2625
0.0683715113762822 -0.0498453654627565 0.2625
0.0517864923825298 -0.039539089424435 0.2625
0.0429330130126971 -0.028482171731045 0.2625
0.045379068053056 -0.0264200269066906 0.2625
0.0308568247370769 -0.017275806351828 0.2625
0.0225003427551342 -0.00898865063327671 0.2625
0.0179148419521956 -0.00861522235609508 0.2625
0.0106993139742426 0.00696353347469004 0.2625
0.00474638711839972 0.0130369803199985 0.2625
-0.00855626332776568 0.0208992285913217 0.2625
-0.018862117743996 0.0365772693892643 0.2625
-0.0207967559172418 0.0283615932038824 0.2625
-0.0247435108250673 0.0388784795383833 0.2625
-0.0373820638763242 0.0533470717385845 0.2625
-0.046210460132608 0.0669187399726332 0.2625
-0.0589272064431671 0.0728913489687141 0.2625
-0.0633154652458787 0.0682621693629401 0.2625
-0.0687067697050789 0.0859008098408534 0.2625
-0.0845371625419646 0.0955792429074361 0.2625
-0.0894040613810949 0.108570372154315 0.2625
-0.0939622854263197 0.109817018261584 0.2625
-0.100971801641379 0.124679319330136 0.2625
-0.117392072168382 0.124409074250817 0.2625
-0.126302317520284 0.135610582923509 0.2625
-0.135839933079654 0.153728706823734 0.2625
-0.139924413638596 0.151709309584512 0.2625
-0.157367835737338 0.164303482398221 0.2625
-0.153693903223418 0.17686767760107 0.2625
-0.16139711109452 0.180152353895787 0.2625
0.188989695596772 -0.19395887112462 0.259626907646626
0.191993104122125 -0.189641534295969 0.261670164346128
0.178587498129564 -0.180772747317312 0.2625
0.174447215012114 -0.168575015768625 0.2625
0.167301722214765 -0.16945273758535 0.2625
0.158843616371741 -0.154651832658216 0.2625
0.153817260883781 -0.154195290973618 0.2625
0.145110685535094 -0.145017158023245 0.2625
0.134848621298243 -0.135163160988952 0.2625
0.134622047825407 -0.133661112147368 0.2625
0.125590850759741 -0.12465935456491 0.2625
0.125180657181701 -0.117295678422418 0.2625
0.117186949057729 -0.115876200723217 0.2625
0.11043700900652 -0.105759062237953 0.2625
0.0955641470408091 -0.0925037191428897 0.2625
0.0911894740259764 -0.0917191101046299 0.2625
0.083771680173526 -0.0801792748028284 0.2625
0.0736025255844954 -0.0751997139159795 0.2625
0.0756086128865524 -0.0751542498622243 0.2625
0.0624079379789357 -0.0658232676468373 0.2625
0.0508951811149756 -0.0488263490738388 0.2625
0.048227361947403 -0.0528818169448665 0.2625
0.032708784901366 -0.0404509727285616 0.2625
0.037024925127238 -0.0368210650904534 0.2625
0.0286283499090808 -0.0215614740045005 0.2625
0.0144287786236097 -0.0168447131703809 0.2625
0.0147562894040239 -0.00903225326139884 0.2625
0.00619396865210274 -0.00191768636273337 0.2625
-0.00697980734507459 0.0013192188317964 0.2625
-0.0130288737677491 0.0124583359964118 0.2625
-0.0149211007944249 0.0172602971917969 0.2625
-0.0276193952665152 0.027981149807449 0.2625
-0.0300229798091776 0.0366946833816315 0.2625
-0.0456195962560453 0.0509191314189835 0.2625
-0.0585402011572296 0.0588491066055933 0.2625
-0.0592128910179176 0.0641765404274637 0.2625
-0.0721223814100246 0.0728091206946408 0.2625
-0.0803114252964872 0.0811327662135726 0.2625
-0.0914203550719804 0.0847807097729994 0.2625
-0.09880683552181 0.0959628095461455 0.2625
-0.108204101467535 0.107717768244803 0.2625
-0.107116823190794 0.11355638628067 0.2625
-0.121273287288038 0.11980856035595 0.2625
-0.133680028919911 0.134403497380831 0.2625
-0.142529952198395 0.134592838115181 0.2625
-0.139762924636986 0.139701051841756 0.2625
-0.160935984137555 0.152919992155597 0.2625
-0.169019973789502 0.162673731302711 0.2625
-0.176845410089033 0.168805529977074 0.2625
-0.187624540194542 0.181053830674501 0.2625
0.185264660491943 -0.19682242945538 0.254667635617888
0.178590872852478 -0.195816346232389 0.259071822395919
0.175598994923377 -0.183571926820857 0.2625
0.173320613447107 -0.186147616523126 0.2625
0.15608664140168 -0.170104008813006 0.2625
0.151684650868284 -0.171910890019419 0.2625
0.150398390454302 -0.158384234160512 0.2625
0.13985609165363 -0.148469704130637 0.2625
0.130249473940012 -0.142355996793063 0.2625
0.126365969871887 -0.140054997059243 0.2625
0.118692233119629 -0.133909253957367 0.2625
0.111186830764387 -0.127387871399594 0.2625
0.101253651468214 -0.116463494693024 0.2625
0.0955043078572177 -0.112404435773914 0.2625
0.0878041660662439 -0.10517755671189 0.2625
0.0886139852064887 -0.100865337045281 0.2625
0.0736331808388428 -0.0885171035759365 0.2625
0.0728907566707255 -0.084053641992224 0.2625
0.069829704118231 -0.0838386088497051 0.2625
0.0553443503246289 -0.0618492290101223 0.2625
0.0492784922399519 -0.0640729321587228 0.2625
0.0435985730327772 -0.0579578641723621 0.2625
0.03651927019595 -0.0522816513013431 0.2625
0.0249603441387093 -0.0393840945517077 0.2625
0.0199119221478036 -0.0292683849863967 0.2625
0.0118700984342427 -0.0241038848710779 0.2625
0.00965370474942607 -0.019820602124705 0.2625
-0.0118627210029363 -0.00644877566607469 0.2625
-0.0148143908757392 -0.00116950973774603 0.2625
-0.014330588931391 0.00323183257358206 0.2625
-0.0309843576470144 0.0155508915337213 0.2625
-0.0353634272168382 0.0309838066057652 0.2625
-0.0445700625487982 0.0302908748426206 0.2625
-0.0553108205194118 0.0388984797625327 0.2625
-0.0614848280718893 0.0404143583427556 0.2625
-0.0658741378298088 0.0550413391699954 0.2625
-0.0830142548582791 0.0610976844926276 0.2625
-0.084033693793638 0.0753681714856418 0.2625
-0.0987429332068404 0.0875041771395678 0.2625
-0.106060286175813 0.0936762262710949 0.2625
-0.112760965906023 0.0963740638415526 0.2625
-0.125156062311131 0.106428213891555 0.2625
-0.128642172102726 0.115020577475728 0.2625
-0.131842425411093 0.11940999368636 0.2625
-0.144465096051397 0.130364956876127 0.2625
-0.150257131339121 0.139149037147534 0.2625
-0.16174528206921 0.146752787785001 0.2625
-0.173110004983369 0.154974570890621 0.2625
-0.182005537780319 0.163742863364011 0.2625
-0.188155646189728 0.169906155645513 0.2625
-0.197750102293988 0.183560511320026 0.2625
0.16946737361309 -0.19795098008965 0.255742765221998
