ply
format ascii 1.0
element vertex 849
property float x
property float y
property float z
end_header
-0.190574860229585 0.306954265141206 0.759310344827759
-0.184281889071155 0.308993017271133 0.759310344827759
-0.207174720496505 0.294918131996706 0.759310344827759
-0.208669584996956 0.287407891445461 0.759310344827759
-0.231569979799388 0.272205932421188 0.759310344827759
-0.240929515755477 0.265994007563984 0.759310344827759
-0.246116838188902 0.265555641193093 0.759310344827759
-0.250026497804999 0.250889172416202 0.759310344827759
-0.267265163374378 0.243319975173435 0.759310344827759
-0.277168911436307 0.236272125350425 0.759310344827759
-0.283262204039172 0.234047945700978 0.759310344827759
-0.296546543502448 0.214382956154929 0.759310344827759
-0.317505532228701 0.212756998580468 0.759310344827759
-0.3258210300096 0.201298181925017 0.759310344827759
-0.331383978819316 0.19994923265809 0.759310344827759
-0.340867092820023 0.178493466144013 0.759310344827759
-0.35443946645308 0.182522413003495 0.759310344827759
-0.366158611760367 0.166791548846643 0.759310344827759
-0.382889952481108 0.159943264325898 0.759310344827759
-0.397255273076004 0.142238017306756 0.759310344827759
-0.406261786075105 0.134038521283437 0.759310344827759
-0.414706770820877 0.133836710536037 0.759310344827759
-0.425680716213447 0.120518976619753 0.759310344827759
-0.444380318073374 0.107190010044358 0.759310344827759
-0.450831746936099 0.0999708549301646 0.759310344827759
-0.463366047265646 0.0990816489285923 0.759310344827759
-0.474420487217178 0.0789175068043605 0.759310344827759
-0.487661021885941 0.0717724640939743 0.759310344827759
-0.155315931162092 0.318689726339555 0.659229262883243
-0.0991786685842688 0.362068965517241 0.734713075925578
-0.0945585401621171 0.362068965517241 0.744810347709962
-0.101682529206568 0.362068965517241 0.746819144471308
-0.101544174474869 0.362068965517241 0.751057259887906
-0.110392792106548 0.352407179740726 0.759310344827759
-0.115262298925224 0.346094650273678 0.759310344827759
-0.134450870498522 0.337635338380844 0.759310344827759
-0.141815216677242 0.338211546259193 0.759310344827759
-0.151225178029724 0.324274249794008 0.759310344827759
-0.163071924520063 0.31715547387547 0.759310344827759
-0.163300565375694 0.310603741305185 0.759310344827759
-0.184395350961116 0.301512186312985 0.759310344827759
-0.192412317886916 0.298836698029947 0.759310344827759
-0.197012766034457 0.285406646002488 0.759310344827759
-0.203528875598732 0.280395798123692 0.759310344827759
-0.216707773041688 0.26421166643631 0.759310344827759
-0.222293582302146 0.268425993463901 0.759310344827759
-0.238089571506344 0.252401638466292 0.759310344827759
-0.248098225466193 0.245362161880766 0.759310344827759
-0.255867488054367 0.237796840824856 0.759310344827759
-0.272330601581091 0.222605605373582 0.759310344827759
-0.28016080597467 0.224360129428438 0.759310344827759
-0.28961540938403 0.218999584079845 0.759310344827759
-0.304387586088822 0.195212587799119 0.759310344827759
-0.318872994944353 0.189548330510221 0.759310344827759
-0.330502359727225 0.182259076307014 0.759310344827759
-0.327773860713957 0.183733451376368 0.759310344827759
-0.349221398260527 0.162364144513301 0.759310344827759
-0.352761708348412 0.156064832872976 0.759310344827759
-0.368065103939937 0.152835264231328 0.759310344827759
-0.378007674264889 0.140358853752793 0.759310344827759
-0.390336090551067 0.137870066865468 0.759310344827759
-0.405840968129717 0.124646719534397 0.759310344827759
-0.414034339284195 0.114487612623104 0.759310344827759
-0.427954090421041 0.101042146358481 0.759310344827759
-0.438169543904236 0.0902078290332653 0.759310344827759
-0.452407575103974 0.0829421783729874 0.759310344827759
-0.462639027893047 0.079676196529427 0.759310344827759
-0.480209449873846 0.0636984345190985 0.759310344827759
-0.498655735715568 0.0495180787426497 0.759310344827759
-0.0869083583247084 0.362068965517241 0.726489371275968
-0.0822655415860841 0.362068965517241 0.732022103977187
-0.0921475654898547 0.362068965517241 0.74115462609928
-0.0813344551435431 0.362068965517241 0.749773158384134
-0.0879186589509349 0.359817674016146 0.759310344827759
-0.0946539732200837 0.35346449261961 0.759310344827759
-0.0978568912628239 0.350818591044955 0.759310344827759
-0.117015110075558 0.336987831777252 0.759310344827759
-0.124769537775197 0.329790786671092 0.759310344827759
-0.131400224263506 0.326685117543204 0.759310344827759
-0.139325126464879 0.321443414699531 0.759310344827759
-0.151909793034351 0.315288356980174 0.759310344827759
-0.165162215464639 0.298294130202566 0.759310344827759
-0.166196030750748 0.296690422222693 0.759310344827759
-0.181291232157994 0.288796380022727 0.759310344827759
-0.184122085138879 0.279913344481724 0.759310344827759
-0.204703205929775 0.265265838826596 0.759310344827759
-0.212711475963567 0.261423807700062 0.759310344827759
-0.217183547533028 0.260402592212158 0.759310344827759
-0.230621480038743 0.250761311776083 0.759310344827759
-0.24191115276371 0.240310534481058 0.759310344827759
-0.244844820363728 0.231964780660425 0.759310344827759
-0.267392352094692 0.222248000203649 0.759310344827759
-0.280694284123356 0.214743922713697 0.759310344827759
-0.288771658360008 0.207093004424617 0.759310344827759
-0.290407525174378 0.194080364553102 0.759310344827759
-0.306284379868661 0.181700396199149 0.759310344827759
-0.313338773377903 0.182513039602628 0.759310344827759
-0.333683740804559 0.171086863527931 0.759310344827759
-0.338510002814044 0.154459812436875 0.759310344827759
-0.35439032831764 0.152734944312267 0.759310344827759
-0.3705380914663 0.143480375138985 0.759310344827759
-0.373588049461443 0.131844849155747 0.759310344827759
-0.38307212953562 0.127102108492894 0.759310344827759
-0.400643048409634 0.115883527317188 0.759310344827759
-0.417056530073086 0.106049316522349 0.759310344827759
-0.419708144845832 0.0933699353394629 0.759310344827759
-0.439109861387446 0.0846488488134746 0.759310344827759
-0.450856811356519 0.0810567691412513 0.759310344827759
-0.456496208729788 0.0739267351077463 0.759310344827759
-0.476767730385448 0.0593702369933203 0.759310344827759
-0.480712951488682 0.0516068240980718 0.759310344827759
-0.49172416830633 0.0374811510394329 0.759310344827759
-0.129881028987996 0.318689726339554 0.660411387264742
-0.132189512343087 0.318689726339554 0.667531569503386
-0.0713927867833933 0.362068965517241 0.736414951961845
-0.066650161858461 0.362068965517241 0.743876846910764
-0.0730650039569521 0.362068965517241 0.756406793601222
-0.0770061121865509 0.359027226833923 0.759310344827759
-0.0892395489126803 0.354727232318514 0.759310344827759
-0.0987490733709979 0.345427365740012 0.759310344827759
-0.112632978956951 0.335303966632861 0.759310344827759
-0.109544091645232 0.336377128258368 0.759310344827759
-0.131173175702135 0.318719155115533 0.759310344827759
-0.127639900963299 0.319293325285682 0.759310344827759
-0.146942552841064 0.300983483278175 0.759310344827759
-0.151792118634819 0.298701171263258 0.759310344827759
-0.164833031747042 0.285188404041698 0.759310344827759
-0.165032448243877 0.287267039091443 0.759310344827759
-0.179736935413668 0.277112130127885 0.759310344827759
-0.19015698749808 0.271955068769953 0.759310344827759
-0.207893706258431 0.260164376319456 0.759310344827759
-0.213764606507744 0.247710405207294 0.759310344827759
-0.226364948919152 0.245240441871455 0.759310344827759
-0.232938118181829 0.238708609316646 0.759310344827759
-0.241645663085025 0.231738068525927 0.759310344827759
-0.257591321967894 0.211542839440678 0.759310344827759
-0.268527053947518 0.207711759444081 0.759310344827759
-0.274345362107129 0.193599512839757 0.759310344827759
-0.294836239614225 0.189080947737036 0.759310344827759
-0.298182292476906 0.184133451920139 0.759310344827759
-0.311663953060507 0.178963940704141 0.759310344827759
-0.325570455385967 0.162184161301839 0.759310344827759
-0.325302125821666 0.156725445884362 0.759310344827759
-0.346456987079002 0.147145988765632 0.759310344827759
-0.350500658590112 0.132509880005032 0.759310344827759
-0.365958444060831 0.126134254213361 0.759310344827759
-0.378440768835569 0.120157057808045 0.759310344827759
-0.393130243975328 0.104017773593421 0.759310344827759
-0.398430867323875 0.104076706305236 0.759310344827759
-0.417643350953054 0.0850692328075299 0.759310344827759
-0.436673092070613 0.076406428271854 0.759310344827759
-0.439067356073263 0.067921344251301 0.759310344827759
-0.447008575189712 0.062852019990721 0.759310344827759
-0.462617101425497 0.0453092643127045 0.759310344827759
-0.476332580657745 0.0420961236921983 0.759310344827759
-0.495129632331455 0.0246246699294755 0.759310344827759
-0.0569324227428099 0.362068965517241 0.72504647240489
-0.0649817224349303 0.362068965517241 0.730170483998985
-0.0546608798664634 0.362068965517241 0.740208262894862
-0.0626495811468163 0.362068965517241 0.748657721234894
-0.0591224636546316 0.358194062468609 0.759310344827759
-0.0665276376818242 0.359403590321775 0.759310344827759
-0.0804631090812496 0.342853494907395 0.759310344827759
-0.0884392604858232 0.337348849538119 0.759310344827759
-0.0956175005175358 0.330526836490003 0.759310344827759
-0.113123436269381 0.321921376731762 0.759310344827759
-0.110553623535101 0.316976619838045 0.759310344827759
-0.120080035378372 0.306141463688747 0.759310344827759
-0.13583716987401 0.299906762638738 0.759310344827759
-0.148924790456976 0.29233343265624 0.759310344827759
-0.151912554441688 0.287306816441247 0.759310344827759
-0.16956013725403 0.273289102792517 0.759310344827759
-0.177840496678423 0.260647910673548 0.759310344827759
-0.189143903524365 0.255810167643213 0.759310344827759
-0.19161793778613 0.251978225508806 0.759310344827759
-0.20146137154765 0.240363962943182 0.759310344827759
-0.222322004841021 0.231875828132508 0.759310344827759
-0.230516386511698 0.230635608845812 0.759310344827759
-0.245801034648725 0.217647994594655 0.759310344827759
-0.246670685201098 0.213414939393195 0.759310344827759
-0.256006100314344 0.199433500633682 0.759310344827759
-0.271853363685056 0.194463281102113 0.759310344827759
-0.282886426256728 0.183707707933043 0.759310344827759
-0.298944912988132 0.167562665245665 0.759310344827759
-0.298455633873081 0.163346248368974 0.759310344827759
-0.314927031670753 0.151850933124222 0.759310344827759
-0.331394661343281 0.146204188281246 0.759310344827759
-0.33892600120456 0.134623464737137 0.759310344827759
-0.353311351119336 0.120192097341544 0.759310344827759
-0.358175913529446 0.117613114028305 0.759310344827759
-0.370896245137253 0.106730371293606 0.759310344827759
-0.379334361567381 0.1043306330199 0.759310344827759
-0.397577725165562 0.0882080957202956 0.759310344827759
-0.41048321969107 0.0724539248947359 0.759310344827759
-0.417350786973284 0.0685505460353893 0.759310344827759
-0.429860387823912 0.055853998299663 0.759310344827759
-0.438672584390826 0.049891210070225 0.759310344827759
-0.456407276150796 0.0472957190970843 0.759310344827759
-0.474177566713263 0.0269132060843004 0.759310344827759
-0.478598557759355 0.0273258926356133 0.759310344827759
-0.498501474332874 0.00269272561468371 0.759310344827759
-0.0954455565207118 0.318689726339553 0.65940816505689
-0.0993826788110542 0.318689726339553 0.66767805341293
-0.0424917413437576 0.362068965517241 0.729733942955906
-0.0376967350131931 0.362068965517241 0.740318862953271
-0.0371703159016527 0.362068965517241 0.758945758343291
-0.0437905988863492 0.359134692569308 0.759310344827759
-0.047332139378834 0.352149862781911 0.759310344827759
-0.0616673883499648 0.344141522437246 0.759310344827759
-0.0746790378874704 0.337942068813393 0.759310344827759
-0.0883015108769349 0.323562877414006 0.759310344827759
-0.0957483852352284 0.323253530010762 0.759310344827759
-0.0982500484739638 0.320378257087697 0.759310344827759
-0.112587610307315 0.303976638113194 0.759310344827759
-0.120017275819326 0.30001734027823 0.759310344827759
-0.129492057855287 0.294841300046967 0.759310344827759
-0.13213783763394 0.28721112888495 0.759310344827759
-0.14651233931265 0.276973284942419 0.759310344827759
-0.158303741262325 0.272898888605524 0.759310344827759
-0.169782483262922 0.255157054315233 0.759310344827759
-0.176173571765806 0.251417203017538 0.759310344827759
-0.190825472515866 0.244503394764582 0.759310344827759
-0.200014518976658 0.238470109530312 0.759310344827759
-0.219728844752014 0.227624408888115 0.759310344827759
-0.22010134491147 0.223503930314978 0.759310344827759
-0.232136800293992 0.214148249442005 0.759310344827759
-0.240111955730381 0.201414537629153 0.759310344827759
-0.253767057607722 0.194195943816163 0.759310344827759
-0.270532234506865 0.185136020757723 0.759310344827759
-0.269087852807367 0.174562755562877 0.759310344827759
-0.276330918567579 0.166623151907198 0.759310344827759
-0.297869793742895 0.154085440568273 0.759310344827759
-0.308424812220191 0.152537678684812 0.759310344827759
-0.321319816490804 0.134966160305217 0.759310344827759
-0.328465585231983 0.129452936733925 0.759310344827759
-0.338835020584532 0.12426273537007 0.759310344827759
-0.349506228448582 0.11399615336589 0.759310344827759
-0.36595377571459 0.0989451463522471 0.759310344827759
-0.375469982776776 0.0969391393506188 0.759310344827759
-0.388209882626982 0.0827212467623397 0.759310344827759
-0.403987088611943 0.0745953917517675 0.759310344827759
-0.411926886294927 0.066162399846251 0.759310344827759
-0.425028715113377 0.0531067557599686 0.759310344827759
-0.44112004751473 0.0386652621759905 0.759310344827759
-0.444887365095594 0.0342436675913364 0.759310344827759
-0.46658430368736 0.0139044810075888 0.759310344827759
-0.473816763398088 0.00546292063813393 0.759310344827759
-0.489384489677164 -0.00225620877455213 0.759310344827759
-0.498847730282555 -0.0112614491533351 0.759310344827759
-0.0759558469382857 0.318689726339553 0.661914296368544
-0.0870959449156546 0.318689726339553 0.658945989080262
-0.0290483685709385 0.362068965517241 0.726524640118956
-0.0315043833739317 0.362068965517241 0.747401638311517
-0.0332591929458181 0.362068965517241 0.745932934755528
-0.033291416304906 0.358091399842483 0.759310344827759
-0.0407492862297634 0.349180576781374 0.759310344827759
-0.0481652587978991 0.346901168437743 0.759310344827759
-0.0617615186745368 0.340410700296367 0.759310344827759
-0.0712217101325437 0.330344791274925 0.759310344827759
-0.0783403410014926 0.325068737704136 0.759310344827759
-0.0888575929687808 0.318082880883907 0.759310344827759
-0.0924540010848608 0.311500376208435 0.759310344827759
-0.104102695142625 0.300387653451624 0.759310344827759
-0.120852306121878 0.289979640187754 0.759310344827759
-0.122828498775903 0.292665851859602 0.759310344827759
-0.136853853573426 0.27729295190053 0.759310344827759
-0.1391932962472 0.269236559503651 0.759310344827759
-0.151988543366477 0.264674695398886 0.759310344827759
-0.166527231297991 0.249195147471571 0.759310344827759
-0.17496538764242 0.242598390165346 0.759310344827759
-0.181118750077838 0.235347168120078 0.759310344827759
-0.194016125814802 0.227433518119775 0.759310344827759
-0.196347005486748 0.2274677942083 0.759310344827759
-0.210490228193645 0.21626933932743 0.759310344827759
-0.227463852407268 0.199164011583066 0.759310344827759
-0.240214372763052 0.190977247452711 0.759310344827759
-0.242516819304343 0.185650334925916 0.759310344827759
-0.26139214548624 0.175209732775938 0.759310344827759
-0.273271707885979 0.167675517252341 0.759310344827759
-0.282387633273134 0.160023946927253 0.759310344827759
-0.288514567212683 0.156044787872151 0.759310344827759
-0.304259581935771 0.132470804991492 0.759310344827759
-0.313425747898467 0.127610445156525 0.759310344827759
-0.312104803220017 0.125797433720928 0.759310344827759
-0.326214256485565 0.113118740659274 0.759310344827759
-0.348867773806641 0.105346363242558 0.759310344827759
-0.354086330278638 0.0994539282604067 0.759310344827759
-0.377017545918669 0.0794135590196027 0.759310344827759
-0.383714931197317 0.0759098642232482 0.759310344827759
-0.39266561945555 0.0696852869147896 0.759310344827759
-0.402211546502914 0.0596762150627819 0.759310344827759
-0.408348452969377 0.0514169279390705 0.759310344827759
-0.427504558904152 0.0343899009276787 0.759310344827759
-0.439213470682859 0.0250253703493144 0.759310344827759
-0.457830301817093 0.00881465900328735 0.759310344827759
-0.45743339775517 0.00483131079705645 0.759310344827759
-0.479313528141696 -0.00995760317859093 0.759310344827759
-0.490938719276797 -0.0196458666429004 0.759310344827759
-0.061825433185052 0.318689726339552 0.659830829185627
-0.0716058622945561 0.318689726339553 0.664535897926077
-0.0140952977301174 0.362068965517241 0.732819116273348
-0.0157731224930227 0.362068965517241 0.740547203328686
-0.0209526837359545 0.362068965517241 0.750395704092644
-0.015517196338111 0.362068965517241 0.75225847846615
-0.0209614650534095 0.359841404545301 0.759310344827759
-0.0369254986125535 0.341948052079236 0.759310344827759
-0.04116577704118 0.340432614374624 0.759310344827759
-0.0582057014396857 0.331460597043747 0.759310344827759
-0.0620325237647047 0.319661619477416 0.759310344827759
-0.067628607351426 0.3162628755272 0.759310344827759
-0.0750156913806926 0.313787334127328 0.759310344827759
-0.0864350899295091 0.303096581004975 0.759310344827759
-0.0961426470593902 0.29155596196016 0.759310344827759
-0.10374344896979 0.284546512526286 0.759310344827759
-0.113776954941472 0.281460936193323 0.759310344827759
-0.126324330170768 0.270628749579809 0.759310344827759
-0.127186468884255 0.270687987844743 0.759310344827759
-0.144700338251307 0.252911604166494 0.759310344827759
-0.157128346947351 0.246050452116017 0.759310344827759
-0.168407637721632 0.241134462392023 0.759310344827759
-0.18035658335613 0.228199616922017 0.759310344827759
-0.187074799390673 0.216296081143326 0.759310344827759
-0.199124661861179 0.211209396586978 0.759310344827759
-0.205149747599519 0.204627684499128 0.759310344827759
-0.21421031371902 0.192293134360398 0.759310344827759
-0.221467260622816 0.186802875162838 0.759310344827759
-0.234478268703424 0.182527403163775 0.759310344827759
-0.256555581577124 0.166979221273484 0.759310344827759
-0.254192796192229 0.159924828726824 0.759310344827759
-0.275031383846456 0.144334096715428 0.759310344827759
-0.273301568513844 0.142142656358043 0.759310344827759
-0.288012851040078 0.131481112169105 0.759310344827759
-0.3037613046751 0.126163451639713 0.759310344827759
-0.321767490029902 0.114444619902843 0.759310344827759
-0.32529849234008 0.10837408333033 0.759310344827759
-0.339470991594905 0.0903419558351097 0.759310344827759
-0.348684016027641 0.0859911485503261 0.759310344827759
-0.362133726935315 0.0755728432474555 0.759310344827759
-0.375476889715982 0.0589173186968644 0.759310344827759
-0.388056317437439 0.054507411704804 0.759310344827759
-0.396293055263147 0.0434861215007457 0.759310344827759
-0.411494413411704 0.0401033728531147 0.759310344827759
-0.413881297734543 0.0337673321085004 0.759310344827759
-0.431659348216885 0.0257707609014934 0.759310344827759
-0.439580189174034 0.00336818524858907 0.759310344827759
-0.462126609756739 -0.0116454372478696 0.759310344827759
-0.468311036650635 -0.0180789669510436 0.759310344827759
-0.48368744304904 -0.0254010451007012 0.759310344827759
-0.0516085611958192 0.318689726339552 0.666432109788454
0.00113686604475083 0.362068965517241 0.730719104380597
-0.00435601790585609 0.362068965517241 0.738304874695416
-0.00948196942490701 0.362068965517241 0.740905319412136
-0.00501210596949112 0.362068965517241 0.753529310364529
-0.00731795380811132 0.358270956369292 0.759310344827759
-0.0178595268003702 0.345070197957983 0.759310344827759
-0.0264901987791906 0.342151151999853 0.759310344827759
-0.0337892094885645 0.336271961376369 0.759310344827759
-0.0513608493741924 0.324498393594682 0.759310344827759
-0.0537817740311772 0.312304001469949 0.759310344827759
-0.0673453916087459 0.305505607706106 0.759310344827759
-0.0688369203689968 0.307308247096346 0.759310344827759
-0.0827144122287461 0.292793906355966 0.759310344827759
-0.0859225444309489 0.285691813690348 0.759310344827759
-0.0930809925440009 0.287113259642138 0.759310344827759
-0.102243907449727 0.277185150853146 0.759310344827759
-0.120997594330529 0.259229548508194 0.759310344827759
-0.135917204425045 0.251245728799643 0.759310344827759
-0.13112075018684 0.250428969731712 0.759310344827759
-0.153122925314197 0.233495971086104 0.759310344827759
-0.163977828289814 0.230461432218209 0.759310344827759
-0.175038174246488 0.222550716643667 0.759310344827759
-0.173341645268314 0.22070599554721 0.759310344827759
-0.1852513995749 0.210476271817942 0.759310344827759
-0.191493932264804 0.196466825010822 0.759310344827759
-0.207901753069402 0.193779323027665 0.759310344827759
-0.219041986305306 0.183092161515187 0.759310344827759
-0.234350342139697 0.166748734516243 0.759310344827759
-0.23630991213984 0.167925258084897 0.759310344827759
-0.246781746676107 0.152435285777531 0.759310344827759
-0.26167072753026 0.143100588112597 0.759310344827759
-0.278853476281592 0.132216388538684 0.759310344827759
-0.287832872185641 0.124061877592243 0.759310344827759
-0.291110082866356 0.113973480210078 0.759310344827759
-0.314173211044999 0.101118334247056 0.759310344827759
-0.321335170356537 0.0964086192612572 0.759310344827759
-0.326957196482151 0.0964480638879473 0.759310344827759
-0.336458321014455 0.0778007362963604 0.759310344827759
-0.35253114429245 0.0679188447511383 0.759310344827759
-0.360683023761026 0.0639281689227304 0.759310344827759
-0.374058682274998 0.0438640185786834 0.759310344827759
-0.394160514027468 0.0333839047630394 0.759310344827759
-0.39067935867654 0.0331900803717556 0.759310344827759
-0.414658965189352 0.0185618616991668 0.759310344827759
-0.432226873233844 0.0109981932806115 0.759310344827759
-0.435531408024018 0.00697612186865024 0.759310344827759
-0.453518145643474 -0.0104382998400039 0.759310344827759
-0.471611878232261 -0.0240087641745003 0.759310344827759
-0.483170831810201 -0.0375925860468837 0.759310344827759
-0.484904134208339 -0.0410461901495486 0.759310344827759
-0.0373247169251898 0.318689726339551 0.656594473446288
-0.0354522938092088 0.318689726339551 0.662085789811787
0.0134722345369466 0.362068965517241 0.732110831499141
0.00913589044969336 0.362068965517241 0.733098715408614
0.019239461480054 0.362068965517241 0.747926242378386
0.00852503944635987 0.357413330582051 0.759310344827759
0.010090215562896 0.354757468184519 0.759310344827759
-0.00927703694725677 0.344459886984598 0.759310344827759
-0.0033966749280366 0.348616804028099 0.759310344827759
-0.0211034594657728 0.332225927676022 0.759310344827759
-0.0316165108553357 0.324947224845191 0.759310344827759
-0.0332725516808458 0.320157396148285 0.759310344827759
-0.0536527197004391 0.309872517433775 0.759310344827759
-0.0591621271924541 0.301785373484787 0.759310344827759
-0.0680045809824269 0.294510442687945 0.759310344827759
-0.0708879571864519 0.289826929147676 0.759310344827759
-0.0867507885468753 0.282149742623019 0.759310344827759
-0.0930614761047686 0.267823350918177 0.759310344827759
-0.101351775266004 0.264234768783414 0.759310344827759
-0.111644485278515 0.261192726779747 0.759310344827759
-0.119352722479406 0.252338087248871 0.759310344827759
-0.130584638126911 0.235723944578058 0.759310344827759
-0.139238913017627 0.238567593358028 0.759310344827759
-0.153149063251425 0.218580228396785 0.759310344827759
-0.162991355084383 0.209564212388083 0.759310344827759
-0.17051207675079 0.203093811863994 0.759310344827759
-0.179456889002399 0.195982277000905 0.759310344827759
-0.194953509312849 0.191091544391956 0.759310344827759
-0.203500220735805 0.185729060251531 0.759310344827759
-0.20754601150909 0.174176979496989 0.759310344827759
-0.220600263423982 0.169044201012693 0.759310344827759
-0.240015293629056 0.147114004736251 0.759310344827759
-0.244836538749622 0.152560668967771 0.759310344827759
-0.255097512817093 0.14023281664209 0.759310344827759
-0.258007680100731 0.13401097781917 0.759310344827759
-0.279332417987626 0.114541100250357 0.759310344827759
-0.281993611569479 0.108897242613059 0.759310344827759
-0.298575161976378 0.0996777351827424 0.759310344827759
-0.315536379739871 0.0923287742622127 0.759310344827759
-0.325867811277503 0.0855466002394941 0.759310344827759
-0.330374183725525 0.0680110207175485 0.759310344827759
-0.350911117419126 0.0530701500325193 0.759310344827759
-0.360534367852872 0.0485892561081766 0.759310344827759
-0.37310190459588 0.0329159296885791 0.759310344827759
-0.390403242803268 0.023514535704152 0.759310344827759
-0.399281048742098 0.0133124068868045 0.759310344827759
-0.409083413811973 0.00756628541968521 0.759310344827759
-0.418544196431492 0.0024786598941424 0.759310344827759
-0.429763482591273 -0.0151543295915282 0.759310344827759
-0.44361636282073 -0.0164522078651165 0.759310344827759
-0.460658281839996 -0.0319118006302241 0.759310344827759
-0.464371573651942 -0.0375905996566431 0.759310344827759
-0.48215139825808 -0.0479334143554252 0.759310344827759
-0.488740413817738 -0.0528296084663814 0.759310344827759
-0.0148554502902594 0.318689726339551 0.666174072919367
-0.0297978999860037 0.318689726339551 0.660912655213276
0.035218512364296 0.362068965517241 0.737883689616376
0.0232225328395726 0.362068965517241 0.736644900025957
0.0236187256968454 0.362068965517241 0.746256891242161
0.0298200816321875 0.362068965517241 0.753450512748965
0.0227353056227297 0.358322101283913 0.759310344827759
0.00771879677680473 0.351533096280844 0.759310344827759
0.00363697669848801 0.339676868670475 0.759310344827759
-0.0026453673585587 0.337390999615688 0.759310344827759
-0.00775315217379797 0.333603541026775 0.759310344827759
-0.0257106357421023 0.318304813259191 0.759310344827759
-0.025399347642044 0.319155545164257 0.759310344827759
-0.0426353752236995 0.310740489706989 0.759310344827759
-0.0424638244120878 0.294388590789415 0.759310344827759
-0.0560754961493162 0.293102566537259 0.759310344827759
-0.0706342100959311 0.276532293663064 0.759310344827759
-0.069833889129835 0.277733967815852 0.759310344827759
-0.0813381270495243 0.269946451928729 0.759310344827759
-0.0915471816399603 0.259923215045089 0.759310344827759
-0.102815462517064 0.253794290900679 0.759310344827759
-0.110644493708839 0.238011759152222 0.759310344827759
-0.132448181657393 0.22873135745475 0.759310344827759
-0.133059801991745 0.22231814325968 0.759310344827759
-0.146519756299787 0.213993417783597 0.759310344827759
-0.151013916216608 0.20995463794536 0.759310344827759
-0.169407310677018 0.202630495081457 0.759310344827759
-0.174703344110453 0.196309253791754 0.759310344827759
-0.190639793269784 0.179420855079581 0.759310344827759
-0.195819149385132 0.167635170278532 0.759310344827759
-0.209608446603362 0.163690634949942 0.759310344827759
-0.213520938514396 0.160998192303596 0.759310344827759
-0.225986807675292 0.146657739721786 0.759310344827759
-0.239167084591552 0.132465497599342 0.759310344827759
-0.248020799125229 0.130543126426203 0.759310344827759
-0.262775675163734 0.116933581874739 0.759310344827759
-0.265038960790494 0.107888678619852 0.759310344827759
-0.286902310218023 0.100255498458028 0.759310344827759
-0.285425125888787 0.0961434940597179 0.759310344827759
-0.304764656979608 0.0801286143029377 0.759310344827759
-0.317713460410107 0.0672351775278196 0.759310344827759
-0.327532430635405 0.0599891023170399 0.759310344827759
-0.337576662072605 0.0543232991182781 0.759310344827759
-0.353416441456746 0.0375634987527443 0.759310344827759
-0.364329536568543 0.0400718404139963 0.759310344827759
-0.369994994738919 0.0266506807596644 0.759310344827759
-0.382502379390053 0.0172643594229635 0.759310344827759
-0.403983967793285 0.00784805969209769 0.759310344827759
-0.416015675200854 -0.00639493974496621 0.759310344827759
-0.426373666713997 -0.0147170133139628 0.759310344827759
-0.427547628284589 -0.0261052764047769 0.759310344827759
-0.446960079907445 -0.0345336634495732 0.759310344827759
-0.462348218436917 -0.0564937856597158 0.759310344827759
-0.477795086438023 -0.0658050900629528 0.759310344827759
-0.489498720316837 -0.0664755130630162 0.759310344827759
-0.00771124995067794 0.318689726339551 0.666524030002759
0.048854823342646 0.362068965517241 0.732767242463532
0.0429899493388938 0.362068965517241 0.740526632106883
0.0427598616190931 0.362068965517241 0.749664943252429
0.0471798696819585 0.362068965517241 0.755080805986567
0.0397385484169724 0.352534166073615 0.759310344827759
0.0256562866289554 0.346406948393864 0.759310344827759
0.0198603702429397 0.347860376752356 0.759310344827759
0.00418326012554135 0.335264676472152 0.759310344827759
0.00119476126130437 0.327206217096554 0.759310344827759
-0.00643418215166205 0.318885803311096 0.759310344827759
-0.0172208874977809 0.308710595606445 0.759310344827759
-0.0250949552191296 0.304376675710598 0.759310344827759
-0.0348939247561039 0.304649270243923 0.759310344827759
-0.0344447338794793 0.293899355759104 0.759310344827759
-0.0523039446261464 0.283969005730991 0.759310344827759
-0.0593387821266661 0.278362639961869 0.759310344827759
-0.0717044412044084 0.263739611070127 0.759310344827759
-0.0768789454882702 0.263352352000015 0.759310344827759
-0.0891171229663383 0.249120196386135 0.759310344827759
-0.0997679805563562 0.244429993097561 0.759310344827759
-0.116177291339396 0.230048393676103 0.759310344827759
-0.118309159393264 0.228562299919127 0.759310344827759
-0.125985592375241 0.217276418696068 0.759310344827759
-0.141630245435001 0.211781237888903 0.759310344827759
-0.149608230552229 0.201538453872365 0.759310344827759
-0.156357362908217 0.196635115121566 0.759310344827759
-0.17102812996705 0.185518141618822 0.759310344827759
-0.172355327637628 0.175131570332728 0.759310344827759
-0.189929400790663 0.162370688703245 0.759310344827759
-0.193096865532288 0.157998933680674 0.759310344827759
-0.200443508508207 0.151523784827934 0.759310344827759
-0.218840984777606 0.145533523040917 0.759310344827759
-0.228572821860211 0.129465910819936 0.759310344827759
-0.238602091695289 0.127491060296555 0.759310344827759
-0.251934545698313 0.116248292127403 0.759310344827759
-0.266055500894037 0.100681038494388 0.759310344827759
-0.283024615878247 0.0888186544766905 0.759310344827759
-0.284584914454841 0.0833191164437786 0.759310344827759
-0.294643914344402 0.0708714291977183 0.759310344827759
-0.303153138085305 0.0667821977920708 0.759310344827759
-0.316519070220571 0.0587477302621087 0.759310344827759
-0.321307812761497 0.0561519840109649 0.759310344827759
-0.341088423453999 0.0412848326121219 0.759310344827759
-0.35254437836633 0.0280001782398354 0.759310344827759
-0.372543493976032 0.0102387662883024 0.759310344827759
-0.374479440071856 0.00955429995992048 0.759310344827759
-0.381917087240781 0.000882300570138159 0.759310344827759
-0.405092333172207 -0.018085455772369 0.759310344827759
-0.42300593303159 -0.0281286122956287 0.759310344827759
-0.42829000659189 -0.0330235928519428 0.759310344827759
-0.44521902644672 -0.0441637961895455 0.759310344827759
-0.454189549616643 -0.063332538739784 0.759310344827759
-0.476813074942529 -0.0748296222083786 0.759310344827759
-0.473139822738398 -0.0796513178743318 0.759310344827759
-0.499815258040627 -0.0890372718430286 0.759310344827759
0.0621376058721152 0.362068965517241 0.728130033174717
0.0595401450401765 0.362068965517241 0.732683652597942
0.0527496141109911 0.362068965517241 0.732515728570934
0.0613978188955692 0.362068965517241 0.753002859554063
0.0579849569625715 0.360136111324777 0.759310344827759
0.0429268949662494 0.35745712114203 0.759310344827759
0.0417461087796262 0.351354779172049 0.759310344827759
0.0327406564125418 0.336308474100019 0.759310344827759
0.0273600152582748 0.332443819387959 0.759310344827759
0.0155828941965051 0.330352720370236 0.759310344827759
0.00760743936009113 0.326368295252766 0.759310344827759
-0.00108090009278313 0.320452638040875 0.759310344827759
-0.00723736202715806 0.309006656801542 0.759310344827759
-0.0225934777281556 0.296231407763876 0.759310344827759
-0.0209650255471865 0.292600452831821 0.759310344827759
-0.0328162864384809 0.2779176278077 0.759310344827759
-0.0463391751099714 0.274395136627944 0.759310344827759
-0.0533263166820859 0.267524786642601 0.759310344827759
-0.0674285086931954 0.260936053879555 0.759310344827759
-0.0753521613748985 0.245678021405796 0.759310344827759
-0.0888652623938083 0.244784381055793 0.759310344827759
-0.100052629827252 0.234228844877644 0.759310344827759
-0.102069255384376 0.219845400989071 0.759310344827759
-0.1102422649488 0.22111203428335 0.759310344827759
-0.122343820749863 0.21017560052653 0.759310344827759
-0.122110576249509 0.208212373418535 0.759310344827759
-0.140710900812542 0.194951277512231 0.759310344827759
-0.150462694584036 0.188271616914672 0.759310344827759
-0.160011913620508 0.181625902959997 0.759310344827759
-0.169351555103542 0.16746155959746 0.759310344827759
-0.181845755323341 0.157799902900412 0.759310344827759
-0.18825432787072 0.151485144347733 0.759310344827759
-0.207665987031157 0.142802083346035 0.759310344827759
-0.203894741108584 0.138672054336578 0.759310344827759
-0.22165586467792 0.119526789799551 0.759310344827759
-0.23746435190048 0.11276395440127 0.759310344827759
-0.245581054093534 0.105705653957633 0.759310344827759
-0.262266201994301 0.098304929219484 0.759310344827759
-0.268991326217721 0.0926965696939101 0.759310344827759
-0.281025836076812 0.0766766635687843 0.759310344827759
-0.287540820191047 0.0672947932455152 0.759310344827759
-0.309529247687051 0.0593946627926222 0.759310344827759
-0.309633195605465 0.0415397435392782 0.759310344827759
-0.324510680800144 0.0400671032783982 0.759310344827759
-0.335063586144154 0.027623934436735 0.759310344827759
-0.34940828279805 0.0192870561934269 0.759310344827759
-0.349166051530095 0.0169180294402606 0.759310344827759
-0.378329895102768 -0.00433170155541236 0.759310344827759
-0.392656504188873 -0.0187411220256471 0.759310344827759
-0.398360900802295 -0.0240732311657686 0.759310344827759
-0.402653819736837 -0.0297386589895826 0.759310344827759
-0.418747956224635 -0.048442713636069 0.759310344827759
-0.427481725482839 -0.0550989935258123 0.759310344827759
-0.444971620689604 -0.0709586341920367 0.759310344827759
-0.461518705237408 -0.08352454276418 0.759310344827759
-0.475470621918708 -0.0840304111996922 0.759310344827759
-0.475086179438302 -0.0893347617973293 0.759310344827759
0.0152622938162 0.31868972633955 0.659907900511968
0.0191424962501107 0.31868972633955 0.664746869926631
0.0660839096488439 0.362068965517241 0.730230574932455
0.0716172033283329 0.362068965517241 0.744448229259962
0.0664384787561676 0.362068965517241 0.754547270856266
0.0673374532489622 0.357458322670464 0.759310344827759
0.0583663178640614 0.346780258743135 0.759310344827759
0.044283839438376 0.343089209744076 0.759310344827759
0.0413131747231598 0.334799877784439 0.759310344827759
0.0347126154970491 0.33173022364876 0.759310344827759
0.0222573200391054 0.321588681283002 0.759310344827759
0.0158896826692905 0.323248250943421 0.759310344827759
0.00895458840443658 0.309465331465245 0.759310344827759
-0.00897797073516462 0.301055091154704 0.759310344827759
-0.0112152870404243 0.29050755859842 0.759310344827759
-0.014839079647935 0.284210638313729 0.759310344827759
-0.032133640046454 0.27660896881014 0.759310344827759
-0.038775110235835 0.268482234327034 0.759310344827759
-0.0476388689992998 0.26413001057531 0.759310344827759
-0.058243731242211 0.258987033603811 0.759310344827759
-0.0651958859245528 0.247483745712334 0.759310344827759
-0.0790281779204298 0.236211615594691 0.759310344827759
-0.0828954565475055 0.230803069783511 0.759310344827759
-0.0982005918785989 0.21887337608507 0.759310344827759
-0.111267724998135 0.204356834840125 0.759310344827759
-0.111938683424461 0.199609824853087 0.759310344827759
-0.126296541099007 0.191723002826886 0.759310344827759
-0.135106435814285 0.18890332374512 0.759310344827759
-0.140637261578629 0.181970789799434 0.759310344827759
-0.151271600873058 0.177120134705924 0.759310344827759
-0.167265181708962 0.160169420223015 0.759310344827759
-0.180212690893277 0.152531204009768 0.759310344827759
-0.186785892806053 0.142778701643359 0.759310344827759
-0.186841092454679 0.138002762286831 0.759310344827759
-0.207289976465542 0.126173475694461 0.759310344827759
-0.211957897473826 0.119706800401837 0.759310344827759
-0.22877360937043 0.1036804537081 0.759310344827759
-0.233158515029061 0.0980953198462668 0.759310344827759
-0.247283575925814 0.0874316273635646 0.759310344827759
-0.265349139107126 0.0755428961047841 0.759310344827759
-0.272622124088421 0.0742660342069696 0.759310344827759
-0.278778328503312 0.0616975294187396 0.759310344827759
-0.28557283177533 0.0530773972650554 0.759310344827759
-0.305015165429704 0.0360211688432062 0.759310344827759
-0.319279402189149 0.0370614257746495 0.759310344827759
-0.331570926561976 0.0238638054199406 0.759310344827759
-0.338475874423975 0.00717287271044769 0.759310344827759
-0.347071701020195 0.00333386550372514 0.759310344827759
-0.36692503246337 -0.00894960145748249 0.759310344827759
-0.380505323780042 -0.016309468696058 0.759310344827759
-0.381282836782071 -0.0258358193811906 0.759310344827759
-0.399353903864154 -0.0357550701762344 0.759310344827759
-0.408474339311056 -0.048895227657165 0.759310344827759
-0.423050240459259 -0.0646480030085249 0.759310344827759
-0.447960682831472 -0.0731717785652552 0.759310344827759
-0.450563879231856 -0.0790686309959463 0.759310344827759
-0.455229809282988 -0.0885367622442449 0.759310344827759
-0.479657461862212 -0.109152824597248 0.759310344827759
-0.493046724690411 -0.115409144444087 0.759310344827759
-0.498758813798118 -0.125043548490416 0.759310344827759
0.0336469886181396 0.318689726339549 0.660676538256973
0.0852914531283345 0.362068965517241 0.734189212869529
0.0789054824356981 0.362068965517241 0.730614200293794
0.0838285746550134 0.362068965517241 0.748566360950099
0.0768764009590181 0.362068965517241 0.749822052679607
0.0851354510555827 0.357705396703814 0.759310344827759
0.0689940128442058 0.348877235795513 0.759310344827759
0.0645526182061074 0.350500045830692 0.759310344827759
0.0622277665325798 0.339281057338398 0.759310344827759
0.0506219621774182 0.334474931112768 0.759310344827759
0.0433363910638959 0.329458559006518 0.759310344827759
0.0290547733046982 0.313654433181929 0.759310344827759
0.0286768290929048 0.315503522303585 0.759310344827759
0.0131822117101378 0.302911115611456 0.759310344827759
0.00165411754646405 0.28924239312306 0.759310344827759
-0.00334686711396929 0.282781033501225 0.759310344827759
-0.0218084566854342 0.270048376529524 0.759310344827759
-0.022470220935465 0.268369699188034 0.759310344827759
-0.0266825398769361 0.262354369430607 0.759310344827759
-0.0391875969186321 0.252078457855935 0.759310344827759
-0.0452676877939983 0.25197739602751 0.759310344827759
-0.061937188858127 0.233443551844349 0.759310344827759
-0.0653523021586963 0.22989279002713 0.759310344827759
-0.0715177112300174 0.222095243468157 0.759310344827759
-0.0893864052369226 0.209982427474321 0.759310344827759
-0.0924674256444363 0.208197255360252 0.759310344827759
-0.10637947715664 0.19733964291285 0.759310344827759
-0.115332850886389 0.195609996329472 0.759310344827759
-0.13113555644423 0.177548861343078 0.759310344827759
-0.130932019583232 0.172040551575488 0.759310344827759
-0.14933002493198 0.164816660931667 0.759310344827759
-0.155749153768684 0.156548953386464 0.759310344827759
-0.170773825796232 0.14806719364529 0.759310344827759
-0.179402918690518 0.134314255937807 0.759310344827759
-0.18576531165313 0.127592760508896 0.759310344827759
-0.195544315283104 0.122669979010509 0.759310344827759
-0.20960277459886 0.115843517484116 0.759310344827759
-0.211837089347386 0.107155357756502 0.759310344827759
-0.235639007131055 0.0847627471151224 0.759310344827759
-0.238615589537984 0.0800223085795751 0.759310344827759
-0.253919421874059 0.0696484881374464 0.759310344827759
-0.262047755034839 0.0679186023709627 0.759310344827759
-0.269481196861105 0.0566575797182484 0.759310344827759
-0.293222908970547 0.0387335706502553 0.759310344827759
-0.301884684014382 0.0277406616516851 0.759310344827759
-0.315045620317311 0.0153388079369019 0.759310344827759
-0.316779764420161 0.0239103433898293 0.759310344827759
-0.329943068884478 0.00747269265267588 0.759310344827759
-0.345387234725325 -0.0116799839932292 0.759310344827759
-0.365937063759733 -0.0243330893783429 0.759310344827759
-0.367007751562327 -0.0324435212160236 0.759310344827759
-0.372171073261682 -0.0336385266380017 0.759310344827759
-0.398542271934848 -0.0550683573104975 0.759310344827759
-0.408282045214646 -0.0648925322349784 0.759310344827759
-0.427775730578686 -0.0763339755677093 0.759310344827759
-0.422036379635495 -0.0737183106621919 0.759310344827759
-0.442056732039075 -0.0906383419972653 0.759310344827759
-0.449823646118765 -0.10103971300469 0.759310344827759
-0.467167865474985 -0.117293352841666 0.759310344827759
-0.488053395222018 -0.126859256698242 0.759310344827759
-0.498703362849585 -0.136115251696011 0.759310344827759
0.0430238645861224 0.318689726339549 0.658081247025906
0.102318708734114 0.362068965517241 0.726921247515475
0.0940377864195756 0.362068965517241 0.727936107373699
0.0992914221133603 0.362068965517241 0.749408568837308
0.0961520094133445 0.362068965517241 0.74325933720327
0.0929080281949119 0.352785586216398 0.759310344827759
0.0895403817586163 0.352587871084311 0.759310344827759
0.0763552072019802 0.348377469937468 0.759310344827759
0.0745962438357214 0.337862422986445 0.759310344827759
0.0598746371382821 0.324705085008824 0.759310344827759
0.0559835980202248 0.328437069052926 0.759310344827759
0.0467959357751722 0.324564901992153 0.759310344827759
0.0334774382959036 0.302587277803606 0.759310344827759
0.0324607980355394 0.304112479576158 0.759310344827759
0.0190523788981437 0.291759594806737 0.759310344827759
0.00973692573286692 0.292624536430428 0.759310344827759
-0.00132989229016994 0.274907509342516 0.759310344827759
-0.000551486309999578 0.270120261517133 0.759310344827759
-0.0170696959878118 0.259160682423887 0.759310344827759
-0.0222716261104683 0.260160015647837 0.759310344827759
-0.0362105750814502 0.251995156607046 0.759310344827759
-0.0396147276369764 0.236872035048737 0.759310344827759
-0.0517797742140473 0.232256825368543 0.759310344827759
-0.0580808891730774 0.226012194347879 0.759310344827759
-0.0685726824818862 0.218886206592096 0.759310344827759
-0.0743517104560938 0.212823041374617 0.759310344827759
-0.0934850732808614 0.19672526635797 0.759310344827759
-0.104174372433927 0.185115587120565 0.759310344827759
-0.11201766222385 0.175564925398744 0.759310344827759
-0.119504218248205 0.175434364543593 0.759310344827759
-0.122434604417331 0.166273558888832 0.759310344827759
-0.142482098315619 0.148624798554432 0.759310344827759
-0.153431871912305 0.147572794585873 0.759310344827759
-0.163826220674883 0.138061537836246 0.759310344827759
-0.169540699995292 0.127484046032796 0.759310344827759
-0.178126175410639 0.119678423453627 0.759310344827759
-0.187664646086666 0.1155087771836 0.759310344827759
-0.207515259582708 0.096570811333977 0.759310344827759
-0.207918489194619 0.101776015913183 0.759310344827759
-0.228802094466661 0.0822767471376821 0.759310344827759
-0.234697321472323 0.0827998120420812 0.759310344827759
-0.245837150840642 0.0716445087731874 0.759310344827759
-0.252531646514247 0.059342699968977 0.759310344827759
-0.266853780454239 0.0509049604828636 0.759310344827759
-0.280419039910791 0.0283985617862239 0.759310344827759
-0.290233675036458 0.0316240812712201 0.759310344827759
-0.293213234458384 0.0212393831358425 0.759310344827759
-0.303922130582682 0.00835257676913129 0.759310344827759
-0.323673808746623 -0.000101828719906146 0.759310344827759
-0.333459398195712 -0.0167364372947804 0.759310344827759
-0.345224349871618 -0.0206953891775739 0.759310344827759
-0.352643013846326 -0.0344540840064167 0.759310344827759
-0.363474755590028 -0.0410052139895842 0.759310344827759
-0.384540672432181 -0.0541678614455596 0.759310344827759
-0.399423021523799 -0.072477766546463 0.759310344827759
-0.398162351201954 -0.070932643699003 0.759310344827759
-0.41310020190946 -0.0850290364225452 0.759310344827759
-0.429100868541136 -0.0961783986233382 0.759310344827759
-0.447893209621346 -0.107425221629149 0.759310344827759
-0.470130738390149 -0.126302444415555 0.759310344827759
-0.471006920774882 -0.133951253163448 0.759310344827759
-0.486475858120443 -0.141180478774373 0.759310344827759
-0.499315967583142 -0.161343616136652 0.759310344827759
0.0589358611839843 0.318699314229085 0.65586206896569
0.0596886547287625 0.318689726339549 0.663732343292282
0.05263953109904 0.318689726339549 0.663188347227187
0.11708839695668 0.362068965517241 0.734152327485157
0.11341568487701 0.362068965517241 0.750113901292951
0.104847681748758 0.362068965517241 0.748941849118909
0.108447073914387 0.361602380585389 0.759310344827759
0.0962604087647866 0.350340443784114 0.759310344827759
0.0900123981674139 0.346415731947204 0.759310344827759
0.0904635627254805 0.340712870143358 0.759310344827759
0.0764037421904822 0.334723869969197 0.759310344827759
0.0720260016513292 0.324627034511159 0.759310344827759
0.0608742711460185 0.316411100501238 0.759310344827759
0.0590441824062678 0.3091312704824 0.759310344827759
0.0391558697033383 0.304020608407278 0.759310344827759
0.0372520764231713 0.291783221942538 0.759310344827759
0.0278065440138785 0.294095797735409 0.759310344827759
0.0179601466937488 0.279129691279089 0.759310344827759
0.012747064817994 0.27455377101028 0.759310344827759
0.00283957155367575 0.271299020295155 0.759310344827759
-0.0122863224088813 0.253043460993376 0.759310344827759
-0.0188035452679772 0.245380708547322 0.759310344827759
-0.0302970868051866 0.243672747265416 0.759310344827759
-0.0398518999608491 0.22913069311974 0.759310344827759
-0.0426761597723677 0.22823815008066 0.759310344827759
-0.0521109732224497 0.220585648769034 0.759310344827759
-0.067347490252815 0.209089252045335 0.759310344827759
-0.0722777766605709 0.197601457718202 0.759310344827759
-0.0782561471875988 0.190154724804543 0.759310344827759
-0.0904766112492173 0.183402359077367 0.759310344827759
-0.102950695053567 0.17215216543649 0.759310344827759
-0.107931978882969 0.174919265587205 0.759310344827759
-0.122168617781295 0.156948956791175 0.759310344827759
-0.140514468762015 0.141973903895055 0.759310344827759
-0.139578586141051 0.14727689743481 0.759310344827759
-0.151525988647152 0.131768371530431 0.759310344827759
-0.156007768698277 0.124376149386395 0.759310344827759
-0.166631400961869 0.114032684063128 0.759310344827759
-0.182927838119062 0.0990737668570357 0.759310344827759
-0.190777587170775 0.102072765066792 0.759310344827759
-0.207250295658038 0.0890053327859506 0.759310344827759
-0.220599061867923 0.0783849214890316 0.759310344827759
-0.219634472347805 0.0745600112463981 0.759310344827759
-0.239254981889994 0.0535668976825604 0.759310344827759
