ply
format ascii 1.0
element vertex 859
property float x
property float y
property float z
end_header
-0.149902775268631 -0.189400588801944 0.63564637619895
-0.168472493919851 -0.190685010939526 0.63564637619895
-0.190182234516298 -0.188792621082956 0.63564637619895
-0.189968382103329 -0.189387876519696 0.63564637619895
-0.202358552628839 -0.188071674835074 0.63564637619895
-0.224108552959328 -0.191297100127971 0.63564637619895
-0.235731483837709 -0.19027853291396 0.63564637619895
-0.258752455014025 -0.197760378191892 0.63564637619895
-0.275093112656361 -0.20059799578756 0.63564637619895
-0.28179514010677 -0.194861299426586 0.63564637619895
-0.310971492120525 -0.198737190472603 0.63564637619895
-0.308711154791343 -0.195185468304754 0.63564637619895
-0.3315969059896 -0.196673572284522 0.63564637619895
-0.340990501230814 -0.200390331268143 0.63564637619895
-0.367984286688823 -0.204930930998281 0.63564637619895
-0.376243130651173 -0.204681766373176 0.63564637619895
-0.388737872815579 -0.204541148247476 0.63564637619895
-0.407125876294403 -0.206195756909174 0.63564637619895
-0.427811706600989 -0.204939011199584 0.63564637619895
-0.456638808168239 -0.208207424299865 0.625357564337502
0.183399508000778 -0.158034448458748 0.168402623604635
0.184767698553061 -0.15940263901103 0.186546832798882
0.182204685928731 -0.1568396263867 0.19039140460784
0.184974814216855 -0.159609754674824 0.202755778753606
0.186074463529775 -0.160709403987744 0.208702767449853
0.187580987219319 -0.162215927677288 0.220470568130214
0.187401187178456 -0.162036127636425 0.234050371250491
0.18236135623138 -0.15699629668935 0.245506134941295
0.180735050557044 -0.155369991015013 0.250916172578724
0.180423061221491 -0.15505800167946 0.260915100851922
0.182951723775762 -0.157586664233732 0.270589345372544
0.184622203098764 -0.159257143556733 0.281318070102001
0.187423871011229 -0.162058811469199 0.287561550857314
0.181214504905542 -0.155849445363511 0.29763197731165
0.180523171669298 -0.155158112127267 0.300966666370875
0.182281247751646 -0.156916188209615 0.316491053206181
0.183459643510841 -0.15809458396881 0.319005353361885
0.478974734430562 -0.14429360814147 0.617362125577222
0.479348770800116 -0.142897685406415 0.614046174011642
0.472821371828116 -0.14655934231901 0.627818462876209
0.471400361672884 -0.146574095066595 0.628502848934366
0.465161522576954 -0.141266887653822 0.632202780016145
0.463124168623136 -0.140380632109163 0.633301436323679
0.452084383639174 -0.147958927379371 0.63564637619895
0.436552902172586 -0.145936252871788 0.63564637619895
0.427448471035631 -0.142872681778592 0.63564637619895
0.417177228247902 -0.145090498135456 0.63564637619895
0.408981692614073 -0.149472522028654 0.63564637619895
0.403459640803714 -0.145079145003274 0.63564637619895
0.391670450983619 -0.149373706125291 0.63564637619895
0.387878755569364 -0.145323958166146 0.63564637619895
0.37512677849073 -0.144299645507981 0.63564637619895
0.370526130444982 -0.145563370018565 0.63564637619895
0.356646537965335 -0.150428031440238 0.63564637619895
0.344708121967483 -0.149135623575939 0.63564637619895
0.330491272285091 -0.149361562848244 0.63564637619895
0.327473254738596 -0.149370390883089 0.63564637619895
0.314097858771144 -0.154842354316203 0.63564637619895
0.307120597010434 -0.154793202610552 0.63564637619895
0.28655521913544 -0.154227473622015 0.63564637619895
0.285746982219726 -0.152378830644492 0.63564637619895
0.278772039755039 -0.154592338132046 0.63564637619895
0.258770691183778 -0.158951236112721 0.63564637619895
0.250023684678405 -0.152344573292179 0.63564637619895
0.239822004571586 -0.157228623631594 0.63564637619895
0.231848354136963 -0.1574117613104 0.63564637619895
0.216797652469075 -0.156687391756041 0.63564637619895
0.202587131945034 -0.154073647558476 0.63564637619895
0.189768475458922 -0.161885040912382 0.63564637619895
0.176847225395975 -0.157347705658907 0.63564637619895
0.177491314813823 -0.159901371884032 0.63564637619895
0.166767882138323 -0.157018055486637 0.63564637619895
0.149134498873339 -0.156828100596741 0.63564637619895
0.140211992382332 -0.16411502280329 0.63564637619895
0.120775457748955 -0.160221375752782 0.63564637619895
0.112871165519418 -0.166809726879808 0.63564637619895
0.111217654849306 -0.162192094298749 0.63564637619895
0.0940147888488936 -0.166092566558435 0.63564637619895
0.0808199626377661 -0.166942650643019 0.63564637619895
0.0687388589437871 -0.161850052366748 0.63564637619895
0.0594838108144325 -0.16584892726953 0.63564637619895
0.044957767239732 -0.162551940537825 0.63564637619895
0.0293490072694735 -0.168421496701101 0.63564637619895
0.0256442872895724 -0.169759084823913 0.63564637619895
0.00715388761723676 -0.166660496242481 0.63564637619895
-0.011638908756064 -0.16687126227986 0.63564637619895
-0.0169699209690682 -0.173426867500784 0.63564637619895
-0.0333139649453148 -0.176705032069174 0.63564637619895
-0.0442547969829911 -0.175957477470676 0.63564637619895
-0.0553182426017401 -0.1689477634286 0.63564637619895
-0.0692803081002819 -0.171501041464419 0.63564637619895
-0.0815865828265421 -0.179307446672004 0.63564637619895
-0.0921162797456689 -0.170610044081732 0.63564637619895
-0.109692917522953 -0.178865517461127 0.63564637619895
-0.126866891526884 -0.182678571917434 0.63564637619895
-0.141286194121299 -0.182743788686717 0.63564637619895
-0.152518462469289 -0.176151368689906 0.63564637619895
-0.165308094051601 -0.176143847613059 0.63564637619895
-0.178495245348217 -0.178880223412419 0.63564637619895
-0.197797851339847 -0.181003877109737 0.63564637619895
-0.208586063138158 -0.183877879866838 0.63564637619895
-0.226278508425337 -0.184959643319552 0.63564637619895
-0.247609623713076 -0.184933397284289 0.63564637619895
-0.255893655537761 -0.187593877968919 0.63564637619895
-0.263093471050248 -0.181327745832205 0.63564637619895
-0.287679157324593 -0.189102838834976 0.63564637619895
-0.29316988849194 -0.183208970768755 0.63564637619895
-0.321927717241221 -0.193246191994036 0.63564637619895
-0.325873244345469 -0.188123293176325 0.63564637619895
-0.345620532162889 -0.187810499432581 0.63564637619895
-0.359462765356091 -0.195468334077699 0.63564637619895
-0.377096493380728 -0.192345686340323 0.63564637619895
-0.401052368583282 -0.190170308170098 0.63564637619895
-0.406253962973915 -0.193215200361466 0.63564637619895
-0.425788578494926 -0.194191149661924 0.63564637619895
-0.444004292703449 -0.194512055944406 0.634252312104874
0.174904098809777 -0.149539039267747 0.165991374378657
0.176033294596342 -0.150668235054311 0.18070583570885
0.177272880153357 -0.151907820611326 0.186434519260416
0.173698648079275 -0.148333588537244 0.189567686682108
0.175214359929629 -0.149849300387598 0.204025456731791
0.174162006936804 -0.148796947394773 0.215506876515235
0.176802910881723 -0.151437851339692 0.226917235980683
0.173845437870731 -0.1484803783287 0.229548425261757
0.178886370602574 -0.153521311060544 0.246781789004278
0.17289382401551 -0.147528764473479 0.251499405195449
0.177704082330558 -0.152339022788527 0.255364343392122
0.174132639675625 -0.148767580133594 0.270752639126411
0.17561522320552 -0.15025016366349 0.27497943042302
0.174775494695278 -0.149410435153248 0.287739781409552
0.177794025385591 -0.15242896584356 0.306387844601181
0.176471694517699 -0.151106634975669 0.307120910052448
0.481314645073925 -0.135560942735268 0.610485084971777
0.481998274272693 -0.133009603831926 0.615369745564662
0.481449721158917 -0.132402561190277 0.625483312434509
0.478190417904366 -0.132620466805657 0.627029235967501
0.470413295766651 -0.138665439809546 0.630003020460744
0.463476144569676 -0.138800975190385 0.633335867642835
0.455512628009711 -0.139212164906498 0.63564637619895
0.445577376200994 -0.138623323557158 0.63564637619895
0.434217964429631 -0.133214014189979 0.63564637619895
0.433571467178688 -0.13665068854824 0.63564637619895
0.423784380575948 -0.140378005533262 0.63564637619895
0.40869236800507 -0.141622040829978 0.63564637619895
0.403217142596664 -0.140371086582265 0.63564637619895
0.394108386951933 -0.13961080382864 0.63564637619895
0.373826705681253 -0.141974772232358 0.63564637619895
0.374232045839705 -0.136268053692567 0.63564637619895
0.366164823934644 -0.144477064178928 0.63564637619895
0.356423346559541 -0.145416779181447 0.63564637619895
0.340859472426686 -0.145063156392868 0.63564637619895
0.334630295437757 -0.145975616314195 0.63564637619895
0.32001954575363 -0.14114045578004 0.63564637619895
0.307826512461537 -0.14472610539074 0.63564637619895
0.309153945355346 -0.140282424809515 0.63564637619895
0.288543584021313 -0.14357953630171 0.63564637619895
0.290632392900872 -0.146268365145283 0.63564637619895
0.27374281313385 -0.144502733005536 0.63564637619895
0.262666843793028 -0.142517858515294 0.63564637619895
0.242029152255485 -0.143011561144692 0.63564637619895
0.235900616337625 -0.151229732159457 0.63564637619895
0.236084820402301 -0.146507619087898 0.63564637619895
0.216286960733247 -0.149122658982219 0.63564637619895
0.20824395239404 -0.147156316508283 0.63564637619895
0.195265033262867 -0.147207856465445 0.63564637619895
0.191859443039977 -0.148072756799924 0.63564637619895
0.172683398976525 -0.151620607816733 0.63564637619895
0.157678274738892 -0.147256033861065 0.63564637619895
0.146880155521808 -0.153665997403183 0.63564637619895
0.139176370377212 -0.152406625244685 0.63564637619895
0.122663671279347 -0.14979841468972 0.63564637619895
0.120706004513616 -0.150101669093627 0.63564637619895
0.112187407866289 -0.150286429553602 0.63564637619895
0.0876363806424879 -0.156498514621408 0.63564637619895
0.0809026573269686 -0.153989952685017 0.63564637619895
0.0619265549942515 -0.157996598520998 0.63564637619895
0.0524967424063453 -0.15681915706686 0.63564637619895
0.0431851685446489 -0.161897208434575 0.63564637619895
0.0333347202442245 -0.154679871247929 0.63564637619895
0.0198973159018106 -0.16398630275916 0.63564637619895
-0.000204232566157908 -0.163966330895941 0.63564637619895
-0.00321943774910433 -0.15820062265595 0.63564637619895
-0.0158706070151682 -0.164678726239667 0.63564637619895
-0.0305903036358859 -0.166534024479338 0.63564637619895
-0.0430890818855495 -0.164545239149338 0.63564637619895
-0.0666142762167766 -0.159067732628302 0.63564637619895
-0.0685669838710215 -0.168694532953971 0.63564637619895
-0.0905590912525072 -0.160316405636684 0.63564637619895
-0.0902309854761844 -0.163916862371697 0.63564637619895
-0.101460761827245 -0.162322320395561 0.63564637619895
-0.135741024235301 -0.167810944547246 0.63564637619895
-0.134430456764409 -0.162428851362938 0.63564637619895
-0.14980418589624 -0.16945758902025 0.63564637619895
-0.169385831220775 -0.172188480795833 0.63564637619895
-0.187175679774556 -0.17150585973932 0.63564637619895
-0.190225800083852 -0.166727783563281 0.63564637619895
-0.200742838649021 -0.16710306313233 0.63564637619895
-0.227560717538347 -0.170631512709706 0.63564637619895
-0.234622598211574 -0.169100694937486 0.63564637619895
-0.252932486091436 -0.176620899304035 0.63564637619895
-0.268059257608022 -0.177243149808723 0.63564637619895
-0.277955689931754 -0.172285225131118 0.63564637619895
-0.298357801415404 -0.175960361318812 0.63564637619895
-0.319480303422897 -0.181408731414854 0.63564637619895
-0.328566239423369 -0.1815036771615 0.63564637619895
-0.351708609606897 -0.18203216689018 0.63564637619895
-0.354782657746274 -0.178554563942844 0.63564637619895
-0.382197483114804 -0.184034315651035 0.63564637619895
-0.393842519767672 -0.18245161852797 0.63564637619895
-0.412295844696745 -0.177488520000491 0.63564637619895
-0.424353380816742 -0.185221073972698 0.63564637619895
-0.44319857980538 -0.184240819395569 0.63564637619895
0.168987518051639 -0.143622458509608 0.157731404223934
0.170467056266243 -0.145101996724212 0.175318229181198
0.170233459221835 -0.144868399679804 0.203752884438472
0.169971299857789 -0.144606240315758 0.205756987806539
0.169985138612853 -0.144620079070822 0.226109341792831
0.169748233804067 -0.144383174262036 0.261834925738304
0.171026744004525 -0.145661684462494 0.282957242389455
0.170267220573175 -0.144902161031144 0.293572238270939
0.484005395343826 -0.125518926017518 0.611406012277229
0.484967685278022 -0.121927611091485 0.619034260055481
0.478488697693576 -0.12714568728269 0.627593666495712
0.472890664548295 -0.130079713833063 0.629917617916401
0.470570465832473 -0.1252446451274 0.63166389177997
0.464137289720733 -0.128444973527877 0.634356724285355
0.454127023356791 -0.129800953086925 0.63564637619895
0.448251599029025 -0.129259513443976 0.63564637619895
0.440443660174231 -0.126921918859496 0.63564637619895
0.429514767603068 -0.130865249432297 0.63564637619895
0.419774505960022 -0.129896202056168 0.63564637619895
0.412993447659033 -0.131614653272182 0.63564637619895
0.402107824097084 -0.125826031154015 0.63564637619895
0.387337138967559 -0.130988185419602 0.63564637619895
0.389804819453225 -0.128449333987831 0.63564637619895
0.373837564490251 -0.131238800407879 0.63564637619895
0.364230243469261 -0.132093304509735 0.63564637619895
0.356223549598921 -0.129849533497275 0.63564637619895
0.34215203663598 -0.130038064858085 0.63564637619895
0.333144030477973 -0.1340249055475 0.63564637619895
0.323512317574328 -0.132815786531693 0.63564637619895
0.309866908164469 -0.134475686157284 0.63564637619895
0.301027757138442 -0.137655665104635 0.63564637619895
0.289446925373083 -0.136779403003568 0.63564637619895
0.288094296391325 -0.137405586028037 0.63564637619895
0.279185814094088 -0.136882609978007 0.63564637619895
0.263107701803055 -0.136840816910041 0.63564637619895
0.250945024691454 -0.140025959611009 0.63564637619895
0.237450805928063 -0.13421818215875 0.63564637619895
0.230493875759867 -0.141802006861829 0.63564637619895
0.222653468273649 -0.135081780302336 0.63564637619895
0.209878449171811 -0.142101894630637 0.63564637619895
0.19633167134297 -0.143479617934254 0.63564637619895
0.183818294906332 -0.136270114948602 0.63564637619895
0.172846079784953 -0.139731765069314 0.63564637619895
0.161532031821008 -0.139738317023897 0.63564637619895
0.154367900608808 -0.146509887675978 0.63564637619895
0.137100338746638 -0.142343853533298 0.63564637619895
0.122669166840376 -0.14436444641661 0.63564637619895
0.113735811865971 -0.141308136604678 0.63564637619895
0.103834585832269 -0.146859612076616 0.63564637619895
0.0883785725291864 -0.14884176215146 0.63564637619895
0.0829668155357552 -0.14160089850087 0.63564637619895
0.0697358948176583 -0.142512459717293 0.63564637619895
0.060309180348033 -0.144758400284296 0.63564637619895
0.0453576511645078 -0.150590864190167 0.63564637619895
0.0327222746516885 -0.148050460797531 0.63564637619895
0.0223477356226521 -0.153470030562044 0.63564637619895
0.0161228594408512 -0.15314965749503 0.63564637619895
-0.00681538282932327 -0.15511347030207 0.63564637619895
-0.0176385925035096 -0.153434123704503 0.63564637619895
-0.0339846587912982 -0.154749557841444 0.63564637619895
-0.0437637751716623 -0.153714100501874 0.63564637619895
-0.0564954619316574 -0.150683553734514 0.63564637619895
-0.0627531894613661 -0.154582134138251 0.63564637619895
-0.0916765812474868 -0.156642480617151 0.63564637619895
-0.0944030056320275 -0.153967849327521 0.63564637619895
-0.110338938846984 -0.160326712692777 0.63564637619895
-0.131910610008606 -0.161028177943111 0.63564637619895
-0.139429246097449 -0.152882156038422 0.63564637619895
-0.151662930394704 -0.158480892200925 0.63564637619895
-0.171242601453524 -0.15947973371798 0.63564637619895
-0.179951343746554 -0.156627786952413 0.63564637619895
-0.190029134844281 -0.161602943515818 0.63564637619895
-0.199622078018951 -0.156333370709121 0.63564637619895
-0.225665023218388 -0.15626024233448 0.63564637619895
-0.24299096069647 -0.166625684973101 0.63564637619895
-0.264473859296408 -0.162129374179458 0.63564637619895
-0.277758067012572 -0.158376765267647 0.63564637619895
-0.277672567005524 -0.159097450244343 0.63564637619895
-0.305165900497215 -0.165787804350349 0.63564637619895
-0.3213838036727 -0.169221573698905 0.63564637619895
-0.331270188472055 -0.170687468542424 0.63564637619895
-0.338142389271862 -0.166056923571737 0.63564637619895
-0.364695053062564 -0.169405072793331 0.63564637619895
-0.381472374303804 -0.165686385546654 0.63564637619895
-0.395383347383405 -0.171198280640097 0.63564637619895
-0.410323562382149 -0.17092383821172 0.63564637619895
-0.435780758879006 -0.175818109041198 0.63564637619895
-0.432005861558899 -0.16981500519371 0.63564637619895
0.486796796260559 -0.115101275971978 0.616026632850236
0.485593047735912 -0.119593726625494 0.624931088684437
0.485068223410082 -0.121552397674541 0.620705165278025
0.481550268404442 -0.1181249999696 0.627282404224665
0.468157384442877 -0.116924241055847 0.633906060115878
0.46548550822434 -0.11858708465234 0.634981289442044
0.456085976050988 -0.120911033161535 0.63564637619895
0.443515574150362 -0.11975320359603 0.63564637619895
0.440229528327297 -0.115385284914363 0.63564637619895
0.434570331598007 -0.123178293428817 0.63564637619895
0.420533982289495 -0.124140342121763 0.63564637619895
0.416504852115706 -0.124195487765965 0.63564637619895
0.404703257645863 -0.122404760006689 0.63564637619895
0.388858106940233 -0.122871488646983 0.63564637619895
0.38051876094715 -0.122313220281505 0.63564637619895
0.375567605680609 -0.123105180623078 0.63564637619895
0.362241565475229 -0.125283546702934 0.63564637619895
0.356759024333906 -0.127969888189074 0.63564637619895
0.343332212244818 -0.128087270406118 0.63564637619895
0.335611082838818 -0.124704659700937 0.63564637619895
0.319133419719673 -0.121331180380116 0.63564637619895
0.315918891500584 -0.128064488882483 0.63564637619895
0.300747025534464 -0.121880099092792 0.63564637619895
0.296087928575972 -0.1298286814155 0.63564637619895
0.282171909714028 -0.13119468061405 0.63564637619895
0.274039336261306 -0.129913963222186 0.63564637619895
0.26027342946788 -0.129825667265368 0.63564637619895
0.251722444869347 -0.125686948946735 0.63564637619895
0.240361340886281 -0.127787723967918 0.63564637619895
0.228133981811304 -0.126511025171869 0.63564637619895
0.224648023126586 -0.133461350361331 0.63564637619895
0.208325666419897 -0.134810614359209 0.63564637619895
0.201722092969344 -0.131496799356618 0.63564637619895
0.182834010165096 -0.132819341588109 0.63564637619895
0.166692996504768 -0.132396402957815 0.63564637619895
0.163306022953729 -0.12949594347269 0.63564637619895
0.150502095902252 -0.136584890721017 0.63564637619895
0.141288083724464 -0.131080155121292 0.63564637619895
0.124463369444939 -0.131832993633706 0.63564637619895
0.114399050742085 -0.1329629921898 0.63564637619895
0.106850613534594 -0.132223337544654 0.63564637619895
0.0938589818699857 -0.139400703076148 0.63564637619895
0.0862286708410502 -0.132592434042349 0.63564637619895
0.0654161598025971 -0.140149755280983 0.63564637619895
0.0508540481264857 -0.1325504461698 0.63564637619895
0.0478171093333405 -0.142641362846946 0.63564637619895
0.0331180778950195 -0.138479617551964 0.63564637619895
0.0188467048748129 -0.143069852403673 0.63564637619895
0.00941388456333086 -0.142954171500336 0.63564637619895
-0.00330152449923041 -0.139128400670376 0.63564637619895
-0.0175294785773128 -0.139020117281771 0.63564637619895
-0.0261765416273468 -0.140961601498428 0.63564637619895
-0.0410013158267933 -0.13798077474408 0.63564637619895
-0.0521125893523091 -0.14687233022801 0.63564637619895
-0.073607305233437 -0.147990803457226 0.63564637619895
-0.0805442636723198 -0.139296276437969 0.63564637619895
-0.0968385085811195 -0.148170937932476 0.63564637619895
-0.103610478706978 -0.145514635970521 0.63564637619895
-0.11795831540707 -0.147021731274048 0.63564637619895
-0.142908267332855 -0.146252308002241 0.63564637619895
-0.155626324826459 -0.151907907675689 0.63564637619895
-0.16225900688853 -0.147723653031384 0.63564637619895
-0.181844542655932 -0.145969787444458 0.63564637619895
-0.187974560840818 -0.152427701435433 0.63564637619895
-0.212568408726016 -0.149422040327892 0.63564637619895
-0.229582494075986 -0.147351687107588 0.63564637619895
-0.239401934751709 -0.15348159767746 0.63564637619895
-0.249639342591555 -0.148404554745893 0.63564637619895
-0.277542292837697 -0.14754134071312 0.63564637619895
-0.280052683367159 -0.155162392328866 0.63564637619895
-0.29644432875927 -0.153428856710721 0.63564637619895
-0.306266193394594 -0.154634978418474 0.63564637619895
-0.318393226756024 -0.158244269667281 0.63564637619895
-0.341962590240038 -0.160331374380199 0.63564637619895
-0.370562924162962 -0.157870005013953 0.63564637619895
-0.373415606555511 -0.157095461285275 0.63564637619895
-0.393875707822221 -0.163869918920381 0.63564637619895
-0.417879211941288 -0.15549823197164 0.63564637619895
-0.424831138258215 -0.155880718042534 0.63564637619895
-0.436070882907301 -0.155090112094714 0.63564637619895
0.487634975547019 -0.111973148289056 0.610701572111766
0.48876851741427 -0.107742712447971 0.613609474194921
0.488302913197666 -0.109480371040554 0.622729530546839
0.484641513000263 -0.104829923013366 0.627509957290615
0.476410610095358 -0.109539154071697 0.630875758792535
0.47156351302752 -0.105834994472019 0.63369608043796
0.466328738935549 -0.112951806026361 0.635303298997738
0.452518612225307 -0.113710963318582 0.63564637619895
0.449769690195599 -0.10640306643438 0.63564637619895
0.445342063633257 -0.112119170480103 0.63564637619895
0.433616154698914 -0.111617930268116 0.63564637619895
0.415897386536501 -0.109850244140961 0.63564637619895
0.416822911434742 -0.114630201403458 0.63564637619895
0.403378909513394 -0.112140822119638 0.63564637619895
0.3917300610428 -0.109036799828352 0.63564637619895
0.378495335318932 -0.117850141161794 0.63564637619895
0.37433151968022 -0.117064812479674 0.63564637619895
0.361271730953873 -0.113423156648578 0.63564637619895
0.356658065581499 -0.111816519096707 0.63564637619895
0.340441734535245 -0.112779010709817 0.63564637619895
0.340979986462435 -0.11347477599498 0.63564637619895
0.321812695734513 -0.117134584336521 0.63564637619895
0.316223164635458 -0.113390251177887 0.63564637619895
0.304573061370775 -0.112538501011484 0.63564637619895
0.294626882479649 -0.113114872995808 0.63564637619895
0.281978177521072 -0.114764492502642 0.63564637619895
0.279484686506916 -0.120123399071272 0.63564637619895
0.263839457834987 -0.119048176346951 0.63564637619895
0.256639897974019 -0.122365387189052 0.63564637619895
0.230254951915871 -0.116166570160307 0.63564637619895
0.226537953231375 -0.115923300445317 0.63564637619895
0.22438959037801 -0.124141500480945 0.63564637619895
0.208265341685806 -0.117182156444596 0.63564637619895
0.193103845645069 -0.123661746139052 0.63564637619895
0.188915264849754 -0.119199207398263 0.63564637619895
0.166961926821483 -0.118450884748223 0.63564637619895
0.157002801365012 -0.127845170763955 0.63564637619895
0.15503514835338 -0.124045107601865 0.63564637619895
0.144130323537442 -0.128494106556916 0.63564637619895
0.12881178043653 -0.124248886614174 0.63564637619895
0.122367133049107 -0.127555147275547 0.63564637619895
0.105756678038638 -0.122225605493058 0.63564637619895
0.10016122060985 -0.12422008370783 0.63564637619895
0.0814678567609098 -0.128136986723305 0.63564637619895
0.0678083780120947 -0.129829861508959 0.63564637619895
0.0525415248565276 -0.129342947760299 0.63564637619895
0.0390128403079296 -0.123974984497345 0.63564637619895
0.028573978785088 -0.12433608640603 0.63564637619895
0.0264132258132938 -0.128233280356506 0.63564637619895
0.00238276939301956 -0.130695512890418 0.63564637619895
-0.00937322926134854 -0.128705770346506 0.63564637619895
-0.0205081994487514 -0.134611542452754 0.63564637619895
-0.0334152013990092 -0.129997797368262 0.63564637619895
-0.0479480179032367 -0.135142840530793 0.63564637619895
-0.053316945192635 -0.131822106415408 0.63564637619895
-0.0686073534538495 -0.137534044821902 0.63564637619895
-0.0855782381090672 -0.131219049204805 0.63564637619895
-0.0979109024862503 -0.134715807677382 0.63564637619895
-0.109145503233112 -0.133812998564069 0.63564637619895
-0.122177421347811 -0.13190670277568 0.63564637619895
-0.145469733095073 -0.134229986163654 0.63564637619895
-0.14830716811146 -0.135722006000144 0.63564637619895
-0.16147711156346 -0.141441469382305 0.63564637619895
-0.174608664275863 -0.139857144946245 0.63564637619895
-0.187827626692822 -0.141555802038216 0.63564637619895
-0.208249350362546 -0.142283462783855 0.63564637619895
-0.216283206613833 -0.144580179896023 0.63564637619895
-0.240569301562949 -0.138035573080359 0.63564637619895
-0.245177028765873 -0.142295314693204 0.63564637619895
-0.26982296509973 -0.138854514800624 0.63564637619895
-0.284711160050684 -0.143976454630986 0.63564637619895
-0.296564558499506 -0.145458307587174 0.63564637619895
-0.313462168229193 -0.139032864173792 0.63564637619895
-0.328030327257685 -0.148840647765315 0.63564637619895
-0.347701574606331 -0.13976428549092 0.63564637619895
-0.364719806695559 -0.149141936033776 0.63564637619895
-0.372317632617096 -0.140780585698313 0.63564637619895
-0.393434211688789 -0.151962773275683 0.63564637619895
-0.414546356893417 -0.151717150189815 0.63564637619895
-0.428743366839058 -0.152979229016701 0.63564637619895
-0.453895979261433 -0.151448525770651 0.63564637619895
0.491802239734447 -0.0964207066130132 0.613766151015372
0.491080616713244 -0.0991138403920562 0.623434720007335
0.483125852962146 -0.0992271287905914 0.628967019803283
0.478256959818498 -0.0994131845892045 0.631294437227662
0.471913776586424 -0.100220392079861 0.634253499144067
0.468087826328256 -0.10312528332766 0.63564637619895
0.458234299005367 -0.0975885048089029 0.63564637619895
0.450882835166264 -0.105155064948679 0.63564637619895
0.443699404984552 -0.0997879941870279 0.63564637619895
0.430690799790858 -0.101988214428923 0.63564637619895
0.42168326639814 -0.103742229760132 0.63564637619895
0.41126756185768 -0.106436165918637 0.63564637619895
0.40099811765745 -0.0998337862915203 0.63564637619895
0.392163616023449 -0.104913727601562 0.63564637619895
0.384683230794774 -0.107958892494002 0.63564637619895
0.37755774157074 -0.10566389719105 0.63564637619895
0.364763175780637 -0.106123024183809 0.63564637619895
0.349524806329502 -0.101771724731626 0.63564637619895
0.345120711791138 -0.108311145918222 0.63564637619895
0.325366588175448 -0.107395602656257 0.63564637619895
0.321232731454826 -0.106211672129826 0.63564637619895
0.312525501949047 -0.103169445620351 0.63564637619895
0.300265353853788 -0.112102387465726 0.63564637619895
0.293233210605625 -0.105361287608028 0.63564637619895
0.283719788204488 -0.108314492176837 0.63564637619895
0.272343555095984 -0.111531359003474 0.63564637619895
0.26245280399822 -0.110683851487394 0.63564637619895
0.252826968439455 -0.112006106330757 0.63564637619895
0.234618365976139 -0.106911508798773 0.63564637619895
0.229127926249873 -0.110304584538168 0.63564637619895
0.210220256802946 -0.114061933973577 0.63564637619895
0.209366319173275 -0.113666347219769 0.63564637619895
0.201416659810042 -0.115589667564772 0.63564637619895
0.183410158928247 -0.109356225628327 0.63564637619895
0.176696187333932 -0.109788908162482 0.63564637619895
0.162532860808248 -0.116938942435262 0.63564637619895
0.155052985862195 -0.112725916375372 0.63564637619895
0.135993185940059 -0.115215613304693 0.63564637619895
0.125257173665056 -0.117904857252722 0.63564637619895
0.122102697120584 -0.117796052689936 0.63564637619895
0.101794046294576 -0.113556696568757 0.63564637619895
0.0915101238013702 -0.111257138831504 0.63564637619895
0.0750545584527638 -0.120675329362375 0.63564637619895
0.0722218233323837 -0.114836506300168 0.63564637619895
0.0599279044103928 -0.120988829124282 0.63564637619895
0.0516514366876613 -0.113775520254408 0.63564637619895
0.0237514487326292 -0.117720686266167 0.63564637619895
0.0174487420241395 -0.117161803695299 0.63564637619895
0.0103286921301663 -0.118749450411858 0.63564637619895
0.00272583489107509 -0.122564048114553 0.63564637619895
-0.0233549353771991 -0.124522685204686 0.63564637619895
-0.0247528975684352 -0.12498757833019 0.63564637619895
-0.0456465116889218 -0.126618223887339 0.63564637619895
-0.0662305764103121 -0.124151996366725 0.63564637619895
-0.0699824116537264 -0.123829148274553 0.63564637619895
-0.0884878431383267 -0.122906613020477 0.63564637619895
-0.104629501730313 -0.126172128902319 0.63564637619895
-0.107697407685976 -0.120399975483793 0.63564637619895
-0.126392093819585 -0.124766795694114 0.63564637619895
-0.135792896027228 -0.130006647335657 0.63564637619895
-0.148769407226848 -0.128905643076419 0.63564637619895
-0.164930843918546 -0.124123647788656 0.63564637619895
-0.181082531017674 -0.123293036408412 0.63564637619895
-0.206187071840986 -0.123271234780495 0.63564637619895
-0.21146878724985 -0.131442155657549 0.63564637619895
-0.220027014921796 -0.126107964426457 0.63564637619895
-0.240603301366297 -0.130851900212832 0.63564637619895
-0.25148994360982 -0.126131850506611 0.63564637619895
-0.258626682850674 -0.12639467158151 0.63564637619895
-0.281027833109536 -0.134232530895744 0.63564637619895
-0.301923654146176 -0.132452830659403 0.63564637619895
-0.32337418942034 -0.131002149213969 0.63564637619895
-0.332129890179203 -0.134020601676283 0.63564637619895
-0.350162522552698 -0.134737074819344 0.63564637619895
-0.352913523022263 -0.135613004333898 0.63564637619895
-0.380510379487736 -0.138710765905919 0.63564637619895
-0.389913406304607 -0.136621445073508 0.63564637619895
-0.415422350200519 -0.136181750952002 0.63564637619895
-0.429760826762442 -0.139547136626569 0.63564637619895
-0.444427236857108 -0.140506719373715 0.63564637619895
0.494146877097447 -0.0876704008489735 0.609723762194189
0.493104762562159 -0.0915596252419733 0.624668806673645
0.491916248773129 -0.0913865893750889 0.625736225097021
0.491673175929016 -0.0903467212894819 0.625988189098395
0.482863704948935 -0.0916360726976314 0.630075982516067
0.469624348799806 -0.0905921430455467 0.63564637619895
0.467853342269403 -0.0900698223880413 0.63564637619895
0.459987865647805 -0.0909905202900229 0.63564637619895
0.447569641104857 -0.0958848552932174 0.63564637619895
0.439333314035849 -0.0940875958226104 0.63564637619895
0.430296628009112 -0.0978313880140958 0.63564637619895
0.420312437907197 -0.0956429555196869 0.63564637619895
0.413182546503709 -0.0989269310218254 0.63564637619895
0.396790905349828 -0.092592877718927 0.63564637619895
0.395241359253918 -0.097436865788859 0.63564637619895
0.384600074269424 -0.100396422086048 0.63564637619895
0.366577332237486 -0.0994332110685201 0.63564637619895
0.364077084822259 -0.0965729771643841 0.63564637619895
0.351870362332451 -0.09541366453877 0.63564637619895
0.344935612573583 -0.0955162693069983 0.63564637619895
0.332813898031584 -0.093451821012517 0.63564637619895
0.324622730072972 -0.0998401628179727 0.63564637619895
0.310908509225251 -0.099662216479999 0.63564637619895
0.309025466845914 -0.0991137025852911 0.63564637619895
0.291874354514623 -0.101089945999469 0.63564637619895
0.278451341598326 -0.0985799628888313 0.63564637619895
0.272956968546953 -0.0985974974715019 0.63564637619895
0.265548938771321 -0.104272329851991 0.63564637619895
0.257287622626609 -0.0988051485084583 0.63564637619895
0.241706915054984 -0.101308764872198 0.63564637619895
0.224442720405512 -0.102738161943538 0.63564637619895
0.214368317507732 -0.106296320674551 0.63564637619895
0.204137182582692 -0.100915492259958 0.63564637619895
0.187058220155377 -0.106748670048279 0.63564637619895
0.183680445461709 -0.0996270708325314 0.63564637619895
0.171602238605548 -0.107262787868835 0.63564637619895
0.168795446452313 -0.106307195577552 0.63564637619895
0.154580308518728 -0.103734490772373 0.63564637619895
0.143898115344935 -0.103823790931555 0.63564637619895
0.137365573949754 -0.109056481086848 0.63564637619895
0.109444138446524 -0.107260123085714 0.63564637619895
0.0974570669301525 -0.110014250316828 0.63564637619895
0.091174893711647 -0.105763762827744 0.63564637619895
0.0809665493055776 -0.103268084421481 0.63564637619895
0.0737312851730227 -0.106010362890316 0.63564637619895
0.0547861511038966 -0.109081751931197 0.63564637619895
0.0451743870785781 -0.111988025482724 0.63564637619895
0.0303042634859574 -0.109421218625729 0.63564637619895
0.0196878700284017 -0.110819905709008 0.63564637619895
-0.00352365799684601 -0.113253274383901 0.63564637619895
-0.00742740933812069 -0.113470637559713 0.63564637619895
-0.01766732146097 -0.108875304503491 0.63564637619895
-0.0232030204565385 -0.115850647414917 0.63564637619895
-0.0401525102539694 -0.111957735896822 0.63564637619895
-0.0537721867751387 -0.110912587658972 0.63564637619895
-0.0717989414007341 -0.114854242022008 0.63564637619895
-0.0863221382351846 -0.109578705800426 0.63564637619895
-0.103539915034631 -0.10952105088335 0.63564637619895
-0.116536539706324 -0.109682876368437 0.63564637619895
-0.121851254089342 -0.110455102487857 0.63564637619895
-0.131232935194533 -0.115546459434121 0.63564637619895
-0.154649616589497 -0.115119649817079 0.63564637619895
-0.166908751364328 -0.113506190726085 0.63564637619895
-0.181712787242203 -0.118523511395673 0.63564637619895
-0.19448199183316 -0.119211362413393 0.63564637619895
-0.206016576534815 -0.116436064962542 0.63564637619895
-0.224646024198188 -0.117533627589849 0.63564637619895
-0.235396853872993 -0.117996326266548 0.63564637619895
-0.241754099982505 -0.120545058619722 0.63564637619895
-0.268944234872238 -0.115298070207808 0.63564637619895
-0.288034451737333 -0.124415741302097 0.63564637619895
-0.290881928082979 -0.123004247350557 0.63564637619895
-0.321640350075281 -0.125380013295222 0.63564637619895
-0.330550441603018 -0.123911668168052 0.63564637619895
-0.353928923705182 -0.120910463070415 0.63564637619895
-0.360611182228287 -0.128920275920979 0.63564637619895
-0.371016606248474 -0.12802136246407 0.63564637619895
-0.403227216588473 -0.120706339308405 0.63564637619895
-0.412369137836129 -0.130572909283391 0.63564637619895
-0.431725857725517 -0.129943319689278 0.63564637619895
-0.441940427438202 -0.124137728277776 0.63564637619895
-0.468497139576665 -0.131220686079658 0.631891874861995
0.495897224004356 -0.0811380172615186 0.613520778539531
0.496355721561382 -0.0794268810835478 0.624880150810058
0.489198955004848 -0.0854624968827447 0.627815211192203
0.484551573446239 -0.0841297772562397 0.630232190738804
0.481751132224115 -0.0846217311474567 0.631521036471351
0.471092556295327 -0.0874476489156782 0.63564637619895
0.46349992725158 -0.0887314254793625 0.63564637619895
0.459572462480379 -0.084018363198441 0.63564637619895
0.453506744214337 -0.086269706075607 0.63564637619895
0.435787138453516 -0.0865081605093495 0.63564637619895
0.424623098226913 -0.0882369421093951 0.63564637619895
0.416699381110913 -0.0899576199753423 0.63564637619895
0.412785002801429 -0.0838649801311697 0.63564637619895
0.399592260231602 -0.0855192779833454 0.63564637619895
0.39556637600148 -0.084236185871248 0.63564637619895
0.385009721136793 -0.0873024434817137 0.63564637619895
0.374218074773393 -0.0839281803266864 0.63564637619895
0.36781418631148 -0.0914928889811167 0.63564637619895
0.346036576073828 -0.0861795737184542 0.63564637619895
0.340431919064862 -0.0871956542566164 0.63564637619895
0.335799085754632 -0.0880643491921241 0.63564637619895
0.316455929807895 -0.0912587390810592 0.63564637619895
0.312040198885931 -0.0865257225599355 0.63564637619895
0.297527589776832 -0.0867788113206068 0.63564637619895
0.297769648594357 -0.0943505336354876 0.63564637619895
0.276762850785199 -0.0878117534625459 0.63564637619895
0.277737099407236 -0.0878917699389118 0.63564637619895
0.260009880227521 -0.0905420946763238 0.63564637619895
0.255007233065163 -0.0906555874699627 0.63564637619895
0.232860794918023 -0.0885767405127258 0.63564637619895
0.232198171654736 -0.0887788855940526 0.63564637619895
0.221936914001481 -0.0957350660696975 0.63564637619895
0.206230384969576 -0.0932097891163494 0.63564637619895
0.191331932035886 -0.0973981908979883 0.63564637619895
0.18578125142774 -0.0973011642146538 0.63564637619895
0.176312125204096 -0.097666726371426 0.63564637619895
0.158764161485181 -0.0910315604460552 0.63564637619895
0.147961787144846 -0.0914413812427129 0.63564637619895
0.133680176863233 -0.0936916461830002 0.63564637619895
0.128415685976992 -0.0956129004454844 0.63564637619895
0.121157738927023 -0.0984959473334706 0.63564637619895
0.112271476943136 -0.09852176875357 0.63564637619895
0.0873371041619573 -0.0963389831459416 0.63564637619895
0.0789127612433612 -0.0955795171840705 0.63564637619895
0.0639935117381651 -0.100850666050735 0.63564637619895
0.0564405161381889 -0.101674784760656 0.63564637619895
0.0483406358729679 -0.102901693691503 0.63564637619895
0.0293363041929605 -0.0963010192880711 0.63564637619895
0.0283050358478468 -0.0961128841215251 0.63564637619895
0.00246811118710448 -0.100148081762097 0.63564637619895
-0.0104401081693618 -0.10407428903807 0.63564637619895
-0.0183921726995165 -0.103255965437994 0.63564637619895
-0.0289486028786709 -0.100529397097172 0.63564637619895
-0.0369008873532103 -0.105255781984701 0.63564637619895
-0.0583970990338861 -0.10157386031982 0.63564637619895
-0.0810351144057737 -0.0981459159710532 0.63564637619895
-0.0791201975013494 -0.0996227826757059 0.63564637619895
-0.0926215490443912 -0.105652987470561 0.63564637619895
-0.109257130543932 -0.106866270201673 0.63564637619895
-0.129469672303357 -0.109545199912147 0.63564637619895
-0.136970781248573 -0.10349005307589 0.63564637619895
-0.155360277957432 -0.0998581003049115 0.63564637619895
-0.156907175237412 -0.110281781675796 0.63564637619895
-0.178990260377224 -0.110941207056712 0.63564637619895
-0.186157481776276 -0.105353569819972 0.63564637619895
-0.215308214495619 -0.105897940337268 0.63564637619895
-0.231229777348039 -0.102494747426513 0.63564637619895
-0.244918718432659 -0.111034478933652 0.63564637619895
-0.257796802206148 -0.111329498236825 0.63564637619895
-0.272038863205888 -0.109026238872445 0.63564637619895
-0.283772772369909 -0.106896408192276 0.63564637619895
-0.298425068027204 -0.10960566837826 0.63564637619895
-0.31853273026335 -0.105165468320201 0.63564637619895
-0.338234055096233 -0.114979298430581 0.63564637619895
-0.343816984070766 -0.107426058739194 0.63564637619895
-0.35310209555678 -0.117429920523192 0.63564637619895
-0.379272588497063 -0.108226717049166 0.63564637619895
-0.395161828048152 -0.116657294060117 0.63564637619895
-0.402276073779868 -0.11332772253498 0.63564637619895
-0.420237120621044 -0.118203563023968 0.63564637619895
-0.441817050510392 -0.110366139754968 0.63564637619895
-0.456653103279683 -0.118160911280682 0.63564637619895
0.497716024287114 -0.0743501621974419 0.61633183558334
0.497401600061605 -0.0755236093821751 0.621040449063969
0.493941138481255 -0.0760604413929887 0.626741627957701
0.482137701756296 -0.0781971442090596 0.632165740452243
0.482096389049509 -0.0724539623431344 0.632928915380657
0.477935976505054 -0.0738566406034821 0.634756720419046
0.468997404241614 -0.0721381369406088 0.63564637619895
0.45527079910493 -0.0770994089418165 0.63564637619895
0.442168007804324 -0.0791322773847566 0.63564637619895
0.433666770155603 -0.0773942445407693 0.63564637619895
0.428374507538391 -0.0794279202352794 0.63564637619895
0.424436751283663 -0.0773821891520428 0.63564637619895
0.413213982593181 -0.0774744195423426 0.63564637619895
0.398132407292277 -0.0806161085578912 0.63564637619895
0.390229088127461 -0.0743798896080102 0.63564637619895
0.381782985811761 -0.0752125705699 0.63564637619895
0.368185564517468 -0.0769919952398533 0.63564637619895
0.364765293157447 -0.0833992782882859 0.63564637619895
0.350103322463765 -0.0814753140336945 0.63564637619895
0.345731757010675 -0.0828501455521336 0.63564637619895
0.33865300326387 -0.0803270974110536 0.63564637619895
0.317148426208433 -0.0792848804385525 0.63564637619895
0.31344459713382 -0.0790301381974827 0.63564637619895
0.309014050149758 -0.0849563461508854 0.63564637619895
0.287316479108442 -0.0852878055816757 0.63564637619895
0.285215287448725 -0.0857542843446311 0.63564637619895
0.273067968019842 -0.0854838437433094 0.63564637619895
0.253958360297573 -0.0795671753167438 0.63564637619895
0.249808240200974 -0.0780073875866529 0.63564637619895
0.242889216811038 -0.0823683760802674 0.63564637619895
0.228661712015326 -0.0875638698605215 0.63564637619895
0.211260204033886 -0.0811168753516784 0.63564637619895
0.208281605027575 -0.0810855032342213 0.63564637619895
0.187188426483511 -0.0880373219426366 0.63564637619895
0.186369511026431 -0.0850790139234835 0.63564637619895
0.177303987177507 -0.0831983417454516 0.63564637619895
0.1658704431575 -0.0876326761710196 0.63564637619895
0.145447054821902 -0.08410634743578 0.63564637619895
0.135116336138475 -0.0864629019943582 0.63564637619895
0.124033229770227 -0.0875224425557314 0.63564637619895
0.118158391461218 -0.0911627686698546 0.63564637619895
0.108875342275158 -0.0866282490480188 0.63564637619895
0.098338199558891 -0.0852211244384324 0.63564637619895
0.0887312947409115 -0.0910578469246555 0.63564637619895
0.0608649677743307 -0.0868387681683576 0.63564637619895
0.0621201971693284 -0.0854077642464657 0.63564637619895
0.0483305315712873 -0.085699562294129 0.63564637619895
0.0350448209919481 -0.0910865320896756 0.63564637619895
0.0136589825975715 -0.0884161982288607 0.63564637619895
0.0137930457664524 -0.0934153860027944 0.63564637619895
0.00137516326677633 -0.0906206935023452 0.63564637619895
-0.0159317990422644 -0.0911154496157453 0.63564637619895
-0.0369376957494905 -0.090624583523874 0.63564637619895
-0.048235645204824 -0.0887303163685563 0.63564637619895
-0.0515307478523721 -0.0934389291289637 0.63564637619895
-0.0718074193466448 -0.0923356909055064 0.63564637619895
-0.0820261016577255 -0.0972849057159295 0.63564637619895
-0.101968172857611 -0.0970782697587255 0.63564637619895
-0.104046100954445 -0.0941078591471586 0.63564637619895
-0.12355896385535 -0.0961532571877353 0.63564637619895
-0.141371420713553 -0.0986301295297581 0.63564637619895
-0.149589796431711 -0.0996079354152457 0.63564637619895
-0.16805903176022 -0.0977236851634533 0.63564637619895
-0.190137562513379 -0.100318330619382 0.63564637619895
-0.200973799712116 -0.0981249064536326 0.63564637619895
-0.213694327710165 -0.0912082291562001 0.63564637619895
-0.213807269346282 -0.101294617587836 0.63564637619895
-0.236661061204177 -0.0985392899262484 0.63564637619895
-0.254697022615938 -0.0986404440599057 0.63564637619895
-0.26463088295132 -0.0931561486430493 0.63564637619895
-0.286126479586957 -0.0966674082514982 0.63564637619895
-0.303561391535418 -0.0968343924204525 0.63564637619895
-0.312619617352061 -0.102788931644437 0.63564637619895
-0.323968052942268 -0.0961391748845812 0.63564637619895
-0.338925892271393 -0.0956873254997908 0.63564637619895
-0.349597584570114 -0.0969613190560277 0.63564637619895
-0.3818368856668 -0.102657421536883 0.63564637619895
-0.39820838198671 -0.104783874650913 0.63564637619895
-0.404268786060014 -0.103924202578058 0.63564637619895
-0.429646312319422 -0.107416946475356 0.63564637619895
-0.444489935416471 -0.102102989189653 0.63564637619895
-0.454825216398864 -0.100011890563595 0.63564637619895
0.5 -0.0643572977525188 0.61106967223672
0.5 -0.0636734623857476 0.615876521334262
0.499022978241663 -0.0694725436359142 0.618652076158761
0.488733743933578 -0.0702884300048219 0.630003559636244
0.487838004540699 -0.0672829957698109 0.630825100352259
0.482411426040496 -0.0671502575658895 0.633463114100717
0.474776974853598 -0.0688376852349049 0.63564637619895
0.463270112374194 -0.0699940217112993 0.63564637619895
0.455907965332918 -0.0713973537663145 0.63564637619895
0.445376510178582 -0.0647566608329598 0.63564637619895
0.437771328772513 -0.0659426015967696 0.63564637619895
0.435716184666037 -0.0725466946482882 0.63564637619895
0.420743176856075 -0.0652046203828328 0.63564637619895
0.405530977831091 -0.0700081902612926 0.63564637619895
0.395629361305829 -0.0730835492894192 0.63564637619895
0.390004582037235 -0.0672370305229548 0.63564637619895
0.388927265342061 -0.066181287125355 0.63564637619895
0.377082522123168 -0.0719989497223945 0.63564637619895
0.369114024010717 -0.0717766358933202 0.63564637619895
0.354205237383097 -0.0689072987724259 0.63564637619895
0.347537200109974 -0.0744744004058204 0.63564637619895
0.339535449137012 -0.0724236585413025 0.63564637619895
0.325652213319871 -0.0721628060047789 0.63564637619895
0.316538405558533 -0.0689827618931084 0.63564637619895
0.295477569810317 -0.0755019986861464 0.63564637619895
0.299154796955565 -0.0725841886782156 0.63564637619895
0.279682051840534 -0.0750594247150509 0.63564637619895
0.270235004089484 -0.0755732868639837 0.63564637619895
0.259233293772202 -0.0688256275435361 0.63564637619895
0.247437420246242 -0.0760749809018175 0.63564637619895
0.236256654414956 -0.0691384362184837 0.63564637619895
0.222745818786943 -0.0773098438767934 0.63564637619895
0.218319363590757 -0.0764693185055691 0.63564637619895
0.213949161685918 -0.0729553049517348 0.63564637619895
0.194363479267217 -0.0791369825537668 0.63564637619895
0.187159875955556 -0.0778867435040655 0.63564637619895
0.177577541032489 -0.0765541507245355 0.63564637619895
0.163003753579777 -0.0737698455322005 0.63564637619895
0.149877297366288 -0.0752695171406847 0.63564637619895
0.147161407150276 -0.0756973291796481 0.63564637619895
0.124979135090722 -0.0797896653621026 0.63564637619895
0.118393216331114 -0.0743694901215983 0.63564637619895
0.101505594442093 -0.075550217436464 0.63564637619895
0.0908423825336297 -0.0785803698686276 0.63564637619895
0.0810450918050967 -0.0747198626811375 0.63564637619895
0.0590906027252366 -0.0750324523639066 0.63564637619895
0.0489484510921605 -0.0834132096505466 0.63564637619895
0.0436954262451537 -0.0764934268854682 0.63564637619895
0.0269450668156414 -0.08207431985562 0.63564637619895
0.0192241823936004 -0.0758518761689362 0.63564637619895
0.0104120803156785 -0.0789968794634094 0.63564637619895
-0.000340563353407279 -0.0803042256784241 0.63564637619895
-0.0205138837669077 -0.0803992965195845 0.63564637619895
-0.0354871741091213 -0.0778999595507133 0.63564637619895
-0.0410363913955091 -0.0809339504889906 0.63564637619895
-0.0572702770989635 -0.0779156309560458 0.63564637619895
-0.065651933775722 -0.0792905849384377 0.63564637619895
-0.0819654634262126 -0.0790459646881423 0.63564637619895
-0.106360242802587 -0.0817134287617865 0.63564637619895
-0.104401096124375 -0.0804430349147844 0.63564637619895
-0.126997758081163 -0.0786160040448364 0.63564637619895
-0.148033449900069 -0.0857963388067382 0.63564637619895
-0.148862702149236 -0.0892300664222017 0.63564637619895
-0.167174435562824 -0.083122413744842 0.63564637619895
-0.178899359997803 -0.0844691120174738 0.63564637619895
-0.198291689492987 -0.0897390085604771 0.63564637619895
-0.208444124878066 -0.0828321657963849 0.63564637619895
-0.225732193287223 -0.0886265001631917 0.63564637619895
-0.24010665164011 -0.0818199587827953 0.63564637619895
-0.259859020703113 -0.0874507945768407 0.63564637619895
-0.275468597499003 -0.0851041117088833 0.63564637619895
-0.288516399892119 -0.086807209247551 0.63564637619895
