ply
format ascii 1.0
element vertex 862
property float x
property float y
property float z
end_header
0.247904838155422 -0.143830736840212 0.790532667469845
0.248569496011335 -0.148691573141615 0.790532667469845
0.252355471839468 -0.166631754991488 0.790532667469845
0.250175926580743 -0.187791648432037 0.790532667469845
0.25374813366692 -0.197761430910725 0.790532667469845
0.260262572245581 -0.216522624552031 0.790532667469845
0.262764096824688 -0.228433542003557 0.790532667469845
0.262330909858526 -0.243878624044079 0.790532667469845
0.257093201665556 -0.263327725823455 0.790532667469845
0.256900513613359 -0.275124206366187 0.790532667469845
0.261725500853086 -0.28795870622263 0.790532667469845
0.266283925271353 -0.321112200896118 0.790532667469844
0.265864240871087 -0.324851493168198 0.790532667469845
0.272982545215718 -0.344326256059203 0.790532667469845
0.27016062543881 -0.356368283857274 0.790532667469845
0.268358701138976 -0.375794778177459 0.790532667469845
0.276590995581007 -0.394533092255181 0.790532667469845
0.244136390231983 0.0138689941661384 0.00315723289035294
0.248773492914727 0.0138689941661388 0.00875420847812722
0.250527740325629 0.0138689941661384 0.0286901597640766
0.246878366757217 0.0138689941661388 0.0322800042679202
0.253210803948333 0.00905476255603357 0.0395821716379565
0.252853362540384 -0.00368758639119367 0.0396529195026299
0.253989132116009 -0.0136684935014623 0.0394281182612249
0.211087779925843 0.455478682626799 0.754257361727281
0.208984907843728 0.456692776389478 0.758918414261762
0.210693895296395 0.45570609202364 0.761773382134219
0.212776360716192 0.454503780052942 0.772010506304922
0.21078276168717 0.455654784989004 0.784820138663207
0.213664128137047 0.453554429833267 0.790532667469845
0.216113471546521 0.436861800592339 0.790532667469845
0.2107880386234 0.431804858841762 0.790532667469845
0.21705364736567 0.419775543715691 0.790532667469845
0.212747876870574 0.406865126462639 0.790532667469845
0.221223375079008 0.394058147512941 0.790532667469845
0.216157897536298 0.386150818999819 0.790532667469845
0.219277708422328 0.386893439346995 0.790532667469845
0.216252012235695 0.366144237796879 0.790532667469845
0.219170466235545 0.359275590340451 0.790532667469845
0.217349533875734 0.350873183991552 0.790532667469845
0.226447598540324 0.332650365141006 0.790532667469845
0.224015236431359 0.326467732746507 0.790532667469845
0.22634777350817 0.318688261235987 0.790532667469845
0.228154671291529 0.308806498722413 0.790532667469845
0.22172391294864 0.293968694172758 0.790532667469845
0.224844693661137 0.282129725883997 0.790532667469845
0.227364387836397 0.269007787089998 0.790532667469845
0.224008985824255 0.267507734673615 0.790532667469845
0.22809460022931 0.24796837395879 0.790532667469845
0.231120676267805 0.236874667787774 0.790532667469845
0.229959343595875 0.223163511585918 0.790532667469845
0.22882311267101 0.220810108510119 0.790532667469845
0.231268192506877 0.205658706141855 0.790532667469845
0.235302592932765 0.196772859591847 0.790532667469845
0.230843152418118 0.182209377199738 0.790532667469845
0.240567342996997 0.16737801180253 0.790532667469845
0.23312210991522 0.159971254501498 0.790532667469845
0.237098965606115 0.135420979297341 0.790532667469844
0.244252365710943 0.129678324838643 0.790532667469845
0.241104259001597 0.110890988793557 0.790532667469845
0.241211824102253 0.10473369204276 0.790532667469845
0.240972878455107 0.0920908970091664 0.790532667469845
0.247765211214792 0.081406198750533 0.790532667469845
0.242493416620864 0.0678119538231706 0.790532667469845
0.24151861413298 0.0539600094345271 0.790532667469845
0.244061604435472 0.0353395820484782 0.790532667469845
0.245093136495202 0.0228700120563667 0.790532667469845
0.243625402883957 0.0217634979603359 0.790532667469845
0.252332058704929 -0.00314768727293397 0.790532667469845
0.252101830284618 -0.0194340518479046 0.790532667469845
0.256586803501185 -0.0276455384365625 0.790532667469845
0.253811124775445 -0.0459995542775587 0.790532667469845
0.252940195423098 -0.0526076817494232 0.790532667469845
0.259960545352172 -0.0658572954332861 0.790532667469845
0.259336849953556 -0.0801378701152162 0.790532667469845
0.255392209186699 -0.101189009815769 0.790532667469845
0.257549046090053 -0.120369804267657 0.790532667469845
0.26459116704146 -0.125535469256103 0.790532667469845
0.257336580014024 -0.138707964120969 0.790532667469845
0.264582221369492 -0.15191741045276 0.790532667469845
0.264906531610037 -0.175566577142834 0.790532667469845
0.266543947630876 -0.186743468552714 0.790532667469845
0.270542666523784 -0.200678947479893 0.790532667469845
0.272535561558886 -0.223263454997168 0.790532667469845
0.270341910989391 -0.226926082839306 0.790532667469845
0.272415166209002 -0.258106080427866 0.790532667469845
0.276302559710756 -0.274860332847773 0.790532667469845
0.267793745543645 -0.278621186094793 0.790532667469845
0.273512359787999 -0.29163524858431 0.790532667469844
0.280827283052309 -0.311673991332371 0.790532667469845
0.276880798546756 -0.338222075348082 0.790532667469845
0.278398210739809 -0.338074930062786 0.790532667469845
0.277049966949705 -0.358297115310433 0.790532667469845
0.278110528997268 -0.381692181115066 0.790532667469845
0.28300930091759 -0.399805999643954 0.790532667469845
0.257981781497121 0.0138689941661388 0.0119056972444595
0.26312837729835 0.0138689941661388 0.0290426907100754
0.256884900855169 0.0138689941661388 0.038068507228187
0.256119228619525 0.00497713608881649 0.0390065113186024
0.257518570336708 0.00502357545355465 0.0387295416216466
0.262042356519999 -0.00775108616840212 0.0378341551174821
0.218179873525929 0.451384060477671 0.751682177054479
0.218983359268268 0.450920167768042 0.754134339461326
0.217101658199673 0.452006568386529 0.766825519004366
0.223678518264015 0.448209416457959 0.768834605335743
0.225445754847534 0.447189101940743 0.778896138006935
0.22507313116255 0.447404236325574 0.785590793449071
0.225243629828776 0.445213015983172 0.790532667469845
0.220423827349671 0.434313999501806 0.790532667469845
0.218850139075827 0.421601856141934 0.790532667469845
0.228697043901468 0.406071126446222 0.790532667469845
0.221270268791766 0.396255163459184 0.790532667469845
0.227075383680012 0.392284656089091 0.790532667469845
0.231067810662953 0.389004841339273 0.790532667469845
0.226297900115169 0.373257338599694 0.790532667469845
0.228587833730741 0.359277740174815 0.790532667469845
0.22598443255726 0.342897017730304 0.790532667469845
0.229749971411368 0.344249797115301 0.790532667469845
0.23029744301451 0.324180334310076 0.790532667469845
0.227931513467131 0.32583351435727 0.790532667469845
0.237948013833955 0.29862581755075 0.790532667469845
0.236976263626974 0.288262705905254 0.790532667469845
0.236480998537467 0.279648545033574 0.790532667469845
0.240244434246209 0.265573781470577 0.790532667469845
0.235320976298454 0.261051900828393 0.790532667469845
0.239605723579262 0.254614101591184 0.790532667469845
0.234749346788072 0.24359949868835 0.790532667469845
0.239554774239413 0.22693291726911 0.790532667469845
0.239130029549633 0.211054756162389 0.790532667469845
0.241157026153538 0.206965528805036 0.790532667469845
0.240884677408329 0.196162765206783 0.790532667469845
0.244171726373685 0.175015236910424 0.790532667469845
0.243835079377638 0.160600512180158 0.790532667469845
0.2479922180233 0.156177091300926 0.790532667469845
0.245289461196063 0.147436089297645 0.790532667469845
0.246273661343003 0.124470468226905 0.790532667469845
0.252859309138068 0.123509388000749 0.790532667469845
0.247520550980227 0.100526601844349 0.790532667469844
0.24844548462104 0.0935676298512737 0.790532667469845
0.257034254167882 0.0772992360985268 0.790532667469845
0.251156982876838 0.06952385442024 0.790532667469845
0.25052440502318 0.0572157912697155 0.790532667469845
0.256023104847319 0.0404024352709652 0.790532667469844
0.260762214343832 0.0191090974868606 0.790532667469845
0.257331970338098 0.00887336623978569 0.790532667469845
0.258313141326554 -0.00285106734112658 0.790532667469845
0.258535087685246 -0.0123413969505957 0.790532667469845
0.267228516958615 -0.0244157777707989 0.790532667469845
0.267517823872172 -0.045197474208747 0.790532667469845
0.26976714367183 -0.0574679743209691 0.790532667469845
0.266992845177863 -0.0759424336108766 0.790532667469845
0.272449531466773 -0.0889452984331196 0.790532667469845
0.26596655961035 -0.104267954867464 0.790532667469845
0.269833256250517 -0.10497873742547 0.790532667469845
0.268340388964842 -0.130695668870577 0.790532667469845
0.276358087758004 -0.146096242597898 0.790532667469845
0.272719265853035 -0.151864171088986 0.790532667469845
0.271859203712377 -0.173337369709415 0.790532667469845
0.275215727774897 -0.191609547495295 0.790532667469845
0.272918499983498 -0.195840603588607 0.790532667469845
0.275075946279583 -0.220703508454628 0.790532667469845
0.280088420311891 -0.237164519484777 0.790532667469845
0.283945973897181 -0.245081818061307 0.790532667469845
0.282105591567735 -0.268352703957611 0.790532667469845
0.285159652534595 -0.280491735012342 0.790532667469845
0.290379871984755 -0.289828250461066 0.790532667469845
0.287362297308395 -0.323428189435332 0.790532667469845
0.291436505617894 -0.325950383708539 0.790532667469845
0.295156997148594 -0.337788560057284 0.790532667469845
0.288733252910263 -0.357572861055144 0.790532667469845
0.296317285696634 -0.381367686435717 0.790532667469845
0.296889048059843 -0.403463525504399 0.790532667469845
0.263544631544782 0.0138689941661388 0.00686692797310718
0.267040766164214 0.0138689941661388 0.0186790540807044
0.26643898464011 0.0138689941661392 0.0240731645521072
0.269735967507869 0.0138689941661388 0.0322369019273028
0.266066591588529 0.0119718671719997 0.0370376440482254
0.269602383792548 0.00422789405254234 0.0363378097738507
0.228069789807995 0.445674114649957 0.755265587078745
0.227312814739662 0.446111154409429 0.759752184072128
0.232551044248737 0.443086861192288 0.772492465362635
0.231395620123633 0.443753945621944 0.779399083785871
0.233078597008257 0.442782278464567 0.788058342186116
0.228085627312564 0.438998128413421 0.790532667469845
0.23300300655093 0.433868384156012 0.790532667469845
0.230506860489541 0.42476640253769 0.790532667469845
0.228853611270444 0.410805940546629 0.790532667469845
0.235015213675189 0.404140176549343 0.790532667469845
0.232176047945954 0.392553471232617 0.790532667469845
0.236317330562784 0.376890714172491 0.790532667469845
0.238713773656208 0.368314978994787 0.790532667469845
0.236908228079654 0.357434308486832 0.790532667469845
0.239596293838354 0.352496442182343 0.790532667469845
0.237335595791363 0.33738762608245 0.790532667469845
0.24365323419784 0.323061577239273 0.790532667469845
0.244860245925013 0.319286461067375 0.790532667469845
0.239104659176096 0.312691572581893 0.790532667469845
0.246560403279056 0.302054039876864 0.790532667469845
0.247176356276313 0.291943906378253 0.790532667469845
0.24190219455608 0.271610410059183 0.790532667469845
0.24583867852278 0.253236441493162 0.790532667469845
0.246124864638815 0.243899108007184 0.790532667469845
0.243856809188798 0.24086187210901 0.790532667469845
0.246475031401254 0.224916323408195 0.790532667469845
0.247281941692714 0.210822746421359 0.790532667469845
0.253732137434111 0.200016535508009 0.790532667469845
0.25295345486625 0.191381506937778 0.790532667469844
0.257156202056323 0.18323780228091 0.790532667469845
0.259060151701358 0.17367152266532 0.790532667469845
0.254463895713861 0.155486562458805 0.790532667469845
0.261154255703235 0.145147794999377 0.790532667469845
0.258682831812261 0.12921051249778 0.790532667469844
0.260408498511162 0.118005233989535 0.790532667469845
0.258833125745125 0.111740747698036 0.790532667469845
0.261379164614764 0.0909651910220494 0.790532667469845
0.258162840160551 0.0820596776676111 0.790532667469845
0.263041721793547 0.0665857107440346 0.790532667469844
0.270307474406286 0.0448826711516596 0.790532667469845
0.267380771196595 0.0450758854201777 0.790532667469845
0.269097209285928 0.0323233505048945 0.790532667469845
0.273425719629552 0.0219045281945529 0.790532667469845
0.265692875191102 -0.0060902033834637 0.790532667469845
0.269272372968925 -0.0158662469452862 0.790532667469845
0.272662466091326 -0.0255613555196643 0.790532667469845
0.278546606406989 -0.0407143733810202 0.790532667469845
0.277624558094859 -0.0640898228278865 0.790532667469844
0.278478224213785 -0.061869782345817 0.790532667469845
0.27499487797533 -0.0916590056702157 0.790532667469845
0.278043854441526 -0.104257404386211 0.790532667469845
0.281377725141484 -0.10421014345731 0.790532667469845
0.285777818136219 -0.116045545013529 0.790532667469845
0.282115065475509 -0.137029835559168 0.790532667469845
0.280802694812331 -0.154952163688415 0.790532667469845
0.28897156587858 -0.175460221588461 0.790532667469845
0.286855723059346 -0.17665498395773 0.790532667469845
0.285362725021636 -0.202449772794586 0.790532667469845
0.28814977387878 -0.224073012765782 0.790532667469845
0.287149807352327 -0.242872515396385 0.790532667469845
0.293991647521744 -0.244290212955941 0.790532667469844
0.292360782117046 -0.258956885751556 0.790532667469845
0.2907346812684 -0.28384242147698 0.790532667469845
0.299177778745096 -0.290338654631688 0.790532667469845
0.302891974870887 -0.304849868737788 0.790532667469845
0.299134770580945 -0.324787062571156 0.790532667469845
0.297771757697718 -0.351081216505531 0.790532667469845
0.305158844470002 -0.365902804338328 0.790532667469845
0.307018637449216 -0.369248520743659 0.790532667469845
0.279945260622253 0.0138689941661388 0.00526539505108385
0.282438123013609 0.0138689941661384 0.0180922577143957
0.282567016884191 0.0138689941661388 0.0153886677689468
0.278277781969588 0.00846959735788476 0.0346207006685047
0.276804884178388 0.0138284361363898 0.0349122292135811
0.282587055206841 -0.000169855778577936 0.0337677724037595
0.239053858272207 0.439332459765347 0.751539416282539
0.243271338355246 0.436897496504103 0.762581032907758
0.238725528978632 0.439522020771375 0.770576195981634
0.237758272408046 0.440080466612779 0.778826603272252
0.235281472793851 0.441510447536763 0.788903895477865
0.23584838112106 0.423872096641859 0.790532667469845
0.239264125334231 0.42026591537495 0.790532667469845
0.243020071065482 0.412319204450524 0.790532667469845
0.243442398579779 0.397312698388524 0.790532667469845
0.241491075639127 0.392635292323925 0.790532667469845
0.242562273019893 0.38558079359921 0.790532667469845
0.247684766166066 0.37142072953307 0.790532667469845
0.250475225978957 0.364652968197437 0.790532667469845
0.249429533245978 0.356503766512243 0.790532667469845
0.245115117112914 0.335999303903925 0.790532667469845
0.249182647514571 0.330104179628219 0.790532667469845
0.249457227902088 0.31978873521101 0.790532667469845
0.251808583175513 0.306756550024448 0.790532667469845
0.249864541663697 0.295978602035178 0.790532667469845
0.251171323933662 0.289257822717636 0.790532667469845
0.255427087679918 0.273473266334589 0.790532667469845
0.252004025355515 0.262233631330064 0.790532667469845
0.259836053482 0.254428598913531 0.790532667469845
0.257945768657602 0.243304579028427 0.790532667469845
0.263697043884759 0.227155378719778 0.790532667469845
0.259212606262658 0.216920734664346 0.790532667469844
0.261509373940835 0.198140834003355 0.790532667469845
0.2655718630204 0.1927764278256 0.790532667469845
0.263319323282924 0.175109931824924 0.790532667469845
0.260471550717703 0.166728514857386 0.790532667469845
0.26789360888997 0.150671619204054 0.790532667469845
0.262471064700957 0.147543183067209 0.790532667469845
0.269063114367318 0.124267926555339 0.790532667469845
0.270315223817119 0.118349083201655 0.790532667469845
0.268026570579583 0.107361761838309 0.790532667469845
0.272255301074844 0.0948926837236568 0.790532667469845
0.278000369581943 0.0705108090385261 0.790532667469845
0.277756823979881 0.0733569436223245 0.790532667469845
0.275278659670341 0.045786738448599 0.790532667469845
0.274276972989833 0.0406667013279835 0.790532667469845
0.279640491618609 0.0239779468521574 0.790532667469845
0.280221819267328 0.0168387910198022 0.790532667469844
0.279120153464038 0.00607233004527858 0.790532667469845
0.284435212192095 -0.0125725400052805 0.790532667469845
0.286110503967809 -0.024288956254699 0.790532667469845
0.283961016605063 -0.0486542653691821 0.790532667469845
0.281127626581209 -0.0608889811129401 0.790532667469845
0.289617992350524 -0.0753493899765992 0.790532667469845
0.283951883699031 -0.0770338928699022 0.790532667469845
0.291880243822772 -0.100629872958842 0.790532667469845
0.292661951701258 -0.114675906191756 0.790532667469845
0.297007176807931 -0.130607888978468 0.790532667469845
0.293180862392208 -0.149314274829636 0.790532667469845
0.292465612237616 -0.153894032637354 0.790532667469845
0.295882694760743 -0.172373281248696 0.790532667469845
0.293851033386431 -0.183873071915787 0.790532667469845
0.299879236119702 -0.204827356527318 0.790532667469845
0.304121599307654 -0.217964567530875 0.790532667469845
0.30194466718843 -0.227296334015509 0.790532667469845
0.306984793132496 -0.254046366505104 0.790532667469845
0.301175238947619 -0.261059140432774 0.790532667469845
0.306353325928254 -0.283709484688005 0.790532667469845
0.30850864663879 -0.298086012068457 0.790532667469845
0.309993888652435 -0.307902697546034 0.790532667469845
0.311521539114585 -0.33430178713869 0.790532667469845
0.314131956003077 -0.352773772276906 0.790532667469845
0.314550505480488 -0.360925743413996 0.790532667469845
0.315759807415059 -0.386773242710667 0.790532667469845
0.292597100103924 0.0138689941661388 0.0116729521911963
0.29205312477866 0.0138689941661392 0.0306605083044947
0.28698232329839 0.0138689941661388 0.0313134515804171
0.29102200391037 -0.00219825148199452 0.0320982551174758
0.286371502129345 -0.00909546345184168 0.0330187222579654
0.25099802703101 0.432436490717206 0.752804081398664
0.250645460265148 0.432640045234383 0.754049843229049
0.245992234094372 0.435326586616682 0.764792461349968
0.246786155104354 0.434868216107853 0.771015959206266
0.248179805827464 0.434063591487709 0.783718808959986
0.252905088881172 0.423586492543079 0.790532667469845
0.249548175972466 0.417159223538657 0.790532667469845
0.249669528076447 0.410083448117971 0.790532667469845
0.254397629611604 0.399085094133259 0.790532667469845
0.253140002639289 0.386256943841681 0.790532667469845
0.25330653375225 0.375278633396293 0.790532667469845
0.254904216518287 0.370399866853066 0.790532667469845
0.254252029425823 0.36104107196803 0.790532667469845
0.260819655301541 0.346883141583315 0.790532667469845
0.252533761356924 0.339763621518564 0.790532667469845
0.26158355672615 0.324516546818121 0.790532667469845
0.258047105781574 0.313612872358298 0.790532667469845
0.2596524320914 0.308734870470737 0.790532667469845
0.264014298730639 0.290563614626974 0.790532667469845
0.261011528032927 0.282578314048909 0.790532667469845
0.267430127209734 0.27117562991917 0.790532667469845
0.268342483168064 0.258262707244845 0.790532667469845
0.268764379614653 0.25234427203434 0.790532667469845
0.271112623353949 0.231148290207526 0.790532667469845
0.270154624563469 0.228203498940826 0.790532667469845
0.273086984852065 0.211721535335504 0.790532667469844
0.27322404159106 0.200338608785293 0.790532667469845
0.275632527368917 0.188325555869732 0.790532667469845
0.269790026311989 0.180894875392491 0.790532667469845
0.274802967889047 0.175295291127857 0.790532667469845
0.272644909387397 0.150220426941608 0.790532667469845
0.272798035694304 0.145342960325614 0.790532667469844
0.278978278311524 0.137736137278225 0.790532667469845
0.281199989439793 0.121381196493729 0.790532667469845
0.280540263122863 0.110762185440655 0.790532667469845
0.282072888772778 0.0944025880416274 0.790532667469845
0.282801755620745 0.0819170001500847 0.790532667469845
0.284487997983029 0.0728472114185661 0.790532667469845
0.2813451555448 0.0518708572895874 0.790532667469845
0.287979818104046 0.0460781181609277 0.790532667469845
0.286335167992865 0.0268755064352845 0.790532667469845
0.289505646749661 0.0204064902954688 0.790532667469845
0.291943860435128 -0.000642055554598516 0.790532667469845
0.288434923282922 -0.0124400623031351 0.790532667469845
0.29182972089192 -0.0276249367236249 0.790532667469845
0.290559717062341 -0.047165744505429 0.790532667469845
0.292664510397612 -0.060137422687603 0.790532667469845
0.293370387084147 -0.0626393962931478 0.790532667469845
0.293855270734882 -0.0821949446625479 0.790532667469845
0.300515727988602 -0.100940356293186 0.790532667469845
0.299388476878095 -0.104269380630283 0.790532667469845
0.298762246348436 -0.119439401697576 0.790532667469845
0.302890220036057 -0.140318398914592 0.790532667469845
0.306939075926058 -0.153930143531399 0.790532667469845
0.303982385958036 -0.176270926645732 0.790532667469845
0.310939863360794 -0.182908034145023 0.790532667469845
0.303623006662398 -0.192162539415583 0.790532667469844
0.309183020067 -0.216825346930481 0.790532667469844
0.312583903510078 -0.22992652688902 0.790532667469845
0.313671889176085 -0.245614916637776 0.790532667469845
0.310615822431221 -0.270129922442226 0.790532667469845
0.321456336858349 -0.285820674958027 0.790532667469845
0.314533776692877 -0.294698624001691 0.790532667469845
0.324594278881488 -0.30675090265105 0.790532667469845
0.324646758932652 -0.332307608542382 0.790532667469845
0.327187097226194 -0.340301023935672 0.790532667469845
0.326493147739038 -0.369153969510335 0.790532667469844
0.296072106196742 0.0138689941661392 0.0116085278176152
0.296635514254752 0.0138689941661388 0.0199559741628032
0.293844681983607 0.0138689941661388 0.0258290083300089
0.301432658438736 0.007969489509175 0.0300376892139318
0.295254658980167 -0.00398119567519016 0.0312604917766097
0.25520421069259 0.430008049447931 0.757845514739087
0.258525931132632 0.428090253257701 0.764775844059757
0.255773392757943 0.429679432029282 0.769457508998581
0.254140462092503 0.430622204988541 0.781734697303914
0.255102330838269 0.430066869809249 0.785227237132347
0.260004540635878 0.419355115024244 0.790532667469845
0.259470070113563 0.406582936040286 0.790532667469845
0.259659341475199 0.400310939878561 0.790532667469845
0.261948095110522 0.389563800444737 0.790532667469845
0.262344917444267 0.37695086004129 0.790532667469845
0.263218254505169 0.362566804727085 0.790532667469845
0.261044249025962 0.359297003652401 0.790532667469845
0.262695523715518 0.35135204631135 0.790532667469845
0.268719000959409 0.336059523277831 0.790532667469845
0.268536702839132 0.334834630847058 0.790532667469845
0.269139870494757 0.315401733219795 0.790532667469845
0.272116716065938 0.305985019692889 0.790532667469845
0.271306198579547 0.291904638949301 0.790532667469845
0.27374505692668 0.292194411094755 0.790532667469845
0.269132007200652 0.273277994554055 0.790532667469845
0.276900173730715 0.261541714631138 0.790532667469845
0.278567585268623 0.244832592566216 0.790532667469845
0.278986903459453 0.243153988393815 0.790532667469845
0.276783076257483 0.223535769807903 0.790532667469844
0.275679411646328 0.219023792396568 0.790532667469845
0.28294604695642 0.200881161501969 0.790532667469845
0.284784014780403 0.195336581758703 0.790532667469845
0.284799156211697 0.173899321741336 0.790532667469844
0.28610550523342 0.166335186036992 0.790532667469845
0.28128748587208 0.160337056221801 0.790532667469845
0.288610100449859 0.144359771896805 0.790532667469845
0.284351066065309 0.135285089660208 0.790532667469845
0.289780441343795 0.125160384820465 0.790532667469844
0.29347462560622 0.103259661685504 0.790532667469845
0.290722440952641 0.092006224747967 0.790532667469844
0.295103064010697 0.0753946283685533 0.790532667469845
0.295283648183483 0.0687252021451981 0.790532667469845
0.291742265709249 0.0553771720803436 0.790532667469845
0.295554012078587 0.0370158479503954 0.790532667469845
0.29252878729428 0.0275770119023137 0.790532667469845
0.303700055668948 0.00977274358724935 0.790532667469845
0.304819779014734 -0.00270944754229434 0.790532667469845
0.303456275019646 -0.00733661095395331 0.790532667469845
0.30697195836891 -0.02450400434802 0.790532667469845
0.30601540425754 -0.044226141727173 0.790532667469845
0.30926334808025 -0.0527196301456815 0.790532667469845
0.302894570182944 -0.0731293461498094 0.790532667469845
0.310151012420317 -0.0810958898865564 0.790532667469845
0.311218588046575 -0.10418625517851 0.790532667469845
0.312530626178978 -0.119151009045305 0.790532667469845
0.316304660017676 -0.119853999750424 0.790532667469845
0.31240313774811 -0.131492607324331 0.790532667469845
0.316877658933459 -0.167614396272114 0.790532667469845
0.315520277238772 -0.177398048083476 0.790532667469845
0.317677916908996 -0.18744718191167 0.790532667469845
0.322962132274189 -0.202432326687276 0.790532667469845
0.319438539424874 -0.226964766966613 0.790532667469845
0.328051130061247 -0.237306632754054 0.790532667469845
0.326277165660747 -0.254746990291434 0.790532667469845
0.331352653708473 -0.263207893258254 0.790532667469845
0.32510354355804 -0.283393495539452 0.790532667469845
0.332998416976139 -0.29035349772423 0.790532667469845
0.326489092071111 -0.304077552284829 0.790532667469845
0.334772946757558 -0.326175050814474 0.790532667469845
0.335781620122863 -0.350364825621489 0.790532667469845
0.331777183736503 -0.359653763064528 0.790532667469845
0.307387718932796 0.0138689941661388 0.00873913291193309
0.308813668867918 0.0138689941661388 0.0140265206766791
0.311439061316956 0.0138689941661384 0.0165506019127363
0.307645040122243 0.00267762635275423 0.0288080814268366
0.312699704471221 -0.00145109974513462 0.0278076189695547
0.315163471466241 -0.0099389718786988 0.0273199691056213
0.27050812395492 0.421172331006271 0.756562304762617
0.266378686852382 0.423556462629022 0.763401410831226
0.264881191028029 0.424421042246323 0.777380175031674
0.270063853122094 0.421428830891195 0.784440823352495
0.268871890457415 0.420266820925326 0.790532667469845
0.271887637582302 0.411268206778075 0.790532667469845
0.265357633645922 0.400466175265896 0.790532667469845
0.272349838311379 0.393574442275161 0.790532667469845
0.26624035377805 0.383108465983522 0.790532667469845
0.274458429686958 0.370879017645704 0.790532667469845
0.276106062367582 0.359878750180305 0.790532667469845
0.269749632777083 0.347386446377228 0.790532667469845
0.279478368056616 0.333531123486023 0.790532667469845
0.280695959893947 0.323442079691361 0.790532667469845
0.275020316437436 0.311836118130425 0.790532667469845
0.280106434301982 0.313758313096709 0.790532667469845
0.283371432926101 0.300467064883394 0.790532667469845
0.277319112354141 0.278000531160459 0.790532667469845
0.284846322581561 0.269301676290722 0.790532667469845
0.278909784575349 0.268231451870722 0.790532667469845
0.285137265468351 0.246862826715502 0.790532667469845
0.289399696718685 0.247895656315176 0.790532667469845
0.284392305814819 0.22587400510125 0.790532667469845
0.288151377648127 0.212164795183751 0.790532667469845
0.284726548033946 0.207315039200474 0.790532667469845
0.291235659776269 0.186376411889227 0.790532667469845
0.291838031793253 0.172550989757879 0.790532667469845
0.292239528333131 0.164060085565218 0.790532667469845
0.296593447318316 0.162459560780602 0.790532667469845
0.291941710076536 0.142397787857234 0.790532667469844
0.297891733359297 0.130456032441515 0.790532667469845
0.297091191888241 0.113817230620088 0.790532667469845
0.299387771025814 0.109052412208018 0.790532667469845
0.300712472449247 0.0868653840485711 0.790532667469845
0.299713462322984 0.0726575854553385 0.790532667469844
0.302265078383656 0.0662846913181259 0.790532667469845
0.301344979955988 0.063497478194345 0.790532667469845
0.303622906179275 0.0427500143765577 0.790532667469845
0.310361650066441 0.0247783781176906 0.790532667469845
0.31239884429903 0.0163763120345353 0.790532667469845
0.31393070883197 0.00206206619657979 0.790532667469845
0.307395582025628 -0.0118616350974736 0.790532667469845
0.309526128680424 -0.0233605629441681 0.790532667469845
0.314101865921511 -0.0381501429216844 0.790532667469845
0.315706581840884 -0.0600222500582932 0.790532667469845
0.311923168154205 -0.0653251796033264 0.790532667469845
0.318125176722464 -0.0811453785279212 0.790532667469845
0.315025073842699 -0.0938534716136643 0.790532667469845
0.321202390489136 -0.107554226172028 0.790532667469845
0.326529329768057 -0.133412337840463 0.790532667469845
0.32353897526554 -0.1440944154343 0.790532667469845
0.323204692402791 -0.146338741356652 0.790532667469845
0.326698067408323 -0.169807937955782 0.790532667469845
0.330483381534772 -0.188490324668796 0.790532667469845
0.3339226341253 -0.201778432223975 0.790532667469845
0.329020255230396 -0.221758648191009 0.790532667469845
0.337197923863908 -0.241154568786481 0.790532667469845
0.335991892795167 -0.252182075760357 0.790532667469845
0.334810978847321 -0.264601615031875 0.790532667469845
0.340129999632701 -0.272775832437302 0.790532667469845
0.337309305271135 -0.307113536132573 0.790532667469845
0.338094822641512 -0.324695245161988 0.790532667469845
0.347087477987794 -0.341570916811137 0.790532667469845
0.344870796370611 -0.35440026221725 0.790532667469845
0.344774086693347 -0.358721682437756 0.790532667469845
0.315667402491874 0.0138689941661384 0.00721558445993952
0.318843472993919 0.00791084886461312 0.026591591686866
0.320660058624594 -0.00087697884745696 0.0262320375011767
0.322714567474073 -0.00948304281641902 0.0258253915143921
0.275554054389067 0.418259061711804 0.755771078430369
0.272366278092564 0.420099525214706 0.765694851566191
0.272584443377269 0.419973567428854 0.769013652398732
0.276237647605517 0.41786438898427 0.776451047149627
0.272246608785303 0.420168616321467 0.790290497287392
0.278130849602648 0.413251287668496 0.790532667469845
0.278818727977623 0.403297048859226 0.790532667469845
0.280939046821134 0.383513992471343 0.790532667469845
0.283869484790655 0.382042032101605 0.790532667469845
0.279153757998702 0.375193009154654 0.790532667469845
0.279812640054623 0.363129335733698 0.790532667469845
0.282151508781478 0.34886567615741 0.790532667469845
0.286279828892011 0.336669848222939 0.790532667469845
0.282188737792491 0.335634213447354 0.790532667469845
0.285869805803826 0.319562357412331 0.790532667469845
0.290328441088813 0.300382965969902 0.790532667469845
0.285578618164224 0.290537454174711 0.790532667469845
0.291365243307226 0.278377874216922 0.790532667469845
0.286271329123585 0.274746991310298 0.790532667469845
0.295233325098142 0.263860350545959 0.790532667469845
0.290947468761448 0.249561742392266 0.790532667469845
0.296079955614213 0.241558739347184 0.790532667469845
0.299206019197107 0.224787196509387 0.790532667469844
0.298582825231413 0.222874731122899 0.790532667469845
0.296502401807692 0.203339331516981 0.790532667469844
0.298699531464479 0.19013656172026 0.790532667469845
0.296660808147612 0.183297270477761 0.790532667469845
0.304941476753024 0.169542380298328 0.790532667469845
0.302945374434525 0.145565404715152 0.790532667469844
0.301675729300783 0.14637420635811 0.790532667469845
0.302357794818607 0.123354723323692 0.790532667469845
0.310581112116173 0.110445906870048 0.790532667469845
0.307458445927975 0.109509741282638 0.790532667469845
0.310683887147609 0.0981483024896667 0.790532667469845
0.312844044186984 0.0716730670948951 0.790532667469844
0.308423296227249 0.0666651745503355 0.790532667469845
0.310996837914242 0.048385262410454 0.790532667469845
0.316309601857667 0.0430898359047326 0.790532667469845
0.319606445571802 0.0294040620647688 0.790532667469845
0.316835933032534 0.0104406506094702 0.790532667469845
0.321351832171965 -0.00889175908630479 0.790532667469845
0.320931530187823 -0.0141053652190806 0.790532667469845
0.326698099963982 -0.0269694512433286 0.790532667469845
0.329084833383274 -0.0441203322118003 0.790532667469845
0.320491500151197 -0.0480935973746307 0.790532667469845
0.329144539815548 -0.0715872854007058 0.790532667469845
0.331327051970467 -0.0899151686481523 0.790532667469845
0.32683124050847 -0.0944084241129604 0.790532667469845
0.332478046668354 -0.108934377548649 0.790532667469845
0.32897111581321 -0.129791830844453 0.790532667469845
0.339067791133099 -0.141469494705846 0.790532667469845
0.341105323041556 -0.168007924488761 0.790532667469845
0.342690418671599 -0.175455107869698 0.790532667469845
0.340173503290118 -0.187465614333447 0.790532667469845
0.342935060954343 -0.191873358199266 0.790532667469845
0.340886025178152 -0.224801411465212 0.790532667469845
0.350470306935412 -0.238453561322472 0.790532667469845
0.340671307903113 -0.239927135589673 0.790532667469845
0.347675111470157 -0.2674190706518 0.790532667469845
0.349664344269645 -0.276784797298156 0.790532667469845
0.347319790046004 -0.298046155238111 0.790532667469845
0.349776330464003 -0.316958290998384 0.790532667469845
0.360126399553126 -0.327356330277657 0.790532667469845
0.353941627117414 -0.347038704734727 0.790532667469845
0.327954761541863 0.0138689941661388 0.00485447665171004
0.326416035184457 0.0119692724715294 0.0250927653249141
0.326788617942622 0.00282747311180809 0.025019020554532
0.328653085666077 0.00169461780409752 0.0246499891349659
0.287785454387426 0.411197259630185 0.756599036074241
0.281047378105011 0.415087489785658 0.76500424279897
0.288006813581266 0.411069457840034 0.772163856531601
0.287568457382385 0.411322542909459 0.786843959980591
0.28052380012707 0.414252724451049 0.790532667469845
0.286038046170139 0.404359474040578 0.790532667469845
0.283242968824615 0.383520717237942 0.790532667469845
0.289599603562012 0.386782216280207 0.790532667469845
0.291675553372375 0.372942444845891 0.790532667469845
0.287188167110188 0.353023940396157 0.790532667469845
0.295858800179193 0.348644949821324 0.790532667469845
0.292409553169263 0.330491447565838 0.790532667469845
0.297380876439872 0.335395395228376 0.790532667469845
0.294106308916875 0.314660418615389 0.790532667469845
0.298565789156922 0.301852072084832 0.790532667469845
0.294353196751405 0.289668256317291 0.790532667469845
0.303090924608913 0.286980251877061 0.790532667469845
0.301998192099809 0.275048300454666 0.790532667469845
0.30082313224802 0.260173584351837 0.790532667469845
0.297978226374484 0.254501482306486 0.790532667469845
0.303699374284021 0.244373335064584 0.790532667469845
0.300974359976728 0.228497912963359 0.790532667469845
0.308239677704512 0.216666140332333 0.790532667469845
0.310872774191371 0.200907061345994 0.790532667469845
0.308760777419176 0.194131004974355 0.790532667469845
0.310630651331621 0.177899027881603 0.790532667469845
0.308863255459049 0.164149728739217 0.790532667469845
0.310346311211905 0.157578224770931 0.790532667469845
0.318474208989241 0.147205009656896 0.790532667469845
0.314250338031311 0.135732818674439 0.790532667469845
0.313731756686616 0.118421476142339 0.790532667469845
0.323182242487486 0.102777895428029 0.790532667469845
0.323799288666244 0.0985332319750393 0.790532667469845
0.316512735686609 0.0866974916573339 0.790532667469845
0.321902463790161 0.0661754596267892 0.790532667469845
0.325771839753156 0.0531906416020544 0.790532667469845
0.320118224917597 0.0457373289333479 0.790532667469845
0.327435412949932 0.0337060618896731 0.790532667469845
0.324357524328284 0.0140880533177091 0.790532667469844
0.332003266580087 0.00966948208047333 0.790532667469845
0.334871393377436 -0.0124801875420092 0.790532667469845
0.335892933418657 -0.0246743046428745 0.790532667469845
0.329334167304984 -0.0366873151549738 0.790532667469845
0.338538608672233 -0.0640627383931479 0.790532667469845
0.33383636026445 -0.0786810166784055 0.790532667469845
0.339823862156726 -0.0904597287644608 0.790532667469845
0.336195354112486 -0.0980017470748099 0.790532667469845
0.341710576450954 -0.105865589452482 0.790532667469845
0.341517823123168 -0.136535123389777 0.790532667469845
0.349810637455989 -0.142178464448311 0.790532667469845
0.343422788028531 -0.152646744615172 0.790532667469845
0.343524091896989 -0.168408452860272 0.790532667469845
0.345337354989336 -0.185450045767404 0.790532667469845
0.356309723497602 -0.208242070801119 0.790532667469845
0.35890648248567 -0.225762203539856 0.790532667469845
0.357076089010856 -0.236441040369063 0.790532667469845
0.363369919306661 -0.252686888291743 0.790532667469844
0.362948518333663 -0.269279319766657 0.790532667469844
0.366543970040429 -0.293109252855874 0.790532667469845
0.357884336323605 -0.306772538603501 0.790532667469845
0.36045677697286 -0.319773188040142 0.790532667469845
0.36109837980577 -0.324987488705195 0.790532667469845
0.294947325844941 0.407062351216288 0.756793584737074
0.297014455007303 0.405868893637948 0.77000322372935
0.292144194656788 0.408680739762341 0.78275135317262
0.296248238342749 0.406311269035486 0.782213843528171
0.297246829066253 0.405734732412461 0.788568365054548
0.294646333610189 0.39400357939686 0.790532667469845
0.30103371948729 0.385764386958009 0.790532667469845
0.298773411863874 0.368844403433234 0.790532667469845
0.301964582260123 0.363385782568172 0.790532667469845
0.296920437476812 0.341794500946865 0.790532667469845
0.298979675990393 0.337763904859094 0.790532667469845
0.306905719895179 0.330717834449913 0.790532667469845
0.302835043251027 0.32053342072001 0.790532667469845
0.310547357317842 0.296027555812261 0.790532667469845
0.307787736925477 0.29406201561124 0.790532667469845
0.308756176513247 0.292397702265003 0.790532667469845
0.310207972447721 0.271942599949757 0.790532667469845
0.310227289800956 0.257411667784507 0.790532667469845
0.31607462210982 0.250264676119545 0.790532667469845
0.315996239965093 0.228529752802608 0.790532667469845
0.312437406667354 0.225750432279181 0.790532667469845
0.319849696655045 0.221952195263374 0.790532667469845
0.318620271782725 0.20360105400134 0.790532667469845
0.316580698444518 0.194549231593039 0.790532667469845
0.319721741546726 0.177508679337085 0.790532667469845
0.318795124527891 0.162886044063136 0.790532667469845
0.325950457681087 0.152943341421348 0.790532667469845
0.321887182977062 0.139492710268568 0.790532667469845
0.329536166742011 0.129041385273736 0.790532667469845
0.329825097883982 0.120105207358096 0.790532667469844
0.332216089522663 0.0989785897223944 0.790532667469845
0.329079469395418 0.0961247040674966 0.790532667469845
0.327104383622063 0.0774219781329677 0.790532667469845
0.330552786727638 0.0739842306819099 0.790532667469845
0.336367928405041 0.0559555376993928 0.790532667469845
0.329982728532309 0.0458887122230628 0.790532667469845
0.340626585727826 0.0274301755920557 0.790532667469845
0.336540817292388 0.0215923869683627 0.790532667469845
0.335680921575131 -0.00265499354978549 0.790532667469845
0.34041947043365 -0.00486992187973713 0.790532667469845
0.341290002862144 -0.0259990947073548 0.790532667469844
0.341591837499636 -0.0391025859389777 0.790532667469845
0.347630331371983 -0.0481207867067443 0.790532667469845
0.345123241422489 -0.0794818500088294 0.790532667469844
0.35111780741436 -0.0875011163538105 0.790532667469845
0.350177030150155 -0.094477104116345 0.790532667469845
0.354753181571446 -0.112180563190361 0.790532667469845
0.356270856303652 -0.122249490354647 0.790532667469845
0.354704023769608 -0.147050686095702 0.790532667469845
0.360487103034776 -0.157396399347349 0.790532667469845
0.357935375967793 -0.165357844812635 0.790532667469845
0.360986946072681 -0.17681743492982 0.790532667469845
0.361076064907902 -0.204930560222473 0.790532667469845
0.36161311114782 -0.230524990007978 0.790532667469845
0.365327230087284 -0.240423856267905 0.790532667469845
0.367680199188851 -0.256969640809305 0.790532667469845
0.366162931413699 -0.261036169945561 0.790532667469845
0.37366989861154 -0.276259426864262 0.790532667469845
0.379261306591336 -0.294039183529836 0.790532667469845
0.372115579560532 -0.321101151708955 0.790532667469845
0.379783430682467 -0.322706473674137 0.790532667469845
0.307422164528217 0.399684616658329 0.759615976465486
0.300722189171013 0.403728232320446 0.77183521891374
0.304504258936055 0.401544653323506 0.768541420993252
0.30481703124338 0.401364074147677 0.778419013075311
0.305373644064301 0.399060128957552 0.790532667469845
0.299834676561784 0.397926788651307 0.790532667469845
0.307948684560252 0.381639232702344 0.790532667469845
0.305675172814308 0.37142667883875 0.790532667469845
0.308700210061861 0.358660173810044 0.790532667469845
0.312044080220372 0.355577875503705 0.790532667469845
0.314343206494228 0.339117159576761 0.790532667469845
0.316352189004437 0.31851339196348 0.790532667469845
0.309270686034977 0.322568624058926 0.790532667469845
0.318531232609237 0.298541127075997 0.790532667469845
0.311472352685842 0.29118772944615 0.790532667469845
0.317929125644991 0.282646215950153 0.790532667469845
0.318984419213941 0.274763320478817 0.790532667469845
0.31758532841316 0.259719155080448 0.790532667469845
0.325366833943523 0.249665803734226 0.790532667469845
0.318484519659366 0.233950980044311 0.790532667469845
0.328076455665607 0.221165057656936 0.790532667469845
0.325330671893398 0.211814899149061 0.790532667469845
0.322007170230473 0.201675350679868 0.790532667469845
0.33079043085062 0.188414770422359 0.790532667469845
0.326131855420135 0.184292645852283 0.790532667469845
0.32811931876184 0.159941802380665 0.790532667469844
0.328440205886411 0.163285662742032 0.790532667469845
0.328967418323242 0.137651130560008 0.790532667469844
0.33105981846704 0.139384875651368 0.790532667469845
0.332177057234865 0.11830805275831 0.790532667469844
0.341129733382852 0.103172487493542 0.790532667469845
0.338695029647033 0.08763093870799 0.790532667469845
0.345850054914993 0.0781860977275947 0.790532667469845
0.344323869568305 0.0688582073131517 0.790532667469845
0.34734440912725 0.051284840800996 0.790532667469845
0.346774948124498 0.0465852222162038 0.790532667469845
0.350260271260861 0.0291163988450292 0.790532667469845
0.348293779381657 0.0159486549215007 0.790532667469845
0.347766912228641 0.00388805109923461 0.790532667469845
0.357147475546372 -0.0222747023843803 0.790532667469845
0.353493777322331 -0.0280265277218307 0.790532667469845
0.359022937704079 -0.0398089184205299 0.790532667469845
0.357503934436232 -0.0529776590669068 0.790532667469845
0.352877940479877 -0.0670385111020017 0.790532667469845
0.362966805282351 -0.0919185599749627 0.790532667469845
0.359525572304057 -0.090112071961485 0.790532667469845
0.360813102108645 -0.111574598134605 0.790532667469845
0.364371780323093 -0.114829568445085 0.790532667469845
0.369215637629307 -0.133389914925449 0.790532667469845
0.372555225472282 -0.160951444020245 0.790532667469845
0.368792217784671 -0.170643526623169 0.790532667469845
0.371442049408647 -0.18258819601735 0.790532667469845
0.373868444612207 -0.193305913704911 0.790532667469845
0.372898854286596 -0.211609647716982 0.790532667469845
0.379837900468551 -0.244877040134205 0.790532667469845
0.379782956893949 -0.24573593932185 0.790532667469845
0.383791046056408 -0.269072453449052 0.790532667469845
0.384093089761839 -0.277483576240355 0.790532667469845
0.390480504940837 -0.298798090774006 0.790532667469844
0.387487824071983 -0.304135563804004 0.790532667469845
0.31170181931817 0.395404961868376 0.753042482554698
0.314799139999004 0.392307641187542 0.751916019484526
0.315805288961762 0.391301492224784 0.767283549492083
0.315287905973322 0.391818875213224 0.769875994361285
0.309857349966456 0.39724943122009 0.783233602877406
0.315750631385221 0.384484819748022 0.790532667469845
0.317728522142304 0.373936995262735 0.790532667469845
0.319264310370498 0.369574721005283 0.790532667469845
0.320416492514775 0.363802848062165 0.790532667469845
0.322074185510963 0.345939912754057 0.790532667469845
0.316021489931423 0.342508489926997 0.790532667469845
0.319186721212241 0.322226209160643 0.790532667469845
0.327054936830924 0.315266695488203 0.790532667469845
0.323085850280909 0.303689051745115 0.790532667469845
0.326438765060773 0.297633228785475 0.790532667469845
0.322102498405365 0.283822376322791 0.790532667469845
0.323526203478129 0.274633520666888 0.790532667469845
0.332697269528081 0.265265308231945 0.790532667469845
0.330295579323311 0.256516234048794 0.790532667469845
0.3354903225024 0.236853823922549 0.790532667469845
0.333932155464755 0.231332024336229 0.790532667469845
0.332943477267971 0.219855459736032 0.790532667469845
0.333119719839597 0.204755241962474 0.790532667469845
0.334850154955742 0.186539708998348 0.790532667469845
0.343446744791225 0.176768403023496 0.790532667469845
0.342911817660991 0.163960001732669 0.790532667469845
0.340430205121884 0.154262564692614 0.790532667469844
0.342747775708225 0.140045267397884 0.790532667469845
0.340512544402242 0.130959872271218 0.790532667469845
0.350261976171238 0.109889666141521 0.790532667469845
0.349407356997519 0.108153836082587 0.790532667469845
0.347577482633623 0.103429602009024 0.790532667469845
0.348101535005492 0.0789964708881468 0.790532667469845
0.347321120229246 0.072263661455452 0.790532667469844
0.35439935606328 0.0549631270449091 0.790532667469845
0.354591464430397 0.0390056626648341 0.790532667469845
0.354919643248007 0.0242988140812377 0.790532667469845
0.359050033682094 0.0166838912563205 0.790532667469845
0.356561119787157 0.000908759631001919 0.790532667469845
0.36150881098028 -0.0151762643039859 0.790532667469845
0.364044564890784 -0.0376623829280837 0.790532667469844
0.367161368202381 -0.036756262286778 0.790532667469845
0.36622285768396 -0.0425304318292114 0.790532667469845
0.372556468611752 -0.067630743294214 0.790532667469845
0.373772995070839 -0.0798867944624378 0.790532667469845
0.368744280184928 -0.100690243703264 0.790532667469845
0.371926507483072 -0.114311469660097 0.790532667469845
0.378517258060599 -0.128023274911523 0.790532667469845
0.374403298265274 -0.143622211178368 0.790532667469845
0.375948810851843 -0.151807214032617 0.790532667469845
0.379825968865419 -0.180444431481365 0.790532667469845
0.379097048609181 -0.194028303453947 0.790532667469845
0.387509679026362 -0.20610971665235 0.790532667469845
0.382454913262241 -0.212441915891264 0.790532667469845
0.385425716297414 -0.246041045310374 0.790532667469845
0.388048093231235 -0.258483101304017 0.790532667469845
0.393914890408379 -0.268385096856197 0.790532667469845
0.395389962295896 -0.279408476652977 0.790532667469845
0.396599632491207 -0.300406502544605 0.790532667469845
0.397915454339567 -0.304486538217805 0.790532667469845
0.320238383756864 0.386868397429681 0.751376106437827
0.318705427532766 0.388401353653779 0.757747220968696
0.325824141823452 0.381282639363093 0.765361161923148
0.318303272095211 0.388803509091335 0.787687148089986
0.326962122766715 0.380144658419831 0.787500981475739
0.326902625102369 0.373255374857219 0.790532667469845
0.32026969142756 0.372974907062359 0.790532667469845
0.321958172829048 0.352925788574247 0.790532667469845
0.326548883781905 0.352290790844682 0.790532667469845
0.328801988385729 0.335747631157099 0.790532667469845
0.32895252224144 0.326472670788054 0.790532667469845
0.333957994936206 0.31698227773626 0.790532667469845
