ply
format ascii 1.0
element vertex 849
property float x
property float y
property float z
end_header
0.297616972863204 -0.0358740287767975 0.416666666666667
0.306266231861682 -0.0245771088526075 0.416666666666667
0.323157478350702 -0.0190584411922156 0.416666666666667
0.328595569344223 -0.00722607713684784 0.416666666666667
0.341428846472235 0.00426462449535872 0.416666666666666
0.339285434533461 0.00444229463733026 0.416666666666667
0.363343168865178 0.0219476569091731 0.416666666666667
0.379643556790154 0.0333543263155416 0.416666666666667
0.381572948746356 0.0360379130187331 0.416666666666667
0.390185279836369 0.0421081592772987 0.416666666666667
0.398471565540585 0.0574405117067352 0.416666666666667
0.421651179044115 0.0697823564506072 0.416666666666667
0.425418255262274 0.0690123709870054 0.416666666666667
0.436194094071478 0.0885326786568679 0.416666666666667
0.442342286138705 0.0969458574833721 0.416666666666667
0.455103360573163 0.110569522213732 0.416666666666667
0.476143388761141 0.11918432985998 0.416666666666667
0.470234844950389 0.116940035758459 0.416666666666667
0.491835403641015 0.141592742849795 0.416666666666667
0.0237090996904015 -0.256944444444444 0.381669434307249
0.0235226020174945 -0.256944444444444 0.378762034691509
0.0106306170056581 -0.270833333333333 0.404369195203764
0.013863074205749 -0.270833333333333 0.410834435137939
0.0192946056773565 -0.259925724477889 0.416666666666666
0.0247392908993446 -0.251952610316459 0.416666666666667
0.0383719829936971 -0.251492908357407 0.416666666666666
0.0387154506657533 -0.245079262705231 0.416666666666667
0.0481544790454088 -0.237847124821972 0.416666666666667
0.0634607169991082 -0.223762632104945 0.416666666666667
0.0667935820100011 -0.217034364628121 0.416666666666667
0.0749429815917564 -0.215685134111315 0.416666666666667
0.0781816659528442 -0.205741359906306 0.416666666666667
0.0981721981738163 -0.19455040240362 0.416666666666667
0.095213574841613 -0.19289310596922 0.416666666666667
0.105240520248735 -0.185834143810399 0.416666666666667
0.11185526711205 -0.173711302337865 0.416666666666667
0.123512778603262 -0.168120505353516 0.416666666666667
0.139723379667262 -0.156871108012098 0.416666666666666
0.150837011331842 -0.151505699120569 0.416666666666667
0.153515335978334 -0.142623772078165 0.416666666666667
0.167852040307653 -0.135266684303663 0.416666666666667
0.166899117001773 -0.129079763381629 0.416666666666667
0.181600624453946 -0.118429615368485 0.416666666666667
0.182082710370491 -0.119723797747034 0.416666666666666
0.19883977714596 -0.106008630014998 0.416666666666667
0.201433364917992 -0.105941178646739 0.416666666666667
0.219319826247092 -0.095239212588811 0.416666666666667
0.219803256991999 -0.0818809443575319 0.416666666666667
0.231791303956878 -0.0778207449713258 0.416666666666667
0.241989824937974 -0.0618433152800829 0.416666666666667
0.254239102678295 -0.0571337338628956 0.416666666666667
0.268108485790647 -0.0456183509614725 0.416666666666667
0.276773233709331 -0.0412008243389222 0.416666666666667
0.27986754832397 -0.0356510625743117 0.416666666666667
0.28984442871212 -0.0204376038126417 0.416666666666667
0.300834570253971 -0.0168430512190367 0.416666666666667
0.311887545188632 -0.0131440646467588 0.416666666666667
0.323108508195046 0.00329032606566738 0.416666666666667
0.339947859874035 0.0193386577877103 0.416666666666667
0.340409094567042 0.0239852562456119 0.416666666666667
0.352477595859252 0.037180206168344 0.416666666666667
0.361165091811527 0.0364762383198057 0.416666666666667
0.372880196046388 0.0497429315507244 0.416666666666667
0.386427476243719 0.055766619111072 0.416666666666667
0.391723607250271 0.0669349473026749 0.416666666666667
0.403053342568993 0.0755689693543986 0.416666666666666
0.416575533828535 0.0856461610886372 0.416666666666667
0.428956859177844 0.0956714491232041 0.416666666666667
0.437475812694539 0.101991830101616 0.416666666666667
0.440823248502679 0.113373184271359 0.416666666666666
0.46209212114383 0.125789919984644 0.416666666666666
0.483746953032702 0.133879111258477 0.416666666666667
0.484878544422983 0.141306233566194 0.416666666666667
0.497825503686994 0.148515799773283 0.416666666666667
0.00800698249379322 -0.256944444444444 0.382386958290142
-0.00714838980467895 -0.270833333333333 0.407928853428756
-0.00763386738393415 -0.269219534348198 0.416666666666667
0.00223144104242178 -0.260040750295938 0.416666666666667
0.0109486715162681 -0.249432521304475 0.416666666666667
0.0169939534063055 -0.251920113410302 0.416666666666667
0.029501504085071 -0.238793531118971 0.416666666666667
0.0297050008077206 -0.235518553546452 0.416666666666667
0.0373473874613776 -0.227449460555613 0.416666666666667
0.0464139550041922 -0.222321016893085 0.416666666666667
0.0534294209867454 -0.216085476651195 0.416666666666667
0.0651957306677782 -0.206530647224248 0.416666666666667
0.0818698618015866 -0.194280686195004 0.416666666666667
0.0833080121633298 -0.194052399976443 0.416666666666667
0.0925490113650384 -0.182962655791673 0.416666666666667
0.0953673627592159 -0.180286700320328 0.416666666666667
0.107723063901543 -0.165123406337852 0.416666666666667
0.122814845165695 -0.155134030178766 0.416666666666667
0.129710383969402 -0.149940494102741 0.416666666666667
0.134035428990023 -0.143021472740015 0.416666666666667
0.142074933718147 -0.136920732624086 0.416666666666667
0.154237417107025 -0.130576063340212 0.416666666666667
0.158062891374295 -0.122250607133773 0.416666666666667
0.164586121160623 -0.116105181189913 0.416666666666667
0.176949948484228 -0.108703266021698 0.416666666666666
0.189101018017781 -0.0998219870736449 0.416666666666667
0.19442978157488 -0.0877482945459138 0.416666666666666
0.205361167533078 -0.0818103261970022 0.416666666666667
0.209238652099324 -0.0754122959993215 0.416666666666667
0.231108408952944 -0.0609955647025042 0.416666666666667
0.228640994017145 -0.0639246475962358 0.416666666666667
0.244051614427965 -0.0437414871370336 0.416666666666667
0.247464102217037 -0.0397919733456046 0.416666666666666
0.261351819745393 -0.0308095159003477 0.416666666666667
0.268798287690206 -0.0277968102561575 0.416666666666667
0.285504431751246 -0.0177118193402398 0.416666666666667
0.292798623581386 -0.00406300859742028 0.416666666666667
0.30861631519562 0.00358247923486389 0.416666666666667
0.313368814241304 0.0118142704579713 0.416666666666667
0.31827448702647 0.0192345252476034 0.416666666666667
0.337602972800094 0.0280262401376344 0.416666666666667
0.348743489335631 0.0355692620494894 0.416666666666667
0.356539545744583 0.0414934429080682 0.416666666666667
0.370809066184325 0.0575942306830999 0.416666666666667
0.369623810357013 0.061270246283982 0.416666666666667
0.386932894883691 0.0723979640460769 0.416666666666666
0.405501107443402 0.0827412925106741 0.416666666666667
0.408135904643759 0.0965143714448298 0.416666666666666
0.411478423830855 0.104564193726261 0.416666666666666
0.429665186140097 0.105680738493196 0.416666666666667
0.450757065178084 0.121346290495658 0.416666666666667
0.454669297356414 0.137849135891995 0.416666666666667
0.465359651429349 0.14330625216184 0.416666666666667
0.474411507995377 0.147735822492478 0.416666666666667
0.48860224743698 0.161980642065813 0.416666666666667
0.497231641101412 0.165542255973972 0.416666666666667
-0.00128808770258213 -0.256944444444444 0.37589185844454
-0.0287888100863088 -0.27037957001935 0.416666666666667
-0.0127430605598701 -0.268533033492647 0.416666666666667
-0.00359706666790817 -0.258502776296049 0.416666666666667
-0.00638936081046888 -0.256775657888351 0.416666666666667
0.0120251652659192 -0.24514262392833 0.416666666666666
0.0108579555638952 -0.24379098002653 0.416666666666667
0.0200489493604769 -0.235312549439474 0.416666666666667
0.0280368082303409 -0.229657817722046 0.416666666666667
0.0320772080085441 -0.225373880823779 0.416666666666667
0.0474371854189334 -0.206209581366775 0.416666666666667
0.0551122419247852 -0.207197844213495 0.416666666666666
0.0602641749990487 -0.198604439511603 0.416666666666667
0.0681871338270285 -0.190771865893567 0.416666666666666
0.0768795368489973 -0.186536516029413 0.416666666666667
0.0819857467755393 -0.181759732281131 0.416666666666667
0.101898338925544 -0.164798922049391 0.416666666666667
0.104094447947558 -0.157972210530895 0.416666666666666
0.115307118005617 -0.155571668461035 0.416666666666667
0.125845015877305 -0.14400903964318 0.416666666666667
0.127037012075335 -0.138574221776064 0.416666666666667
0.140322788280155 -0.128815563956015 0.416666666666667
0.145488297397335 -0.126097906214609 0.416666666666667
0.151930952555336 -0.119551766326178 0.416666666666667
0.170329809167464 -0.106350725889631 0.416666666666667
0.168751864448879 -0.101037350984009 0.416666666666667
0.186065797663081 -0.0917540515064038 0.416666666666667
0.19529837653622 -0.0814242220973353 0.416666666666666
0.201182875485339 -0.0758045051378783 0.416666666666667
0.211923708144841 -0.0656231965026882 0.416666666666667
0.213387495411419 -0.0611108823820049 0.416666666666667
0.229618774686993 -0.0502035295353935 0.416666666666667
0.234426721544409 -0.0477863048631241 0.416666666666667
0.247162790831476 -0.029364264603958 0.416666666666667
0.259221506622193 -0.0176874525725139 0.416666666666667
0.268371195256171 -0.0193269671355542 0.416666666666667
0.273460777653642 -0.0123917842816158 0.416666666666667
0.280370697484209 0.00154940057490264 0.416666666666667
0.303644837460658 0.00748558070316179 0.416666666666667
0.302259425986853 0.00962357930985401 0.416666666666667
0.318821794057031 0.0248113642058196 0.416666666666667
0.321778732145828 0.0292929278560997 0.416666666666667
0.339082960373211 0.0419909524246863 0.416666666666667
0.345652791539489 0.0521196445925837 0.416666666666667
0.362754454335774 0.0639752198961938 0.416666666666667
0.36752281074086 0.0737040393018384 0.416666666666666
0.382785937929269 0.0758887108587509 0.416666666666667
0.385050856401005 0.0891358946476514 0.416666666666667
0.404514589839645 0.0968044375989908 0.416666666666666
0.408642888465504 0.107617602902086 0.416666666666667
0.416225705828136 0.113678052353056 0.416666666666667
0.434611846654393 0.128650586276736 0.416666666666667
0.452651312273522 0.142814132927476 0.416666666666667
0.457479827416895 0.14428073034191 0.416666666666667
0.474289642353136 0.164692041381431 0.416666666666667
0.483186088255219 0.16811255768457 0.416666666666667
0.490602813677553 0.187790407349934 0.416666666666667
-0.0252862313032887 -0.256944444444444 0.378512034192746
-0.0396704559150375 -0.270833333333333 0.404194099048084
-0.0382433992503946 -0.270833333333333 0.416229126934366
-0.0271399880043716 -0.270833333333333 0.414585910440834
-0.0175537635623763 -0.255333470860274 0.416666666666667
-0.021472592060845 -0.257698758739542 0.416666666666667
-0.00204960012377545 -0.241786841742702 0.416666666666667
-0.00257026393486851 -0.241894117055099 0.416666666666666
0.0040231099695017 -0.234016302505228 0.416666666666666
0.0135533111754026 -0.226229195522369 0.416666666666667
0.0205238024493318 -0.225576627135426 0.416666666666667
0.0264926562674241 -0.209446375369255 0.416666666666667
0.0372536976627081 -0.20840186567257 0.416666666666667
0.0545851313146085 -0.1940123241089 0.416666666666667
0.0495535604044043 -0.194366725873371 0.416666666666667
0.0583965738256148 -0.184990259097867 0.416666666666667
0.0656746934428791 -0.181811610020084 0.416666666666667
0.0795482933683222 -0.171807196869283 0.416666666666667
0.0901846914731298 -0.159312137514867 0.416666666666667
0.102789968739685 -0.156915955786042 0.416666666666667
0.107824942493283 -0.152395174886218 0.416666666666667
0.109524952493682 -0.144489014868578 0.416666666666666
0.127459393772596 -0.128654968751704 0.416666666666667
0.122650995551844 -0.126118049983206 0.416666666666667
0.140286797847973 -0.119196576593402 0.416666666666667
0.142577915237486 -0.108807883515311 0.416666666666667
0.163326847379632 -0.101392464357596 0.416666666666666
0.1683340918153 -0.0960697012957551 0.416666666666667
0.172459986482766 -0.0807550687734464 0.416666666666667
0.191174205652666 -0.0726514328431685 0.416666666666667
0.184810151115062 -0.0679438987729346 0.416666666666667
0.193458276662063 -0.0662867395842615 0.416666666666667
0.212868574674625 -0.0534030101138415 0.416666666666666
0.214541109324347 -0.0484795233666308 0.416666666666667
0.232184734736925 -0.0380267052983333 0.416666666666667
0.240451462962161 -0.0234717211110518 0.416666666666667
0.249375993463063 -0.0199276600224449 0.416666666666666
0.251634088216712 -0.0179557755951376 0.416666666666667
0.268638769631357 0.00130379526181761 0.416666666666667
0.276858570612485 0.00370790366544084 0.416666666666667
0.284733742965455 0.0174262243039294 0.416666666666667
0.300750512064141 0.0236426361866573 0.416666666666667
0.309208002075874 0.036900983208424 0.416666666666667
0.319911133410686 0.0473753464197094 0.416666666666667
0.335016273104851 0.0594459769726327 0.416666666666667
0.339855194381235 0.0654248307188377 0.416666666666667
0.356354706366209 0.0721817273495374 0.416666666666667
0.35922642893485 0.0785388074356857 0.416666666666667
0.372201814358562 0.0810845863594261 0.416666666666667
0.390113390989393 0.106455143435743 0.416666666666667
0.400212959145044 0.107351098035589 0.416666666666666
0.40617004534695 0.123720226671567 0.416666666666667
0.415708651052049 0.134282528638813 0.416666666666667
0.433377363275566 0.14653321247933 0.416666666666667
0.438043886615077 0.14987970631687 0.416666666666667
0.43968349864029 0.15522295246022 0.416666666666667
0.453623155421902 0.160602021722854 0.416666666666667
0.471475554473335 0.174356779150864 0.416666666666667
0.482212876626351 0.185880550679634 0.416666666666667
-0.0334766070986313 -0.256944444444444 0.381222302481883
-0.031512294378853 -0.256944444444444 0.380198928622059
-0.044735304011317 -0.270833333333333 0.406672300838287
-0.0438190755137209 -0.268762353745613 0.416666666666667
-0.0384961755965076 -0.265431901292145 0.416666666666667
-0.0356130504810825 -0.25712198270898 0.416666666666667
-0.0240148338030651 -0.244269892105616 0.416666666666667
-0.0087045353308197 -0.23893672690886 0.416666666666667
-0.00869223087042762 -0.237108813182563 0.416666666666667
0.00381572427718238 -0.224666966520894 0.416666666666667
0.0131071813237694 -0.216528985260315 0.416666666666667
0.0219928429541784 -0.210416347809487 0.416666666666667
0.0230830111131981 -0.200821966351865 0.416666666666667
0.0271604806340473 -0.20535330240829 0.416666666666667
0.0420408684938316 -0.188611865640885 0.416666666666667
0.0469940870767107 -0.182873885343818 0.416666666666667
0.0557131548929172 -0.17891220421833 0.416666666666667
0.066079460384893 -0.16796178685559 0.416666666666667
0.0762744390758788 -0.161729577886335 0.416666666666667
0.0730686120938753 -0.16104615629478 0.416666666666667
0.0902961502672973 -0.147965641509649 0.416666666666667
0.0967131252586892 -0.140775552432914 0.416666666666667
0.106992663810493 -0.137104465872907 0.416666666666667
0.117874734618987 -0.123892606303338 0.416666666666667
0.122405301235968 -0.113916436836064 0.416666666666667
0.13753870881539 -0.108825407124957 0.416666666666667
0.140366909782424 -0.10995472051138 0.416666666666667
0.14630167321418 -0.0948369139394958 0.416666666666667
0.16216331596397 -0.0825734401576126 0.416666666666667
0.166476462092585 -0.0768449104072588 0.416666666666667
0.176487302757557 -0.0669523480730632 0.416666666666667
0.183536821640365 -0.0613558847553325 0.416666666666666
0.201726244459645 -0.0519406399698451 0.416666666666666
0.199375703000478 -0.0455945841460638 0.416666666666667
0.211822870377812 -0.0349579630243963 0.416666666666667
0.215115864136972 -0.0353490773917109 0.416666666666667
0.230439989190044 -0.0209778044935543 0.416666666666667
0.235209042313291 -0.013150281169277 0.416666666666667
0.255731290793985 -0.00670173902938985 0.416666666666667
0.262407456043582 0.00204529041969568 0.416666666666667
0.264201946415314 0.0116300565232631 0.416666666666666
0.279909898138805 0.0223024473140539 0.416666666666667
0.285932557598333 0.0348238467894621 0.416666666666667
0.297609796188323 0.0405772670990435 0.416666666666667
0.302853259324114 0.0468743068636089 0.416666666666667
0.321772819498838 0.0543755688684436 0.416666666666667
0.32633168686212 0.0677209385716902 0.416666666666667
0.339244861248498 0.0764586826736363 0.416666666666667
0.35768637043876 0.091103265313779 0.416666666666667
0.365676456203929 0.0984816531506412 0.416666666666667
0.380765744520861 0.110763109116885 0.416666666666666
0.379338879309955 0.112011746861841 0.416666666666667
0.397888214393038 0.119757081560004 0.416666666666666
0.403611967396376 0.140114820282023 0.416666666666667
0.423690269815363 0.15433342751296 0.416666666666667
0.435879643070519 0.154683020714891 0.416666666666667
0.443318620224543 0.16248989254892 0.416666666666667
0.44460453270443 0.168642024278484 0.416666666666667
0.462028796382804 0.190525368098695 0.416666666666667
0.465296846470334 0.188750931194768 0.416666666666667
0.487582502887593 0.201188337005017 0.416666666666667
0.495191029736492 0.217595996367668 0.416666666666667
-0.0405970630434431 -0.256944444444444 0.378597637699187
-0.0684704773699489 -0.270833333333333 0.408055050532953
-0.0614892923158315 -0.268806099563597 0.416666666666667
-0.0568924070898583 -0.26237518936227 0.416666666666667
-0.0478247582857822 -0.261321657467009 0.416666666666667
-0.0348539084798825 -0.249366786590602 0.416666666666667
-0.0330912726190573 -0.243679975207548 0.416666666666667
-0.0200575149376268 -0.231128562188121 0.416666666666667
-0.014825187127949 -0.232231841089769 0.416666666666667
-0.0110325891888812 -0.218978835745383 0.416666666666667
-0.00165788185516973 -0.215836765598635 0.416666666666666
0.00643047944573402 -0.208782519250017 0.416666666666667
0.0169642656355141 -0.199402325626517 0.416666666666667
0.029839892715606 -0.189793816435999 0.416666666666667
0.028315386365173 -0.190197439212282 0.416666666666667
0.0389987477119741 -0.171381657353808 0.416666666666667
0.0536544236331095 -0.168080380428275 0.416666666666667
0.0499942744054271 -0.166075162269186 0.416666666666667
0.0653255924100505 -0.151965778443051 0.416666666666667
0.0769861257892124 -0.150677182475991 0.416666666666667
0.085210108503024 -0.13767299872831 0.416666666666667
0.0910944108471499 -0.135290385089268 0.416666666666666
0.0989262696404563 -0.127886327774427 0.416666666666667
0.110506690748079 -0.110824673722465 0.416666666666666
0.123189813651326 -0.10865547218647 0.416666666666666
0.121209789989763 -0.10215281738078 0.416666666666666
0.132839216017672 -0.0916422130646361 0.416666666666667
0.147840744245552 -0.0805389112096765 0.416666666666666
0.15443900906289 -0.0736475828355895 0.416666666666667
0.156687115121791 -0.0697677505154436 0.416666666666667
0.162825651233354 -0.059051029897064 0.416666666666667
0.175921468556182 -0.0553061961537392 0.416666666666666
0.187322497426249 -0.0483461228824804 0.416666666666667
0.201560494180696 -0.0352337114193156 0.416666666666667
0.204184235136334 -0.0283484980656303 0.416666666666666
0.218062466579979 -0.0169198959113359 0.416666666666667
0.228524834631384 -0.0111209316308179 0.416666666666667
0.234052366126293 -0.0049671920017362 0.416666666666666
0.235499363920647 -0.00299806171949497 0.416666666666667
0.254210012387742 0.00629418159084873 0.416666666666667
0.255569413725499 0.0228157560366783 0.416666666666667
0.271451198433743 0.0313876474256117 0.416666666666667
0.292358467769008 0.0420792348038972 0.416666666666667
0.287123673124212 0.0497415364546534 0.416666666666667
0.302603610650816 0.0573097923749317 0.416666666666667
0.312833870495269 0.0713915625468478 0.416666666666667
0.326319375939357 0.0839387300172581 0.416666666666667
0.33745867350821 0.0871185347797378 0.416666666666667
0.351319275156236 0.0949134544432215 0.416666666666667
0.354552595543299 0.103749056230779 0.416666666666667
0.361162348369131 0.116712692119157 0.416666666666667
0.37420116077438 0.11753676182488 0.416666666666667
0.389001447201333 0.142623457371618 0.416666666666667
0.399219378191105 0.147751219942332 0.416666666666666
0.407234445194706 0.152871728424548 0.416666666666667
0.420410085760668 0.16993164539137 0.416666666666667
0.433876805642491 0.175117049538158 0.416666666666666
0.440255330244016 0.182272544887618 0.416666666666667
0.455472032764633 0.195065952394702 0.416666666666667
0.467579818457959 0.200310414786853 0.416666666666667
0.480332658856328 0.22092745421317 0.416666666666667
0.49897041411572 0.231525313119031 0.416666666666667
-0.079608704694902 -0.270833333333333 0.408459226557797
-0.0716814812762728 -0.270833333333333 0.409106787382471
-0.066417771787545 -0.265815097812113 0.416666666666667
-0.0706788704267373 -0.260961535807776 0.416666666666667
-0.057627977464488 -0.259468040643184 0.416666666666667
-0.0509505945859009 -0.247131937259211 0.416666666666667
-0.0477404875127818 -0.240635419824433 0.416666666666667
-0.0375081967964338 -0.236848222508046 0.416666666666666
-0.0261825809694748 -0.229124722876626 0.416666666666667
-0.0282699387092483 -0.225857842844013 0.416666666666667
-0.0122274967953538 -0.214187294543566 0.416666666666667
-0.00786576160554685 -0.211600008485386 0.416666666666667
-0.00133769363898629 -0.199230868306298 0.416666666666667
0.00125007715353586 -0.200637945832791 0.416666666666667
0.0183303169892068 -0.183176562210809 0.416666666666667
0.0221664321491991 -0.176385265769198 0.416666666666667
0.0330358307315597 -0.166362096814086 0.416666666666667
0.0378740542553142 -0.168878015120685 0.416666666666667
0.0494301952318301 -0.159426402290647 0.416666666666667
0.059586434819043 -0.151946244862082 0.416666666666667
0.0634386511938235 -0.139549462770816 0.416666666666667
0.0693831079889589 -0.132791130526664 0.416666666666667
0.0750875868261636 -0.132023015777393 0.416666666666667
0.0978283680899976 -0.113105769194459 0.416666666666667
0.108494866430951 -0.109860545618484 0.416666666666667
0.107372984232125 -0.108935112570717 0.416666666666666
0.119109617944395 -0.0975124392221695 0.416666666666667
0.128010443845262 -0.0826157404433795 0.416666666666667
0.133026242099429 -0.0746676285058821 0.416666666666667
0.146133423413303 -0.0723985133558432 0.416666666666667
0.159037606721249 -0.0639928553547113 0.416666666666667
0.163907588661298 -0.0549365354705125 0.416666666666667
0.170562666592696 -0.046221795211023 0.416666666666667
0.176321637293696 -0.0376775954212611 0.416666666666667
0.19033239407224 -0.0337233131359797 0.416666666666667
0.202105355092441 -0.020801913379334 0.416666666666667
0.213915954052984 -0.0118262788080725 0.416666666666667
0.222107213210491 -0.00746807160992246 0.416666666666667
0.232196285535558 0.00428816117733353 0.416666666666667
0.236003029415677 0.0168663466169313 0.416666666666667
0.246667984794705 0.027377447048677 0.416666666666667
0.256871855275073 0.0299329002761084 0.416666666666667
0.268365552008008 0.035700515761422 0.416666666666667
0.273006938967809 0.0394217755526756 0.416666666666667
0.279956538621469 0.0612562855193763 0.416666666666667
0.298245295171351 0.0605867046477896 0.416666666666667
0.307315203037282 0.0780884124044951 0.416666666666667
0.317612058711032 0.0892208970914514 0.416666666666667
0.318253876761923 0.0889918517399154 0.416666666666667
0.337466131661647 0.102658557923592 0.416666666666667
0.350261079959944 0.119107596055649 0.416666666666666
0.362560211865086 0.126456944417065 0.416666666666667
0.359993073310259 0.12556803167617 0.416666666666667
0.381441681254727 0.143854238168519 0.416666666666666
0.395622850757697 0.155458399794113 0.416666666666667
0.392213293359563 0.156890732492374 0.416666666666667
0.403024545099319 0.16608041062835 0.416666666666667
0.425658491796994 0.186314924944455 0.416666666666667
0.439129506093991 0.197050782915498 0.416666666666667
0.446660010320709 0.207797232579009 0.416666666666667
0.460051779902898 0.210858074666216 0.416666666666667
0.46719660271742 0.2253451468977 0.416666666666667
0.489145998631175 0.235435615270172 0.416666666666666
0.499952401103868 0.260378830562824 0.416666666666666
-0.0832384375263956 -0.256944444444444 0.376487902323758
-0.07123681225954 -0.256944444444444 0.382057275324601
-0.0794478643901025 -0.26489144298075 0.416666666666667
-0.0838094718626912 -0.258572373323807 0.416666666666667
-0.0786970309285293 -0.255756796269209 0.416666666666666
-0.0668076787318549 -0.246535598967374 0.416666666666667
-0.0584304547778512 -0.246819810850667 0.416666666666667
-0.0473110072538839 -0.235252426365975 0.416666666666666
-0.0387046805595664 -0.225034153811779 0.416666666666667
-0.0378532958205711 -0.218891728084875 0.416666666666667
-0.0249364645673662 -0.220648155267752 0.416666666666667
-0.0220139121040471 -0.20686720839068 0.416666666666667
-0.01492870020388 -0.202594699637416 0.416666666666667
-0.00501892710368074 -0.194783298638606 0.416666666666667
0.00274637297625817 -0.184819386384424 0.416666666666667
0.00824973085711083 -0.173581658316578 0.416666666666667
0.0216062447241536 -0.168246209491707 0.416666666666667
0.0225041244408105 -0.164424582052858 0.416666666666667
0.0336277397070333 -0.161701500522462 0.416666666666667
0.0367178956862539 -0.149982029078275 0.416666666666667
0.0544348855502959 -0.142046669351575 0.416666666666667
0.0605149050413608 -0.137180740191453 0.416666666666667
0.0714559314215501 -0.128144532529338 0.416666666666667
0.0702937512340051 -0.117658084464696 0.416666666666667
0.0790830054135665 -0.116062823232053 0.416666666666667
0.0982781833960593 -0.101362919338647 0.416666666666667
0.09653261032418 -0.105260214836849 0.416666666666667
0.115502457798796 -0.0863738183194251 0.416666666666667
0.120364862461814 -0.0746921775386723 0.416666666666667
0.127913569242476 -0.0725843644689618 0.416666666666667
0.1284751259652 -0.0729446303708706 0.416666666666667
0.145874111136892 -0.0561685978848154 0.416666666666667
0.163009496007742 -0.0403119557355217 0.416666666666667
0.158168666873394 -0.0458745926214891 0.416666666666667
0.171617805098129 -0.0314065210990239 0.416666666666667
0.184074084852006 -0.0204785081506446 0.416666666666667
0.186451399025076 -0.0145935787147714 0.416666666666667
0.20560484098246 -0.00296124187142073 0.416666666666667
0.20953686550274 0.00125159666526795 0.416666666666667
0.223451435021237 0.010352425305085 0.416666666666667
0.231426435530625 0.018201805160608 0.416666666666667
0.248052728868484 0.0334117017358924 0.416666666666667
0.246236287882618 0.0408473691618558 0.416666666666667
0.250162251426811 0.0379679583811418 0.416666666666667
0.265110524575556 0.0525283638779525 0.416666666666666
0.282087483410846 0.0664196554277912 0.416666666666667
0.286570845543142 0.0756966383630754 0.416666666666667
0.30535629913621 0.0841956379496922 0.416666666666667
0.304218108462601 0.0881396415336251 0.416666666666666
0.321057684960809 0.102903203713442 0.416666666666667
0.324795509628541 0.106547951079795 0.416666666666667
0.343177973718903 0.118863157060155 0.416666666666667
0.342147936109496 0.12313512435523 0.416666666666667
0.365994189325372 0.143888511815424 0.416666666666667
0.372125619745668 0.144206735876967 0.416666666666667
0.381558817133037 0.15649162508343 0.416666666666667
0.394987824478909 0.173164744561538 0.416666666666667
0.41170207988006 0.181370774220274 0.416666666666667
0.423617572127914 0.195235421688281 0.416666666666667
0.424570823621076 0.199425571363357 0.416666666666667
0.448738096847896 0.219928556414226 0.416666666666667
0.446119297051716 0.21622566851594 0.416666666666667
0.460814987470637 0.232423729484663 0.416666666666666
0.482400152139761 0.250700637747225 0.416666666666667
0.481713215460371 0.248585108249907 0.416666666666666
0.498629675896055 0.266963813911911 0.416666666666667
-0.0941795479238599 -0.256944444444444 0.377464463659784
-0.0854363511551746 -0.256944444444444 0.378287472057272
-0.103523040957819 -0.270833333333333 0.406257262257676
-0.101346402307473 -0.264034663500113 0.416666666666667
-0.0953698604936562 -0.26125302545825 0.416666666666667
-0.0887035200605811 -0.252967282292054 0.416666666666667
-0.079887096937457 -0.248044579760817 0.416666666666667
-0.0718658151468746 -0.239696239994256 0.416666666666667
-0.0704982925385106 -0.241682347739198 0.416666666666667
-0.0594176825437087 -0.233739681483196 0.416666666666667
-0.0448113550260764 -0.220810435412784 0.416666666666667
-0.0462885781408015 -0.213816644847136 0.416666666666667
-0.0300986866034396 -0.207745696416957 0.416666666666667
-0.0288864688945558 -0.197500143037229 0.416666666666667
-0.0130400288403587 -0.188033616075257 0.416666666666666
-0.00499452803540472 -0.178960760193642 0.416666666666667
-0.00721163132399915 -0.180731315532021 0.416666666666666
0.00480176647500563 -0.169806521860087 0.416666666666667
0.0151586891034954 -0.158905531765464 0.416666666666667
0.0197263789495784 -0.155423811126583 0.416666666666667
0.024593330746518 -0.151325995849119 0.416666666666666
0.0323443569075952 -0.141324998405583 0.416666666666667
0.0442958895123378 -0.136630924442059 0.416666666666666
0.0485739552742171 -0.129508058823713 0.416666666666666
0.0635180606827058 -0.112737605514391 0.416666666666667
0.068677181451606 -0.112118130522703 0.416666666666667
0.0823751791255517 -0.107508277406566 0.416666666666667
0.0866165586541063 -0.0909759281621978 0.416666666666667
0.0954022897072035 -0.0844217166643577 0.416666666666666
0.109296294439756 -0.0776050085659423 0.416666666666667
0.118856465093657 -0.0711042231160628 0.416666666666667
0.119942230042245 -0.0646377335520783 0.416666666666667
0.135223876644628 -0.0587272756432617 0.416666666666667
0.134785528825568 -0.0541725372169657 0.416666666666667
0.138208868503261 -0.0477425162835929 0.416666666666667
0.154398441110072 -0.0321840051025748 0.416666666666667
0.162335433403354 -0.0195225848107114 0.416666666666667
0.174177772301438 -0.0126203113126317 0.416666666666667
0.185449999329912 -0.00441860563799737 0.416666666666667
0.197391938463719 -0.00297034221550609 0.416666666666667
0.204402863932545 0.0127392223207588 0.416666666666667
0.210296178647838 0.0147076887919302 0.416666666666667
0.218553533128615 0.0217258577976883 0.416666666666667
0.238359875970643 0.0395603196743231 0.416666666666666
0.24394096775831 0.0456401517088829 0.416666666666666
0.257405733996621 0.0580816815186372 0.416666666666667
0.256074119962369 0.0595692082284934 0.416666666666667
0.276198978841368 0.0728470919587975 0.416666666666667
0.280477921021289 0.0847977789021029 0.416666666666667
0.292339580003081 0.0839914303414264 0.416666666666667
0.298482960115893 0.0967779936118231 0.416666666666667
0.309148902035337 0.109355491026189 0.416666666666667
0.326890499341824 0.124345650643719 0.416666666666667
0.334725053948295 0.124617309850991 0.416666666666667
0.34420257580783 0.139327372967186 0.416666666666667
0.3572729399041 0.146114029239476 0.416666666666667
0.366552381314489 0.152179621038579 0.416666666666667
0.371905460085655 0.169388414261373 0.416666666666666
0.391193624014309 0.183183836471554 0.416666666666667
0.393523989320544 0.192444466035957 0.416666666666667
0.404387225819881 0.19834134633747 0.416666666666667
0.419946022255362 0.213038707964777 0.416666666666666
0.42857799508943 0.220378867749964 0.416666666666667
0.451340039698931 0.232576867389909 0.416666666666667
0.449721519132845 0.234180007251174 0.416666666666667
0.456648670116801 0.247181081569354 0.416666666666667
0.472312429184224 0.263528668734164 0.416666666666667
0.493579093425638 0.270594171568194 0.416666666666667
-0.09507884766496 -0.256944444444444 0.376057114116701
-0.1177094034027 -0.270833333333333 0.409619441552025
-0.113055075406572 -0.267135902205543 0.416666666666666
-0.102567866273858 -0.261120683466434 0.416666666666666
-0.101419810000282 -0.261490296633384 0.416666666666667
-0.0889118995048332 -0.246606454318641 0.416666666666666
-0.0816782302957138 -0.242530259325095 0.416666666666667
-0.0800990218186951 -0.238159435301304 0.416666666666667
-0.0689936275427665 -0.226219154590781 0.416666666666667
-0.0664618564200754 -0.219644357111926 0.416666666666667
-0.0574182018544615 -0.216548006965336 0.416666666666667
-0.0515395347362826 -0.208000919966079 0.416666666666667
-0.0387999850563569 -0.203438251900663 0.416666666666667
-0.0351399540569628 -0.193520406931303 0.416666666666667
-0.0252166377851858 -0.188601896859662 0.416666666666667
-0.0151622087021867 -0.178857573979542 0.416666666666667
-0.00776444778046342 -0.17257980393509 0.416666666666667
-0.000265474763019384 -0.160271926507087 0.416666666666667
0.00509595443305309 -0.158226986632896 0.416666666666667
0.00772623267981829 -0.152963660823045 0.416666666666667
0.0211185675348941 -0.140736979602796 0.416666666666667
0.0302339182481028 -0.138861546559753 0.416666666666667
0.0407061294673379 -0.12847455548218 0.416666666666666
0.0440597719766858 -0.123152675192685 0.416666666666667
0.05357235426284 -0.116551876088667 0.416666666666667
0.0565392070827389 -0.109586702180518 0.416666666666667
0.0752742745192929 -0.0952944657793352 0.416666666666667
0.0759748538790546 -0.0922120706895693 0.416666666666667
0.0910418445588361 -0.0851510071723788 0.416666666666666
0.0992623933431604 -0.0734587349146096 0.416666666666667
0.0969968665502399 -0.0683376045756161 0.416666666666667
0.113360940902505 -0.0573435129423987 0.416666666666667
0.119517257529012 -0.0436362315382389 0.416666666666666
0.136162200510491 -0.0428865557188159 0.416666666666666
0.140557745803501 -0.0339408934112537 0.416666666666667
0.146783273620157 -0.0282502462825931 0.416666666666667
0.160887565026643 -0.0203593784162875 0.416666666666667
0.169072946262274 -0.00830717371992367 0.416666666666667
0.185769349515675 0.00811504241955403 0.416666666666667
0.189860672242626 0.00641526026767768 0.416666666666667
0.199991099880775 0.0217256580073483 0.416666666666667
0.204879101901585 0.0312011108040596 0.416666666666666
0.221059475238288 0.0372376769517437 0.416666666666667
0.222686956278736 0.0477878859541432 0.416666666666667
0.236512709836308 0.0519070342849866 0.416666666666667
0.24129873613262 0.0626754910700593 0.416666666666666
0.247577630836188 0.0705656390383596 0.416666666666667
0.264425054267865 0.0744493820606953 0.416666666666667
0.272696932548301 0.0875574045712006 0.416666666666667
0.282342922769587 0.0985466692458466 0.416666666666667
0.288493215599892 0.102514920565647 0.416666666666667
0.303817787937453 0.122273250288946 0.416666666666667
0.309150921957862 0.123421959260076 0.416666666666667
0.332802810148741 0.135877952905629 0.416666666666667
0.335708453136208 0.144452986145287 0.416666666666667
0.345580055266108 0.156613446446159 0.416666666666667
0.353275642601269 0.162581816842779 0.416666666666667
0.368189128133993 0.179832097724568 0.416666666666667
0.377262111937808 0.178772479441958 0.416666666666667
0.382956129589953 0.19530641983931 0.416666666666666
0.404561878633693 0.202303690484278 0.416666666666667
0.406721413663911 0.220626381064235 0.416666666666667
0.418383344174432 0.227240935017944 0.416666666666666
0.434405647152332 0.240281283443264 0.416666666666667
0.44996660550151 0.246970953670019 0.416666666666667
0.459944732196777 0.259721672358061 0.416666666666667
-0.130034034506565 -0.270833333333333 0.40291100745106
-0.129951659974764 -0.270833333333333 0.406605172233116
-0.124830700344275 -0.270748230389027 0.416666666666667
-0.117656550770301 -0.25757543669421 0.416666666666666
-0.114624850170943 -0.252765324577883 0.416666666666667
-0.106070934454649 -0.249430443537827 0.416666666666667
-0.102353702274125 -0.239209452572114 0.416666666666667
-0.0956345691206513 -0.237412204052212 0.416666666666667
-0.0837347346742695 -0.233759780629251 0.416666666666667
-0.0707721443138004 -0.221156385380298 0.416666666666667
-0.0768742062773966 -0.219530762466687 0.416666666666667
-0.0682930356299222 -0.207401888631484 0.416666666666667
-0.0569488773384603 -0.196608558700034 0.416666666666666
-0.0519822911871818 -0.200343617753015 0.416666666666666
-0.0391414945236572 -0.186437191987536 0.416666666666666
-0.0323098929672394 -0.179195304386764 0.416666666666667
-0.0302368082567793 -0.17168043854382 0.416666666666667
-0.0174350648841671 -0.167506413922275 0.416666666666667
-0.00234164778390202 -0.152814680694413 0.416666666666667
-0.00227852002688205 -0.155698988926482 0.416666666666667
0.0028795835874111 -0.142869836359331 0.416666666666667
0.0101948471929817 -0.138502372677656 0.416666666666667
0.0207063904937519 -0.127451463444504 0.416666666666667
0.0326557185539957 -0.122990173972108 0.416666666666666
0.0438879521726995 -0.110921998619855 0.416666666666667
0.0388949720349243 -0.112565138248694 0.416666666666667
0.0507963541073965 -0.102879446970289 0.416666666666667
0.0650415031577483 -0.0856287323882643 0.416666666666667
0.067616967682868 -0.0842913898965748 0.416666666666667
0.0855826526504125 -0.0740321839419015 0.416666666666667
0.0808221959865084 -0.0701731022348804 0.416666666666667
0.0990391453360166 -0.0544801508931301 0.416666666666667
0.102020473232684 -0.0587096268866926 0.416666666666667
0.113125969713292 -0.0350777881083251 0.416666666666667
0.122242053938777 -0.0288475544423341 0.416666666666667
0.127020512790502 -0.0292671488111756 0.416666666666667
0.134697132903732 -0.0242043150107043 0.416666666666667
0.14707680347888 -0.0113807684172615 0.416666666666667
0.162644107036243 -0.000471610759425084 0.416666666666666
0.172663518636746 0.00758296632898486 0.416666666666667
0.178545405802754 0.0230646819630487 0.416666666666667
0.195407814491429 0.0304625789934598 0.416666666666667
0.198561041966479 0.0316723994336395 0.416666666666667
0.208872306454746 0.0424417457814529 0.416666666666667
0.211383286825742 0.0464284518337109 0.416666666666667
0.227952074247381 0.0616369725569412 0.416666666666667
0.232139041355728 0.0713697933627159 0.416666666666667
0.250780760540806 0.0851245927851032 0.416666666666667
0.257794894835916 0.0852097151577102 0.416666666666667
0.265460067005064 0.0998075828524712 0.416666666666667
0.28219996291868 0.109541247296744 0.416666666666667
0.287203757487363 0.113433837004453 0.416666666666667
0.293734047200857 0.124519960197482 0.416666666666667
0.31072983891197 0.141784098318846 0.416666666666667
0.318239184812245 0.150481943843877 0.416666666666667
0.325471115665514 0.154981837458149 0.416666666666667
0.338785162621592 0.165716819916595 0.416666666666666
0.342470809285859 0.170172814785914 0.416666666666667
0.35697459891179 0.181950951684419 0.416666666666667
0.368774910075267 0.191192591604041 0.416666666666667
0.385641406391709 0.20772225652181 0.416666666666667
0.391472659078975 0.216239669144436 0.416666666666667
0.409621561294883 0.23053841328738 0.416666666666667
0.413759522887918 0.240742677438153 0.416666666666667
0.418362553758751 0.241137594608714 0.416666666666667
0.43461649621135 0.25814853112806 0.416666666666666
0.455793463767296 0.270644171080018 0.416666666666667
-0.129343084388046 -0.256944444444444 0.375271768727417
-0.144426051011719 -0.270833333333333 0.403955711175018
-0.143311943720534 -0.270833333333333 0.405404057580781
-0.14398394511786 -0.268026153714393 0.416666666666667
-0.13061785169139 -0.260962833855741 0.416666666666667
-0.125151791910632 -0.254851983243711 0.416666666666666
-0.116518172979587 -0.244858622120135 0.416666666666667
-0.110939620673246 -0.244252530140343 0.416666666666667
-0.102542548777151 -0.23310200276936 0.416666666666667
-0.0988592164826284 -0.229434757290396 0.416666666666666
-0.0943991350763554 -0.22700467025446 0.416666666666667
-0.0823636344145689 -0.21623661411132 0.416666666666667
-0.0789225992482607 -0.214400824484565 0.416666666666667
-0.0706074207224092 -0.19938431255015 0.416666666666667
-0.0596191958019188 -0.194631454554761 0.416666666666667
-0.0527675516253685 -0.188490381728034 0.416666666666667
-0.048149114513985 -0.17865542699901 0.416666666666666
-0.039695067719864 -0.175098850492139 0.416666666666667
-0.0357354765374193 -0.164510366350305 0.416666666666667
-0.0241436411560961 -0.163745237249003 0.416666666666667
-0.016041257428744 -0.149737546262203 0.416666666666667
-0.0147294802034627 -0.151890955607584 0.416666666666667
-0.00494622448366569 -0.143207856679407 0.416666666666667
0.00646493259298889 -0.13319636304239 0.416666666666667
0.012309036305439 -0.124830515060698 0.416666666666667
0.0295475153295147 -0.109409650533824 0.416666666666667
0.0364836621342122 -0.108508568690964 0.416666666666667
0.0439195502811403 -0.101328411432203 0.416666666666666
0.052876245995297 -0.086666375813235 0.416666666666667
0.057036063108561 -0.0814746131907486 0.416666666666667
0.0670595742450034 -0.0709197077000493 0.416666666666667
0.07077572329918 -0.0754527989094355 0.416666666666667
0.0884631732466471 -0.0617386217044455 0.416666666666667
0.0870218373983314 -0.0553520116627594 0.416666666666666
0.0983284439197206 -0.0418910305760155 0.416666666666667
0.113771184914661 -0.0332381475184088 0.416666666666667
0.119525931589871 -0.0287798613750312 0.416666666666667
0.127488540846776 -0.021156646350752 0.416666666666666
0.128552611082735 -0.0117214971689581 0.416666666666667
0.144053753122101 -0.004980793604072 0.416666666666667
0.156127927138746 0.00975988600325494 0.416666666666667
0.15981792201738 0.0147153115007467 0.416666666666667
0.171677088771604 0.0210925732664976 0.416666666666667
0.185326400611687 0.0341541108184664 0.416666666666667
0.186486976438162 0.0384634151817598 0.416666666666667
0.194892360250847 0.0455096540561332 0.416666666666667
0.205176845157169 0.0567987861219565 0.416666666666666
0.225237915410607 0.0715580055515991 0.416666666666667
0.230652404378492 0.0812805844332308 0.416666666666667
0.236420491656128 0.078258518745675 0.416666666666667
0.253042248245369 0.0959263679224876 0.416666666666667
0.258908662899956 0.104456109839174 0.416666666666667
0.270770443741191 0.114020504709331 0.416666666666667
0.27994119322906 0.128722668093646 0.416666666666667
0.290748779811497 0.131170847079785 0.416666666666667
0.298285444052829 0.150020194872418 0.416666666666667
0.311126678018729 0.15381744125688 0.416666666666667
0.313241232026421 0.162623967329209 0.416666666666667
0.329198146444901 0.167945458411433 0.416666666666667
0.337065967071534 0.183906907520029 0.416666666666666
0.35257709281944 0.192017868047043 0.416666666666667
0.368440121486772 0.204186590038516 0.416666666666667
0.380822075727848 0.221101291816066 0.416666666666667
0.393412361795737 0.228867166560184 0.416666666666667
0.390259145073448 0.236400666868349 0.416666666666667
0.406951402489406 0.249713265924539 0.416666666666666
0.420178791839878 0.246230805113281 0.416666666666667
0.42844437327454 0.255052121064039 0.416666666666667
-0.140993898169241 -0.256944444444444 0.37964078101489
-0.155121962382575 -0.270833333333333 0.406930549183464
-0.152776402707811 -0.26994256482777 0.416666666666667
-0.146934214316243 -0.258846860938012 0.416666666666667
-0.134722011644979 -0.24977936961428 0.416666666666667
-0.136779957964191 -0.252285597482705 0.416666666666667
-0.124044439657236 -0.244097823068224 0.416666666666667
-0.121600384218378 -0.235677458799329 0.416666666666667
-0.114063746502931 -0.22300276556581 0.416666666666667
-0.113468153756455 -0.229923119359735 0.416666666666667
-0.096786911224876 -0.21680235153229 0.416666666666667
-0.0874556392972787 -0.206643954750083 0.416666666666667
-0.0869793374725195 -0.209586414699271 0.416666666666667
-0.0715475898408401 -0.199316007776714 0.416666666666666
-0.0676444281233633 -0.191606994301516 0.416666666666667
-0.0589606648160109 -0.17745210512885 0.416666666666666
-0.0530053411863753 -0.173612035751492 0.416666666666666
-0.0438135288046628 -0.165805827960831 0.416666666666667
-0.0396651195535474 -0.161597073591648 0.416666666666667
-0.0311533892212302 -0.147557719397196 0.416666666666667
-0.0208532067308042 -0.14557389152576 0.416666666666666
-0.0201602999695806 -0.138362687512725 0.416666666666667
-0.00431869239591309 -0.130207185580985 0.416666666666667
0.00598734012686225 -0.117823986743473 0.416666666666667
0.00887614091930056 -0.115489376971208 0.416666666666667
0.0160623711000803 -0.102001508572917 0.416666666666667
0.0256639620955389 -0.0989830219521855 0.416666666666666
0.0319597043120557 -0.0931235912650043 0.416666666666667
0.0433101310997929 -0.0857278678373886 0.416666666666667
0.0510931759043142 -0.077227937139636 0.416666666666667
0.06635396372994 -0.0686413792295 0.416666666666667
0.0650298879089765 -0.0562043492186931 0.416666666666667
0.0773311349669825 -0.0576241156637784 0.416666666666667
0.0838407780691963 -0.0442253321312675 0.416666666666667
0.0909497034841143 -0.0318179233786659 0.416666666666667
0.106406783666727 -0.0255179313279704 0.416666666666667
0.107810723783463 -0.0215750437600487 0.416666666666667
0.121294149417041 -0.0178721149210475 0.416666666666667
0.1258464439228 -0.000636177540052344 0.416666666666667
0.144466136166225 0.0100547057577604 0.416666666666667
0.154087652205943 0.02190831806784 0.416666666666667
0.163659920177815 0.0264165444876768 0.416666666666667
0.169188182179268 0.0351291746930886 0.416666666666667
0.169568194047997 0.0421119646933187 0.416666666666667
0.188629335396935 0.0484155919178458 0.416666666666667
0.187009651697996 0.0568865558790179 0.416666666666667
0.205596504285387 0.0655253302550867 0.416666666666667
0.204549245264062 0.0719696258990176 0.416666666666667
0.222396020913451 0.0857386358596489 0.416666666666666
0.232610060449086 0.0867425725658915 0.416666666666667
0.237934850928753 0.104306889100956 0.416666666666667
0.247538978357964 0.108843476320534 0.416666666666667
0.265073164825656 0.116995531860311 0.416666666666667
0.276185839841542 0.132502794374058 0.416666666666667
0.279630048271423 0.141743710180946 0.416666666666667
0.284486995722225 0.142939048160337 0.416666666666667
0.309612372638458 0.169961069387158 0.416666666666667
0.309233668321611 0.172393790471003 0.416666666666667
0.33096724033744 0.186377420647838 0.416666666666667
0.333785030254826 0.186138931300022 0.416666666666667
0.333396827583934 0.195842944209224 0.416666666666667
0.349722557385412 0.206256034516401 0.416666666666667
0.367517574477409 0.227496935930421 0.416666666666667
0.368114894559924 0.229174553133524 0.416666666666667
0.384782021172842 0.243821835254111 0.416666666666667
0.401511825116655 0.257638303862956 0.416666666666667
0.416740816958662 0.268241992022574 0.416666666666667
0.41247231119832 0.266811660748302 0.416666666666667
-0.159172565557243 -0.256944444444444 0.375571656733532
-0.174466815588314 -0.270833333333333 0.404310746704056
-0.171322540216394 -0.270833333333333 0.415818422061894
-0.169399574660036 -0.270833333333333 0.415623901110334
-0.159012320571746 -0.261925377350574 0.416666666666667
-0.155661750270215 -0.254198445257405 0.416666666666667
-0.143985925185639 -0.250359865414158 0.416666666666666
-0.139048880933022 -0.245916648058026 0.416666666666667
-0.134520324849566 -0.235989627174207 0.416666666666667
-0.125340664235085 -0.23022659623428 0.416666666666667
-0.117083228989266 -0.218231694505757 0.416666666666667
-0.106264589495033 -0.215815758694803 0.416666666666667
