ply
format ascii 1.0
element vertex 861
property float x
property float y
property float z
end_header
0.109396968578544 0.103793916713972 0.790532667469845
0.0927591598951312 0.108956937434543 0.790532667469845
0.0780853549633871 0.10324664464973 0.790532667469845
0.0699366977142159 0.108708982817708 0.790532667469845
0.0546040508930316 0.10654675571816 0.790532667469845
0.0460613292159313 0.10415040735323 0.790532667469844
0.0289352780636094 0.104484508317792 0.790532667469845
0.0129570583267833 0.109950006339885 0.790532667469845
0.00043116046737085 0.109737885625106 0.790532667469844
-0.00889269163924337 0.110245226397918 0.790532667469845
-0.0331093393843494 0.113214608276491 0.790532667469845
-0.0355308231967727 0.114957968492438 0.790532667469845
-0.0587335300170824 0.111894588851346 0.790532667469845
-0.0718318548176346 0.109337350588035 0.790532667469845
-0.0726237251086961 0.110966366522869 0.790532667469845
-0.100865865636126 0.111841618105927 0.790532667469845
-0.11484597860291 0.111393029511634 0.790532667469845
-0.116380785049659 0.110660250144648 0.790532667469844
-0.147490524958713 0.112677722848612 0.790532667469845
-0.152765947306131 0.119728927339271 0.790532667469845
-0.16984482094751 0.115805055040986 0.790532667469845
-0.186460141185941 0.117050251167179 0.790532667469844
-0.194918618529087 0.114188412958052 0.790532667469845
-0.21474473663219 0.120265781255436 0.790532667469845
-0.237584884116405 0.122567462166482 0.790532667469845
-0.258196935550411 0.124579853436112 0.790532667469845
-0.268370244090336 0.121154896337122 0.790532667469845
-0.280010852565342 0.119793584841438 0.790532667469845
-0.291246497220242 0.123816876861271 0.790532667469845
-0.317284691357012 0.118735867537914 0.790532667469845
-0.326869606709647 0.126191959063788 0.790532667469845
-0.352163785220781 0.122793708065686 0.790532667469845
-0.358349922647409 0.11778407451459 0.790532667469845
-0.376976530972592 0.124877219465169 0.790532667469845
-0.40143553255938 0.120093892773807 0.790532667469845
-0.412567770757214 0.124091365962627 0.790532667469845
-0.439660490073998 0.127778978130905 0.790532667469845
-0.449507866752479 0.131666007420193 0.790532667469845
-0.465586837882224 0.126091421981802 0.790532667469845
0.0138689941661373 0.118972445213057 0.0101556997142202
0.0138689941661373 0.116253506230884 0.0146305801648412
0.0138689941661373 0.123460975936722 0.0220978727724021
0.0138689941661373 0.114951437874494 0.0310131495681584
0.0138689941661377 0.117089112394757 0.0447066747723602
0.0138689941661369 0.118748641137015 0.0562061811369251
0.0138689941661373 0.122610917720281 0.0630633690615431
0.00104965510233233 0.11926734109456 0.0664702266705889
-0.00377381743566553 0.117140296627628 0.0668912295279925
0.491852812245653 0.0962319674317157 0.749690178011567
0.490163665824842 0.102535947695608 0.758358690223544
0.489958685090252 0.103300946211667 0.763674369135824
0.491755591001188 0.0965948020556346 0.782759534762634
0.490593750246303 0.100930850783169 0.785267845706228
0.486743844956534 0.101559796650686 0.790532667469845
0.480738705668852 0.100559359815026 0.790532667469845
0.466019076498413 0.100929593315784 0.790532667469845
0.464406990616131 0.0981337361794305 0.790532667469845
0.44782103082636 0.0985750981189379 0.790532667469845
0.440148082477633 0.105837478056327 0.790532667469845
0.427543508568466 0.104486117595374 0.790532667469845
0.413117180684778 0.104320238189865 0.790532667469845
0.410204251170748 0.106383637700631 0.790532667469845
0.395757515190251 0.107445042234729 0.790532667469845
0.382001384101195 0.107817991727597 0.790532667469845
0.381434685743975 0.103883845667992 0.790532667469845
0.368137072050402 0.10710881659105 0.790532667469845
0.358246078305729 0.10811870244608 0.790532667469845
0.356379526983907 0.103435235006235 0.790532667469845
0.339667338888742 0.103383568603247 0.790532667469845
0.335411423671443 0.110225611724999 0.790532667469845
0.319328373243023 0.110583408202161 0.790532667469845
0.304577539145501 0.104315809903039 0.790532667469845
0.292094436391095 0.107650411528279 0.790532667469845
0.278769411287884 0.110394091072755 0.790532667469845
0.275006437436732 0.111160359719382 0.790532667469845
0.26831967077469 0.112838601494362 0.790532667469845
0.245757596319465 0.109479996314598 0.790532667469845
0.236032218341244 0.110829250401341 0.790532667469845
0.222306311504735 0.113913274960798 0.790532667469845
0.212242692588628 0.111085257188606 0.790532667469845
0.201068396190976 0.114380266993047 0.790532667469845
0.189125904704047 0.110908352778153 0.790532667469845
0.185960422606465 0.107861015024488 0.790532667469845
0.172716305184124 0.108954039310564 0.790532667469845
0.147785623983178 0.113847682132239 0.790532667469845
0.143346304385647 0.112988083718934 0.790532667469845
0.123554420371883 0.112712116645878 0.790532667469845
0.118821758768006 0.117104884514936 0.790532667469845
0.110606968952415 0.113160493732567 0.790532667469845
0.0904127612438256 0.114556674294138 0.790532667469845
0.0755570391062788 0.117284503838942 0.790532667469844
0.0766975588259066 0.114687785019632 0.790532667469845
0.0506568465314037 0.12018711881978 0.790532667469845
0.0349792279845142 0.119351541691727 0.790532667469845
0.0288826880211457 0.117253810707797 0.790532667469845
0.0137659491289008 0.121612635192306 0.790532667469845
-0.00692185019615697 0.121315694136704 0.790532667469844
-0.00310515937816732 0.115424643125515 0.790532667469845
-0.0275433302985592 0.124431799468274 0.790532667469845
-0.0434887224050986 0.126265562821833 0.790532667469845
-0.0577437184017461 0.124542775072936 0.790532667469845
-0.0672241386921254 0.123203333971751 0.790532667469844
-0.08648255938165 0.120661863752796 0.790532667469845
-0.0912120741055772 0.124579037186536 0.790532667469845
-0.102652667388573 0.119963404176223 0.790532667469845
-0.120610056407164 0.123878258702177 0.790532667469845
-0.137951853496569 0.121025795588943 0.790532667469845
-0.163410591600833 0.125799776182157 0.790532667469845
-0.173788645417251 0.126211829179111 0.790532667469845
-0.183921453556104 0.123854384206966 0.790532667469845
-0.198746233510527 0.124716990923847 0.790532667469845
-0.217632692143307 0.132817528653242 0.790532667469845
-0.226881226618791 0.124453936120231 0.790532667469845
-0.255547727174686 0.126148032882432 0.790532667469845
-0.265023819512363 0.132120454617747 0.790532667469845
-0.28043073854572 0.136194051162959 0.790532667469845
-0.296471330830833 0.130813945074796 0.790532667469845
-0.31178916035401 0.129496400643903 0.790532667469845
-0.335031878889882 0.130016865426658 0.790532667469845
-0.339504714369714 0.130358874894374 0.790532667469845
-0.37142946116306 0.134786696807995 0.790532667469844
-0.379183452101858 0.134192096805058 0.790532667469845
-0.393508898728902 0.140211752652307 0.790532667469845
-0.409559460710889 0.142203798410688 0.790532667469845
-0.426679518813444 0.133311216807767 0.790532667469845
-0.455516602825222 0.138948406318352 0.790532667469845
-0.4743428439763 0.138269601521327 0.790532667469845
0.0138689941661369 0.131477065182529 0.0101358598667305
0.0138689941661369 0.12981766180302 0.0128275254934783
0.0138689941661373 0.124921632206444 0.0279372033485599
0.0138689941661373 0.128868134914928 0.0402523722978947
0.0138689941661369 0.129993491490486 0.0502482416117886
0.0138689941661373 0.126473246502814 0.0533624184040384
0.0138689941661373 0.129103612629386 0.0636142314651226
0.0038538783513911 0.126634021270482 0.0650121502401916
-0.0115725784046463 0.132685048229897 0.0638144791619689
0.488436181392104 0.108983007367867 0.759050843562918
0.489205911346044 0.106110336071654 0.76134726352592
0.488867103625064 0.107374783700348 0.775163894279394
0.489411655824008 0.10534248722652 0.781384453028335
0.487352894595444 0.112617452154792 0.790532667469845
0.475721417512915 0.105715556941005 0.790532667469845
0.473420588667759 0.113247153041418 0.790532667469845
0.458454363684015 0.107667570107963 0.790532667469845
0.454411057420847 0.114070741519926 0.790532667469845
0.440786884620252 0.111062024393302 0.790532667469845
0.427193144121361 0.11064536237054 0.790532667469845
0.416875855975108 0.113795535535808 0.790532667469845
0.407895838198196 0.114378003365228 0.790532667469845
0.407149416410485 0.11177262427561 0.790532667469845
0.390344550080923 0.109854501316718 0.790532667469845
0.375767808146934 0.109327253515752 0.790532667469845
0.364747842976099 0.113854342309845 0.790532667469845
0.359609903224173 0.111703375244274 0.790532667469845
0.35375748731794 0.118605173218624 0.790532667469845
0.336449398914837 0.112856564282951 0.790532667469845
0.329542051152623 0.119942669633756 0.790532667469845
0.316155794860657 0.117469865570547 0.790532667469845
0.309785242938666 0.120003237205479 0.790532667469845
0.294332211288576 0.118519257065325 0.790532667469845
0.284242810209303 0.121236375237664 0.790532667469845
0.277806352217813 0.122251229553056 0.790532667469845
0.253545545903204 0.115720945595894 0.790532667469845
0.248010473059149 0.119347201128938 0.790532667469845
0.242918839194578 0.118757580809108 0.790532667469845
0.233582711227401 0.115644289638242 0.790532667469845
0.212125233333808 0.122047867860073 0.790532667469844
0.2017355485361 0.125139022873985 0.790532667469845
0.19073410680025 0.118594884064606 0.790532667469845
0.182005782504308 0.126007184911645 0.790532667469845
0.171866245453848 0.117977763298093 0.790532667469845
0.148104293167229 0.121118138022167 0.790532667469845
0.138513697930405 0.123907651126206 0.790532667469845
0.134158261104832 0.122933093324428 0.790532667469845
0.11736173236812 0.124685763681214 0.790532667469845
0.107034351595295 0.122291399523791 0.790532667469845
0.0876236864505664 0.121759312766865 0.790532667469845
0.0859536975396001 0.130615797066014 0.790532667469845
0.0711121696644068 0.129723136560103 0.790532667469845
0.0536374327781095 0.125412197772729 0.790532667469845
0.0430598970301289 0.12789103685263 0.790532667469845
0.0282560291038995 0.128772946521419 0.790532667469845
0.0041971573833934 0.129330168805544 0.790532667469845
0.00338154798889581 0.132501491013035 0.790532667469845
-0.00862491125687495 0.133121109872466 0.790532667469845
-0.0228531039973478 0.135008668720095 0.790532667469845
-0.0463503673553885 0.129576399769416 0.790532667469845
-0.0572501477145509 0.135557979386321 0.790532667469845
-0.0625475872587357 0.133288861063328 0.790532667469845
-0.0777047858059245 0.133651176472098 0.790532667469845
-0.0906591848995175 0.131852140761314 0.790532667469845
-0.111166317371494 0.130382970041446 0.790532667469845
-0.126153484983793 0.133970397835774 0.790532667469845
-0.140600478267296 0.138407962777848 0.790532667469845
-0.15678097503971 0.132102151561008 0.790532667469845
-0.180193027113816 0.136042419670328 0.790532667469845
-0.179653889374171 0.137144745416518 0.790532667469845
-0.203397486043577 0.136198113399968 0.790532667469845
-0.213327718585625 0.135932300589249 0.790532667469845
-0.225675605719596 0.142680550587164 0.790532667469845
-0.241478326828422 0.143878907165126 0.790532667469845
-0.257213793103342 0.135735735112017 0.790532667469845
-0.27746412939888 0.138728385909726 0.790532667469845
-0.291440546667634 0.143294900792242 0.790532667469845
-0.31299907425278 0.143532308527339 0.790532667469845
-0.325107821256468 0.145514060415648 0.790532667469845
-0.349860625712353 0.147548241111704 0.790532667469845
-0.361171705406132 0.142775919843051 0.790532667469845
-0.388493990510324 0.150304949314517 0.790532667469845
-0.405060458883223 0.152552408409937 0.790532667469845
-0.415817805779174 0.153158027802621 0.790532667469845
-0.444912764869422 0.154864998879127 0.790532667469845
-0.456610525857957 0.146735779690773 0.790532667469845
-0.461691330086811 0.154246293175746 0.790532667469845
0.0138689941661373 0.135968423516196 0.00745741479649252
0.0138689941661369 0.142067044919228 0.0159775035391635
0.0138689941661377 0.137688327256896 0.0202922591462293
0.0138689941661369 0.13602080887026 0.0368182185874625
0.0138689941661377 0.135299871078493 0.0441361675620227
0.0138689941661373 0.134797427985609 0.0511253154152121
0.0121691593163981 0.137998914294524 0.0627627132812609
0.00398935255137304 0.141367721222902 0.0620959301627432
-0.007512645586721 0.139700643121637 0.0624258925377934
0.486370104076488 0.116693712882113 0.752250077032002
0.485297596948162 0.120696363976504 0.762834875115494
0.486461786674101 0.116351548769652 0.768197737822442
0.486797087761335 0.115100188076262 0.784838398810068
0.487211229059857 0.113554591708665 0.789331946647181
0.482424908355827 0.12086535973435 0.790532667469845
0.475359872093714 0.121458973985866 0.790532667469845
0.457258524971486 0.120339773811523 0.790532667469845
0.452587119716592 0.119232283732452 0.790532667469845
0.442254089032452 0.116479004449871 0.790532667469845
0.433706655731197 0.119682632164176 0.790532667469845
0.415612344091101 0.120219502428279 0.790532667469845
0.409155918826777 0.122090626740139 0.790532667469845
0.3947988569742 0.118049955410106 0.790532667469845
0.39538243524831 0.125762683737843 0.790532667469845
0.374671572506499 0.118764143387755 0.790532667469845
0.366190748025173 0.121986757489664 0.790532667469845
0.360367168247057 0.119288107864083 0.790532667469845
0.34616075183804 0.125474201969565 0.790532667469845
0.334533758949555 0.124931369109224 0.790532667469845
0.322700335846341 0.122256566428059 0.790532667469845
0.32089458522012 0.128286999943439 0.790532667469845
0.313316961288335 0.125739746223433 0.790532667469845
0.296235055095975 0.130593795650697 0.790532667469845
0.284429154769285 0.131021605078368 0.790532667469845
0.265140751720699 0.127745955889401 0.790532667469845
0.254714554338537 0.123666714276866 0.790532667469845
0.243078200600301 0.130067881705085 0.790532667469845
0.239030828686537 0.126424742047783 0.790532667469845
0.225226110767145 0.132125695099389 0.790532667469845
0.207005047721949 0.133087648188071 0.790532667469845
0.202648433975896 0.125796352094195 0.790532667469845
0.189791219001996 0.12748979335639 0.790532667469845
0.173812419954164 0.134558688324587 0.790532667469845
0.166831716368031 0.135627138972339 0.790532667469845
0.159984085878496 0.134638903069012 0.790532667469845
0.148350298086322 0.13526396942904 0.790532667469845
0.121301143467128 0.130081274589545 0.790532667469845
0.11314819069208 0.136108446528643 0.790532667469845
0.114616936980715 0.136027574537761 0.790532667469845
0.0865185216511124 0.13229818132378 0.790532667469845
0.0838418617077047 0.134232708579085 0.790532667469845
0.067629160348688 0.132550752581172 0.790532667469845
0.0534677204575378 0.142258104332557 0.790532667469845
0.0411859739590253 0.141053877985691 0.790532667469845
0.0283907652980189 0.135502091110504 0.790532667469845
0.0113569098674827 0.135771254020444 0.790532667469845
-0.00225383254239601 0.135885894216675 0.790532667469845
-0.0108876470468081 0.144131071703482 0.790532667469845
-0.0272656469487217 0.136828090866245 0.790532667469845
-0.0348338968449212 0.143631661046309 0.790532667469844
-0.0603569471405798 0.14668149864587 0.790532667469845
-0.0704147608804687 0.146936317497041 0.790532667469845
-0.0781312117181671 0.140592302688398 0.790532667469845
-0.0926161458710708 0.144429908421708 0.790532667469845
-0.117548484382972 0.150269234211428 0.790532667469845
-0.127859318499292 0.150119365131084 0.790532667469845
-0.133966096419749 0.150252691904869 0.790532667469845
-0.152146112939195 0.150174919498829 0.790532667469845
-0.162924961373613 0.146704344633488 0.790532667469845
-0.197856484545265 0.150555506062588 0.790532667469845
-0.207110805528366 0.144619764654724 0.790532667469845
-0.222404823243922 0.151117353776858 0.790532667469845
-0.230090285880646 0.154441986308648 0.790532667469845
-0.24158536447185 0.154195280671056 0.790532667469845
-0.253117734874598 0.149256779405892 0.790532667469845
-0.268582180832876 0.153016253302265 0.790532667469845
-0.300572338638787 0.156276351254924 0.790532667469845
-0.319866898682524 0.157270015333036 0.790532667469845
-0.325941512560149 0.158250129302322 0.790532667469844
-0.346117629721515 0.152635521176634 0.790532667469845
-0.363389315994288 0.15348923774992 0.790532667469845
-0.384914993855996 0.161600250303828 0.790532667469845
-0.400195059400796 0.158852530387376 0.790532667469845
-0.40903209173317 0.155075415415179 0.790532667469845
-0.433295073492846 0.156312269429198 0.790532667469845
-0.452136055467009 0.158781986026408 0.790532667469845
0.0138689941661373 0.145548160681499 0.00994614406989593
0.0138689941661373 0.14764294484427 0.0130979034658301
0.0138689941661373 0.146496500272747 0.025091703229338
0.0138689941661373 0.147816600275038 0.0279233519384876
0.0138689941661373 0.1525216845939 0.048420135563761
0.0138689941661377 0.151003083620088 0.0510317136139113
0.00547294568415201 0.153294855931237 0.0597352095144873
-0.00316949573299746 0.152414317447693 0.0599094932322885
-0.0019033175999461 0.150117661014393 0.0603640671426728
0.485083471685152 0.121495490337242 0.758555817497885
0.484310598401076 0.124379892701227 0.755082079268297
0.483205115152054 0.128505612353495 0.774221606763058
0.484885111774868 0.122235779600604 0.782237294825768
0.483434212465615 0.126377808809033 0.790532667469845
0.475952513890713 0.127620222197443 0.790532667469845
0.465377360838107 0.12714432286013 0.790532667469845
0.454606868113162 0.130551389277594 0.790532667469845
0.451362832399154 0.127796074112011 0.790532667469845
0.444164828280093 0.125519609315031 0.790532667469845
0.423159783354616 0.125263581529441 0.790532667469845
0.426352447904606 0.129376076469856 0.790532667469845
0.412615388556007 0.130352018321654 0.790532667469845
0.400776033543987 0.134129752552197 0.790532667469845
0.391372865787169 0.132854029673986 0.790532667469845
0.379615686691659 0.133342647054381 0.790532667469845
0.367833398834393 0.129787930674886 0.790532667469845
0.358004732449519 0.133302456291778 0.790532667469845
0.345210952482562 0.130609089617441 0.790532667469845
0.331079853303771 0.134621256683919 0.790532667469845
0.330401233393256 0.12943021953956 0.790532667469845
0.321324545453322 0.129556202786403 0.790532667469845
0.306929797450312 0.137224175096004 0.790532667469845
0.292013264543028 0.131603809439642 0.790532667469845
0.276226637613986 0.1377015684283 0.790532667469845
0.278318704287662 0.133554117407045 0.790532667469845
0.259891316038641 0.141400910661024 0.790532667469845
0.245841736513575 0.13877290429573 0.790532667469845
0.240313725012741 0.142089456956613 0.790532667469845
0.228866056062679 0.142882097097152 0.790532667469845
0.215543807578173 0.143555263892234 0.790532667469844
0.202238876717292 0.141846143487799 0.790532667469845
0.195590352677659 0.144470911043814 0.790532667469844
0.177255571268403 0.145352565150869 0.790532667469845
0.171149167997933 0.138865904827895 0.790532667469845
0.151597545399768 0.141628343098617 0.790532667469844
0.152017631448628 0.139537417574623 0.790532667469845
0.135553070467294 0.147342638807866 0.790532667469845
0.118703393322726 0.143316181607252 0.790532667469845
0.102861605718017 0.147907473185306 0.790532667469845
0.0936751498165437 0.142867468342309 0.790532667469845
0.0761355480434931 0.148686271071563 0.790532667469845
0.0640256651525883 0.149854456252996 0.790532667469844
0.0625771748441269 0.151447531828214 0.790532667469845
0.0440090385824052 0.146324813210341 0.790532667469845
0.0262497084562909 0.151197383907446 0.790532667469845
0.017919471893152 0.144989470867314 0.790532667469845
0.00170231491185427 0.148923916442079 0.790532667469845
-0.0062830485539355 0.15111984953923 0.790532667469845
-0.028159870452717 0.149547293957562 0.790532667469845
-0.0353353606332209 0.150360973426106 0.790532667469845
-0.0468919268904332 0.151989961896092 0.790532667469845
-0.0617167306844355 0.157841930040328 0.790532667469845
-0.0839036621695579 0.152921091372733 0.790532667469845
-0.103378049894774 0.15685789718686 0.790532667469844
-0.115713812519115 0.160613164385889 0.790532667469845
-0.11834429299189 0.152796320107417 0.790532667469845
-0.134507493640921 0.161843198537142 0.790532667469845
-0.167209721374182 0.158758971670046 0.790532667469845
-0.175099136904674 0.163890855467963 0.790532667469845
-0.188734775560806 0.155658681355988 0.790532667469845
-0.207819588872812 0.164105977946991 0.790532667469845
-0.217948598367844 0.166286249496891 0.790532667469845
-0.226863180339525 0.160805528226901 0.790532667469845
-0.258997113293929 0.157670894535266 0.790532667469845
-0.261569389557537 0.157780361800245 0.790532667469845
-0.28614802977444 0.160964360975603 0.790532667469845
-0.290743320676396 0.164720057188679 0.790532667469845
-0.312891651686815 0.166073024754347 0.790532667469845
-0.331678092968975 0.161986463947203 0.790532667469845
-0.337996553357089 0.165591588202583 0.790532667469845
-0.368249713358126 0.172299423710049 0.790532667469845
-0.379980992502565 0.164938459903149 0.790532667469845
-0.398383845536015 0.175405596500219 0.790532667469845
-0.423739767922885 0.167780641202143 0.790532667469845
-0.423367543015939 0.172978859810769 0.790532667469845
-0.449699212878032 0.17264752916425 0.790532667469844
-0.467190446034298 0.168239523676272 0.790532667469845
0.0138689941661377 0.16452908636758 0.0038530217110511
0.0138689941661373 0.157581901325195 0.0153069687076987
0.0138689941661373 0.163880036396763 0.031189868715435
0.0138689941661369 0.159827260285405 0.0322542243808095
0.0138689941661373 0.155717903258609 0.0514147618315869
0.0138689941661369 0.156439881710671 0.0531595413322249
0.00968960358846879 0.155247435264251 0.0593487382905493
-0.00561581945408553 0.163661554757125 0.0576833437000248
-0.0127999078406334 0.157540258180501 0.0588949231426916
-0.0133427055098158 0.157758378291357 0.0588517509423192
0.481105435137873 0.136341724846052 0.753193220754744
0.481645084667673 0.134327725382559 0.761462433811755
0.482639123686573 0.130617921259321 0.769006005590079
0.482654820544367 0.130559339788511 0.775515226715752
0.481812117406592 0.133704350714383 0.787063837141419
0.481162455078489 0.136128923530631 0.788253741358508
0.467368038373464 0.137849592042553 0.790532667469845
0.464100315413632 0.139426447130694 0.790532667469845
0.447072530376794 0.139793511085428 0.790532667469845
0.442114365936377 0.139650193414453 0.790532667469845
0.437374940542368 0.140980210235612 0.790532667469845
0.419754018648118 0.13613469734032 0.790532667469845
0.40502077405398 0.140887627771972 0.790532667469845
0.401000748336898 0.142168556635219 0.790532667469845
0.386763554937005 0.140786872670064 0.790532667469845
0.377257394033826 0.141686341102424 0.790532667469845
0.371637741026431 0.137880421141199 0.790532667469845
0.362793926770397 0.136592547655283 0.790532667469845
0.343809194726471 0.143383571411879 0.790532667469845
0.332552222994142 0.142340589083661 0.790532667469845
0.329087838700155 0.14293859455127 0.790532667469845
0.318387261204374 0.144415034996654 0.790532667469845
0.303631780547046 0.14837934775045 0.790532667469845
0.294127953535274 0.143027742683493 0.790532667469845
0.285707231666306 0.1407776110119 0.790532667469845
0.270017868994928 0.148078385090047 0.790532667469845
0.269712442036131 0.148736860446596 0.790532667469845
0.255313012083178 0.149273061314116 0.790532667469845
0.239615198382619 0.143581777432875 0.790532667469845
0.228842762490525 0.146529925557777 0.790532667469845
0.214330407497373 0.146910432604143 0.790532667469845
0.199225729421908 0.145508358788881 0.790532667469845
0.186268718878209 0.145388229163015 0.790532667469845
0.17915293542372 0.153779044506045 0.790532667469845
0.157568444180397 0.155033517305006 0.790532667469845
0.159873135480693 0.156408962392515 0.790532667469845
0.136738703720407 0.156672362311149 0.790532667469845
0.136541158755718 0.14938706273637 0.790532667469845
0.116120247164299 0.150517389354674 0.790532667469845
0.099147139062847 0.155288737869555 0.790532667469845
0.092554508778455 0.155141898394026 0.790532667469845
0.0799734148479224 0.152648282986935 0.790532667469845
0.0717462857606133 0.157547818650573 0.790532667469845
0.0531512649226063 0.159918188419484 0.790532667469845
0.0489083057034392 0.155012282943175 0.790532667469845
0.0273343423080476 0.162013314043906 0.790532667469845
0.0150831666160492 0.162765803388247 0.790532667469845
-0.00118625856441997 0.156637241085061 0.790532667469845
-0.00837015639620201 0.159643621981515 0.790532667469845
-0.0334105399665738 0.158051903354824 0.790532667469845
-0.0306136905442781 0.162666190106985 0.790532667469845
-0.0562484940212773 0.166443881891742 0.790532667469845
-0.0647796920919923 0.164403416261908 0.790532667469845
-0.0784206173351065 0.162826187695275 0.790532667469845
-0.0936233268485075 0.166303427834091 0.790532667469845
-0.11705051764809 0.170950011311901 0.790532667469844
-0.128161781224991 0.167024361190649 0.790532667469845
-0.148607881341902 0.168556927265579 0.790532667469845
-0.158476036286475 0.163168352475017 0.790532667469845
-0.169428499065197 0.167576929811564 0.790532667469845
-0.197354064191716 0.172460733506537 0.790532667469845
-0.202649298846876 0.173752097415211 0.790532667469845
-0.217768047751502 0.171306923399596 0.790532667469845
-0.239158407747089 0.172745505103876 0.790532667469845
-0.246151016804588 0.170655994306201 0.790532667469845
-0.26631118114144 0.174844811668714 0.790532667469845
-0.279261611619021 0.173690164749541 0.790532667469845
-0.290496319523569 0.180806187861121 0.790532667469845
-0.321515315643307 0.182386456090273 0.790532667469845
-0.335868909820806 0.175050811868814 0.790532667469845
-0.34934796727913 0.173238548949239 0.790532667469845
-0.368416253079815 0.175792440748725 0.790532667469845
-0.368894883174095 0.178776500193167 0.790532667469845
-0.409281783094893 0.187020017182412 0.790532667469845
-0.417439709871984 0.180525228923435 0.790532667469845
-0.443419604095406 0.185499364098175 0.790532667469845
-0.445056407265723 0.179002559845255 0.790532667469845
0.0138689941661377 0.173199744436752 0.0103552082146898
0.0138689941661373 0.171474535387904 0.0193680209314748
0.0138689941661373 0.170412187233928 0.0197428778108476
0.0138689941661369 0.166320933707491 0.0360434298062096
0.0138689941661369 0.172825831541989 0.0446738520880776
0.0138689941661373 0.171150468599346 0.0494622715587815
0.00761068796646275 0.173927384100485 0.0556514428374144
-0.00433672607422046 0.170111849700323 0.0564066460830264
0.479728815146762 0.141479340595595 0.760656981478533
0.480137111594055 0.139955557509745 0.77027288413473
0.480367237616322 0.139096715502504 0.776635184520209
0.479311513860635 0.143036730197483 0.78410459264463
0.478627944041817 0.143621113199545 0.790532667469845
0.463133085573324 0.13996502248796 0.790532667469845
0.454706486899834 0.142159176533049 0.790532667469845
0.44561064688197 0.144160146494821 0.790532667469845
0.44039923530215 0.149126393630304 0.790532667469845
0.431279590468402 0.14802070092897 0.790532667469845
0.419707509543464 0.147310801097132 0.790532667469845
0.405353172545148 0.148189303452597 0.790532667469845
0.401646615312387 0.144138903059982 0.790532667469845
0.392567990352031 0.149328513590951 0.790532667469845
0.386653940602944 0.152337265609908 0.790532667469845
0.368212377818105 0.152464626993657 0.790532667469845
0.355669020878976 0.152205695699883 0.790532667469845
0.349718508127738 0.145521714779046 0.790532667469845
0.34272088903972 0.151271864506629 0.790532667469845
0.335108059641313 0.155159738487267 0.790532667469845
0.317232284604484 0.148576690435292 0.790532667469845
0.303908888357805 0.151722886471247 0.790532667469845
0.299745205125528 0.153190354365733 0.790532667469845
0.289108979746189 0.152802584930065 0.790532667469845
0.27147579256125 0.152876798384243 0.790532667469845
0.258134537382 0.151839074115689 0.790532667469845
0.255871221094924 0.1541347759305 0.790532667469845
0.239865875433009 0.157641633703705 0.790532667469845
0.228806738244978 0.153452133923344 0.790532667469845
0.215975989538581 0.161940448720398 0.790532667469845
0.196980628061535 0.158245145732835 0.790532667469844
0.184510099214779 0.155993892974573 0.790532667469845
0.178229881337092 0.157036046184847 0.790532667469845
0.169110703119384 0.160045639798558 0.790532667469845
0.157071538126998 0.160543375791239 0.790532667469845
0.140863451624989 0.166138494670349 0.790532667469845
0.13624193106592 0.159605323162835 0.790532667469845
0.11344581089113 0.166779346933928 0.790532667469845
0.10116983197543 0.164046967055091 0.790532667469845
0.0873992203607311 0.16884333657326 0.790532667469845
0.080744475762946 0.162583875209492 0.790532667469845
0.0664563199150655 0.167742896943787 0.790532667469845
0.0474950239536113 0.16952260768576 0.790532667469845
0.0459742820826098 0.165486517279766 0.790532667469845
0.0355268040412147 0.165277049563021 0.790532667469845
0.0177213652963311 0.168792485863584 0.790532667469845
0.00197186715965466 0.172349098947606 0.790532667469845
-0.0148080108535681 0.172223974663643 0.790532667469845
-0.0224586171931378 0.175621663673079 0.790532667469845
-0.0328568942664573 0.173583227862133 0.790532667469845
-0.0579574607362379 0.172507954193667 0.790532667469845
-0.0744233362471928 0.178083360096906 0.790532667469845
-0.079562332533387 0.177549310184557 0.790532667469845
-0.098546195481242 0.170949968062939 0.790532667469845
-0.106955416346568 0.179732881286702 0.790532667469845
-0.125584221100608 0.181870918826147 0.790532667469845
-0.14131405504075 0.173762142914954 0.790532667469845
-0.158136608189344 0.175234610678518 0.790532667469845
-0.172275621788825 0.18070247719384 0.790532667469845
-0.189863535819426 0.179830543882614 0.790532667469845
-0.207137723410819 0.181038038083107 0.790532667469845
-0.224765141788137 0.179069645923394 0.790532667469845
-0.240097390329878 0.180699595394173 0.790532667469845
-0.2370572688828 0.18080346778289 0.790532667469845
-0.267274516860052 0.187516112135081 0.790532667469845
-0.285118886766389 0.187117729532983 0.790532667469845
-0.308679038381169 0.191136871595413 0.790532667469845
-0.31774924120558 0.1900408912487 0.790532667469845
-0.323538737105417 0.184131162833021 0.790532667469845
-0.356223910852258 0.193681236303179 0.790532667469845
-0.372358351978589 0.189934248052042 0.790532667469845
-0.386829713419093 0.189558249290284 0.790532667469845
-0.398695398997614 0.190556375449859 0.790532667469845
-0.416929982523433 0.194839123956771 0.790532667469845
-0.431809528638892 0.189048339580708 0.790532667469845
-0.450136701128438 0.198508144776428 0.790532667469845
0.0138689941661373 0.178078593042992 0.00144643021245801
0.0138689941661369 0.178825537690905 0.0161371778310115
0.0138689941661369 0.17784852960822 0.0258763096165008
0.0138689941661373 0.181762889449753 0.027275024918578
0.0138689941661373 0.183494269189666 0.048498734977793
0.0138689941661377 0.182101562901101 0.0485136510494907
0.00939697374952168 0.17877544612471 0.054691872881638
-0.00555678266041457 0.177441035418831 0.0549559908767518
0.476524445403641 0.153438211283159 0.755755898628508
0.476703264096897 0.152770850834587 0.759337171331286
0.476589564139738 0.153195184851521 0.770822724939344
0.47597970239127 0.155471219882395 0.774603291381512
0.476922063519092 0.151954280274287 0.78690563704299
0.472577011096637 0.151059224210093 0.790532667469845
0.461981445825389 0.154122554502249 0.790532667469845
0.449498991617363 0.148845810869886 0.790532667469845
0.438926281043293 0.155120832902511 0.790532667469845
0.430473465868284 0.156402332772722 0.790532667469845
0.418188243884044 0.156458568582523 0.790532667469845
0.409275528930082 0.157975292383534 0.790532667469845
0.397043911442234 0.153340267230468 0.790532667469845
0.389271950115021 0.154296949144595 0.790532667469845
0.382161241898137 0.15380938288164 0.790532667469845
0.37496896410852 0.156140836446327 0.790532667469845
0.357220236098937 0.159232425096006 0.790532667469845
0.343339148085716 0.15951570542166 0.790532667469845
0.33658614378758 0.161551173443025 0.790532667469845
0.326883059189034 0.164549680503112 0.790532667469845
0.313370144335413 0.162796030116675 0.790532667469845
0.307328258073433 0.161296679578362 0.790532667469845
0.290947506301022 0.159451993213204 0.790532667469845
0.283394041205533 0.162416742219389 0.790532667469845
0.271407326782444 0.166861199012518 0.790532667469845
0.262974126824344 0.168261288709561 0.790532667469845
0.250462134334801 0.167402669379907 0.790532667469845
0.237703788411271 0.165085714768714 0.790532667469845
0.218282475018439 0.164530187020677 0.790532667469845
0.20758218069325 0.171645084927516 0.790532667469845
0.1973076186867 0.165582543073032 0.790532667469845
0.192221167613671 0.168474948216902 0.790532667469845
0.182855950383938 0.172453373401959 0.790532667469845
0.167004585512508 0.172962011472635 0.790532667469845
0.15793978035764 0.173368000345684 0.790532667469845
0.149135493702861 0.173367208192757 0.790532667469845
0.130785493684266 0.170868555764334 0.790532667469845
0.111495239616189 0.16926660933614 0.790532667469845
0.106077209806685 0.168657622799257 0.790532667469845
0.0902823375446201 0.177807319600677 0.790532667469845
0.0842606792750052 0.176055826574804 0.790532667469845
0.0585530365766406 0.177846021648621 0.790532667469845
0.0507175282003513 0.17581755141907 0.790532667469844
0.043990737221617 0.176990996580863 0.790532667469845
0.0304805449971419 0.182317578282103 0.790532667469845
0.0123351943379393 0.175683187546616 0.790532667469845
-0.00189548711324689 0.181179700649354 0.790532667469845
-0.0143439336353154 0.18574310430376 0.790532667469845
-0.0256993627194118 0.18151421039676 0.790532667469845
-0.0383243480890511 0.186811013077502 0.790532667469845
-0.0539854271633668 0.1822898521926 0.790532667469845
-0.0668125351592138 0.179860217325254 0.790532667469845
-0.0864704061159908 0.190103640198615 0.790532667469845
-0.0983781223913324 0.18097982428909 0.790532667469844
-0.110602622049556 0.183195612767375 0.790532667469845
-0.123819303494433 0.190413958032201 0.790532667469845
-0.147870706374664 0.189832492025378 0.790532667469845
-0.153013038463107 0.190491034140401 0.790532667469845
-0.166359133738094 0.191588918784967 0.790532667469845
-0.18655637166365 0.18672658052405 0.790532667469845
-0.198611759448905 0.190859327531066 0.790532667469845
-0.214866033080056 0.192018401666747 0.790532667469845
-0.234132735771483 0.194066796944646 0.790532667469845
-0.246148162351768 0.192458485858496 0.790532667469845
-0.269587671587795 0.199087801776493 0.790532667469845
-0.28152305787935 0.199283339226972 0.790532667469845
-0.305934663352419 0.195637432019844 0.790532667469845
-0.316908501574939 0.202312116845875 0.790532667469845
-0.331100546995126 0.196896215634169 0.790532667469845
-0.344664750011028 0.202687517369222 0.790532667469845
-0.359434635104529 0.205945584936931 0.790532667469844
-0.382590672358989 0.207781549090696 0.790532667469845
-0.398891618691554 0.202051867412324 0.790532667469845
-0.417240696079451 0.199851535985404 0.790532667469845
-0.428929258204908 0.2074017974577 0.790532667469845
-0.445747199243121 0.212186469635831 0.790532667469845
0.0138689941661369 0.19380217091965 0.0180254872237804
0.0138689941661373 0.187241299513155 0.0195963905848391
0.0138689941661373 0.190707230686115 0.0274289876916425
0.0138689941661373 0.190744673100307 0.0493305553182299
0.0118381431220164 0.190096113775959 0.0524511893872465
0.00576288005190143 0.186394462068071 0.0531838519950863
-0.0113886386719083 0.189406056550628 0.0525877714230969
0.473665108184448 0.16410940306116 0.753317709081986
0.475621048837568 0.156809733167126 0.764813613659936
0.475016034295882 0.159067678176015 0.769998546182908
0.474473989317539 0.161090617575178 0.774826593190708
0.474339923184223 0.161590959196287 0.789299321536702
0.467146933814297 0.164091607584884 0.790532667469845
0.465449712229509 0.156426391125977 0.790532667469845
0.450916542558895 0.163959803162139 0.790532667469845
0.437693230130229 0.160751653886816 0.790532667469845
0.427549751076935 0.162230907576915 0.790532667469845
0.417294400356249 0.166529682796708 0.790532667469845
0.413385272480279 0.161544726152012 0.790532667469845
0.401467212089311 0.165579384220799 0.790532667469845
0.391078987078352 0.169684792995096 0.790532667469845
0.381943284205402 0.168797750510942 0.790532667469845
0.366562787787018 0.166613119856055 0.790532667469845
0.357626326592121 0.164930537119668 0.790532667469845
0.349854745222451 0.168677774571783 0.790532667469845
0.338095892901269 0.17272536411912 0.790532667469845
0.320612247236152 0.165579910896593 0.790532667469845
0.319838441851643 0.17070333718923 0.790532667469845
0.306936299421924 0.171084079194223 0.790532667469845
0.288815605975184 0.16819319320786 0.790532667469845
0.284784858165026 0.167656662641955 0.790532667469845
0.277830163884629 0.176002038837354 0.790532667469845
0.267926265450181 0.177160547472171 0.790532667469845
0.250029737089215 0.172085602124862 0.790532667469845
0.245522174067421 0.173444650706876 0.790532667469845
0.234405240970198 0.174151494106867 0.790532667469845
0.217709088327328 0.179671953569962 0.790532667469845
0.202232139357839 0.176011816588109 0.790532667469845
0.191313882482627 0.175822717932508 0.790532667469845
0.180296557730452 0.177021001055599 0.790532667469845
0.169276851794025 0.182254915508753 0.790532667469845
0.149397919679074 0.180734415390286 0.790532667469845
0.137676363693905 0.178394560393562 0.790532667469845
0.133503445116911 0.181356097809829 0.790532667469844
0.115042013014026 0.178398375900883 0.790532667469845
0.106186259558303 0.187318028298739 0.790532667469845
0.0930950013691177 0.184565700364691 0.790532667469845
0.0890994447202463 0.180693474539377 0.790532667469845
0.0620617553263361 0.182916654154026 0.790532667469844
0.0568799840412436 0.182263242470557 0.790532667469845
0.0383063203139857 0.188990998274699 0.790532667469845
0.02575309124162 0.185650236791497 0.790532667469845
0.0150377999013311 0.186740393944032 0.790532667469845
-0.00386086561632588 0.187321755340608 0.790532667469844
-0.0191768598787808 0.193028787554894 0.790532667469844
-0.0340794641102636 0.194964240681654 0.790532667469845
-0.0390927790675411 0.190462707649011 0.790532667469845
-0.0469961193147702 0.195843412526462 0.790532667469844
-0.0717333362050443 0.194658441287672 0.790532667469845
-0.0778218701106502 0.196248807801095 0.790532667469845
-0.09395191058977 0.197504514027593 0.790532667469845
-0.117384330534495 0.2018968607749 0.790532667469845
-0.11644728287601 0.194878123521971 0.790532667469845
-0.136269117646154 0.199187740745175 0.790532667469845
-0.158272435507242 0.197569002520156 0.790532667469845
-0.177078522434635 0.203640911166825 0.790532667469845
-0.186559886050341 0.201184361272139 0.790532667469845
-0.197733571229196 0.200248173194128 0.790532667469845
-0.220762468752904 0.207105797734441 0.790532667469845
-0.221666543272963 0.209763380996072 0.790532667469845
-0.243969213126257 0.203342683444681 0.790532667469845
-0.267053363553001 0.208149062411782 0.790532667469845
-0.279252399571036 0.212087083840415 0.790532667469845
-0.288032481937568 0.205493464687298 0.790532667469845
-0.325329205317723 0.205179435949281 0.790532667469845
-0.333320416958721 0.212826891767959 0.790532667469845
-0.347681182530742 0.212418847878811 0.790532667469845
-0.368614718979083 0.20886613095516 0.790532667469845
-0.390927976769754 0.215487569081498 0.790532667469845
-0.402257037043881 0.211237140371293 0.790532667469845
-0.405973345383812 0.215188510594898 0.790532667469845
-0.431315257948717 0.21668732185672 0.790532667469845
-0.449830801117217 0.218608636824161 0.790532667469845
0.0138689941661373 0.196879835043929 0.0111623129731785
0.0138689941661373 0.198729949196959 0.0243038864256847
0.0138689941661373 0.202140600549088 0.0356132273809675
0.0138689941661373 0.197240110023055 0.0372109867048211
0.00644178931043971 0.197419806118884 0.0510016214769144
0.000184908114885615 0.199351318264031 0.0506193200512231
-0.00433126704718909 0.20437089875473 0.0496258016916384
0.4730021629584 0.166583548327407 0.753647549747836
0.471605264027736 0.171796846109683 0.751813538420472
0.473085461787255 0.166272672865909 0.773729158436627
0.473353542451996 0.165272182204567 0.773297239586164
0.472396612724793 0.168843492565763 0.785651501496584
0.467126281015614 0.167798060401247 0.790532667469845
0.461328959460568 0.170090279796623 0.790532667469845
0.449118482288199 0.169886069361397 0.790532667469845
0.436485638457052 0.173804059495727 0.790532667469845
0.432981651985707 0.170199458339512 0.790532667469845
0.421870443261376 0.170655890919266 0.790532667469845
0.411216491035467 0.170754983659308 0.790532667469845
0.399983269539705 0.173493199520735 0.790532667469845
0.391491832650367 0.174293848571183 0.790532667469845
0.380408234655946 0.177014182488323 0.790532667469845
0.371483965690877 0.178773034997195 0.790532667469845
0.357300842838431 0.178690921733475 0.790532667469845
0.344673030368947 0.178857924866293 0.790532667469845
0.338045944217587 0.18016299604631 0.790532667469845
0.327050459250985 0.181013391306735 0.790532667469845
0.308836582377412 0.178683867302549 0.790532667469845
0.303389266029965 0.183547291086972 0.790532667469845
0.288916051653052 0.182252025074926 0.790532667469845
0.279533638970688 0.176881350408934 0.790532667469845
0.281291118503282 0.177148185719944 0.790532667469845
0.259439475080017 0.17947284082744 0.790532667469845
0.239514989197486 0.18519978487347 0.790532667469845
0.245395784662299 0.182463405386062 0.790532667469845
0.234325402715381 0.18401454288826 0.790532667469845
0.217147506125823 0.184663146225883 0.790532667469845
0.209221545182957 0.183665105584052 0.790532667469845
0.191893633496712 0.185791438847811 0.790532667469845
0.178059275156458 0.189911252499066 0.790532667469845
0.168551711736794 0.191748700854516 0.790532667469845
0.1555549614815 0.188522468065239 0.790532667469845
0.139563707056036 0.186531486717289 0.790532667469845
0.128803105035627 0.194669188165743 0.790532667469845
0.119371960044812 0.193902157021308 0.790532667469845
0.109679127226287 0.197244683264619 0.790532667469845
0.0972428985094855 0.196625182848883 0.790532667469845
0.07902847310223 0.199385326574329 0.790532667469845
0.0699106556543149 0.192735542105217 0.790532667469845
0.0558370307060013 0.191861267427889 0.790532667469845
0.0462697113434088 0.195755405971277 0.790532667469845
0.0190221348249682 0.2026609122516 0.790532667469845
0.0181677294525722 0.198150711585697 0.790532667469845
-0.00174942113400074 0.199545920508828 0.790532667469845
-0.0137879031125773 0.202388450355733 0.790532667469845
-0.0295429673339873 0.20086891734635 0.790532667469845
-0.0363494435307969 0.204661042742298 0.790532667469845
-0.0614776114762558 0.206458362082771 0.790532667469845
-0.064908921005728 0.206989186146511 0.790532667469845
-0.079097652552097 0.201414911158951 0.790532667469845
-0.095022463879725 0.208929502452339 0.790532667469845
-0.11495221130326 0.209823679221758 0.790532667469845
-0.127500447338355 0.207058010724984 0.790532667469845
-0.150160913610357 0.209757557225047 0.790532667469845
-0.156270654924942 0.208595070850208 0.790532667469845
-0.163800275200823 0.207589522963931 0.790532667469844
-0.180794015161483 0.214091465478965 0.790532667469845
-0.203732645105425 0.217761605469381 0.790532667469845
-0.222749446669972 0.218729036372338 0.790532667469844
-0.226450980639978 0.21833989525222 0.790532667469845
-0.258456074957031 0.217533458665002 0.790532667469845
-0.271012457087059 0.222194009834088 0.790532667469845
-0.287250696732383 0.213667331596633 0.790532667469845
-0.309025818665902 0.218316481367116 0.790532667469845
-0.318860706505502 0.218286802729732 0.790532667469845
-0.340735583016611 0.222664100765157 0.790532667469845
-0.348948442906411 0.219789891442115 0.790532667469845
-0.361069531580804 0.219325421433903 0.790532667469845
-0.378819462531726 0.22462906235347 0.790532667469845
-0.402935604356493 0.223503561573687 0.790532667469845
-0.417192039126366 0.230399480144563 0.790532667469845
-0.426055931085902 0.223904168363616 0.790532667469845
0.0138689941661373 0.213562576606565 0.00469073749349445
0.0138689941661369 0.204867621653473 0.019387847213727
0.0138689941661373 0.204351497056247 0.0218121852886075
0.0138689941661373 0.204159580287707 0.0321067827126983
0.0138689941661377 0.20742022967306 0.048115488152076
0.0130333304105706 0.211511081989618 0.0482125554755837
0.00134141385349338 0.206258905209291 0.0492521112848206
0.470623004819018 0.175462687382819 0.758800793967558
0.469844249110676 0.178369043253037 0.760380569402601
0.469931626150175 0.178042947702213 0.774192618586757
0.470621252303062 0.175469227861408 0.787602721504014
0.470961225427203 0.174200430888908 0.789647536695633
0.465346221491873 0.175725514030094 0.790532667469845
0.451004061241505 0.178620304479455 0.790532667469845
0.447339314709068 0.182950779245885 0.790532667469845
0.428603606052347 0.177675785363701 0.790532667469845
0.425783089476163 0.183363192810847 0.790532667469845
0.414788447538231 0.182222091480178 0.790532667469845
0.401149663364246 0.178519329191163 0.790532667469845
0.386967758166082 0.182591276031827 0.790532667469845
0.385008943551391 0.183068145227603 0.790532667469845
0.363963049127225 0.184781117687469 0.790532667469845
0.366478317197293 0.183347121106085 0.790532667469845
0.353047036825335 0.182875166237098 0.790532667469845
0.33970197751142 0.186124654012975 0.790532667469845
0.326895888355845 0.182613516164791 0.790532667469845
0.314299800298053 0.184236001881917 0.790532667469845
0.303755735396704 0.185735017574264 0.790532667469845
0.294061734390819 0.188891481346069 0.790532667469845
0.284566009502223 0.193192560200146 0.790532667469845
0.280423097050056 0.194491448503867 0.790532667469845
0.25494547909702 0.19201455357189 0.790532667469845
0.248355931576827 0.189951823343468 0.790532667469845
0.233905527569161 0.196120719111719 0.790532667469845
0.21980429873967 0.198141501577699 0.790532667469845
0.21914040661849 0.192442496510401 0.790532667469845
0.204002403217886 0.198095074205371 0.790532667469845
0.188859821867913 0.199802800177462 0.790532667469845
0.172093031146928 0.198252313736061 0.790532667469845
0.167543298859288 0.1976049187231 0.790532667469844
0.153720055487301 0.201763452376793 0.790532667469845
0.142991983437255 0.19820163628751 0.790532667469845
0.136133632347727 0.201734860710763 0.790532667469844
0.118726127682692 0.203241594578191 0.790532667469845
0.107777373243326 0.206775555800914 0.790532667469845
0.0868377207427377 0.205100393954196 0.790532667469845
0.0799981847501008 0.202561339162038 0.790532667469845
0.0593552761179523 0.203525216098074 0.790532667469845
0.0568718988538468 0.202603262133948 0.790532667469845
0.0460047169470162 0.206110906539748 0.790532667469844
0.0320229736236727 0.206022466105354 0.790532667469845
0.00781858779361838 0.211010470598925 0.790532667469845
0.00968536347855561 0.209439603382768 0.790532667469845
-0.0150308640152487 0.214979186748422 0.790532667469845
