ply
format ascii 1.0
element vertex 842
property float x
property float y
property float z
end_header
0.0327989827633629 -0.300116507625614 0.790532667469845
0.0516169429604119 -0.308798033449748 0.790532667469845
0.0508925227294353 -0.316937679185937 0.790532667469845
0.0628907820910779 -0.330716968281377 0.790532667469845
0.0760041349284006 -0.341446722377988 0.790532667469845
0.0963557029762764 -0.356104813656112 0.790532667469845
0.109798796549128 -0.374745065630139 0.790532667469844
0.111815249383593 -0.388182731952531 0.790532667469845
0.122013261188005 -0.389835318049614 0.790532667469845
0.141215336272609 -0.412135110867903 0.790532667469845
0.147213222996557 -0.416776421726504 0.790532667469845
0.15335079192225 -0.431519012053087 0.790532667469844
0.166809718430739 -0.446177828662704 0.790532667469844
0.184233962092499 -0.462012587914502 0.790532667469845
-0.0138689941661377 -0.223060899650496 0.0075262099498331
-0.0138689941661377 -0.215872590930991 0.0160664012333084
-0.0138689941661377 -0.232162332007092 0.0106575506811158
-0.0138689941661381 -0.218438052616051 0.0389479553059152
-0.0138689941661377 -0.215955114399725 0.0424773344811569
-0.0042528617537548 -0.23520089274391 0.0435236652459928
-0.00168791288574369 -0.234024264257293 0.0437565536329868
0.00533306154957679 -0.243148800476913 0.0419505472797286
-0.43483898048202 0.246836792693686 0.761031501780647
-0.437849881047775 0.24162175993726 0.768467413630973
-0.433436225873366 0.249266434946427 0.78016949782966
-0.435627140721212 0.245471659114901 0.77734334074456
-0.435689257575287 0.245364069567636 0.790119419263704
-0.43169035749476 0.238630655919107 0.790532667469845
-0.418211758147445 0.226383053133753 0.790532667469845
-0.411167146760027 0.22315386579443 0.790532667469845
-0.402445756639371 0.213572481465827 0.790532667469845
-0.399810972738811 0.21046772839296 0.790532667469845
-0.389310515216451 0.196716301891088 0.790532667469845
-0.392837714607889 0.192779707688201 0.790532667469845
-0.380665518534336 0.179997828353904 0.790532667469845
-0.370220891434495 0.172584719873418 0.790532667469845
-0.365290224663336 0.171559065325739 0.790532667469845
-0.355173584097822 0.156144299662062 0.790532667469845
-0.349949407666121 0.149440249515641 0.790532667469845
-0.346378864701232 0.143052557040976 0.790532667469845
-0.339704450240821 0.134581606756085 0.790532667469845
-0.327685597347166 0.126585209143251 0.790532667469845
-0.322090599859165 0.122069547615522 0.790532667469845
-0.3136565061894 0.114772262445919 0.790532667469845
-0.313903109256183 0.106732504185814 0.790532667469845
-0.305100758192525 0.0928756389182313 0.790532667469845
-0.290858896907423 0.0906159989304657 0.790532667469845
-0.291206023068338 0.0807875330697199 0.790532667469845
-0.283591989814822 0.0751970509286778 0.790532667469845
-0.272593738776446 0.0647772633742031 0.790532667469845
-0.27095457416792 0.0568367012666555 0.790532667469845
-0.262396815234076 0.0497538556660108 0.790532667469845
-0.245401585448225 0.0365692608218194 0.790532667469845
-0.245735851076471 0.0270732616802955 0.790532667469845
-0.238664999797885 0.0249423069345627 0.790532667469845
-0.232076335026603 0.0120189687448655 0.790532667469845
-0.215674596283307 0.0039579299353843 0.790532667469845
-0.211307080877695 -0.00924463136573402 0.790532667469845
-0.201066693125991 -0.0161722236989539 0.790532667469845
-0.194663909742181 -0.0252841075283399 0.790532667469845
-0.184261094221482 -0.0414921407966508 0.790532667469844
-0.172730807218724 -0.0419885209679939 0.790532667469845
-0.162034139813576 -0.0556099887226089 0.790532667469845
-0.151453242722608 -0.0610577265775317 0.790532667469845
-0.149037691661341 -0.0695890764391817 0.790532667469845
-0.142274844072 -0.0800520037793796 0.790532667469845
-0.129448245421043 -0.0964699063932498 0.790532667469845
-0.129149575907431 -0.0947634152199281 0.790532667469845
-0.115858222837577 -0.113061348888842 0.790532667469845
-0.1011787449235 -0.122262915756922 0.790532667469845
-0.0955096206240316 -0.1338704932734 0.790532667469845
-0.0879318844472032 -0.144037666891754 0.790532667469845
-0.0798444129521921 -0.157584579715588 0.790532667469845
-0.0711680538795672 -0.166231121329455 0.790532667469845
-0.0579426593794497 -0.181770127640937 0.790532667469845
-0.0489633438905443 -0.178795374053297 0.790532667469845
-0.0435791610320961 -0.198653074238366 0.790532667469845
-0.032709584433733 -0.20150197707972 0.790532667469845
-0.014261116340774 -0.220168022787522 0.790532667469845
-0.0106755655407965 -0.22639243431846 0.790532667469845
-0.00588674340300598 -0.237424898568376 0.790532667469845
0.00915884041564905 -0.256504558888203 0.790532667469844
0.0223533691731452 -0.266392597814556 0.790532667469844
0.0395761432566462 -0.279399073904686 0.790532667469845
0.0393326700348586 -0.291925397609848 0.790532667469845
0.0513762131222863 -0.295949137143382 0.790532667469845
0.0618307054312673 -0.304323968240891 0.790532667469845
0.0849117713987994 -0.32672640006617 0.790532667469845
0.0894341580524398 -0.339242178305357 0.790532667469845
0.1051814927235 -0.355948489105597 0.790532667469845
0.105183474034573 -0.356928246189464 0.790532667469845
0.118833962036313 -0.37290786391685 0.790532667469845
0.124040363859011 -0.375563530859595 0.790532667469845
0.141550484299334 -0.391706367988995 0.790532667469845
0.143886079530685 -0.404281318325119 0.790532667469845
0.170706453968277 -0.427329554373569 0.790532667469845
0.177688576136544 -0.442138294645046 0.790532667469845
0.189395895283202 -0.454281011458151 0.790532667469845
0.199136195930002 -0.453076647548982 0.790532667469845
-0.0138689941661377 -0.214256417365084 0.00182754553355042
-0.0138689941661381 -0.209938751128279 0.0176517939649361
-0.0138689941661381 -0.205569106158128 0.0344407707386109
-0.0138689941661377 -0.212600943254028 0.0432737900249958
-0.0107723600821496 -0.214101277169835 0.0476998818624751
0.00088332535987932 -0.220298164877473 0.0464733407757782
0.0121755819594694 -0.237211966095431 0.0431256163849554
-0.433432198737378 0.249273410150566 0.751109967720301
-0.430897429933154 0.253663758504923 0.765906382571371
-0.428598021287062 0.257646451107317 0.767776469668032
-0.4297854816271 0.255589709466399 0.780307907145117
-0.430993527094225 0.253497313339486 0.777778837343004
-0.423678642397132 0.246705588856471 0.790532667469845
-0.417541000062294 0.242666260363102 0.790532667469845
-0.411465070704195 0.232621528631658 0.790532667469845
-0.408998814048555 0.230695859440445 0.790532667469845
-0.399291060823255 0.223403277728879 0.790532667469845
-0.396238594188596 0.216706517893579 0.790532667469845
-0.390461029137781 0.209088477409285 0.790532667469845
-0.380291292772565 0.197951443743965 0.790532667469845
-0.37494511895189 0.186570291263935 0.790532667469845
-0.369260486097121 0.182133667059708 0.790532667469845
-0.360475713727799 0.169900548151001 0.790532667469845
-0.355094282029768 0.162276623371444 0.790532667469845
-0.346962912476349 0.157289619544774 0.790532667469845
-0.339473244295765 0.154870660420678 0.790532667469845
-0.333673220541439 0.143335261501941 0.790532667469845
-0.323106404803851 0.132476573760469 0.790532667469845
-0.316461668837617 0.129795654505443 0.790532667469845
-0.314086758902752 0.124089295371597 0.790532667469845
-0.299771439213874 0.111060934193057 0.790532667469845
-0.294142618051164 0.0981631454866595 0.790532667469845
-0.283188404254836 0.0979438403409544 0.790532667469845
-0.280449467291045 0.087867605952437 0.790532667469845
-0.27548558439619 0.0727372211886164 0.790532667469845
-0.268769791272979 0.0710123781292557 0.790532667469845
-0.262063018540989 0.0635918701850764 0.790532667469845
-0.242846494566408 0.0546433739752855 0.790532667469845
-0.241276356512398 0.0365599991670719 0.790532667469845
-0.230555308676293 0.0295254977473136 0.790532667469845
-0.229021632964263 0.0293635509076503 0.790532667469845
-0.213938375772112 0.0179695069771374 0.790532667469845
-0.212534033212704 0.0152018913626552 0.790532667469845
-0.201662182581683 -0.00327700462323801 0.790532667469844
-0.196067480290356 -0.000870089148935818 0.790532667469845
-0.178790058429967 -0.0171382893016761 0.790532667469845
-0.174449935636148 -0.0350417827304237 0.790532667469845
-0.170993403405802 -0.0342323281862465 0.790532667469845
-0.155755742000049 -0.0480213330481613 0.790532667469845
-0.152565386350001 -0.060030760177282 0.790532667469845
-0.142349542538935 -0.0629964355501231 0.790532667469845
-0.138042677876156 -0.070106757118829 0.790532667469845
-0.123135991880289 -0.0849893869722576 0.790532667469845
-0.110396969696412 -0.0998649718060665 0.790532667469845
-0.11310818121608 -0.100575021577819 0.790532667469845
-0.10146268086241 -0.11398312601753 0.790532667469845
-0.0858374169881496 -0.128218041585753 0.790532667469845
-0.0781353767667967 -0.137740985642966 0.790532667469845
-0.0748116443497339 -0.144116402619991 0.790532667469845
-0.0664774413379111 -0.149459182059399 0.790532667469845
-0.0476337662012568 -0.173142203546471 0.790532667469845
-0.0429967243625151 -0.178723633683693 0.790532667469845
-0.0349212804346544 -0.185271654026783 0.790532667469845
-0.0260124229746205 -0.200546334626908 0.790532667469845
-0.0156704588319741 -0.203910451282495 0.790532667469845
-0.00627928846354866 -0.22311420235065 0.790532667469845
0.00539305335247065 -0.225074682497645 0.790532667469845
0.0244834266045799 -0.244064463975272 0.790532667469845
0.0245822701813831 -0.252534806397691 0.790532667469845
0.038507394692189 -0.271240410278488 0.790532667469845
0.0580350669271465 -0.278355962099927 0.790532667469845
0.0643291065438825 -0.289662680930189 0.790532667469845
0.0778745613269777 -0.309386593736843 0.790532667469845
0.0811229142614617 -0.310025623994197 0.790532667469845
0.0952244180222019 -0.32251220374555 0.790532667469845
0.0989297817380457 -0.334599865084892 0.790532667469845
0.112594303014252 -0.35373308653511 0.790532667469845
0.124098771114959 -0.354108072658559 0.790532667469845
0.137539350427604 -0.375411883485125 0.790532667469845
0.157126544013286 -0.400765035572678 0.790532667469845
0.162593207340445 -0.406635962036304 0.790532667469845
0.172431629403205 -0.416997970755707 0.790532667469845
0.184703678091024 -0.423756233882541 0.790532667469845
0.194955406136479 -0.442234078181361 0.790532667469845
0.207511736723637 -0.45162569341815 0.790532667469845
-0.0138689941661377 -0.193336682922135 0.00987682788603061
-0.0138689941661381 -0.193889092679961 0.0221322719734531
-0.0138689941661377 -0.194072153568539 0.0229737877398493
-0.0138689941661377 -0.190987586254344 0.043209863830583
-0.0138689941661377 -0.200352236101922 0.0416608400861321
0.000163100476073886 -0.2051999340592 0.0494617119241246
-0.00377629334680418 -0.21026502959439 0.0484591848371318
0.00822262200733103 -0.222494579245388 0.046038607633472
-0.426176099303313 0.261841343035139 0.758816821627729
-0.427472410816659 0.259596065631586 0.756333203916885
-0.424209017062615 0.265248429418694 0.768878097200413
-0.428941432683036 0.257051645121592 0.774445445916347
-0.42830048367949 0.258161801360795 0.782005690449809
-0.419675954533677 0.254985088565579 0.790532667469845
-0.418889561689963 0.251120791536757 0.790532667469845
-0.408737523744244 0.23551715588824 0.790532667469845
-0.40044123589592 0.236549075798728 0.790532667469845
-0.393332164706096 0.228069417005495 0.790532667469845
-0.388474172779434 0.219207765599108 0.790532667469845
-0.382381324334787 0.214374789512702 0.790532667469845
-0.375929523839422 0.202420736651466 0.790532667469845
-0.370515479481852 0.198624723013521 0.790532667469845
-0.358979605173573 0.185538507145954 0.790532667469845
-0.358389663068895 0.187276144902161 0.790532667469845
-0.346891606828077 0.172347458734755 0.790532667469845
-0.345717173874948 0.171941793815961 0.790532667469845
-0.333140353536436 0.151759221181263 0.790532667469845
-0.322123448635814 0.151194920000501 0.790532667469845
-0.312915006073475 0.137100279055784 0.790532667469845
-0.314994692665912 0.13668081726701 0.790532667469845
-0.307354740870869 0.129192667881409 0.790532667469845
-0.300255058208587 0.116682043729486 0.790532667469845
-0.291644940629053 0.105094983177214 0.790532667469845
-0.284357395814153 0.100787566073061 0.790532667469845
-0.27229212582496 0.090925760503739 0.790532667469845
-0.263951664859353 0.08501914693337 0.790532667469845
-0.259712085188686 0.0729664425063257 0.790532667469845
-0.248453309299057 0.0722086561545577 0.790532667469845
-0.2468321870784 0.0599393709206884 0.790532667469845
-0.234092953339173 0.0578701631661019 0.790532667469845
-0.227874396692621 0.0491512017013743 0.790532667469845
-0.221414438566154 0.0334547504992597 0.790532667469845
-0.20842185844129 0.0246574937560061 0.790532667469845
-0.205190494904145 0.01565271082565 0.790532667469845
-0.196542276882855 0.00922576100101902 0.790532667469845
-0.190848787886128 -7.78081295140974e-005 0.790532667469845
-0.173735819058305 -0.0153168213697657 0.790532667469845
-0.162399537359381 -0.0221215927010307 0.790532667469845
-0.166645230903304 -0.0245069904985258 0.790532667469845
-0.156207395530739 -0.0402686629037726 0.790532667469845
-0.146170250689603 -0.0463732918390644 0.790532667469845
-0.129539434392556 -0.0601076106852596 0.790532667469845
-0.128734749398467 -0.0607861823193596 0.790532667469845
-0.122284584086478 -0.0794179342235206 0.790532667469845
-0.108847109358478 -0.0900909688848745 0.790532667469845
-0.0934105676448158 -0.101752354354803 0.790532667469845
-0.0931336745532602 -0.10288334404519 0.790532667469845
-0.075318288279112 -0.11974488640931 0.790532667469845
-0.0707756053549957 -0.126732411022635 0.790532667469845
-0.0662274906301769 -0.130696444698937 0.790532667469845
-0.0542736985738519 -0.152025464583425 0.790532667469845
-0.0459172964614299 -0.155471440036278 0.790532667469844
-0.0391833609163202 -0.165416061841625 0.790532667469845
-0.0191460738900313 -0.182302081741647 0.790532667469845
-0.0166348154229962 -0.186447354041412 0.790532667469845
-0.00450618673926836 -0.197861620723738 0.790532667469845
0.00866896484234447 -0.217485914638311 0.790532667469845
0.0191879602699227 -0.229508471430496 0.790532667469845
0.0268221580285289 -0.229570813117896 0.790532667469844
0.0382323249862759 -0.257119535450244 0.790532667469845
0.0435090364209427 -0.25750816907864 0.790532667469845
0.0663359722125614 -0.271881204838186 0.790532667469845
0.0697854368819319 -0.281026838377833 0.790532667469845
0.0798235616030636 -0.285596661015398 0.790532667469845
0.0857718155231803 -0.304186349731502 0.790532667469845
0.0987278497518734 -0.32000680978199 0.790532667469845
0.114841376019693 -0.329521828120866 0.790532667469845
0.117951657010195 -0.335474326844223 0.790532667469845
0.135482362692102 -0.353272721091343 0.790532667469845
0.142497172976366 -0.36786456560999 0.790532667469845
0.158363945006733 -0.375380865089374 0.790532667469845
0.17332881845778 -0.397375488767529 0.790532667469845
0.180023018368172 -0.399184825440421 0.790532667469845
0.190831606067925 -0.425395894298057 0.790532667469845
0.21143982803306 -0.436379729985933 0.790532667469845
0.210043831095733 -0.447840872599161 0.790532667469845
-0.0138689941661381 -0.172052147928193 0.0129180980353115
-0.0138689941661377 -0.174059377591171 0.0258789416859914
-0.0138689941661377 -0.172184300684369 0.037077589166922
-0.0138689941661377 -0.171087320676536 0.0416733406229024
-0.0138689941661381 -0.1802994777205 0.0483220403820132
-0.000120184500883156 -0.190208641983518 0.0524289168406887
0.00353242735026659 -0.198519818393544 0.0507838976267503
0.0064053923756258 -0.197829730095322 0.0509204858128125
-0.423468798426712 0.266530525704787 0.75353295539288
-0.422196948029576 0.268733435212253 0.769374470801471
-0.423219760839791 0.266961871458329 0.776522944524565
-0.419698243035661 0.27306131921484 0.782959108335064
-0.422712992031653 0.267839620781715 0.787548453822923
-0.419612548776724 0.259487013805717 0.790532667469845
-0.407009978628715 0.250200923773075 0.790532667469845
-0.404293382019318 0.248149259518415 0.790532667469845
-0.400573646469265 0.241243015402791 0.790532667469845
-0.38984804481105 0.232714816575289 0.790532667469845
-0.38526712477134 0.220446831676208 0.790532667469845
-0.380254480653435 0.217163265795681 0.790532667469845
-0.367335122862312 0.216296091592175 0.790532667469845
-0.36436395625703 0.204152638423287 0.790532667469845
-0.354746192975602 0.195542243330009 0.790532667469845
-0.34889603204666 0.183361867349934 0.790532667469845
-0.341330498490137 0.178377704223472 0.790532667469845
-0.337051263018478 0.176893495887432 0.790532667469845
-0.328539852716676 0.164545900314163 0.790532667469845
-0.319504356154715 0.157030239764053 0.790532667469845
-0.312423382320651 0.153746586087606 0.790532667469845
-0.304438739112653 0.148092641194515 0.790532667469845
-0.302093740219035 0.132635680103115 0.790532667469845
-0.293123391524974 0.125858812301067 0.790532667469845
-0.284778236833018 0.122463708703546 0.790532667469845
-0.270276152300174 0.10532788358908 0.790532667469845
-0.266318322978154 0.098202426163989 0.790532667469845
-0.257599983516208 0.0886580048494889 0.790532667469845
-0.253526703690021 0.0843697797143065 0.790532667469845
-0.244915025840546 0.0699910101674634 0.790532667469845
-0.234784617239536 0.05908341978283 0.790532667469845
-0.229921907427238 0.0612376514918498 0.790532667469844
-0.220205242726593 0.042714512952667 0.790532667469845
-0.216669999708505 0.0408499907700021 0.790532667469845
-0.20446953395568 0.032573803114198 0.790532667469845
-0.195311918464497 0.0181626760224886 0.790532667469845
-0.184336131380374 0.00888589510260105 0.790532667469845
-0.175604271123048 0.00358804431599102 0.790532667469845
-0.17504547902677 -0.0025600034821629 0.790532667469845
-0.160256278097391 -0.0180684126558061 0.790532667469845
-0.152653526132412 -0.0237185924389079 0.790532667469845
-0.150180818481181 -0.0285424073971862 0.790532667469845
-0.142869705389244 -0.0367320571557801 0.790532667469845
-0.126921223209036 -0.0467146415356581 0.790532667469845
-0.115725032635269 -0.0627519549103927 0.790532667469845
-0.114404885631043 -0.0724498420657049 0.790532667469845
-0.0995788978332692 -0.083018860739624 0.790532667469845
-0.086773802565453 -0.0901984962758585 0.790532667469845
-0.081632124908036 -0.0997018537816486 0.790532667469845
-0.0724602334651458 -0.107120122153501 0.790532667469845
-0.0673884870051203 -0.122237574141475 0.790532667469845
-0.0536854173461723 -0.132100062907933 0.790532667469845
-0.0442566876639817 -0.145708199726683 0.790532667469845
-0.0407548621923518 -0.147315808860398 0.790532667469845
-0.029414008655386 -0.163932229538586 0.790532667469845
-0.0114726101940376 -0.178248840045203 0.790532667469845
-0.00524514374290863 -0.183274385073097 0.790532667469845
0.00388304882308514 -0.193896277318252 0.790532667469845
0.0116985218516738 -0.208439309175928 0.790532667469845
0.0165256938592557 -0.208245347326855 0.790532667469844
0.035400062962662 -0.230537330619908 0.790532667469845
0.0422100919450256 -0.242520539282094 0.790532667469845
0.052028740602216 -0.252018695025436 0.790532667469845
0.0658339227606358 -0.27251551845791 0.790532667469845
0.0738066443890901 -0.272996840545552 0.790532667469845
0.0933125636277635 -0.290909784797503 0.790532667469845
0.0994571889393518 -0.300311250179216 0.790532667469845
0.105710770903683 -0.304167292485074 0.790532667469845
0.12397840194507 -0.325696079834959 0.790532667469845
0.136422617791309 -0.336317284410099 0.790532667469845
0.140195469127324 -0.341750208714016 0.790532667469845
0.151629034656967 -0.361718001787705 0.790532667469845
0.176313864224498 -0.373398549760044 0.790532667469845
0.179354283094505 -0.390637432489094 0.790532667469845
0.197468501212128 -0.40768034350598 0.790532667469845
0.202491159929247 -0.409627153362573 0.790532667469845
0.215462972119319 -0.42207730259278 0.790532667469845
0.219483091396485 -0.434959935872071 0.790532667469845
-0.0138689941661377 -0.157551931438663 0.00865497006733479
-0.0138689941661381 -0.160733150273397 0.0213797200710894
-0.0138689941661377 -0.163913250874436 0.0244736388436934
-0.0138689941661377 -0.155364445202987 0.0419222847277349
-0.013247278897812 -0.158364868092014 0.0587317092868513
-0.0138689941661377 -0.163801586446119 0.0561517968985975
0.000907343842732663 -0.172838471372901 0.0558669697701621
0.0105118309318676 -0.18877900038365 0.0527118837499216
-0.419822655964873 0.272845829700328 0.754621443309122
-0.419040026505813 0.274201383686919 0.760554970601039
-0.418071049840292 0.27587970050295 0.768741971490979
-0.417770711851195 0.27639990115951 0.777772404728249
-0.41753001720252 0.276816796520125 0.78485381753188
-0.420030375355952 0.272486049161262 0.790532667469845
-0.411044746857756 0.27188121402543 0.790532667469845
-0.402926206206206 0.258589474296388 0.790532667469845
-0.395920401933941 0.254105115961045 0.790532667469845
-0.391668408774977 0.247475428215741 0.790532667469845
-0.383815653061735 0.237910014583122 0.790532667469845
-0.373903268310679 0.232193025594697 0.790532667469845
-0.373266900634336 0.225236400081955 0.790532667469845
-0.360683345287429 0.215849029440498 0.790532667469845
-0.355724161248868 0.214791328645878 0.790532667469845
-0.351183217402733 0.201311560290463 0.790532667469845
-0.344567783686325 0.195375554392554 0.790532667469845
-0.331448619809441 0.188582906498362 0.790532667469845
-0.330692490555633 0.176674185217304 0.790532667469845
-0.321811704043962 0.167240299161568 0.790532667469845
-0.317036184698302 0.162240529466291 0.790532667469845
-0.305667272430989 0.153130910528052 0.790532667469845
-0.30305412967864 0.151793651398126 0.790532667469845
-0.29404538748528 0.13365037477018 0.790532667469845
-0.283592792690291 0.130212945112039 0.790532667469845
-0.275598019623749 0.118472747355508 0.790532667469845
-0.271866758015939 0.11776719454339 0.790532667469845
-0.264938814304067 0.10875282660417 0.790532667469845
-0.253315324301672 0.0947549670975778 0.790532667469845
-0.239405060064844 0.0853288163183103 0.790532667469845
-0.239527897654213 0.0809907160594351 0.790532667469845
-0.229270558405187 0.0717285684764412 0.790532667469845
-0.222905397426572 0.0691244900648791 0.790532667469845
-0.211664048678508 0.0600638450101567 0.790532667469845
-0.210830575354235 0.0530984217539562 0.790532667469845
-0.199083482708171 0.0420943079217208 0.790532667469845
-0.194237335018741 0.0347153848498389 0.790532667469845
-0.177172950069066 0.0199460893487908 0.790532667469844
-0.173003949682675 0.0111854323869719 0.790532667469845
-0.164526164330278 0.0051281306070975 0.790532667469845
-0.154795994845854 -0.00703393514657091 0.790532667469845
-0.142402269134191 -0.0215726583319174 0.790532667469845
-0.141126147351138 -0.0299885702191648 0.790532667469845
-0.133086818395794 -0.0377123801627978 0.790532667469845
-0.121493814232323 -0.0461812446791072 0.790532667469845
-0.116522692639853 -0.0523565149545534 0.790532667469845
-0.100820218388682 -0.0614967474304931 0.790532667469845
-0.0932855083081348 -0.069729517244833 0.790532667469845
-0.0793361648698206 -0.0906958090526943 0.790532667469845
-0.0730490560586203 -0.0944402644766205 0.790532667469845
-0.0715760021750715 -0.105188258825334 0.790532667469845
-0.0557402713473774 -0.115878963326524 0.790532667469845
-0.0490694100490529 -0.124916888844872 0.790532667469845
-0.0373788797044934 -0.137814494276008 0.790532667469845
-0.0301129179215681 -0.152314082823292 0.790532667469845
-0.0198762828405864 -0.149688254148361 0.790532667469845
-0.00450920979908521 -0.167848918312303 0.790532667469845
0.00093552019056612 -0.17871015823621 0.790532667469845
0.0149582631855175 -0.191941190673861 0.790532667469844
0.0170001179700753 -0.191263024659975 0.790532667469845
0.0306645914130155 -0.218126651849618 0.790532667469845
0.0410539198777312 -0.220983722904457 0.790532667469845
0.0502021126090652 -0.232549094284424 0.790532667469845
0.0577184336413676 -0.240850477997033 0.790532667469845
0.0774931637011896 -0.259645798348629 0.790532667469845
0.0828907820525695 -0.27232978889034 0.790532667469845
0.0923793490512744 -0.284500125271853 0.790532667469845
0.111475112431881 -0.29786387719883 0.790532667469845
0.110686564699808 -0.304261679778298 0.790532667469845
0.135087626364096 -0.318788366129941 0.790532667469845
0.141700955267924 -0.324703217988629 0.790532667469845
0.140075261738116 -0.338897087160106 0.790532667469845
0.157475147539666 -0.353742028674782 0.790532667469845
0.170716047004371 -0.356856179393137 0.790532667469845
0.187738354928078 -0.382879097518639 0.790532667469845
0.208923488798814 -0.394005838408087 0.790532667469845
0.214396782467278 -0.410439295109311 0.790532667469845
0.227456202989506 -0.418648140836694 0.790532667469845
0.237900881551044 -0.428860964556818 0.790532667469845
0.239999626816406 -0.438786420041763 0.790537217022778
-0.0138689941661377 -0.142103748086666 0.00879381496238856
-0.0138689941661377 -0.144315040692581 0.0127240225545748
-0.0138689941661381 -0.143225987848047 0.0279803276709541
-0.0138689941661377 -0.144659694516501 0.0218813316871875
-0.0138689941661381 -0.141067020775797 0.0480934551504899
-0.0138689941661377 -0.149674934773684 0.0462368220000747
-0.00483930034668372 -0.154051372502215 0.0595854732757738
-0.00543700168748396 -0.151748581897896 0.0600412613138202
0.00381847305833111 -0.166916298845354 0.0570391368756897
0.0131144887268214 -0.174643759454837 0.0555096516920739
-0.412744598832031 0.285105384273285 0.753869563359326
-0.413772228752521 0.283325477039617 0.761456877719502
-0.414867331959843 0.281428702645004 0.766010969439733
-0.413976013064889 0.28297251225681 0.768578350339482
-0.415388562005442 0.280525905723596 0.782092650672006
-0.414153785312123 0.282664601692426 0.790081086253451
-0.404999321512602 0.277755959110988 0.790532667469845
-0.397013548680902 0.262714618074339 0.790532667469845
-0.391676149325429 0.25775083449304 0.790532667469845
-0.382332052514993 0.245721170104698 0.790532667469845
-0.380895431765438 0.251552767533193 0.790532667469845
-0.366202013260724 0.239120755941983 0.790532667469845
-0.370411704248834 0.236011619932597 0.790532667469845
-0.358135599030968 0.22795850771546 0.790532667469845
-0.35284529207014 0.221725311473486 0.790532667469845
-0.341633228768015 0.208343782506442 0.790532667469845
-0.33768679298902 0.199910139891243 0.790532667469845
-0.335705902348651 0.193348609875118 0.790532667469845
-0.324430528782366 0.183902971726997 0.790532667469845
-0.316185428816403 0.183193318626266 0.790532667469845
-0.303117791962219 0.168296822425817 0.790532667469845
-0.304716579330613 0.166053991671536 0.790532667469845
-0.288511252061379 0.153909224428999 0.790532667469845
-0.291902181466924 0.147721960866246 0.790532667469845
-0.279234972674818 0.132698513336245 0.790532667469845
-0.273664094649319 0.13197954297905 0.790532667469845
-0.270016929385154 0.122675111041137 0.790532667469845
-0.256495618009065 0.11328020064943 0.790532667469845
-0.244512139909826 0.10696018354041 0.790532667469845
-0.240418952705336 0.100011217797941 0.790532667469845
-0.234943272538322 0.0944331054591457 0.790532667469845
-0.223815290371108 0.0791363438222873 0.790532667469845
-0.218851415137827 0.0699287279841523 0.790532667469845
-0.212161334564938 0.0579745751975654 0.790532667469844
-0.193503410803796 0.0527701108611996 0.790532667469845
-0.192366065042709 0.039531598547118 0.790532667469845
-0.182685020294595 0.0344139720055701 0.790532667469845
-0.179798122166438 0.0303571812550042 0.790532667469845
-0.169280052896157 0.0190436719061236 0.790532667469844
-0.15416456053068 0.00847730687822188 0.790532667469845
-0.154986820256043 0.000837095927975683 0.790532667469845
-0.141458009859157 -0.0142395966602081 0.790532667469845
-0.136138897594036 -0.0223250262744845 0.790532667469845
-0.127640096656643 -0.0313462746949583 0.790532667469845
-0.111510075756023 -0.0438826446361946 0.790532667469845
-0.102872888499684 -0.0500298072465701 0.790532667469845
-0.102031153193292 -0.0593616134433121 0.790532667469845
-0.0859169694003506 -0.0671505905706535 0.790532667469845
-0.0704779739807463 -0.0809841173995435 0.790532667469845
-0.0641503782567609 -0.0906501736779612 0.790532667469845
-0.0559179722189155 -0.101332477738073 0.790532667469845
-0.0572453133456923 -0.0996521856813544 0.790532667469845
-0.0425900718980748 -0.112077521234169 0.790532667469845
-0.0326332103790315 -0.121434672637977 0.790532667469845
-0.0185975336236519 -0.141491101310679 0.790532667469845
-0.00806835275818715 -0.145986867896984 0.790532667469845
0.000932438145983497 -0.162532713514599 0.790532667469845
0.0120902974659053 -0.175915249234742 0.790532667469845
0.0257492422722064 -0.184071038198702 0.790532667469845
0.0247257338611212 -0.188939050806973 0.790532667469845
0.0366963124831852 -0.206698659819889 0.790532667469845
0.0514253028648636 -0.2070417261821 0.790532667469845
0.0560174083673281 -0.227340486783521 0.790532667469845
0.0804984722613665 -0.244421645674231 0.790532667469845
0.0800415297494657 -0.246097331556197 0.790532667469845
0.0906338735441099 -0.257131344471316 0.790532667469845
0.106018033230369 -0.27926458815347 0.790532667469845
0.112627823042921 -0.279355277987036 0.790532667469845
0.126703231843034 -0.301497288546825 0.790532667469845
0.136476364117626 -0.304702640417326 0.790532667469844
0.148899596453986 -0.320105791598329 0.790532667469845
0.156712871871334 -0.339302822268514 0.790532667469845
0.169483058079857 -0.338343007891052 0.790532667469845
0.178705566291364 -0.352120709816781 0.790532667469845
0.193233249439093 -0.366333424059969 0.790532667469845
0.202787256363631 -0.383359486580714 0.790532667469845
0.214110664289052 -0.396001034291152 0.790532667469845
0.232724642470702 -0.410807085757589 0.790532667469845
0.247584986113687 -0.429232509492672 0.790532667469845
-0.0138689941661377 -0.134690863248693 0.000227376889655176
-0.0138689941661377 -0.12388684733259 0.0103839615189209
-0.0138689941661377 -0.134470459959427 0.0188042204080887
-0.0138689941661377 -0.127196606877084 0.0266624058444097
-0.0138689941661377 -0.1324645376555 0.0335400802381431
-0.0138689941661377 -0.129521728660054 0.0442316770587256
-0.0138689941661377 -0.130038824219084 0.0627085197678152
-0.0138689941661377 -0.1359034698788 0.0617045344719809
0.00293505512887808 -0.154527512273406 0.0594912316144867
0.00281226857621725 -0.146624211589479 0.0610555205715727
-0.4094698899081 0.290777346509533 0.7537915886492
-0.411428247342142 0.287385371934392 0.75347826345025
-0.408873830379857 0.291809751896784 0.760092318149488
-0.409026345743268 0.291545587538422 0.778145162066158
-0.408953763899562 0.291671302979428 0.779346710788817
-0.408913918320749 0.29174031754639 0.788609421798694
-0.405371154580721 0.287416430734617 0.790532667469845
-0.394252513690495 0.276705841643008 0.790532667469845
-0.394734474066575 0.277408162053185 0.790532667469845
-0.383123257533783 0.264909399236984 0.790532667469845
-0.376371059964781 0.254043856710857 0.790532667469845
-0.369293124948656 0.253503215053826 0.790532667469845
-0.3677442872421 0.244344742519126 0.790532667469845
-0.350707618274316 0.234404886376793 0.790532667469845
-0.350867880838233 0.231332445865311 0.790532667469845
-0.347852402211094 0.22209689823527 0.790532667469845
-0.339592852204672 0.216723964311316 0.790532667469845
-0.329458823972385 0.202685548444375 0.790532667469845
-0.317244398891036 0.195360268597904 0.790532667469845
-0.317879871967766 0.190724087282005 0.790532667469845
-0.312245161166871 0.18511743169634 0.790532667469845
-0.297626493417729 0.169978461366956 0.790532667469845
-0.295959501081743 0.166900822375812 0.790532667469845
-0.29457845856717 0.160235283848685 0.790532667469845
-0.276888227965336 0.15002527325112 0.790532667469845
-0.269089292707045 0.140459646573448 0.790532667469845
-0.266108868966367 0.137601282046739 0.790532667469845
-0.258370690636473 0.125641237062233 0.790532667469845
-0.248670601850608 0.119328885730668 0.790532667469845
-0.238723652346646 0.111014877230106 0.790532667469845
-0.226941929315865 0.0957918712531784 0.790532667469845
-0.231431523074901 0.100700750560529 0.790532667469845
-0.21543280542688 0.0833109499252159 0.790532667469845
-0.208204269040622 0.0848521250527397 0.790532667469845
-0.196673088821735 0.0708212613221999 0.790532667469845
-0.192779308355734 0.0613645839716623 0.790532667469845
-0.190586183047359 0.0508432445352554 0.790532667469845
-0.179359300409577 0.0465253650747028 0.790532667469845
-0.17002979577933 0.0349437932643398 0.790532667469845
-0.165785955100652 0.0308552065685128 0.790532667469844
-0.151452195938652 0.0142935923901885 0.790532667469845
-0.14675361526757 0.00538421866567412 0.790532667469845
-0.137345218407479 -0.00307809271350751 0.790532667469845
-0.120984135860119 -0.0147697655562533 0.790532667469845
-0.11807672608712 -0.0235630329086171 0.790532667469845
-0.103163065403033 -0.0359101583630197 0.790532667469844
-0.0996656355652216 -0.0472865234722367 0.790532667469845
-0.0951250120446644 -0.0521251404400689 0.790532667469845
-0.0782594967006276 -0.0616891797530398 0.790532667469845
-0.0678251374951597 -0.0732274080472521 0.790532667469845
-0.0643518221351703 -0.0824234599890672 0.790532667469845
-0.0558861441387543 -0.0891686836943171 0.790532667469845
-0.042532571344015 -0.0984120155554552 0.790532667469845
-0.0319958455372844 -0.119766630930605 0.790532667469845
-0.0218501046331435 -0.123460251883573 0.790532667469845
-0.0148654233752288 -0.136452538984266 0.790532667469844
-0.00221286545887132 -0.140887615638472 0.790532667469845
0.00312039800302276 -0.150191697328912 0.790532667469845
0.0176246585499851 -0.156582313245666 0.790532667469845
0.0239480054155852 -0.168636825840378 0.790532667469845
0.0339208574533672 -0.189420849451559 0.790532667469845
0.0476334242420685 -0.196283180827146 0.790532667469845
0.0488211832466611 -0.200696635532038 0.790532667469845
0.0667306466422363 -0.222122944687211 0.790532667469845
0.0702038275132645 -0.228719364891206 0.790532667469845
0.097795667221503 -0.240955285342152 0.790532667469845
0.100000040612746 -0.248255243818202 0.790532667469844
0.104537764041194 -0.25700357686269 0.790532667469845
0.130429260541851 -0.279482704232428 0.790532667469845
0.132860799857171 -0.284978897859681 0.790532667469845
0.146154088402184 -0.302503585235998 0.790532667469845
0.15442856325897 -0.30257866824548 0.790532667469845
0.17513310448251 -0.326542935000156 0.790532667469844
0.181381925945424 -0.34289664598055 0.790532667469845
0.187579449614131 -0.350257047083982 0.790532667469845
0.204556198962718 -0.372833345840554 0.790532667469845
0.210949928692677 -0.378373315343592 0.790532667469845
0.221682535551754 -0.393304879681721 0.790532667469845
0.230062231839599 -0.3989993041058 0.790532667469845
0.251919266208935 -0.412845373310706 0.790532667469845
-0.115969586722839 -0.00919155573456321 0.0667461287172339
-0.0138689941661377 -0.1062218703398 0.00511769035675
-0.0138689941661381 -0.117382582615289 0.018617956821114
-0.0138689941661377 -0.119491464533842 0.0161790071472799
-0.0138689941661377 -0.117355517206897 0.035484963595578
-0.0138689941661377 -0.107398157606711 0.0480416336438654
-0.0138689941661377 -0.117205730738566 0.0517660300395923
-0.0138689941661377 -0.117442332756031 0.059428235662734
-0.0138689941661381 -0.119912214912762 0.0629656974706888
-0.00423354925027998 -0.122946998590569 0.0657419173455282
0.00813611272478436 -0.14207432216145 0.0619560736534892
0.00905740579350158 -0.147982525527395 0.0607866714440606
-0.403705807662191 0.300761029818454 0.752949565699334
-0.405634114767224 0.29742110393994 0.754356237318736
-0.403918692457301 0.300392302537162 0.767547282265906
-0.403848414108246 0.300514028208399 0.771583833646953
-0.405012095235982 0.29849847337135 0.782946154069403
-0.403797697109272 0.298435814741389 0.790532667469845
-0.40161570257675 0.291728539595812 0.790532667469845
-0.394248031736168 0.286605823211097 0.790532667469845
-0.386833361434103 0.276113593513095 0.790532667469845
-0.378245286730724 0.272066783222361 0.790532667469845
-0.37501115717269 0.262705253398482 0.790532667469845
-0.363706598932204 0.258519315017982 0.790532667469845
-0.356376492393435 0.245397467260049 0.790532667469845
-0.35047279574569 0.244785776319921 0.790532667469845
-0.343841094790195 0.233826262023773 0.790532667469845
-0.338856838500262 0.22933406693529 0.790532667469845
-0.332216270615425 0.219772525587077 0.790532667469845
-0.322103416488659 0.217676989849043 0.790532667469845
-0.317279387541231 0.201749538599139 0.790532667469845
-0.315493435189556 0.205085869641705 0.790532667469845
-0.301487696184514 0.192627291710278 0.790532667469845
-0.299023502100181 0.186601359230511 0.790532667469845
-0.288926038871455 0.178948336130923 0.790532667469845
-0.282743538384355 0.163679929159134 0.790532667469845
-0.268543377282534 0.155320935535839 0.790532667469845
-0.265843123344613 0.144812416372829 0.790532667469845
-0.257805393526275 0.14634762799671 0.790532667469845
-0.246694901872609 0.129864330391346 0.790532667469845
-0.243180370158726 0.129535464431298 0.790532667469845
-0.23348475613351 0.118111595238226 0.790532667469845
-0.23145560626041 0.112197424193743 0.790532667469845
-0.226005230844642 0.108317456861505 0.790532667469845
-0.205000490518495 0.0875635949497667 0.790532667469845
-0.198123639332205 0.0807269215131482 0.790532667469845
-0.194528727210968 0.0739958303904706 0.790532667469845
-0.183063728216232 0.0645307255111757 0.790532667469845
-0.180973706360543 0.0612040411952236 0.790532667469845
-0.169968132349659 0.0493118166329624 0.790532667469845
-0.158472616334056 0.0405406974941183 0.790532667469845
-0.147090895959404 0.0292692035584584 0.790532667469845
-0.144816682286355 0.0177529100137795 0.790532667469845
-0.13244104272159 0.0122131332712834 0.790532667469845
-0.123563243570115 0.000648548896260293 0.790532667469844
-0.116344378729421 -0.0103239766987079 0.790532667469845
-0.108158799817627 -0.0153597854979638 0.790532667469845
-0.103483496727799 -0.0226340248270185 0.790532667469844
-0.0879011419036945 -0.0317702417192441 0.790532667469845
-0.0808330625968113 -0.0510528625146581 0.790532667469845
-0.0794462051025074 -0.0458962213959311 0.790532667469845
-0.0614381671884997 -0.0633632823536474 0.790532667469845
-0.0550726676321574 -0.0776994683806498 0.790532667469845
-0.0409845696893376 -0.0820016494078202 0.790532667469845
-0.0392521390528994 -0.0850640540941355 0.790532667469844
-0.0208079917732212 -0.108417360034202 0.790532667469845
-0.0145124823648512 -0.11422554842237 0.790532667469845
-0.00676473708683766 -0.128210678002471 0.790532667469845
-0.000168061668101818 -0.125445032354405 0.790532667469845
0.0162977187909406 -0.141615989078231 0.790532667469845
0.0284482340950208 -0.164189954288943 0.790532667469845
0.0369114037213843 -0.164516911037994 0.790532667469845
0.0482189700297657 -0.184385959749911 0.790532667469845
0.0506616354560929 -0.193733245832325 0.790532667469845
0.0608351785528379 -0.195554293591854 0.790532667469845
0.0736568271580803 -0.206446842756912 0.790532667469845
0.0844566953744544 -0.214811856129121 0.790532667469845
0.0974741073852561 -0.230103021142214 0.790532667469845
0.101709069829183 -0.247163975556535 0.790532667469845
0.114241982699455 -0.256790169886474 0.790532667469845
0.123262435278144 -0.266629791135726 0.790532667469845
0.140079801286843 -0.281658238270664 0.790532667469845
0.157110027009306 -0.297512905678011 0.790532667469845
0.163132669176708 -0.300740000210856 0.790532667469845
0.1822355069275 -0.323457222789338 0.790532667469845
0.187272179971539 -0.337757168121663 0.790532667469845
0.201194695613902 -0.338944565975785 0.790532667469845
0.210840883401365 -0.352730806031413 0.790532667469845
0.22273526955251 -0.368657418303449 0.790532667469845
0.224654096511208 -0.377889006998515 0.790532667469845
0.24732246592482 -0.392357544699318 0.790532667469845
0.261343848675738 -0.403829089358369 0.790532667469845
0.270950841233348 -0.418956706408819 0.790532667469845
-0.108001604684038 -0.00231284815000061 0.0683232199620224
-0.108482922104971 -0.0083800611868675 0.0682279534959563
-0.0996990653044425 -0.0130601405899371 0.0699665296609289
-0.0951718626798642 -0.0123965353948498 0.0708625923764118
-0.0138689941661377 -0.101349660295233 0.0176310831327674
-0.0138689941661381 -0.103694338993651 0.0181310466064282
-0.0138689941661377 -0.0982724242867621 0.0314964036040125
-0.0138689941661377 -0.0990325280772517 0.0424246027803915
-0.0138689941661377 -0.101533219206948 0.0572911913205353
-0.0138689941661377 -0.105081278874817 0.0620778826006059
-0.0138689941661377 -0.102119261191632 0.0664424996281281
-0.0104069788179628 -0.113975569491025 0.0675176194263356
0.00246667174414728 -0.119683008620517 0.0663879541939772
0.0137508848131848 -0.133073720539616 0.0637375498097482
-0.401766039118719 0.304120807490669 0.757115430812065
-0.39794301300389 0.309163768182656 0.762781126567121
-0.400961564810477 0.305514197865929 0.778478478544724
-0.401815586653564 0.30403498864293 0.781908689056356
-0.394263584921582 0.298453649145261 0.790532667469845
-0.395209694042526 0.295673905077895 0.790532667469845
-0.390631910838379 0.295119403594495 0.790532667469845
-0.376415097991472 0.28300982183771 0.790532667469845
-0.374045846732798 0.277161405810046 0.790532667469845
-0.364882933745545 0.269827028189424 0.790532667469845
-0.360760656670037 0.260855979379949 0.790532667469845
-0.353535590170727 0.254693675816417 0.790532667469845
-0.34111595580088 0.247726152883793 0.790532667469845
-0.341780125933081 0.24520956665923 0.790532667469845
-0.331954046961032 0.233499284821019 0.790532667469845
-0.319085162695735 0.227486980164307 0.790532667469845
-0.316824409713245 0.221757682916426 0.790532667469845
-0.30437602987792 0.208511997507775 0.790532667469845
-0.309132912789293 0.206339116952418 0.790532667469845
-0.296094684750169 0.200872698175232 0.790532667469845
-0.293745770554861 0.186080338953782 0.790532667469845
-0.287543436770675 0.186640878513167 0.790532667469845
-0.279185291239717 0.178645423490386 0.790532667469845
-0.269917449744736 0.163112425488881 0.790532667469845
-0.260817253269155 0.154958446010635 0.790532667469845
-0.249552813456417 0.149790094211703 0.790532667469845
-0.243453406222481 0.146866904179121 0.790532667469845
-0.237655454215972 0.13059211283614 0.790532667469845
-0.230689960812659 0.126358575433377 0.790532667469845
-0.224442496549697 0.11580578858253 0.790532667469845
-0.216088982148836 0.104342705072943 0.790532667469845
-0.207664620517966 0.103840095413018 0.790532667469845
-0.198020642503333 0.0982933704377393 0.790532667469845
-0.192975889885682 0.0893467176775179 0.790532667469845
-0.175615203178892 0.0664331108602676 0.790532667469845
-0.165762297112643 0.0595163822864898 0.790532667469845
-0.1584527468833 0.0535105626326217 0.790532667469845
-0.159447839117243 0.048814988530209 0.790532667469845
-0.137677143188687 0.0298201773733055 0.790532667469845
-0.137132458574087 0.0263029775417995 0.790532667469845
-0.12712135725167 0.0172777505932071 0.790532667469845
-0.119563814951443 0.0145883718515974 0.790532667469845
-0.110036442960715 0.00683729663131395 0.790532667469845
-0.10079218906985 -0.00949252886600157 0.790532667469845
-0.0940430834473305 -0.0168038648466749 0.790532667469845
-0.0869284089631576 -0.0267732760847816 0.790532667469844
-0.0789995512260332 -0.0415638577567774 0.790532667469845
-0.0637570479277268 -0.0464732054546912 0.790532667469845
-0.0488363038611889 -0.0612765300595146 0.790532667469845
-0.042485737776237 -0.0704919694663426 0.790532667469845
-0.0378597989801653 -0.0705358158160531 0.790532667469845
-0.0215188145624803 -0.0847061315227298 0.790532667469845
-0.0131143406988866 -0.101453942203044 0.790532667469845
-0.0142574807116438 -0.10195697103194 0.790532667469845
0.00187126048898031 -0.117096326361637 0.790532667469845
0.0178733255717368 -0.131530796922762 0.790532667469845
0.0170906337774583 -0.137925509303588 0.790532667469845
0.0303500545846127 -0.143721140190978 0.790532667469845
0.0438185592598868 -0.160343611141179 0.790532667469845
0.0522537123357409 -0.172613952902176 0.790532667469845
0.0580677481975932 -0.17540561154803 0.790532667469845
0.064656806248096 -0.184781457340845 0.790532667469845
0.0852082302887575 -0.204751265668205 0.790532667469845
0.101685886926036 -0.222970093061849 0.790532667469844
0.1089463277204 -0.226745896929216 0.790532667469845
0.121468078708045 -0.241933147149795 0.790532667469845
0.133608601891796 -0.249358949354515 0.790532667469845
0.140471694744504 -0.256499114065925 0.790532667469845
0.142371914227275 -0.269055408162392 0.790532667469845
0.156418943464184 -0.282813994750648 0.790532667469845
0.18142144626598 -0.299019479939431 0.790532667469845
0.186194117073901 -0.310252400074023 0.790532667469845
0.196671457228734 -0.32052264764842 0.790532667469845
0.205979615574132 -0.340129302145349 0.790532667469845
0.219738617703737 -0.357924380309432 0.790532667469845
0.226428971053781 -0.362602383461522 0.790532667469845
0.240866828851817 -0.371747084393939 0.790532667469845
0.252996353824304 -0.392142365173862 0.790532667469845
0.263290795176079 -0.393962992708223 0.790532667469845
0.284902265878202 -0.410941337752478 0.790532667469845
-0.104317743769841 0.00957514383877651 0.0690523612636108
-0.102486609074974 0.000441544832430196 0.0694147951246858
-0.0939987791465768 -0.00201513708549977 0.0710947791158832
-0.0885947039904017 -0.0119274099793427 0.0721643999525614
-0.0806705690289433 -0.0110077164372466 0.0737328126082858
-0.0138689941661377 -0.086257897154578 0.00720354611152854
-0.0138689941661377 -0.078626653970681 0.0263986558443202
-0.0138689941661377 -0.080583810618201 0.0374246367355906
-0.0138689941661377 -0.0839782721249692 0.0373833696287966
-0.0138689941661377 -0.0833127490552697 0.0521584243372787
-0.0138689941661377 -0.0871994461016393 0.0594692690266082
-0.0138689941661377 -0.0835088679802723 0.0690167227124573
-0.00180984892532689 -0.094200400414821 0.0714316902490885
0.00106352807123163 -0.0989662600020721 0.070488390503639
0.00619157408624913 -0.112741405068573 0.0677618958185001
-0.393219968054597 0.313886813131948 0.754231279392147
-0.395891984485412 0.311214796701134 0.758273621108399
-0.394657979642416 0.312448801544129 0.764159805319514
-0.392028940357102 0.315077840829444 0.777393486746358
-0.39631767745096 0.310789103735586 0.782958547266071
-0.390379065836822 0.312542318868219 0.790532667469845
-0.388718850741392 0.298263664597227 0.790532667469845
-0.387322818152726 0.301296602793231 0.790532667469845
-0.369402617133641 0.286975883314748 0.790532667469845
-0.370777907171151 0.286125760758691 0.790532667469845
-0.359548965165625 0.268936617236002 0.790532667469845
-0.354348960948541 0.274530411255949 0.790532667469845
-0.348149097290934 0.261111449780972 0.790532667469845
-0.342804798775321 0.258648849853234 0.790532667469845
-0.335487089130585 0.24362545094535 0.790532667469845
-0.33017925040029 0.236828323113217 0.790532667469845
-0.311618225895456 0.230522227800048 0.790532667469845
