ply
format ascii 1.0
element vertex 854
property float x
property float y
property float z
end_header
0.0212100774277403 0.0346724854153452 0.2403348407918
0.022421514054817 0.0346724854153452 0.248618226531811
0.0170556305315439 0.0346724854153452 0.261696468282336
0.0209422881874474 0.0346724854153452 0.27059410921675
0.0199382693405287 0.0346724854153452 0.287626911130395
0.0207654069458669 0.0346724854153452 0.291258617129904
0.0155924425274434 0.0346724854153452 0.300680780545707
0.0203431411817055 0.0346724854153452 0.310601644551104
0.0209743817462939 0.0346724854153452 0.322893226213989
0.021891197485846 0.0346724854153449 0.324588607749331
0.0171816870176161 0.5 0.758578050462905
0.0168357873092191 0.5 0.760875865979047
0.0156062318137251 0.5 0.779138363971036
0.0137780882869654 0.5 0.778892484453768
0.0179559272687434 0.494149209850771 0.790532667469845
0.0158027922814545 0.489575602170001 0.790532667469845
0.0206848902045271 0.48592226802695 0.790532667469845
0.0206588307181311 0.477801113747174 0.790532667469845
0.0145462539703253 0.466005398233691 0.790532667469845
0.0132080665717456 0.455379562567014 0.790532667469845
0.0162772988801374 0.436403275725148 0.790532667469845
0.0149998703677696 0.435576375364256 0.790532667469845
0.015358367466333 0.429218661299988 0.790532667469845
0.0146610796218912 0.408880739446927 0.790532667469845
0.0175862227009833 0.400780352253577 0.790532667469845
0.0137443514178514 0.391192628239162 0.790532667469845
0.0217105016616179 0.387145582506654 0.790532667469845
0.0147500351957319 0.37220219234803 0.790532667469845
0.0149440362141247 0.358590517472736 0.790532667469845
0.0206953215810578 0.347136736668395 0.790532667469845
0.0218165390926665 0.339402551667743 0.790532667469845
0.0148874127006823 0.331320520201778 0.790532667469845
0.0185688775919855 0.319252589258151 0.790532667469845
0.0167446370481253 0.299000878116063 0.790532667469845
0.0209230437264684 0.293114293164656 0.790532667469845
0.0185209141000928 0.28601849319261 0.790532667469845
0.0195824821735739 0.265709411283055 0.790532667469845
0.015587955288556 0.263839225806082 0.790532667469845
0.0166630636000494 0.253430563000616 0.790532667469845
0.0164298797523523 0.240833747004389 0.790532667469845
0.0138062569705141 0.230287516732789 0.790532667469845
0.0196190357894355 0.214308207090322 0.790532667469845
0.0225934919998339 0.201392225606885 0.790532667469845
0.0222359650027544 0.197990121056096 0.790532667469845
0.0221585782566328 0.181962407630203 0.790532667469845
0.0164304465729241 0.163351174724632 0.790532667469845
0.0186135911284897 0.162928075133932 0.790532667469845
0.0183229652323702 0.145181114870913 0.790532667469845
0.021515513488528 0.12654582141348 0.790532667469845
0.0189766493949018 0.122669744476991 0.790532667469845
0.0198218842374982 0.100875172444358 0.790532667469845
0.0206141673461035 0.0980410464116844 0.790532667469845
0.0169741230120176 0.0775400178348577 0.790532667469845
0.0186100034174875 0.0576070517915631 0.790532667469845
0.0216796701570189 0.0633216390384697 0.790532667469845
0.0242494523239048 0.0308377291995584 0.790532667469845
0.0154129076419143 0.0357773312323712 0.790532667469845
0.0171760822923329 0.0214905946965987 0.790532667469845
0.0157482045904273 -0.00321048765024676 0.790532667469845
0.0163158873338925 -0.0180373855925381 0.790532667469845
0.0207658670134281 -0.0296149315698849 0.790532667469845
0.017180305483213 -0.0345464877448619 0.790532667469845
0.0156642597867329 -0.0562979011366459 0.790532667469845
0.0221465662314372 -0.0651658644107687 0.790532667469845
0.0251104387033756 -0.0849840029293917 0.790532667469845
0.0200408709382769 -0.100050719947781 0.790532667469845
0.0176786211987727 -0.117592391491178 0.790532667469845
0.018796859948687 -0.126465612730438 0.790532667469845
0.0256809824289772 -0.143479061098641 0.790532667469845
0.0210298793489424 -0.151861458460134 0.790532667469845
0.0252341872202734 -0.17419411798118 0.790532667469845
0.0222049900252183 -0.185140080415661 0.790532667469845
0.0234439265860472 -0.201203218066362 0.790532667469845
0.0266907026608181 -0.218632919901441 0.790532667469845
0.0236420757052345 -0.223911353746264 0.790532667469845
0.0186187633331437 -0.255436290768675 0.790532667469845
0.024860342084909 -0.273987716580965 0.790532667469845
0.0231896350412983 -0.286946911713765 0.790532667469845
0.0201313522129176 -0.288643066093819 0.790532667469845
0.0273746112000723 -0.320747945990932 0.790532667469845
0.0182516962812202 -0.339793402934309 0.790532667469845
0.0185371614488669 -0.356081828092822 0.790532667469844
0.0272286125195758 -0.361746889101389 0.790532667469845
0.0226609564243868 -0.385431206447305 0.790532667469845
0.0200715693738706 -0.391784158032088 0.790532667469845
0.0244908363570165 -0.417238608033097 0.790532667469845
0.0195809669098606 -0.431418617718121 0.790532667469845
0.0263257931571787 -0.449740046678861 0.790532667469845
0.0202814144349959 -0.473416703259561 0.790532667469845
0.0291507299017946 -0.488464695714193 0.790532667469845
0.0342946706097411 0.0138689941661388 0.0036706578536347
0.0297490583833072 0.0346724854153456 0.0353076953610485
0.0326722425582697 0.0346724854153456 0.043888329018164
0.0285642016001668 0.0346724854153456 0.0542910002132497
0.0251161721956774 0.0346724854153452 0.0627837836064006
0.0347228788951393 0.0138689941661388 0.0576175507048569
0.0321826156323119 0.0346724854153449 0.0822455095456196
0.0343062562052551 0.0138689941661388 0.0679339903417884
0.0348050018643811 0.0138689941661392 0.0776581991592518
0.0327553557545388 0.0346724854153452 0.11720112440423
0.0294449001330191 0.0346724854153456 0.122184045287678
0.0304866065659241 0.0346724854153452 0.132501906461019
0.0269938480544219 0.0346724854153452 0.143404664965183
0.0254172824002562 0.0346724854153452 0.145914224416436
0.0277268737074741 0.0346724854153452 0.168630306820229
0.0251823769941848 0.0346724854153452 0.188728753329682
0.027413564420441 0.0346724854153449 0.189132079351914
0.029603695765136 0.0346724854153452 0.208537303861599
0.0272843471749828 0.0346724854153452 0.217695180312011
0.0262415011960103 0.0346724854153452 0.218677174938124
0.0246860242652409 0.0346724854153452 0.229675372080495
0.0253479320582112 0.0346724854153449 0.240009017766576
0.0326328910754532 0.0346724854153456 0.247381673505334
0.0246749242109158 0.0346724854153452 0.275209046704382
0.0322013829409084 0.0346724854153452 0.304524482817249
0.0310299511054986 0.0346724854153452 0.310505803310275
0.0248528269402754 0.0346724854153452 0.324761945380863
0.0237430433657302 0.5 0.760022468178473
0.0253502188620593 0.5 0.767556957714089
0.0258540529134278 0.5 0.773601866188262
0.0230608950104847 0.5 0.788007227946794
0.0283807878689826 0.499022020799805 0.790532667469845
0.0242862084192546 0.491672898667782 0.790532667469845
0.0248988773597812 0.485065470850662 0.790532667469845
0.0221543630510278 0.467086693418234 0.790532667469845
0.0212722749743131 0.462174055797858 0.790532667469845
0.0216151190858829 0.45241379728185 0.790532667469845
0.0214177479996034 0.441124078880232 0.790532667469845
0.0296505891323223 0.432898517756016 0.790532667469845
0.0234919259606514 0.421448401921289 0.790532667469845
0.0240586212911621 0.414873923048639 0.790532667469845
0.026122676754286 0.404329487434491 0.790532667469845
0.0236690777119083 0.3842268031985 0.790532667469845
0.021897538026831 0.379069617518579 0.790532667469845
0.0291092080101336 0.365017114059146 0.790532667469845
0.0270582412685208 0.35631754759281 0.790532667469845
0.0288796208990403 0.349018493279021 0.790532667469845
0.0265362825092083 0.3343640952073 0.790532667469845
0.0225725989531635 0.328631273696345 0.790532667469845
0.0301035429818746 0.320889937010504 0.790532667469845
0.0255088299474817 0.301606261793111 0.790532667469845
0.0241537402424414 0.297739447884842 0.790532667469845
0.023907782204707 0.285701723207869 0.790532667469845
0.0241912492834871 0.265994800454167 0.790532667469845
0.0231793120308982 0.263700051888372 0.790532667469845
0.0269322425863772 0.250311268040124 0.790532667469845
0.0296411699138904 0.230562054735235 0.790532667469845
0.031770278567254 0.226435810747042 0.790532667469845
0.0264045502766808 0.213626165231998 0.790532667469845
0.0318948475332222 0.20519335011776 0.790532667469845
0.0264648786636452 0.1937268553527 0.790532667469845
0.0270368202140708 0.185262564940537 0.790532667469844
0.0267508893107667 0.16744459838137 0.790532667469845
0.0252894645582077 0.159953832578271 0.790532667469845
0.0306511102420144 0.136176000950598 0.790532667469845
0.0317753827254525 0.120943520336538 0.790532667469845
0.0277079406513707 0.111681592770001 0.790532667469845
0.0313363891334935 0.0998778891071622 0.790532667469845
0.0255950286956667 0.0875160412944294 0.790532667469845
0.0265942812062265 0.0795893809861189 0.790532667469845
0.0292220577057205 0.0693678732839762 0.790532667469845
0.0248327396130597 0.0482248937367599 0.790532667469845
0.0291342704089647 0.0314693235810885 0.790532667469845
0.0319757890989946 0.0276871960635612 0.790532667469845
0.0291453801465053 0.00626044452887271 0.790532667469845
0.0301703750048146 0.00341925436550344 0.790532667469845
0.0270615026170057 -0.0163810887798613 0.790532667469845
0.0353366838266344 -0.0178276798321353 0.790532667469845
0.0268881786465008 -0.0484443107611776 0.790532667469845
0.0289790297781488 -0.0540115998692635 0.790532667469845
0.027483204435686 -0.0731268083164425 0.790532667469845
0.0291504055731597 -0.0864966913865142 0.790532667469845
0.0339877632278102 -0.100743754037362 0.790532667469845
0.0320577600525641 -0.115802578090412 0.790532667469845
0.0302078299275286 -0.120544659267575 0.790532667469844
0.030536316718054 -0.148203633237338 0.790532667469845
0.0346408212549643 -0.156346583751774 0.790532667469845
0.0300473714008174 -0.161336595640162 0.790532667469845
0.0294668177116597 -0.176480535390853 0.790532667469845
0.0271361713884797 -0.202365027021976 0.790532667469844
0.0282048993211762 -0.224217275735871 0.790532667469845
0.0301583259342203 -0.245286051980633 0.790532667469845
0.0333455939449424 -0.251522284043601 0.790532667469845
0.0285579531524878 -0.263668760373471 0.790532667469844
0.0368488046182561 -0.28070379838413 0.790532667469845
0.0385138276705949 -0.292193700201429 0.790532667469845
0.0369681232565376 -0.323404669075962 0.790532667469845
0.0327042046696408 -0.32324784601753 0.790532667469845
0.0281367509583168 -0.345946310512498 0.790532667469845
0.0287716154868559 -0.357336799122798 0.790532667469845
0.0302157823902646 -0.378368875468015 0.790532667469845
0.0329289052826063 -0.399366793913034 0.790532667469845
0.0327585224396715 -0.41519393995186 0.790532667469845
0.0323330199604888 -0.437653876594941 0.790532667469845
0.035426187261598 -0.450360764808995 0.790532667469845
0.0322113889885422 -0.481913235140625 0.790532667469845
0.0308812555342038 -0.492869671755806 0.790532667469845
0.0418422700906736 0.0138689941661388 0.00369403195105074
0.0378006516803653 0.0138689941661392 0.0191378098943764
0.0357502874310819 0.0138689941661384 0.0240942521949473
0.0406561033308608 0.0138689941661388 0.0365609564061604
0.0424749855765145 0.0138689941661388 0.0485975201093185
0.0371742277331436 0.0138689941661384 0.056773756074195
0.0414696528971675 0.0138689941661384 0.0660375051632369
0.0419748198443107 0.0138689941661388 0.0780361292550066
0.0423424443197455 0.013051889300501 0.0813190433017896
0.0394303758999232 0.00286310895385862 0.0818954248230782
0.0418453669590797 -0.012987973232294 0.0814174291100997
0.035648379211041 0.5 0.751291911317578
0.0298977322427847 0.5 0.760292465786819
0.0362707480737117 0.5 0.769367240428229
0.0306932821213599 0.5 0.775611617366087
0.0307578587667564 0.5 0.786417282377735
0.0298812232671646 0.494190964186756 0.790532667469845
0.0375180192731317 0.486705206111752 0.790532667469845
0.031307759084544 0.479789869924154 0.790532667469845
0.0325803878068681 0.473244396476345 0.790532667469845
0.0340872794717619 0.459797588754998 0.790532667469845
0.0316618679251133 0.44382706685131 0.790532667469845
0.0362536995593783 0.438226009170786 0.790532667469845
0.0313879451953041 0.433804030443904 0.790532667469845
0.0322243065578162 0.421244663083995 0.790532667469845
0.033868484204249 0.413243971697015 0.790532667469845
0.0356768028588175 0.399656321543077 0.790532667469845
0.0325854663768562 0.383923632593893 0.790532667469845
0.0377093091650281 0.387704685436072 0.790532667469845
0.0374205551381635 0.364955476534639 0.790532667469845
0.0361060851335915 0.354785258211986 0.790532667469845
0.034293885831496 0.352966260054872 0.790532667469845
0.0379050301177392 0.343133033010334 0.790532667469845
0.0348243721119696 0.322228569464771 0.790532667469845
0.0326096573700104 0.321539377389169 0.790532667469845
0.039960321586691 0.305437394254681 0.790532667469845
0.0398832910142008 0.29398537116657 0.790532667469845
0.0326878043791382 0.276794242330918 0.790532667469845
0.0351995372558717 0.267837527672772 0.790532667469845
0.034237041341689 0.260827430502582 0.790532667469845
0.0342021112530595 0.252103404154208 0.790532667469845
0.0371427146877419 0.243945660263575 0.790532667469845
0.0332963856182598 0.232284730394956 0.790532667469845
0.0376916115688045 0.212664436385723 0.790532667469845
0.0332196931506321 0.208638934548909 0.790532667469845
0.0331563236382079 0.184910331106313 0.790532667469845
0.0414119505463824 0.175713825343137 0.790532667469845
0.0406748963393572 0.162659502441354 0.790532667469845
0.0427968193083174 0.151306892539368 0.790532667469845
0.0401306137460305 0.135529311641778 0.790532667469845
0.0383348233482707 0.133344485894856 0.790532667469845
0.0366407003994352 0.128175295121918 0.790532667469845
0.035191028748892 0.109379061938016 0.790532667469845
0.0389857483378967 0.0885142965325806 0.790532667469845
0.0348631582794518 0.0819504753118924 0.790532667469845
0.0343712792365281 0.0690189017031879 0.790532667469845
0.0390586586054869 0.0538475444608992 0.790532667469845
0.0440494239868242 0.0444271240170686 0.790532667469845
0.0395412393605289 0.0332069715373753 0.790532667469845
0.0445648199673666 0.0130080632678338 0.790532667469845
0.0405626295150725 -0.00197522692086803 0.790532667469845
0.0452152599515182 -0.016988732270323 0.790532667469845
0.0415652753232256 -0.0250386868217581 0.790532667469845
0.0393993073185203 -0.0406674315195614 0.790532667469845
0.040832438324124 -0.0477297970994982 0.790532667469845
0.0358653245934311 -0.0713054036391914 0.790532667469845
0.0392064873238023 -0.075670042404739 0.790532667469845
0.0452231058256338 -0.0933807057835876 0.790532667469845
0.0422950481167524 -0.117858512415331 0.790532667469845
0.0376064127713749 -0.123779668080597 0.790532667469844
0.0410384652235521 -0.141973493693372 0.790532667469845
0.0410704378231628 -0.158201987685016 0.790532667469845
0.0371296024056627 -0.18005862974681 0.790532667469845
0.041783964189185 -0.189529678213812 0.790532667469845
0.0474390245638904 -0.208590900110128 0.790532667469845
0.0411153916513721 -0.212618356349995 0.790532667469845
0.0428300451863104 -0.238431275714568 0.790532667469845
0.0401373715579114 -0.2502095801009 0.790532667469845
0.0476075458171093 -0.263647175644648 0.790532667469845
0.0462821177858019 -0.285132183993437 0.790532667469845
0.0444441672549735 -0.287283842566537 0.790532667469845
0.0446889826973157 -0.324164715566643 0.790532667469845
0.0429203640227213 -0.336354678591709 0.790532667469845
0.0395639426580867 -0.356877021076775 0.790532667469845
0.0440918219538006 -0.375645992291498 0.790532667469845
0.0433529737754424 -0.370959539066783 0.790532667469844
0.0505321879085516 -0.408392092259382 0.790532667469845
0.0513340179622519 -0.417576975850547 0.790532667469845
0.0462126775525937 -0.430738851395061 0.790532667469845
0.0466588906079697 -0.465509863132961 0.790532667469845
0.0423839899133291 -0.466985340198611 0.790532667469845
0.0429122376451238 -0.486297432554808 0.790532667469845
0.0494081669300269 -0.494138477387383 0.790532667469845
0.0522265474801366 0.0138689941661392 0.0122537024934582
0.0525700308474666 0.0138689941661388 0.0111380098281884
0.0453998147839445 0.0138689941661392 0.0207387045036504
0.0546773922332437 0.0138689941661384 0.0343269270279129
0.0448613479088163 0.0138689941661388 0.0361652659638297
0.0501229456601496 0.0138689941661388 0.0526512576070312
0.0500703941004723 0.0138689941661392 0.0609620415516329
0.0476447570878225 0.0138689941661388 0.0728441650599199
0.0469699600583194 0.012291345474145 0.0804031257556796
0.0495403842736411 0.00290251549617363 0.0798943653812668
0.0497668622409664 -0.012362296419062 0.0798495389223629
0.0375452429447723 0.5 0.757378333211523
0.0383681025995069 0.5 0.765769004379584
0.0398666391123729 0.5 0.772575283769437
0.0442647842600531 0.5 0.786129285758499
0.0437334708138432 0.495579917018794 0.790532667469845
0.0426821568571434 0.490809779073085 0.790532667469845
0.0419241450989804 0.476008667994953 0.790532667469845
0.0442459435669277 0.472416430476446 0.790532667469845
0.0391250823276402 0.46102967484556 0.790532667469845
0.0438467872463185 0.452586516737353 0.790532667469845
0.0407129663367444 0.444965799407149 0.790532667469845
0.0471285143711818 0.433104088430095 0.790532667469845
0.0389959232287148 0.421596863658019 0.790532667469845
0.0424457447570576 0.416110597159426 0.790532667469845
0.0457714168723964 0.402743349838879 0.790532667469845
0.0435632947052523 0.390378405878018 0.790532667469845
0.0441672494034119 0.382331763851799 0.790532667469845
0.0434606013980268 0.365827537004438 0.790532667469845
0.0451736905510477 0.365133755201471 0.790532667469845
0.0461567306771106 0.357694212289998 0.790532667469845
0.0437970927059584 0.343504541669167 0.790532667469845
0.0422955667986808 0.321017100304743 0.790532667469845
0.0429500883716868 0.325115975921346 0.790532667469845
0.0465961046163857 0.311244337165544 0.790532667469845
0.0410973868069018 0.285188924448606 0.790532667469845
0.0474271682173547 0.284605139500264 0.790532667469845
0.0437804579152566 0.277342007107171 0.790532667469845
0.0441723383268313 0.262521558909771 0.790532667469845
0.0451057536131003 0.2460482972395 0.790532667469845
0.0452868397715671 0.240418433852226 0.790532667469845
0.0432755528587263 0.228182242100937 0.790532667469845
0.0435837705483931 0.216408600272081 0.790532667469845
0.04588725264915 0.203951918133628 0.790532667469845
0.0433663795035936 0.194555896029522 0.790532667469845
0.0458272001191912 0.183279256858669 0.790532667469845
0.0510302770946945 0.160512936554468 0.790532667469845
0.0517033363767191 0.152507388171657 0.790532667469845
0.0435342742960121 0.146197098379937 0.790532667469845
0.0451919252906979 0.131707282226791 0.790532667469845
0.0492818492683374 0.118170525241547 0.790532667469845
0.0446167852010886 0.100262194389918 0.790532667469845
0.0472785443018099 0.0903540416657197 0.790532667469845
0.0534816171865115 0.0781547546124154 0.790532667469845
0.0442954402920809 0.0688691451533553 0.790532667469845
0.0474706748759524 0.0572621487250206 0.790532667469845
0.0504447201484343 0.0474203230806287 0.790532667469845
0.049247355507627 0.022220845969128 0.790532667469845
0.046677322460999 0.0192564131037304 0.790532667469845
0.0533440316921217 -0.00997089657383592 0.790532667469845
0.0511260879248957 -0.015566862296167 0.790532667469845
0.0509352437560026 -0.0237299514227201 0.790532667469845
0.0523244150116284 -0.043171204392229 0.790532667469845
0.0503005772899717 -0.0656408979362647 0.790532667469845
0.0495240855551541 -0.0660985405100236 0.790532667469845
0.0497537577533131 -0.091219902580469 0.790532667469844
0.0562820595510443 -0.103150455138403 0.790532667469845
0.0559303215383727 -0.114718923950725 0.790532667469845
0.055011471130417 -0.130902797811073 0.790532667469845
0.0518703537472997 -0.142183764217926 0.790532667469845
0.0556728329549459 -0.148477835135649 0.790532667469845
0.0575352354370377 -0.163695178419993 0.790532667469845
0.0522277422470588 -0.186985838611631 0.790532667469845
0.0491862323031958 -0.202634848295236 0.790532667469844
0.0488185180842799 -0.207538384214195 0.790532667469845
0.0493378152608221 -0.226852792556622 0.790532667469845
0.0541562127723197 -0.244749918747276 0.790532667469845
0.0508586097669245 -0.260694988521963 0.790532667469845
0.049153814764345 -0.280508628183251 0.790532667469845
0.0576937553168235 -0.287659413006036 0.790532667469845
0.0531867775981241 -0.324520144899688 0.790532667469845
0.0526935389946396 -0.328236603633574 0.790532667469845
0.0608143889192381 -0.345305523631899 0.790532667469845
0.0589535238200195 -0.359915217264957 0.790532667469845
0.0512984537284166 -0.385096812973949 0.790532667469845
0.0587609053337149 -0.393325137871749 0.790532667469845
0.0564533232505829 -0.417212273526113 0.790532667469845
0.0620204385677495 -0.437742751519058 0.790532667469845
0.0522602811275621 -0.453349727947256 0.790532667469845
0.0543761739333847 -0.467525761555599 0.790532667469845
0.0527638233908459 -0.482864529361776 0.790532667469845
0.0639147191956236 0.0138689941661384 0.00179068446283848
0.0566703594273981 0.0138689941661388 0.0175109339986595
0.0548342386613101 0.0138689941661384 0.0292007494717641
0.0605354191750984 0.0138689941661388 0.0286040409833511
0.0628916927811846 0.0138689941661388 0.035993145160435
0.0599769958084028 0.0138689941661388 0.0546156734200394
0.0546811625506886 0.0138689941661392 0.0623140562220451
0.0632367657041567 0.0138689941661388 0.0738956599241344
0.0605759277680841 0.0136794456503067 0.0777101161018612
0.0617182277222654 0.00494413033471223 0.0774840223120042
0.0469149130390896 0.5 0.750857213109873
0.0459727688195491 0.5 0.759270713160222
0.0485348950543045 0.5 0.771430573070567
0.0526074738638209 0.5 0.778868009164496
0.0487533029627351 0.5 0.778101363355268
0.0467226570185947 0.499483033294757 0.790532667469845
0.0517018551867512 0.489077224990484 0.790532667469845
0.0483913546278403 0.475583982318492 0.790532667469845
0.0493393177969767 0.461800214068585 0.790532667469845
0.0467130848776787 0.465716949166051 0.790532667469845
0.0544921310336435 0.452072796129011 0.790532667469845
0.0498014463400638 0.441096120291324 0.790532667469845
0.0485291604729794 0.431335730106236 0.790532667469845
0.0524314656043718 0.414893219437666 0.790532667469845
0.0553605298021214 0.414750373839555 0.790532667469845
0.0562188847852239 0.396448729899238 0.790532667469845
0.0525060643257088 0.387730303334696 0.790532667469845
0.0511374007904911 0.372929701617259 0.790532667469845
0.0527522290730876 0.371047057882986 0.790532667469845
0.0565649737317896 0.360184191681 0.790532667469845
0.0536637946847407 0.355008754317291 0.790532667469845
0.0545387202815878 0.33621822702409 0.790532667469845
0.0550553351211814 0.334041061959166 0.790532667469845
0.0562257863308925 0.312930227592012 0.790532667469845
0.0582329983705009 0.306721593378308 0.790532667469845
0.0510462709836429 0.294799529088674 0.790532667469845
0.0543268267876014 0.283279267416907 0.790532667469845
0.0546823788247111 0.267710583954444 0.790532667469845
0.0514015916501749 0.264530492356381 0.790532667469845
0.0530820757611245 0.256931670012282 0.790532667469845
0.0511303356914634 0.235269753508844 0.790532667469845
0.0599094860854242 0.232739381833746 0.790532667469845
0.0595370088189505 0.216271438635588 0.790532667469845
0.0601843400235251 0.199653548315314 0.790532667469845
0.0557271302364296 0.196366678541834 0.790532667469845
0.0575509322814475 0.185863220779902 0.790532667469845
0.0533026657807145 0.17084417767505 0.790532667469845
0.0561230965097276 0.161772700273146 0.790532667469845
0.0591280429582774 0.142805012757769 0.790532667469845
0.0537032212761514 0.12563099722177 0.790532667469845
0.0562977063785044 0.111903957161763 0.790532667469845
0.0624247408038803 0.106953132458912 0.790532667469845
0.0544570935086226 0.0971984361925132 0.790532667469845
0.0545356768177455 0.0755013793387908 0.790532667469844
0.0566221254268513 0.0703547185243705 0.790532667469845
0.0550844331258853 0.0577329874656963 0.790532667469845
0.0583034648521544 0.0428696568545551 0.790532667469845
0.0555505175326502 0.0260605877137262 0.790532667469845
0.0628318723885471 0.0209420248164205 0.790532667469845
0.0581894250119524 0.00704772253800453 0.790532667469845
0.057943081092929 -0.0104835786355619 0.790532667469844
0.0562655552617797 -0.0320651007920331 0.790532667469845
0.0610444308777261 -0.0447373302211102 0.790532667469845
0.0563853427757735 -0.0609093568766033 0.790532667469844
0.0642313605088326 -0.0724320419765733 0.790532667469845
0.0623516568233142 -0.0861488879155058 0.790532667469845
0.0614895714480558 -0.0942954592056216 0.790532667469845
0.065454630888743 -0.102611030949192 0.790532667469845
0.0619037774905461 -0.133577412516555 0.790532667469845
0.0650683262434344 -0.150176273985614 0.790532667469845
0.0652472388063 -0.154807181494307 0.790532667469845
0.0606575066187671 -0.170038094121938 0.790532667469845
0.0636923456659943 -0.192998122870663 0.790532667469845
0.0637944672410456 -0.19718001192075 0.790532667469845
0.0667772018427486 -0.22071486570309 0.790532667469845
0.059572962252245 -0.240520653634841 0.790532667469845
0.0653940511156369 -0.256988909736783 0.790532667469844
0.0686562945032052 -0.267448412643558 0.790532667469845
0.0623339556875412 -0.292468428826836 0.790532667469845
0.0683844358294319 -0.293546753846724 0.790532667469845
0.0615715186659643 -0.325008765981794 0.790532667469845
0.0644466320091508 -0.333680459546453 0.790532667469845
0.0707307770761381 -0.348687911362062 0.790532667469845
0.0693993144105412 -0.355545104282153 0.790532667469845
0.066817794887328 -0.394178578172908 0.790532667469845
0.0694911207028171 -0.393838673320366 0.790532667469845
0.0679852303135238 -0.415261002124291 0.790532667469845
0.0696626441622257 -0.435245989588827 0.790532667469845
0.0676995588471392 -0.45746744383739 0.790532667469845
0.074198934472613 -0.470770085628856 0.790532667469845
0.0746580289216789 -0.493599527175602 0.790532667469845
0.0693452167233456 -0.49604625595598 0.790532667469845
0.0666394486316573 0.0138689941661388 0.00269999937745618
0.0713030319445877 0.0138689941661388 0.0185283961183548
0.0683625168246486 0.0138689941661388 0.0216877036338756
0.0658291921902819 0.0138689941661392 0.0352354602889816
0.0657793204608637 0.0138689941661388 0.0451290495407574
0.0736857627199247 0.0138689941661388 0.0572756822236316
0.0747252957737614 0.0138689941661388 0.0672076409506776
0.0701666454367211 0.0138689941661388 0.0691049287575892
0.0647870351367556 0.00910897718360793 0.0768766176665415
0.0651516484697568 0.00151266095453135 0.0768044502730392
0.0571979215668318 0.5 0.754151377832352
0.0593279300638654 0.5 0.765496274696298
0.0545935456512261 0.5 0.764241222526192
0.0550884083140038 0.5 0.776571820151092
0.0588305480134135 0.5 0.789151483414951
0.0617457672699636 0.499950827304677 0.790532667469845
0.0589380681135057 0.493061236027754 0.790532667469845
0.0622812591732979 0.481753424531691 0.790532667469845
0.0585968198685412 0.464416639389555 0.790532667469845
0.0555767244231026 0.45483355791369 0.790532667469845
0.0630497285282113 0.449439904003145 0.790532667469845
0.0580879720565874 0.439020632932758 0.790532667469845
0.0595613183583178 0.438447757175589 0.790532667469845
0.0583326149614301 0.421167598233528 0.790532667469845
0.0574257011210829 0.414917933784827 0.790532667469845
0.0565974259103191 0.397725599933864 0.790532667469845
0.0639621081828165 0.395901652490935 0.790532667469845
0.063940572114355 0.380489480185256 0.790532667469845
0.0581935584900408 0.363250411914063 0.790532667469845
0.0594402806620347 0.360000954223651 0.790532667469845
0.0628160613099742 0.343946586996956 0.790532667469845
0.0663557880047149 0.337999591615015 0.790532667469845
0.0639391187213226 0.325072428500549 0.790532667469845
0.0623291159868042 0.322834799110565 0.790532667469845
0.0647272980185508 0.305195451703182 0.790532667469845
0.067112110329832 0.297450259366176 0.790532667469845
0.0656108205266415 0.280371495800863 0.790532667469845
0.065854078213915 0.278548201012775 0.790532667469845
0.0679722878731339 0.26162612338603 0.790532667469845
0.0615952941691973 0.242860461539515 0.790532667469845
0.062084968015433 0.237522612399469 0.790532667469845
0.0651174102732302 0.230208730506183 0.790532667469845
0.0618473819232221 0.210175509003009 0.790532667469845
0.0629214950158342 0.210472221569277 0.790532667469845
0.0700679420030968 0.190785081276427 0.790532667469845
0.0653856189571164 0.18529804152566 0.790532667469845
0.0689600552785293 0.165377060067789 0.790532667469845
0.0683824708667398 0.155724982744659 0.790532667469845
0.0665379900170913 0.135078676873173 0.790532667469844
0.0651976587122548 0.126404291263382 0.790532667469845
0.0685064677727807 0.11705020438647 0.790532667469845
0.067944250400587 0.108060064057053 0.790532667469845
0.0646974167818284 0.0900746126388561 0.790532667469845
0.0681437642009839 0.0878883742068992 0.790532667469845
0.0693179891770882 0.0689467612411072 0.790532667469844
0.0675092506343864 0.0466892328732137 0.790532667469845
0.0650027271892086 0.0482051111955578 0.790532667469845
0.0701504089613753 0.0355904968542917 0.790532667469845
0.0670074090996612 0.01897776406334 0.790532667469844
0.0649918044079593 -0.00355802627107957 0.790532667469845
0.0744829192284082 -0.0167053700922169 0.790532667469845
0.0718051752995346 -0.0243032118091677 0.790532667469845
0.0663707436811289 -0.0448119821313336 0.790532667469845
0.0747036909667868 -0.0569987324638309 0.790532667469845
0.0733081039972592 -0.0696117745608655 0.790532667469845
0.0717839887677652 -0.0815280397697417 0.790532667469845
0.0742291109861883 -0.101478396837318 0.790532667469845
0.0730022254554125 -0.113139624564659 0.790532667469845
0.0696100383208608 -0.122199136615119 0.790532667469845
0.0735854181329214 -0.135077274657609 0.790532667469845
0.0768971183654286 -0.150386520422503 0.790532667469845
0.0779926536610235 -0.174023191820305 0.790532667469845
0.0761090470781934 -0.178349131585522 0.790532667469845
0.0724171235675235 -0.205442193007921 0.790532667469845
0.0729398484835179 -0.224862376784454 0.790532667469845
0.0718424868308971 -0.228062898404132 0.790532667469845
0.0790990436030432 -0.249236047472065 0.790532667469845
0.0730962030135825 -0.258497563912299 0.790532667469845
0.0746926069508768 -0.288085488552531 0.790532667469845
0.0746140016660043 -0.301425562564258 0.790532667469845
0.0793881931003711 -0.311982264882128 0.790532667469845
0.0809343216615829 -0.335443320374924 0.790532667469845
0.0807985326257418 -0.346398897955936 0.790532667469845
0.0759020217585165 -0.368344620095149 0.790532667469845
0.0758101097005651 -0.383125727832684 0.790532667469845
0.0799272739074861 -0.39528958573994 0.790532667469845
0.0794768223412738 -0.410790185851196 0.790532667469845
0.0842337260694694 -0.442186421827432 0.790532667469845
0.0758878821153237 -0.462311936129271 0.790532667469845
0.0837625679167784 -0.474996492356633 0.790532667469845
0.0803279252573801 0.0138689941661384 0.00853707385918013
0.0794254872467144 0.0138689941661388 0.0142359738779899
0.0820358013010537 0.0138689941661388 0.0285433321429586
0.0824998419429875 0.0138689941661388 0.0347246629807691
0.0790794661240815 0.0138689941661388 0.0437888620039379
0.0820710095735753 0.0138689941661388 0.0529647785237283
0.0841596354057194 0.0138689941661388 0.0596865894949192
0.0801140903553519 0.0138689941661388 0.0732904359163926
0.081336265495608 0.00865925812119983 0.0736010522624226
0.0797601907466551 -0.0107369653717646 0.0739130024746094
0.067131651392732 0.499650218427791 0.751658398396929
0.0686774800485786 0.49923601488782 0.755030289013771
0.0640507452386295 0.5 0.765182513496731
0.0666910739249883 0.499768270804476 0.774783772400124
0.0629580498213753 0.5 0.789025447297498
0.0695146307375915 0.497847301313832 0.790532667469845
0.0671883902837489 0.490305383178022 0.790532667469845
0.0667935942171439 0.476378913213695 0.790532667469845
0.0647955271571367 0.476800728266306 0.790532667469845
0.0719376313073139 0.456894747460731 0.790532667469845
0.0715302010046781 0.446575451981204 0.790532667469845
0.0665651466653743 0.443931040024313 0.790532667469845
0.0709340485856649 0.431161202100994 0.790532667469845
0.0713253375368502 0.420711849999109 0.790532667469845
0.0683072763568716 0.406298882757394 0.790532667469845
0.0718500301984975 0.397637657878322 0.790532667469845
0.072050967984485 0.391469214320546 0.790532667469845
0.0711672608854623 0.382018829992871 0.790532667469845
0.0714714177668582 0.368221217457154 0.790532667469845
0.0692122159283682 0.357614856590816 0.790532667469845
0.0687495826064965 0.35352731270265 0.790532667469845
0.0668431118395589 0.342860098563109 0.790532667469845
0.0672852344591186 0.325191861828656 0.790532667469845
0.0674988427786239 0.323158472783156 0.790532667469845
0.0721828235041918 0.309610231600852 0.790532667469845
0.0696547686586467 0.290043552396681 0.790532667469845
0.0723776312136111 0.27955838196662 0.790532667469845
0.0734914474942989 0.266819083293491 0.790532667469845
0.0701923707603297 0.2683730300453 0.790532667469845
0.0709942397286689 0.244546457317035 0.790532667469845
0.0774600988045418 0.240003311205914 0.790532667469845
0.0777004094762341 0.229041810214926 0.790532667469845
0.0707768419204142 0.218184529261636 0.790532667469844
0.0767667551629266 0.206128711818209 0.790532667469845
0.0704171686456992 0.184107079158865 0.790532667469845
0.0787612052252051 0.18092362941497 0.790532667469845
0.0745087559595661 0.168378203337685 0.790532667469844
0.0719150777547387 0.146325491370746 0.790532667469845
0.0744263032188713 0.14179325216907 0.790532667469845
0.0800240705227453 0.138191397574033 0.790532667469845
0.0781121588817068 0.118120337560582 0.790532667469845
0.0806076473815161 0.101901192450827 0.790532667469845
0.0762390942500182 0.0895026197859781 0.790532667469845
0.0749707834236007 0.0785995982107152 0.790532667469844
0.0749364985125864 0.0639202697967733 0.790532667469845
0.075549866322827 0.0605740329250569 0.790532667469845
0.0824478290317696 0.0457195860256849 0.790532667469844
0.0834605819004056 0.0299474981854741 0.790532667469845
0.0814041751671362 0.0182367084947468 0.790532667469845
0.076274236350868 0.00937697926811563 0.790532667469845
0.0779392386368624 -0.0170175557650274 0.790532667469844
0.0795137339339381 -0.0290184517113267 0.790532667469845
0.0760083822743254 -0.0350208630928961 0.790532667469845
0.0820473775001114 -0.0591247447749238 0.790532667469845
0.0817322596124612 -0.062486463432331 0.790532667469845
0.0825776414093842 -0.0846720066981438 0.790532667469845
0.0782086200284871 -0.0912610882431649 0.790532667469845
0.0854554094463257 -0.116575003106348 0.790532667469845
0.0874510573895596 -0.12491214966505 0.790532667469845
0.0793190490407041 -0.150607924444432 0.790532667469845
0.083203166741836 -0.151517108479732 0.790532667469845
0.0867573578054011 -0.175595704499727 0.790532667469845
0.0800112958633144 -0.182754587668759 0.790532667469845
0.0833077523910947 -0.205146460369104 0.790532667469845
0.0892318932678157 -0.214467078098471 0.790532667469845
0.0846278924378776 -0.222887911888568 0.790532667469845
0.0876146324157937 -0.255793433443242 0.790532667469845
0.0884413099502725 -0.267642617213847 0.790532667469845
0.0831756090180834 -0.276262576056057 0.790532667469845
0.0877446901877128 -0.301874852238703 0.790532667469845
0.0833653411126301 -0.311005001358349 0.790532667469845
0.0924891470438108 -0.328060272566801 0.790532667469845
0.088547696124413 -0.35205564261703 0.790532667469845
0.0893135661511755 -0.364088494911373 0.790532667469845
0.095650538620698 -0.370970812869886 0.790532667469845
0.0903802576251688 -0.408722377392676 0.790532667469845
0.0859598349133094 -0.41558552729298 0.790532667469845
0.0921832176249931 -0.438167338191771 0.790532667469845
0.0867570765321745 -0.458687518641591 0.790532667469845
0.0871280399765531 -0.467865249897788 0.790532667469845
0.0916328606317423 -0.486413645601518 0.790532667469845
0.0899594877148734 0.0138689941661384 0.00161793118760382
0.0890946269625213 0.0138689941661388 0.014134590518991
0.0905641265980368 0.0138689941661392 0.0194239699143466
0.0920363911705304 0.0138689941661388 0.0295529834672986
0.0924333637933164 0.0138689941661388 0.0399510518056523
0.090718895343414 0.0138689941661388 0.0538733024558126
0.086392345574414 0.0138689941661392 0.0648565162226876
0.0868248018210911 0.00924813091976352 0.0725147141477695
0.0912023046874282 0.00816001076119312 0.071648281290502
0.0922602000366387 -0.013868994166139 0.0714620400076027
0.0860553713395029 -0.0136835029081031 0.072667006418269
0.0767357841270609 0.497076798817626 0.756243606236729
0.0716459445313712 0.498440617226895 0.769024474747223
0.076620444647584 0.497107703938007 0.77807388518
0.0775240123688535 0.496865593696787 0.777737901654399
0.0745587618737794 0.491285060473898 0.790532667469845
0.079023627194458 0.493582647169242 0.790532667469845
0.0786443656411554 0.478039290739654 0.790532667469845
0.0790243287199308 0.467143534547147 0.790532667469845
0.075405532005573 0.468315026017962 0.790532667469845
0.0764402727552878 0.452796946003987 0.790532667469845
0.0782545577864813 0.437122476380239 0.790532667469845
0.0778093220689286 0.434497547641722 0.790532667469845
0.0811304977287183 0.421966147770355 0.790532667469845
0.0734439508738043 0.415398813206216 0.790532667469845
0.0741001685590352 0.400503985257187 0.790532667469845
0.0795336531473038 0.392968113143857 0.790532667469845
0.0766037489429351 0.381047435735958 0.790532667469845
0.0818376329947116 0.376544914831544 0.790532667469845
0.0830175889893631 0.362828187064764 0.790532667469845
0.0830879933442034 0.352857435280011 0.790532667469845
0.0779985189540687 0.343848420945934 0.790532667469845
0.0801390463678012 0.334421638082233 0.790532667469845
0.0788997599011583 0.318830368453307 0.790532667469845
0.0793998314992987 0.302119876570954 0.790532667469845
0.0833536668140203 0.288650528433781 0.790532667469845
0.0797519450191621 0.284520726723859 0.790532667469845
0.0858121081825064 0.267770470547214 0.790532667469845
0.0792491228292019 0.253723688412128 0.790532667469845
0.0841862826250022 0.252321867812589 0.790532667469845
0.0806971176266078 0.23179411089936 0.790532667469845
0.0850645366794918 0.228565913347871 0.790532667469845
0.0851245482629247 0.218170934034908 0.790532667469845
0.0883335379023854 0.202192644379288 0.790532667469845
0.0814369835092265 0.191713288729554 0.790532667469845
0.082988035628371 0.18077783329704 0.790532667469845
0.0849815441271331 0.160621119049881 0.790532667469845
0.0838434114577637 0.157387943260265 0.790532667469845
0.0809873469453264 0.135263262825429 0.790532667469845
0.0895495523369591 0.138767834211918 0.790532667469845
0.0828758312350515 0.114762141862115 0.790532667469845
0.0842629230490305 0.108050471371442 0.790532667469845
0.0850639828397075 0.0865845104568965 0.790532667469845
0.0895952297158826 0.0842167174226792 0.790532667469845
0.0829388601007705 0.073091306321911 0.790532667469845
0.088797255629954 0.0525117597563721 0.790532667469844
0.0845742586381501 0.0370290760112501 0.790532667469845
0.087848140373233 0.0352051198018558 0.790532667469845
0.0878841113678522 0.00636939337963407 0.790532667469845
0.0891280376219915 -0.00378646059205941 0.790532667469845
0.0858536709182195 -0.0123967976209055 0.790532667469845
0.0945045567549775 -0.021950031791337 0.790532667469845
0.0915350305311692 -0.0342891147500224 0.790532667469845
0.0889954212432917 -0.0501658417031297 0.790532667469845
0.0963341903690197 -0.0624780799377901 0.790532667469845
0.0879890037667081 -0.0732078991616384 0.790532667469845
0.0895110618772327 -0.0896924507345536 0.790532667469845
0.0943404251585393 -0.105279778184481 0.790532667469845
0.0977609526969262 -0.121471926090748 0.790532667469845
0.0914854313626262 -0.141978648599884 0.790532667469845
0.0984520422891539 -0.15693602288648 0.790532667469845
0.0948025597325429 -0.172053074889445 0.790532667469845
0.0949985989462553 -0.177445303455632 0.790532667469845
0.0973421847717821 -0.20279066618964 0.790532667469845
0.0964540845629524 -0.212288080913773 0.790532667469845
0.0994495622103637 -0.230623472219782 0.790532667469845
0.0962584894507522 -0.255904452633533 0.790532667469845
0.102548049847528 -0.264897550850123 0.790532667469845
0.0974448768733873 -0.293134145812856 0.790532667469845
0.0997113693470355 -0.303317009747186 0.790532667469845
0.100402228406854 -0.322215377634007 0.790532667469845
0.100515299012942 -0.336983900955692 0.790532667469844
0.103194944355872 -0.348866521865083 0.790532667469845
0.104959714280537 -0.35577655474499 0.790532667469845
0.0961378644656745 -0.386388800008692 0.790532667469845
0.106976155138744 -0.400568770428694 0.790532667469845
0.104104877749516 -0.411381399653693 0.790532667469845
0.103602392609306 -0.43836651928557 0.790532667469845
0.100018330844649 -0.441529198121042 0.790532667469845
0.106294350761453 -0.480421053820935 0.790532667469845
0.0994156208229193 0.0138689941661388 0.0132151579690992
0.0974691859636049 0.0138689941661388 0.00869399891491033
0.0955690230449797 0.0138689941661388 0.0316777634341922
0.0958485386488719 0.0138689941661388 0.0380437858846172
0.0971027400940103 0.0138689941661388 0.0497083261567598
0.0947690917548935 0.0138689941661388 0.0513681817197278
0.0948112810976167 0.0138689941661388 0.0584424064039635
0.104370179302091 0.00761417569486639 0.0690419827739979
0.103390879986555 0.00542250281586989 0.0692358140814777
0.0961844096411602 -0.00866796765432406 0.0706621804101424
0.0798895461367661 0.496231750834006 0.757481090925643
0.0834943338362066 0.495265850881055 0.760523273501714
0.0838296935475953 0.495175991517214 0.776620160091625
0.0825703063905559 0.495513443288901 0.783769398447086
0.0854036299209218 0.494754256537044 0.787623446018192
0.0863541419733115 0.490588199724668 0.790532667469845
0.0830916272452383 0.478978162605969 0.790532667469845
0.0822941489073575 0.468958817875286 0.790532667469845
0.084082962515025 0.459463169958402 0.790532667469845
0.0870937413159369 0.450396236550952 0.790532667469845
0.0816828726112656 0.434955565152445 0.790532667469845
0.0822867286951916 0.433817403601248 0.790532667469845
0.087536292647885 0.423166531466105 0.790532667469845
0.0885501129672837 0.408534188347076 0.790532667469845
0.0876904210541583 0.40308302884062 0.790532667469845
0.0879510980649735 0.390895614995355 0.790532667469845
0.0885849945770753 0.3870429113573 0.790532667469845
0.0892587508576606 0.374736243195256 0.790532667469845
0.0864595837726398 0.353174603774842 0.790532667469845
0.085251985570235 0.350126057155706 0.790532667469845
0.0859359213245804 0.342063626193425 0.790532667469845
0.0888328471054798 0.328335609033396 0.790532667469845
0.087782192394571 0.315017725066293 0.790532667469845
0.0931550914975084 0.309195425857665 0.790532667469845
0.0866190283270382 0.295002849470427 0.790532667469845
0.0887078254729225 0.284976330185974 0.790532667469845
0.0866206598440044 0.26719988488597 0.790532667469845
0.0884974168732603 0.262330533463196 0.790532667469845
0.0872652705595409 0.249022091214401 0.790532667469845
0.0927267875893396 0.234454496664359 0.790532667469845
0.0948944754267785 0.223305403847027 0.790532667469845
0.0925115249266526 0.219419416372473 0.790532667469844
0.0910533299200706 0.208632632659262 0.790532667469845
0.0896003118926444 0.195135384255574 0.790532667469844
0.0942714449194749 0.171546722662323 0.790532667469845
0.0950790193512136 0.173617128782623 0.790532667469845
0.0965634589385445 0.161325580954904 0.790532667469845
0.0950200450493067 0.146311521485473 0.790532667469845
0.0942739499656079 0.126373053602922 0.790532667469845
0.0973669954470395 0.124648401722233 0.790532667469845
0.0984202158152111 0.112171118563265 0.790532667469845
0.101271810393751 0.0935049930964526 0.790532667469845
0.101513694475421 0.0698484279954868 0.790532667469845
0.100256209597783 0.0610756380810848 0.790532667469844
0.0961569276555481 0.0504253182213301 0.790532667469845
0.0998245061660563 0.0394919276702907 0.790532667469845
0.102161148260796 0.0214665149836276 0.790532667469845
0.0963889294886002 0.0133642745582505 0.790532667469844
0.0988839606968702 0.0110841612340423 0.790532667469845
0.0984251153330695 -0.0072686078557922 0.790532667469845
0.0987485420039576 -0.0286479786471331 0.790532667469845
0.100378187253462 -0.0389085641885477 0.790532667469845
0.0979421707680463 -0.0552794281104164 0.790532667469845
0.102326490379396 -0.0640627883269435 0.790532667469845
0.104350283315832 -0.0841516812570222 0.790532667469845
0.10607740272801 -0.0932153094779245 0.790532667469845
0.100484717497567 -0.11867986332456 0.790532667469845
0.101072174185424 -0.133595715011525 0.790532667469845
0.10286522065389 -0.149014503029072 0.790532667469845
0.105994450110823 -0.159454392878814 0.790532667469845
0.103988545485387 -0.177030016892268 0.790532667469845
0.105191258344514 -0.180961809060424 0.790532667469845
0.112198418762541 -0.202024006077393 0.790532667469845
0.109387236710024 -0.214919956335938 0.790532667469844
0.108308055185534 -0.243354512799149 0.790532667469845
0.108035488737994 -0.250674007588787 0.790532667469845
0.11148218239459 -0.264334660902796 0.790532667469845
0.105989481328949 -0.282943797153841 0.790532667469845
0.105443114852353 -0.297494204895075 0.790532667469845
0.113046363302302 -0.305786695044788 0.790532667469845
0.114783283022353 -0.331701989000443 0.790532667469845
0.117125435880385 -0.349197520302749 0.790532667469845
0.109499519451105 -0.359305441615066 0.790532667469845
0.113788775634789 -0.381762835414498 0.790532667469845
0.114228775196555 -0.388353045000309 0.790532667469845
0.115881392125025 -0.40933382455462 0.790532667469845
0.110128845091125 -0.42973061221213 0.790532667469845
0.109616071320469 -0.451837191061871 0.790532667469845
0.1147163206475 -0.474283640875178 0.790532667469845
0.112265019092998 0.0138689941661384 0.0111622593724863
0.105922695842525 0.0138689941661392 0.0167865678442023
0.105846820441825 0.0138689941661388 0.0216521872006351
0.112550959800352 0.0138689941661388 0.0356232054755968
0.114309789657024 0.0138689941661388 0.0445373273371313
0.107506372900801 0.0138689941661388 0.0505975148442186
0.106562630253614 0.0138689941661388 0.0616614462407427
0.111854794152762 0.012220676560335 0.0675605637027537
0.112796993800285 0.00165192397779254 0.0673740754792969
0.1087807156329 -0.0121447895676949 0.0681690116505345
0.087895339410499 0.494086604991538 0.753192492618491
0.088629917402369 0.493889775411839 0.759129865331837
0.0940766665216409 0.492430323383955 0.762787207111984
0.090221143466898 0.493463407672874 0.782054968160317
0.0958795501105607 0.491947242182257 0.781077043507213
0.0898595387510726 0.484052294310255 0.790532667469845
0.0944986125390158 0.482040341103024 0.790532667469845
0.0932317203104259 0.471312231601328 0.790532667469845
0.0921256719246292 0.465491581180699 0.790532667469845
0.0901373336287695 0.45172242830256 0.790532667469845
0.0935191194929557 0.443363908823781 0.790532667469845
