ply
format ascii 1.0
element vertex 837
property float x
property float y
property float z
end_header
-0.279972969894512 0.0585326493073995 0.328125000000001
-0.293875536226306 0.0715982401498398 0.328125000000001
-0.29989764761159 0.0747062063647342 0.328125000000001
-0.326448372438548 0.0867401174912496 0.328125000000001
-0.332266381285417 0.0947271110661213 0.328125000000001
-0.332150040240901 0.100046988305599 0.328125000000001
-0.35341395523074 0.110592041964912 0.328125000000001
-0.360135248273 0.11709947992958 0.328125000000001
-0.370558429742743 0.136592369948348 0.328125000000001
-0.375447136407512 0.142546468034817 0.328125000000001
-0.387854917194216 0.146139455915736 0.328125000000001
-0.392223431739402 0.156500782775261 0.328125000000001
-0.414488198885846 0.176936049864437 0.328125000000001
-0.425577646339052 0.180941708161772 0.328125000000001
-0.433608272933803 0.184701146159125 0.328125000000001
-0.446055329018876 0.201614019946197 0.328125000000001
-0.467982470939319 0.216441678144609 0.32507797965178
-0.464331494868134 0.219515241341726 0.32370965797306
0.0395899650123062 -0.250000000000001 0.321956647080545
0.0320486572455415 -0.244199480658349 0.325816926337493
0.027348638821912 -0.237891363565266 0.328125000000001
0.0172549523172037 -0.230521936790343 0.328125000000001
0.0075488549421148 -0.226874929310119 0.328125000000001
0.00885470025275795 -0.221112674200069 0.328125000000001
0.000677504417728072 -0.210299171437582 0.328125000000001
-0.00781960573312948 -0.207020918457573 0.328125000000001
-0.010930310991604 -0.201356531915136 0.328125000000001
-0.0246635005325555 -0.188573908228129 0.328125000000001
-0.0311000298383395 -0.178560297650396 0.328125000000001
-0.0384349847222127 -0.177788515213643 0.328125000000001
-0.0519377158264343 -0.16845728418557 0.328125000000001
-0.0558076307856593 -0.157754916476147 0.328125000000001
-0.0658676928551087 -0.16182750829157 0.328125000000001
-0.0746737768018065 -0.151710174961856 0.328125000000001
-0.084716832476074 -0.144990165137968 0.328125000000001
-0.0959958581311438 -0.132153500793546 0.328125000000001
-0.0942372072511083 -0.129777082487312 0.328125000000001
-0.103527463949118 -0.118284325575596 0.328125000000001
-0.114800215759834 -0.112350235885206 0.328125000000001
-0.120894581675205 -0.105624777699755 0.328125000000001
-0.131267967477339 -0.0954653111606562 0.328125000000001
-0.143480853563345 -0.0897676137512315 0.328125000000001
-0.145846047141776 -0.0810475448362144 0.328125000000001
-0.15381438253206 -0.0740913703646364 0.328125000000001
-0.164367184915715 -0.0691428154992625 0.328125000000001
-0.178253412865962 -0.0577117107408922 0.328125000000001
-0.187008660968056 -0.0507035963213897 0.328125000000001
-0.199439698329541 -0.0371271029787324 0.328125000000001
-0.201770403109614 -0.0270519228353729 0.328125000000001
-0.21438275501965 -0.0249540872344286 0.328125000000001
-0.214824414634927 -0.0208734452083799 0.328125000000001
-0.225330861464018 -0.00733689810468721 0.328125000000001
-0.242786598396004 0.00127004913281308 0.328125000000001
-0.248154662812383 0.0142404271020736 0.328125000000001
-0.252589397233628 0.0147309439384294 0.328125000000001
-0.266400721394702 0.0204623972661321 0.328125000000001
-0.27081694333007 0.0333602898375901 0.328125000000001
-0.291376998348241 0.0417443084382072 0.328125000000001
-0.291562205204656 0.0532239931795176 0.328125000000001
-0.305152133446752 0.0626832653795265 0.328125000000001
-0.315600941541924 0.0708503739549427 0.328125000000001
-0.327503208161683 0.0765399884614178 0.328125000000001
-0.328364286108421 0.0819487539775735 0.328125000000001
-0.34478532981389 0.0984375239014912 0.328125000000001
-0.35108858186436 0.103360521198785 0.328125000000001
-0.367575955024229 0.114422695794679 0.328125000000001
-0.376162506705247 0.121910536058228 0.328125000000001
-0.385037723967295 0.133517228897215 0.328125000000001
-0.392334089746659 0.142508332724251 0.328125000000001
-0.416674991935671 0.158654517881355 0.328125000000001
-0.421085191480034 0.169734576021097 0.328125000000001
-0.430676701099401 0.172245346192109 0.328125000000001
-0.441806200036556 0.190271832822694 0.328125000000001
-0.451509002869119 0.190293080419132 0.328125000000001
-0.456261240642184 0.20394008732488 0.328125000000001
-0.472168511276844 0.210399392036067 0.327900983745838
0.0259807915359215 -0.250000000000001 0.314161854401218
0.021195211854357 -0.250000000000001 0.315397484071108
0.0237632455139857 -0.246050943962051 0.324891194685642
0.022691541929913 -0.247035640557833 0.324398846387751
0.00617081704055421 -0.236736580019413 0.328125000000001
0.00478300859962287 -0.233661049117151 0.328125000000001
-0.00381012819417923 -0.222251546095942 0.328125000000001
-0.00691755441127638 -0.216720001280699 0.328125000000001
-0.0175564259345562 -0.216469623638297 0.328125000000001
-0.0216327117748325 -0.204934742579029 0.328125000000001
-0.0284022393787735 -0.199823962306165 0.328125000000001
-0.0433795120082306 -0.193295029167521 0.328125000000001
-0.0442454302896523 -0.182690132376539 0.328125000000001
-0.0544092377400292 -0.174691290464885 0.328125000000001
-0.0623004490776876 -0.174125474433549 0.328125000000001
-0.0743503638146179 -0.165622498928411 0.328125000000001
-0.0771033268694761 -0.155261763135506 0.328125000000001
-0.0873740063356397 -0.153786481674208 0.328125000000001
-0.0934154464762381 -0.144941026322782 0.328125000000001
-0.10059204216053 -0.131752746457577 0.328125000000001
-0.110539147729396 -0.119863515471751 0.328125000000001
-0.129325314683597 -0.111874698395218 0.328125000000001
-0.124407523199505 -0.11437861210302 0.328125000000001
-0.134800932317289 -0.103263362376463 0.328125000000001
-0.150851670425694 -0.0961781033449794 0.328125000000001
-0.153996983658347 -0.0873182802226788 0.328125000000001
-0.168967656500095 -0.0834120344124671 0.328125000000001
-0.177395632002773 -0.0640399061759615 0.328125000000001
-0.179442619241883 -0.066816379889338 0.328125000000001
-0.193321423523159 -0.0597193183999527 0.328125000000001
-0.197190021160941 -0.0580829057524207 0.328125000000001
-0.203877345223236 -0.0437586505240483 0.328125000000001
-0.216951884111187 -0.0291484600576741 0.328125000000001
-0.222717473055328 -0.0235834133063891 0.328125000000001
-0.229774375267034 -0.0171449662848373 0.328125000000001
-0.246832675716001 -0.00167963042945918 0.328125000000001
-0.255293172063464 0.00603254124146389 0.328125000000001
-0.265560553965788 0.00811259126294302 0.328125000000001
-0.27208058878482 0.0143250884713167 0.328125000000001
-0.280729709713496 0.0237281566676342 0.328125000000001
-0.294575078915151 0.0289224770993685 0.328125000000001
-0.30556116922467 0.0363018787148966 0.328125000000001
-0.312888526508289 0.0550470865483227 0.328125000000001
-0.316488404846047 0.0590908347413937 0.328125000000001
-0.333537526926282 0.0747560673310701 0.328125000000001
-0.34559262240769 0.0759475319389261 0.328125000000001
-0.35534882622858 0.0840737174850556 0.328125000000001
-0.355841094251857 0.0961380451478105 0.328125000000001
-0.377657684601021 0.10679219649184 0.328125000000001
-0.385085311381559 0.1174652790207 0.328125000000001
-0.391224797919941 0.123988677765887 0.328125000000001
-0.407853735297967 0.131816090406748 0.328125000000001
-0.416999862322384 0.14438966890244 0.328125000000001
-0.42499163343175 0.153759517985091 0.328125000000001
-0.440112614646488 0.172104727949646 0.328125000000001
-0.451604375365281 0.172297757888986 0.328125000000001
-0.451530329266918 0.180026520437024 0.328125000000001
-0.462640868430288 0.184026570032847 0.328125000000001
-0.484591080688726 0.205817027766326 0.328125000000001
0.0140848134678191 -0.250000000000001 0.314494283054754
0.00713868591146145 -0.24854265722409 0.323645338054623
-0.00194531577065105 -0.242652608416635 0.32659036245835
-0.00784134378498849 -0.235494663922112 0.328125000000001
-0.0140961138274286 -0.231847866658196 0.328125000000001
-0.0193948650874631 -0.227192048109068 0.328125000000001
-0.021819290230784 -0.223091893787929 0.328125000000001
-0.0356989960438213 -0.206463425374794 0.328125000000001
-0.0477150859107445 -0.20604427708981 0.328125000000001
-0.0510141027879566 -0.195211884289811 0.328125000000001
-0.0516676455042914 -0.19301700252174 0.328125000000001
-0.0671868356406434 -0.182383456421097 0.328125000000001
-0.0750516088992777 -0.179521065087167 0.328125000000001
-0.075142157859235 -0.176123336542824 0.328125000000001
-0.0871475106003147 -0.163308041171613 0.328125000000001
-0.0986898236122047 -0.156895086674783 0.328125000000001
-0.105002826059557 -0.150069245024201 0.328125000000001
-0.117458027986342 -0.143058598743054 0.328125000000001
-0.120648313078521 -0.13278084138248 0.328125000000001
-0.128690587533198 -0.128185963652596 0.328125000000001
-0.133763317854614 -0.117916992212283 0.328125000000001
-0.144754361173056 -0.116197382804238 0.328125000000001
-0.153569041873615 -0.108292259687399 0.328125000000001
-0.162727217824146 -0.097314760837969 0.328125000000001
-0.168166488163418 -0.0918833737745408 0.328125000000001
-0.185890460965199 -0.0844195813438631 0.328125000000001
-0.187067391156057 -0.0753235620343768 0.328125000000001
-0.203534655878816 -0.0668019331325164 0.328125000000001
-0.208343594594911 -0.0533117789831016 0.328125000000001
-0.210342539960106 -0.0475607395415253 0.328125000000001
-0.22616665059476 -0.0467734632064971 0.328125000000001
-0.232505417457519 -0.0326119104809686 0.328125000000001
-0.241604458827611 -0.0223021984970994 0.328125000000001
-0.252199670863955 -0.0151857394305378 0.328125000000001
-0.265530056918878 -0.0136587458167431 0.328125000000001
-0.26896566374503 0.00086208355484552 0.328125000000001
-0.289012538950078 0.0154368931456592 0.328125000000001
-0.288372143038306 0.0147736329273962 0.328125000000001
-0.296388817096453 0.0301559195544817 0.328125000000001
-0.309923758234911 0.0380721339449487 0.328125000000001
-0.330153205336332 0.0487536705485215 0.328125000000001
-0.331029723450314 0.05005202646891 0.328125000000001
-0.339401712548771 0.0616177044275099 0.328125000000001
-0.353872453001701 0.0732374397616338 0.328125000000001
-0.362534380036519 0.0790343437388029 0.328125000000001
-0.375272056306398 0.0911023738202815 0.328125000000001
-0.388107749275459 0.101465969369615 0.328125000000001
-0.399685258775283 0.114177844790585 0.328125000000001
-0.394097221905039 0.115451445817202 0.328125000000001
-0.415580420748055 0.12078913351347 0.328125000000001
-0.421210117892019 0.138072883960477 0.328125000000001
-0.440891658942922 0.146692638132869 0.328125000000001
-0.438413383641372 0.158889003618513 0.328125000000001
-0.453798085573806 0.169657891101903 0.328125000000001
-0.468096084517384 0.168871942955468 0.328125000000001
-0.473546814386117 0.179677884449037 0.328125000000001
-0.489065545390307 0.201094259236942 0.328125000000001
-0.234374999999999 -0.0475912911337749 0.00552498020778578
-0.234374999999999 -0.0462743199255178 0.0108712969721789
-0.00442297821476143 -0.250000000000001 0.314609644823591
-0.00490524732066864 -0.246475166878371 0.324679083227482
-0.00946610463425172 -0.245345102808829 0.325244115262253
-0.0155358762697413 -0.240440340587382 0.327696496372977
-0.0248937461370412 -0.236594922180771 0.328125000000001
-0.0298961240219126 -0.22893870856386 0.328125000000001
-0.0414155476827937 -0.220687658802671 0.328125000000001
-0.0429569181564663 -0.209095746379226 0.328125000000001
-0.054859664123877 -0.200636650378496 0.328125000000001
-0.0644607287023982 -0.197231826555473 0.328125000000001
-0.0630348598361911 -0.18880026996602 0.328125000000001
-0.0784712155750579 -0.188921820504157 0.328125000000001
-0.0867192505413809 -0.17484742513587 0.328125000000001
-0.0976268338543132 -0.172243421588788 0.328125000000001
-0.103267492746146 -0.160627181662907 0.328125000000001
-0.110454195631656 -0.159580289377878 0.328125000000001
-0.114822647176282 -0.154437291325111 0.328125000000001
-0.13292156296276 -0.140355841998074 0.328125000000001
-0.133219249670371 -0.131844282387102 0.328125000000001
-0.142124172174691 -0.121864867557782 0.328125000000001
-0.151950116374565 -0.116795985783472 0.328125000000001
-0.164094201988215 -0.102313783452176 0.328125000000001
-0.171404471859997 -0.103036314109943 0.328125000000001
-0.178091270631311 -0.0997085016935358 0.328125000000001
-0.187229782831115 -0.0901641492085053 0.328125000000001
-0.200389851969008 -0.0807676645024018 0.328125000000001
-0.209713823780472 -0.0659217812180891 0.328125000000001
-0.208832538051953 -0.0700570278337173 0.328125000000001
-0.229006873542814 -0.0517835102665811 0.328125000000001
-0.232608703309031 -0.0535517575375246 0.328125000000001
-0.242977141051214 -0.0442028705972091 0.328125000000001
-0.259584323495175 -0.0286729621685912 0.328125000000001
-0.260706725437804 -0.0217312167783572 0.328125000000001
-0.261760463312895 -0.0210341281232481 0.328125000000001
-0.273954430194544 -0.00814970160558277 0.328125000000001
-0.282812624771868 0.00384711279400516 0.328125000000001
-0.304767006608838 0.0169014664229586 0.328125000000001
-0.309701170887667 0.0217355806942436 0.328125000000001
-0.325350798639672 0.0370067702400967 0.328125000000001
-0.333104203173804 0.0339820626420144 0.328125000000001
-0.346730408446144 0.0440299260515452 0.328125000000001
-0.353943212091059 0.054584396117976 0.328125000000001
-0.356279761924264 0.0704245035038953 0.328125000000001
-0.362754984627521 0.0670520371902898 0.328125000000001
-0.383530715579018 0.0856446666214541 0.328125000000001
-0.383461001211032 0.0870441831754036 0.328125000000001
-0.398102696149981 0.095715336070795 0.328125000000001
-0.411413715776045 0.112711213338424 0.328125000000001
-0.420962389580002 0.123694374547682 0.328125000000001
-0.427502148750328 0.119308109963531 0.328125000000001
-0.450441865426854 0.135179383546956 0.328125000000001
-0.461259620620585 0.147536869161823 0.328125000000001
-0.465942223590894 0.155033111757863 0.328125000000001
-0.479501132409622 0.173171096017255 0.328125000000001
-0.487246250809191 0.186147505132211 0.328125000000001
-0.497391540606548 0.191665351634429 0.324220896363393
-0.234374999999999 -0.0620192825169521 0.00662748868012566
-0.234374999999999 -0.054771962234694 0.0117539536128047
-0.234374999999999 -0.0617316913862378 0.0192060857001906
-0.234374999999999 -0.0602116699197385 0.0348155203227101
-0.0128247994598622 -0.250000000000001 0.320392777635639
-0.0178815643228808 -0.250000000000001 0.322498997156577
-0.0312781697328551 -0.245043152925606 0.325395090203864
-0.0300938336734555 -0.234896898612341 0.328125000000001
-0.0360786782096219 -0.238417146005422 0.328125000000001
-0.0396347701550495 -0.228648869422667 0.328125000000001
-0.0485140673529223 -0.221261607063134 0.328125000000001
-0.0673537603687302 -0.205603340738842 0.328125000000001
-0.0771679050033573 -0.203971022630405 0.328125000000001
-0.0744991660816751 -0.199199835354046 0.328125000000001
-0.0865196464047344 -0.195728754871253 0.328125000000001
-0.0974048989596871 -0.180194964477247 0.328125000000001
-0.100865574343684 -0.170051910544047 0.328125000000001
-0.106892052147626 -0.167810200028146 0.328125000000001
-0.114623727848597 -0.158962233907693 0.328125000000001
-0.127130112551265 -0.157795000762858 0.328125000000001
-0.131052922404143 -0.151293493078081 0.328125000000001
-0.147427309449323 -0.142797643919856 0.328125000000001
-0.149995108532602 -0.130022385677753 0.328125000000001
-0.165070460703317 -0.1190614367517 0.328125000000001
-0.165488561863018 -0.112000926165999 0.328125000000001
-0.177911618249572 -0.111963871162528 0.328125000000001
-0.193003557321732 -0.0969017357235296 0.328125000000001
-0.193573671341222 -0.0972735250355255 0.328125000000001
-0.200134799691475 -0.0910775824389748 0.328125000000001
-0.212813330601541 -0.0829305376146038 0.328125000000001
-0.221243204820761 -0.0657744155477014 0.328125000000001
-0.227768846418674 -0.0684136087817246 0.328125000000001
-0.248219594075441 -0.0509376449076537 0.328125000000001
-0.256334715061633 -0.0451074417504076 0.328125000000001
-0.25856055630945 -0.0401017931582146 0.328125000000001
-0.27297977597931 -0.0296865102057708 0.328125000000001
-0.280177786774064 -0.0255262806734351 0.328125000000001
-0.288061151582684 -0.0149309327007479 0.328125000000001
-0.293523155695647 -0.00742653657115032 0.328125000000001
-0.306301417505258 0.00741317640611945 0.328125000000001
-0.308132792455333 0.0120304147437159 0.328125000000001
-0.330460613633821 0.0172405626277539 0.328125000000001
-0.332092128504995 0.0272670361936372 0.328125000000001
-0.34649437684784 0.0317041610264527 0.328125000000001
-0.35291696444207 0.0489569752178426 0.328125000000001
-0.372016650626192 0.0563670539053772 0.328125000000001
-0.373624108811587 0.0653365512231821 0.328125000000001
-0.388512052505765 0.0703772686201197 0.328125000000001
-0.389802291263051 0.0757381777726237 0.328125000000001
-0.416172080245823 0.0985599077523607 0.328125000000001
-0.422716758594367 0.10204765010633 0.328125000000001
-0.436420027698735 0.112291740048123 0.328125000000001
-0.441394978037191 0.119939049894957 0.328125000000001
-0.445599131923874 0.1287799528559 0.328125000000001
-0.466119627671564 0.144769264557577 0.328125000000001
-0.47773970617809 0.145886470529801 0.328125000000001
-0.483735410594609 0.166455973966543 0.328125000000001
-0.498699411148552 0.169954649740488 0.323566961092391
-0.234374999999999 -0.0687391642230449 0.0135295218929285
-0.234374999999999 -0.0764241457133268 0.0191548996248965
-0.234374999999999 -0.0686747608383725 0.0321256316152243
-0.234374999999999 -0.0668633887938052 0.038938080829557
-0.234374999999999 -0.0709244764684018 0.0468473523503052
-0.0343286565604689 -0.250000000000001 0.313707294301697
-0.0313542491250418 -0.246701371375161 0.324565980979087
-0.0360752645321955 -0.242278148216063 0.326777592558637
-0.0379264956639454 -0.242462293139569 0.326685520096883
-0.0522575927378896 -0.233012769354494 0.328125000000001
-0.0563492672107342 -0.224152597735404 0.328125000000001
-0.0703918798820656 -0.217166435985356 0.328125000000001
-0.0821293184127767 -0.206248264348893 0.328125000000001
-0.0857383783117227 -0.205291440679452 0.328125000000001
-0.0888099068897144 -0.195775030347933 0.328125000000001
-0.102189479309099 -0.191972133697109 0.328125000000001
-0.117025880110538 -0.183785569804505 0.328125000000001
-0.118882883909012 -0.176945054459978 0.328125000000001
-0.12674931325024 -0.162148105443478 0.328125000000001
-0.135192353376776 -0.167466564413958 0.328125000000001
-0.14585844451189 -0.14988097423179 0.328125000000001
-0.146174536100831 -0.146823192134803 0.328125000000001
-0.16301206569026 -0.144491692443529 0.328125000000001
-0.173521420626849 -0.129637139087446 0.328125000000001
-0.174155044969288 -0.128069138770783 0.328125000000001
-0.18334765735256 -0.121045900462711 0.328125000000001
-0.193919179950382 -0.113220968936273 0.328125000000001
-0.196057112772591 -0.104098198194506 0.328125000000001
-0.209696271150576 -0.0931671002623952 0.328125000000001
-0.215307158412506 -0.0941503541814499 0.328125000000001
-0.232832069432185 -0.0747791195729156 0.328125000000001
-0.239536588790724 -0.0721404142363849 0.328125000000001
-0.24849066228405 -0.0625954625956042 0.328125000000001
-0.262943299965151 -0.0520288262191621 0.328125000000001
-0.266877250397063 -0.0435833516398893 0.328125000000001
-0.279072575606311 -0.0421285288988032 0.328125000000001
-0.285621638814303 -0.0253967888991119 0.328125000000001
-0.292813508645756 -0.0248903474103813 0.328125000000001
-0.305834055547171 -0.0187376414897706 0.328125000000001
-0.312245098477709 -0.0114535248238957 0.328125000000001
-0.320501397646518 0.00842077680064982 0.328125000000001
-0.33631676116859 0.0164567845402567 0.328125000000001
-0.342619528752864 0.0193637560091052 0.328125000000001
-0.353411976145267 0.0340657601585275 0.328125000000001
-0.363611939610007 0.0410623690573635 0.328125000000001
-0.368188982355359 0.044943999431742 0.328125000000001
-0.379114261031644 0.0567294169351656 0.328125000000001
-0.396055141752009 0.0654747272147863 0.328125000000001
-0.401828920170775 0.073854690500193 0.328125000000001
-0.419939806957228 0.0868719560248672 0.328125000000001
-0.425108124268344 0.0931755326636534 0.328125000000001
-0.439506697017547 0.103341587357067 0.328125000000001
-0.443775751874812 0.109579193525633 0.328125000000001
-0.462251012770253 0.12273405929958 0.328125000000001
-0.478205220801365 0.135424133438819 0.328125000000001
-0.48334852217448 0.137359509762937 0.328125000000001
-0.495011235103219 0.145780028535318 0.325411049115057
-0.234374999999999 -0.0952089664325216 0.00857561478604714
-0.234374999999999 -0.0893660371743684 0.0198002370440876
-0.234374999999999 -0.0800658306713893 0.0175542526219672
-0.234374999999999 -0.0962618417368367 0.0339006243691637
-0.234374999999999 -0.088761727270811 0.0372288207500519
-0.234374999999999 -0.0966096878915456 0.0551543278905593
-0.234374999999999 -0.0830618352471034 0.0547139804533201
-0.234374999999999 -0.0829512008516819 0.0629096103979067
-0.0460817554874123 -0.250000000000001 0.321874837871102
-0.0489013723607715 -0.244154130686293 0.325839601323522
-0.0544141098665859 -0.243449638349929 0.326191847491703
-0.0574844279304999 -0.239640013189279 0.328096660072028
-0.0670305259484564 -0.22791511177057 0.328125000000001
-0.0736472525694952 -0.219423280308141 0.328125000000001
-0.0788057819806463 -0.222824735743866 0.328125000000001
-0.0872164544143641 -0.212208617523402 0.328125000000001
-0.0939970254429089 -0.200501448526507 0.328125000000001
-0.112485999370281 -0.191625731361437 0.328125000000001
-0.108380911114351 -0.19676519375081 0.328125000000001
-0.117347756214657 -0.186776358624844 0.328125000000001
-0.129508807639722 -0.181706221190401 0.328125000000001
-0.137751314531618 -0.170494600345043 0.328125000000001
-0.147263862407575 -0.156576456750445 0.328125000000001
-0.158217707087691 -0.155751225937016 0.328125000000001
-0.158542319734901 -0.147631405720316 0.328125000000001
-0.176297484437657 -0.141247728883828 0.328125000000001
-0.181054738811025 -0.132394332623863 0.328125000000001
-0.194093342674259 -0.12448398504002 0.328125000000001
-0.191999149611785 -0.118318862447685 0.328125000000001
-0.214329792002359 -0.103020434198587 0.328125000000001
-0.218398016406972 -0.103833554404917 0.328125000000001
-0.223988891609624 -0.0974575088358682 0.328125000000001
-0.236688012685219 -0.0877185272513998 0.328125000000001
-0.241661654762801 -0.0817963381221858 0.328125000000001
-0.251940901770534 -0.0645859027580327 0.328125000000001
-0.2625471943153 -0.0553111592597594 0.328125000000001
-0.280201734639099 -0.0513243155882665 0.328125000000001
-0.286981304765906 -0.0509292659019328 0.328125000000001
-0.285151409920527 -0.0444292374176166 0.328125000000001
-0.309973473364738 -0.0229300109718488 0.328125000000001
-0.309499612637026 -0.0181225339800334 0.328125000000001
-0.322636833395596 -0.0139599794220851 0.328125000000001
-0.332834658425251 -0.00854561878763234 0.328125000000001
-0.338868689937068 0.00456114973066307 0.328125000000001
-0.349169926966377 0.012664226338077 0.328125000000001
-0.361067828081433 0.0268871616146425 0.328125000000001
-0.378425596391288 0.0315909513565619 0.328125000000001
-0.381127069006218 0.0470404274571689 0.328125000000001
-0.392987299197071 0.0451515014843859 0.328125000000001
-0.408171304249282 0.0646101149903992 0.328125000000001
-0.40933731083176 0.0644528169809459 0.328125000000001
-0.427222162340718 0.080758797044478 0.328125000000001
-0.431743359944681 0.0896410945276842 0.328125000000001
-0.446829706129906 0.0956748022899112 0.328125000000001
-0.451920475980423 0.108843299006081 0.328125000000001
-0.468936662346345 0.113769903110763 0.328125000000001
-0.48253868977251 0.128796833096694 0.328125000000001
-0.234374999999999 -0.0985392019977982 0.00347042017022523
-0.234374999999999 -0.0996273424110522 0.0102810369729187
-0.234374999999999 -0.106201010672554 0.0247326580397048
-0.234374999999999 -0.0978096846662289 0.0241672244169932
-0.234374999999999 -0.099400934521973 0.0367285962765093
-0.234374999999999 -0.105273877722821 0.0501275418720696
-0.234374999999999 -0.098430491563075 0.0636375294260712
-0.234374999999999 -0.102469312203176 0.0721077485794372
-0.234374999999999 -0.106265537445212 0.0885945820567698
-0.234374999999999 -0.103170462561726 0.0915592640199608
-0.0606435382745661 -0.250000000000001 0.31439602784313
-0.0602011140155185 -0.245322950753764 0.325255191289785
-0.0702268559855009 -0.24020289499375 0.327815219169793
-0.0759026344107464 -0.243002780658803 0.326415276337266
-0.0847460546461817 -0.225931729789601 0.328125000000001
-0.0982625654515493 -0.217617631623792 0.328125000000001
-0.0999338000656197 -0.214166217286615 0.328125000000001
-0.100289607446435 -0.214028629879525 0.328125000000001
-0.113561842577009 -0.196125595318304 0.328125000000001
-0.115692688585632 -0.196864872210174 0.328125000000001
-0.122851568197045 -0.196378671452076 0.328125000000001
-0.138380063930206 -0.179346692366733 0.328125000000001
-0.141535071960968 -0.179325144823504 0.328125000000001
-0.150365304728528 -0.167314992546377 0.328125000000001
-0.166194426212063 -0.162783816976515 0.328125000000001
-0.175382479812856 -0.151646269590787 0.328125000000001
-0.181951843405526 -0.139380171302742 0.328125000000001
-0.187513048259486 -0.137422841087448 0.328125000000001
-0.20109277903339 -0.129434993154251 0.328125000000001
-0.20320635679989 -0.127161122233536 0.328125000000001
-0.216095550828788 -0.118906599841525 0.328125000000001
-0.2301140275598 -0.102218995898413 0.328125000000001
-0.226334733441015 -0.105549390731023 0.328125000000001
-0.237647367069397 -0.0973561781349252 0.328125000000001
-0.252557377907588 -0.0915590784637052 0.328125000000001
-0.260266364815333 -0.0769034617287818 0.328125000000001
-0.266205825705513 -0.0703476003528581 0.328125000000001
-0.27887549092495 -0.0649703282964766 0.328125000000001
-0.294923377272607 -0.0477524578133244 0.328125000000001
-0.300018906612113 -0.0483249548191154 0.328125000000001
-0.314795222027762 -0.0305010207362682 0.328125000000001
-0.319663024407744 -0.0294875088172989 0.328125000000001
-0.331248178283239 -0.0208339152780872 0.328125000000001
-0.337696021894007 -0.0113034574821289 0.328125000000001
-0.353455784593594 0.00161411592452995 0.328125000000001
-0.358601074225939 0.00110300226692625 0.328125000000001
-0.361425285860364 0.0118532651350175 0.328125000000001
-0.380143795401802 0.0293048264293655 0.328125000000001
-0.389796191119824 0.0274180908435012 0.328125000000001
-0.402071911465707 0.0412277610079406 0.328125000000001
-0.407042531837355 0.051347620456677 0.328125000000001
-0.423879613993713 0.064489379738402 0.328125000000001
-0.432084619631794 0.062288589461289 0.328125000000001
-0.442290652629848 0.076533073945442 0.328125000000001
-0.453039905749289 0.0825955971838451 0.328125000000001
-0.46613648529754 0.0970163721697695 0.328125000000001
-0.472289965490072 0.109537367400086 0.328125000000001
-0.491118754714545 0.118786591025145 0.327357289309395
-0.499693377405509 0.130222677291609 0.323069977963913
-0.234374999999999 -0.111207700186669 0.00133036607472844
-0.234374999999999 -0.119988362207493 0.0145620295475784
-0.234374999999999 -0.109596255900697 0.0209428687157854
-0.234374999999999 -0.108938022240687 0.0344254857284774
-0.234374999999999 -0.119598744801122 0.0470480619618115
-0.234374999999999 -0.120710063872715 0.0663110182934122
-0.234374999999999 -0.116121280659732 0.0650302775546635
-0.234374999999999 -0.113832900642708 0.0865984953230224
-0.234374999999999 -0.10816625596 0.0879352278294882
-0.234374999999999 -0.112298446838366 0.0934386415287341
-0.234374999999999 -0.120939981853314 0.113093107861039
-0.0718363324225195 -0.250000000000001 0.318729430022685
-0.0813912869529063 -0.244934439307904 0.325449447012715
-0.079621817848283 -0.243708713635437 0.326062309848949
-0.091793768907108 -0.241950311295247 0.326941511019044
-0.101525161288802 -0.227262965360713 0.328125000000001
-0.103763504424003 -0.225017265593047 0.328125000000001
-0.114994473415865 -0.212207052032299 0.328125000000001
-0.115210233316828 -0.209763483955472 0.328125000000001
-0.1322266345889 -0.206066501833044 0.328125000000001
-0.135996999241132 -0.197204125341466 0.328125000000001
-0.144924063777038 -0.193682524553601 0.328125000000001
-0.152348637251817 -0.187397485179442 0.328125000000001
-0.168135654172919 -0.177265642417873 0.328125000000001
-0.165863631816796 -0.169155522923732 0.328125000000001
-0.173102217367844 -0.166434008546711 0.328125000000001
-0.180881492794185 -0.160107006174592 0.328125000000001
-0.204452450110023 -0.14627009925364 0.328125000000001
-0.199869838286651 -0.145150955285868 0.328125000000001
-0.214216080781458 -0.131653373068366 0.328125000000001
-0.228277126506739 -0.119276782657706 0.328125000000001
-0.235592928177821 -0.118888087525165 0.328125000000001
-0.238773066040259 -0.111125595751665 0.328125000000001
-0.250460299235718 -0.0946503869921593 0.328125000000001
-0.261964225360261 -0.0927133250807519 0.328125000000001
-0.277634031236994 -0.078139969797848 0.328125000000001
-0.274755349127856 -0.0731273732964073 0.328125000000001
-0.283345749855104 -0.07153890878397 0.328125000000001
-0.297576411875725 -0.0541320497130086 0.328125000000001
-0.31178648652586 -0.0553095126949422 0.328125000000001
-0.311661221094228 -0.0493481735458158 0.328125000000001
-0.332041832371163 -0.0359399147959595 0.328125000000001
-0.336691083063701 -0.024080881665859 0.328125000000001
-0.349045846589058 -0.0199731256600606 0.328125000000001
-0.356523840627483 -0.0144793837479237 0.328125000000001
-0.362736260351043 -0.00987451501761886 0.328125000000001
-0.379969537801541 0.00771951329344148 0.328125000000001
-0.39201485339237 0.0140102994590371 0.328125000000001
-0.398177442609275 0.025801469406281 0.328125000000001
-0.410713121836278 0.0288787125362181 0.328125000000001
-0.417329078328451 0.0485888608780044 0.328125000000001
-0.427139320536747 0.0516204173362403 0.328125000000001
-0.431410600951546 0.0552110504486742 0.328125000000001
-0.449002438147071 0.0595689292064581 0.328125000000001
-0.461331875393971 0.081604914587791 0.328125000000001
-0.471267403190432 0.0879173063680046 0.328125000000001
-0.486006709937256 0.0980484655886994 0.328125000000001
-0.234374999999999 -0.131874101532034 0.00549742341685013
-0.234374999999999 -0.128801168753482 0.0180542115332022
-0.234374999999999 -0.125772822310912 0.02328136241846
-0.234374999999999 -0.125068327878972 0.0373408541992227
-0.234374999999999 -0.124780045368882 0.0422700623934994
-0.234374999999999 -0.127512454840686 0.0554539891648202
-0.234374999999999 -0.131303489294242 0.0670371375446186
-0.234374999999999 -0.134584650254692 0.0861591827502849
-0.234374999999999 -0.13575102622272 0.0897722710758773
-0.234374999999999 -0.122473217684036 0.100015568896558
-0.234374999999999 -0.120754694574549 0.101456358358356
-0.234374999999999 -0.126626394984943 0.118024923892709
-0.234374999999999 -0.124685530943663 0.126666106796232
-0.0921617547831771 -0.250000000000001 0.313831564935594
-0.0940577459484978 -0.244228020272472 0.325802656530431
-0.0914961685382096 -0.24469645904209 0.325568437145622
-0.107300470597414 -0.234166091371141 0.328125000000001
-0.109372537418415 -0.236890963335025 0.328125000000001
-0.114983077271146 -0.223840774683075 0.328125000000001
-0.13050308882528 -0.220055796063358 0.328125000000001
-0.134772946406066 -0.209137603236364 0.328125000000001
-0.141500276030081 -0.204102796778642 0.328125000000001
-0.152466709419555 -0.194826303702599 0.328125000000001
-0.167823964847839 -0.183661257121604 0.328125000000001
-0.162637413518375 -0.187865331151765 0.328125000000001
-0.1825926699642 -0.173278735103455 0.328125000000001
-0.189943482880235 -0.165558571651989 0.328125000000001
-0.201195163922844 -0.157526936228662 0.328125000000001
-0.207032819281324 -0.149722396433838 0.328125000000001
-0.213816655659984 -0.145414008316178 0.328125000000001
-0.225126230158132 -0.134886263646745 0.328125000000001
-0.23257562808576 -0.135739706801369 0.328125000000001
-0.239182291362389 -0.121620366696704 0.328125000000001
-0.257755891761246 -0.115904865287945 0.328125000000001
-0.265134985415073 -0.108263754643657 0.328125000000001
-0.267316188077862 -0.101416082348851 0.328125000000001
-0.274255342804553 -0.0907098304367531 0.328125000000001
-0.290255894764897 -0.0798804364083527 0.328125000000001
-0.295338626230556 -0.0779056673499831 0.328125000000001
-0.309761609699203 -0.062004853472482 0.328125000000001
-0.313353924399475 -0.0631438941773721 0.328125000000001
-0.319105253240997 -0.0577445457983365 0.328125000000001
-0.329437455188907 -0.0443091465242643 0.328125000000001
-0.346104354677694 -0.0300393317454181 0.328125000000001
-0.349854868048476 -0.0287737280351801 0.328125000000001
-0.363046747238438 -0.0113384758089231 0.328125000000001
-0.369846923659873 -0.0101001427304547 0.328125000000001
-0.388897044922298 -0.00338545533407757 0.328125000000001
-0.394962316522159 0.00972750059651443 0.328125000000001
-0.406148569328455 0.0201657316435929 0.328125000000001
-0.419603526840256 0.0315571088055737 0.328125000000001
-0.421550851432628 0.0354014795714198 0.328125000000001
-0.43950196517626 0.0432033958591805 0.328125000000001
-0.443897902135276 0.049024200687579 0.328125000000001
-0.456941365165999 0.0618849277093793 0.328125000000001
-0.47044920030614 0.0703685182530041 0.328125000000001
-0.472848608515284 0.0780816595032996 0.328125000000001
-0.487916975318187 0.0847448157423692 0.328125000000001
-0.496542089727683 0.0928931240239179 0.324645621802825
-0.234374999999999 -0.135497247976187 0.00202591590778668
-0.234374999999999 -0.144380240145684 0.0131310447921287
-0.234374999999999 -0.142356269468138 0.0167919303042777
-0.234374999999999 -0.148006160024074 0.0336624895776961
-0.234374999999999 -0.139482118208598 0.0432744485241261
-0.234374999999999 -0.144666031104173 0.0612406837158632
-0.234374999999999 -0.141560773171912 0.0637781038257113
-0.234374999999999 -0.135448201541314 0.0787518761627964
-0.234374999999999 -0.137817550019484 0.0816591694441102
-0.234374999999999 -0.139854733810834 0.0999638567490739
-0.234374999999999 -0.145548169921504 0.110161601206477
-0.234374999999999 -0.134178064214489 0.114350439795962
-0.234374999999999 -0.143369177508131 0.128175190378998
-0.234374999999999 -0.138021688875318 0.131788141959772
-0.234374999999999 -0.141287745113722 0.152727672724501
-0.0987092774925001 -0.250000000000001 0.316474342920172
-0.103277563455788 -0.249233857256252 0.323299738038542
-0.119320330290866 -0.245049198147409 0.325392067592963
-0.115949558900405 -0.238258764356312 0.328125000000001
-0.131436801045576 -0.225949356809085 0.328125000000001
-0.128183743412934 -0.225674957564041 0.328125000000001
-0.142688739634073 -0.214966002639517 0.328125000000001
-0.147548868081649 -0.208595319308869 0.328125000000001
-0.164143461936649 -0.201144571384517 0.328125000000001
-0.161859867839486 -0.198976198678696 0.328125000000001
-0.174520797230295 -0.188425417715538 0.328125000000001
-0.191265510874193 -0.185119907160906 0.328125000000001
-0.196930533531914 -0.171172788246003 0.328125000000001
-0.20688068062858 -0.165969138048873 0.328125000000001
-0.209519190840382 -0.155144954347756 0.328125000000001
-0.226169133831164 -0.15037089582662 0.328125000000001
-0.232883839120275 -0.140297801762023 0.328125000000001
-0.23589715506613 -0.138092516737 0.328125000000001
-0.242586653631232 -0.133438189144009 0.328125000000001
-0.253009567587606 -0.121681319434392 0.328125000000001
-0.268740714335515 -0.113824571725948 0.328125000000001
-0.27281238250798 -0.112785837654197 0.328125000000001
-0.275824710804847 -0.102392472595439 0.328125000000001
-0.300852910553151 -0.0923409095149877 0.328125000000001
-0.302964879410201 -0.0807645172442934 0.328125000000001
-0.317850777235102 -0.071541597303775 0.328125000000001
-0.323067140414014 -0.0646676879144387 0.328125000000001
-0.334267426827205 -0.0582548319218696 0.328125000000001
-0.34308870027292 -0.0505188383376917 0.328125000000001
-0.350530491168737 -0.0443751241928574 0.328125000000001
-0.360161012395747 -0.0406904592496833 0.328125000000001
-0.374592939271127 -0.0173667913154169 0.328125000000001
-0.381307164151468 -0.0188565302961134 0.328125000000001
-0.388280325189136 -0.00587678480710898 0.328125000000001
-0.41129132260164 0.000729887878167304 0.328125000000001
-0.414900028015896 0.00924462732849607 0.328125000000001
-0.417941743695251 0.0142883394883099 0.328125000000001
-0.433961880949429 0.025570624027375 0.328125000000001
-0.44787330819238 0.0303504831415664 0.328125000000001
-0.462249270017453 0.0496114691669523 0.328125000000001
-0.465888607877403 0.0621117498714484 0.328125000000001
-0.481253972423634 0.0642511219403037 0.328125000000001
-0.498343854028852 0.0725639569694564 0.323744739652241
-0.234374999999999 -0.145983238674811 0.00225262389786767
-0.234374999999999 -0.151641833753377 0.021576208148859
-0.234374999999999 -0.151472350719179 0.0199356087164891
-0.234374999999999 -0.151267489623871 0.0317679715167709
-0.234374999999999 -0.15511311946164 0.0364068271941605
-0.236328457680559 -0.156250000000001 0.0563313691674146
-0.234374999999999 -0.152438325921908 0.0686057909053401
-0.234374999999999 -0.154599264341155 0.0690108234012099
-0.234998771481718 -0.156250000000001 0.08600338756669
-0.234374999999999 -0.151515672158327 0.0972502513138437
-0.234374999999999 -0.151190443486328 0.103188706859722
-0.234374999999999 -0.153476437272874 0.121998700707493
-0.234374999999999 -0.150851319211137 0.118829242130232
-0.234374999999999 -0.154782505791708 0.138805334724968
-0.234374999999999 -0.152459306795857 0.153086067306453
-0.234365956884951 -0.156250000000001 0.152145947820606
-0.234374999999999 -0.155234017032409 0.172176186837388
-0.116558330479654 -0.250000000000001 0.3214664423545
-0.118217562101926 -0.248111713157995 0.32386081008767
-0.129213485837248 -0.249138052665055 0.32334764033414
-0.133719656285768 -0.230906113385929 0.328125000000001
-0.139869814870707 -0.234148362594834 0.328125000000001
-0.141960226928976 -0.227447642068982 0.328125000000001
-0.160121534325955 -0.224945875490843 0.328125000000001
-0.158914556237131 -0.215618789958475 0.328125000000001
-0.169594374013755 -0.206890316720122 0.328125000000001
-0.187153516838724 -0.195684631135503 0.328125000000001
-0.198852126479888 -0.188797879516626 0.328125000000001
-0.205676675078534 -0.179978925917751 0.328125000000001
-0.212786142914466 -0.168626908954044 0.328125000000001
-0.216327673331189 -0.1721029464706 0.328125000000001
-0.22261867296529 -0.157576744659362 0.328125000000001
-0.23978622693709 -0.155355978206879 0.328125000000001
-0.245206686216129 -0.149606456101314 0.328125000000001
-0.249642586726619 -0.139098575452374 0.328125000000001
-0.261088114808551 -0.134632543248885 0.328125000000001
-0.277251357780678 -0.126686455216912 0.328125000000001
-0.274620480866839 -0.118549217847475 0.328125000000001
-0.295319562446553 -0.104201994743301 0.328125000000001
-0.310096192846669 -0.0989364736565786 0.328125000000001
-0.306194106177976 -0.09364666651589 0.328125000000001
-0.316036632072217 -0.0855088541785102 0.328125000000001
-0.328622525607214 -0.0752361587128163 0.328125000000001
-0.342795381311976 -0.0619974436384415 0.328125000000001
-0.348917313496974 -0.059965560974946 0.328125000000001
-0.354013779167253 -0.0578773467668358 0.328125000000001
-0.365284508938633 -0.0459452132214825 0.328125000000001
-0.385407764417889 -0.031450252259483 0.328125000000001
-0.388971662619864 -0.0313014040690404 0.328125000000001
-0.394683740848418 -0.0159619183983992 0.328125000000001
-0.41271232695566 -0.00497653597819893 0.328125000000001
-0.427843200746835 0.00173242540548747 0.328125000000001
-0.431345943894926 0.0107258468031752 0.328125000000001
-0.447644581447673 0.0216937269551824 0.328125000000001
-0.454352036486969 0.0233828395240968 0.328125000000001
-0.468723652720657 0.0357497989868562 0.328125000000001
-0.476434214826872 0.0505408337309475 0.328125000000001
-0.481275732700898 0.0600160693227844 0.328125000000001
-0.244874456813042 -0.156250000000001 0.00700770154329613
-0.244590954368601 -0.156250000000001 0.0309355618024596
-0.241548213385108 -0.156250000000001 0.0368018626002094
-0.245154942042474 -0.156250000000001 0.0562839865738266
-0.249842067920364 -0.156250000000001 0.0654246984577016
-0.247962466868456 -0.156250000000001 0.0892532954958006
-0.245270182136905 -0.156250000000001 0.112965996471011
-0.247861391648434 -0.156250000000001 0.119524889756819
-0.240197333402854 -0.156250000000001 0.138100922680799
-0.247549287139133 -0.156250000000001 0.137507665385548
-0.246392941367591 -0.156250000000001 0.15371208779706
-0.248370745693247 -0.156250000000001 0.153090833859739
-0.144864010128067 -0.249635790791691 0.317046580178938
-0.142484397217509 -0.243265011375908 0.326195258962703
-0.148873201188859 -0.238279746722061 0.328125000000001
-0.156000000113492 -0.237172010355336 0.328125000000001
-0.168548021203696 -0.218407212336534 0.328125000000001
-0.178528524544127 -0.213729686326221 0.328125000000001
-0.186683078181709 -0.209499055977369 0.328125000000001
-0.191348220943775 -0.204092076169055 0.328125000000001
-0.201393292038048 -0.192244088087853 0.328125000000001
-0.203274054632261 -0.192745912144288 0.328125000000001
-0.220807799392257 -0.181593496364213 0.328125000000001
-0.22852421909274 -0.169762783592224 0.328125000000001
-0.242281042270269 -0.167370513486506 0.328125000000001
-0.246442657147183 -0.156755598752476 0.328125000000001
-0.254946653713131 -0.159179683906264 0.328125000000001
-0.265428958044336 -0.146810172882627 0.328125000000001
-0.271964819290736 -0.135659990632964 0.328125000000001
-0.281217850057625 -0.12666243233937 0.328125000000001
-0.291876283916908 -0.121569474786872 0.328125000000001
-0.293615350265894 -0.118617074530881 0.328125000000001
-0.310301419572849 -0.104609403344022 0.328125000000001
-0.319777557264122 -0.102825773778637 0.328125000000001
-0.321573816900077 -0.0924305860048246 0.328125000000001
-0.335802474112307 -0.085378498199285 0.328125000000001
-0.343018215086102 -0.0773310528225989 0.328125000000001
-0.352870812405024 -0.0674960384425546 0.328125000000001
-0.364638520237101 -0.0652372377416617 0.328125000000001
-0.378182352249338 -0.049703805366892 0.328125000000001
-0.392249726229842 -0.0389198789155225 0.328125000000001
-0.393245186129308 -0.0279986254278832 0.328125000000001
-0.406125551635963 -0.0240900348945937 0.328125000000001
-0.414570072319475 -0.020989425799135 0.328125000000001
-0.431940394084278 -0.00323541999817602 0.328125000000001
-0.434683681760202 0.00489119503329074 0.328125000000001
-0.453834605805435 0.00922414119345764 0.328125000000001
-0.459984607881394 0.0241700396787362 0.328125000000001
-0.477388447609774 0.0255317028779249 0.328125000000001
-0.481961794055581 0.0383112012848216 0.328125000000001
-0.149370482962087 -0.247935482033404 0.323563036296041
-0.156867600257769 -0.241910956133955 0.326229942842125
-0.167739899565957 -0.241703065585676 0.325849955270449
-0.174787565967535 -0.231562684379002 0.328125000000001
-0.182071768876237 -0.222080482694404 0.328125000000001
-0.190646292741182 -0.220403601667176 0.328125000000001
-0.19947145062687 -0.206537622040307 0.328125000000001
-0.21194528052099 -0.196948489425216 0.328125000000001
-0.213974217739652 -0.196775732988215 0.328125000000001
-0.224361851446849 -0.187494344913339 0.328125000000001
-0.229158795643626 -0.183403145904912 0.328125000000001
-0.238677757079361 -0.180574106860532 0.328125000000001
-0.25434953100817 -0.169643854452818 0.328125000000001
-0.254842472503795 -0.161031131365386 0.328125000000001
-0.263038388239932 -0.159176801562823 0.328125000000001
-0.274183110681488 -0.141089946651742 0.328125000000001
-0.287972172720481 -0.140166351283454 0.328125000000001
-0.30029542429075 -0.123508523636699 0.328125000000001
-0.315332604779519 -0.118980131132364 0.328125000000001
-0.320972433089175 -0.116463271043192 0.328125000000001
-0.330292040129526 -0.103736176907207 0.328125000000001
-0.337652935301255 -0.0983729970225773 0.328125000000001
-0.340837720087157 -0.0864903253675604 0.328125000000001
-0.353449552284406 -0.0851909851778747 0.328125000000001
-0.36922269503868 -0.0699902180989094 0.328125000000001
-0.377238069340428 -0.0652539856786581 0.328125000000001
-0.385084733144563 -0.0491858104353122 0.328125000000001
-0.395356651561995 -0.0444612637221426 0.328125000000001
-0.403074075509277 -0.0354361974410182 0.328125000000001
-0.417025271345755 -0.033909654623715 0.328125000000001
-0.426164798536035 -0.0247457619248185 0.328125000000001
-0.432327998655519 -0.0117213627929028 0.328125000000001
-0.445264998241858 -0.00338662552196846 0.328125000000001
-0.460826457303912 0.00716179921293713 0.328125000000001
-0.466855278246971 0.0139356194277617 0.328125000000001
-0.486921695908665 0.024000919676261 0.328125000000001
-0.157923130708892 -0.248469619115542 0.314088762522354
-0.172919564518536 -0.244201067612255 0.324375550822136
-0.175535726503951 -0.241895482527307 0.325407426396363
-0.184959869840693 -0.238340148293014 0.326758930320005
-0.180680723760465 -0.237035141361878 0.32759915290525
-0.200070887733829 -0.220240366878959 0.328125000000001
-0.205041333318278 -0.21010809386013 0.328125000000001
-0.208139268549991 -0.2066764286611 0.328125000000001
-0.216739522203729 -0.203291016895201 0.328125000000001
-0.227471243946313 -0.196524484072646 0.328125000000001
-0.236958433641514 -0.188968445827927 0.328125000000001
-0.255136615881931 -0.176583323590444 0.328125000000001
-0.259480700242871 -0.180758161815847 0.328125000000001
-0.270322259671525 -0.167892379139045 0.328125000000001
-0.272597375815175 -0.156273860876725 0.328125000000001
-0.286567522981989 -0.15232686146474 0.328125000000001
-0.289004760260197 -0.148339351998548 0.328125000000001
-0.308088130726746 -0.137915543813518 0.328125000000001
-0.31405435099871 -0.131295668263679 0.328125000000001
-0.318982277864723 -0.122194861171099 0.328125000000001
-0.339334160728099 -0.109287289521184 0.328125000000001
-0.343900138555769 -0.1033462995257 0.328125000000001
-0.362117361204616 -0.0941192904544604 0.328125000000001
-0.357733316053014 -0.0945778448857442 0.328125000000001
-0.368267265016774 -0.085989413341792 0.328125000000001
-0.391090111999341 -0.0751378742468674 0.328125000000001
-0.395117165405264 -0.0616157263397594 0.328125000000001
-0.405837655972043 -0.0529084793747122 0.328125000000001
-0.411832486585698 -0.0488309525923463 0.328125000000001
-0.415227335495187 -0.0437028933106272 0.328125000000001
-0.435891323144858 -0.0293113264274469 0.328125000000001
-0.436606616372681 -0.0297422033547487 0.328125000000001
-0.447669312564849 -0.021501244424348 0.328125000000001
-0.471976485855463 -0.00519737814803084 0.328125000000001
-0.468628517280478 0.000145658561929385 0.328125000000001
-0.496898598610698 0.0233827681473667 0.324467367361318
-0.498417003433517 0.0210118156619994 0.323708164949909
-0.185794270677938 -0.245411043860238 0.323200387207466
