ply
format ascii 1.0
element vertex 844
property float x
property float y
property float z
end_header
-0.452856255596299 -0.132560985735892 0.363843295173311
-0.392069080191296 0.186438144411515 0.357180943605273
-0.393694397136156 0.185499767235883 0.361530277424842
-0.397495560256006 0.175153493303271 0.363843295173311
-0.397098957015057 0.165115661759174 0.363843295173311
-0.394883625208335 0.156620296020047 0.363843295173311
-0.399353557392659 0.147331475518069 0.363843295173311
-0.404620795490533 0.130070257135126 0.363843295173311
-0.400789138326493 0.117312197353434 0.363843295173311
-0.404889935652751 0.108518785960113 0.363843295173311
-0.402479763086915 0.103563163317381 0.363843295173311
-0.410808569955157 0.0987288966713199 0.363843295173311
-0.410320184848575 0.0773473783915218 0.363843295173311
-0.407933149070922 0.0761081005013725 0.363843295173311
-0.41328245677033 0.0602830105053087 0.363843295173311
-0.415796216392692 0.0578674654783766 0.363843295173311
-0.410779890809896 0.034313728854244 0.363843295173311
-0.416573355353402 0.0213541659475339 0.363843295173311
-0.421571948097623 0.00845369304058412 0.363843295173311
-0.4154296305181 0.00761824120870998 0.363843295173311
-0.41898035057778 -0.00898529148203935 0.363843295173311
-0.42533183041939 -0.0129170908467747 0.363843295173311
-0.429647941591055 -0.0362779572430146 0.363843295173311
-0.42298643809938 -0.0504716533634865 0.363843295173311
-0.431852549719843 -0.0436121193224479 0.363843295173311
-0.429434126748061 -0.0641045547063425 0.363843295173311
-0.433878832816715 -0.0746141563020419 0.363843295173311
-0.430853290945721 -0.090832271913045 0.363843295173311
-0.430495632157695 -0.0923624169881494 0.363843295173311
-0.437662176265563 -0.104507710657189 0.363843295173311
-0.441536065833376 -0.132169572509875 0.363843295173311
-0.442682804032868 -0.144797213954534 0.363843295173311
-0.388537360084879 0.188477183965659 0.354809598894783
-0.388485318094324 0.188507230422914 0.362311410593898
-0.386698350471316 0.184908632876627 0.363843295173311
-0.388290180720087 0.168604597152936 0.363843295173311
-0.3893628390798 0.16740355342326 0.363843295173311
-0.390424871132853 0.1603387279575 0.363843295173311
-0.386628864558166 0.143582792567057 0.363843295173311
-0.391271028614043 0.126471401604858 0.363843295173311
-0.397144785944236 0.120532222006983 0.363843295173311
-0.392643141553491 0.111138618782313 0.363843295173311
-0.399990571402332 0.11027926315808 0.363843295173311
-0.398528629947488 0.0905917684752616 0.363843295173311
-0.39473731745613 0.0899722969592543 0.363843295173311
-0.400088902855038 0.0688484552720283 0.363843295173311
-0.404126070049484 0.0605903430217542 0.363843295173311
-0.406309597246103 0.0551665439572678 0.363843295173311
-0.399738446461153 0.040279261236465 0.363843295173311
-0.41021616537883 0.0349869023230545 0.363843295173311
-0.40841555789551 0.0145092551912492 0.363843295173311
-0.414182542102203 -0.00344530992172032 0.363843295173311
-0.415533532483776 -0.0146362588595021 0.363843295173311
-0.414733256368852 -0.011166988508123 0.363843295173311
-0.419109720291709 -0.0284972125274035 0.363843295173311
-0.417985857983376 -0.0361860482002489 0.363843295173311
-0.420406111277067 -0.0513785588942217 0.363843295173311
-0.422060211104854 -0.0626505741567863 0.363843295173311
-0.419970887226988 -0.0831851008011632 0.363843295173311
-0.426723011644462 -0.0876826678071668 0.363843295173311
-0.427244251795165 -0.0965235163479441 0.363843295173311
-0.424845338359624 -0.115768368631063 0.363843295173311
-0.430295343314718 -0.129408191111752 0.363843295173311
-0.431632514164125 -0.138471722067678 0.363843295173311
-0.434446589337323 -0.145289057555332 0.363843295173311
-0.37831237129682 0.188853830493986 0.363843295173311
-0.374178463340233 0.178413846211512 0.363843295173311
-0.378840981831095 0.173872952456584 0.363843295173311
-0.382160036604585 0.173379710428244 0.363843295173311
-0.375702588756133 0.146703921433721 0.363843295173311
-0.385504989405829 0.141645186508221 0.363843295173311
-0.382252637107407 0.138468888812681 0.363843295173311
-0.383545212200465 0.120204519977086 0.363843295173311
-0.381348349069831 0.115287730196843 0.363843295173311
-0.389452250968233 0.105491654345034 0.363843295173311
-0.386423552996984 0.0986862405309174 0.363843295173311
-0.392509999543188 0.0796242220273595 0.363843295173311
-0.392119489770083 0.0785289927693513 0.363843295173311
-0.395575172032653 0.0565076717804869 0.363843295173311
-0.395037608723051 0.0465678237677718 0.363843295173311
-0.391589763208923 0.033055390040965 0.363843295173311
-0.396910963608359 0.025910431710015 0.363843295173311
-0.394035351066428 0.0191030300027054 0.363843295173311
-0.395092745397852 -0.00156349724405765 0.363843295173311
-0.405187309651355 -0.0148851857376081 0.363843295173311
-0.403945338584144 -0.0226882346818985 0.363843295173311
-0.406656836313069 -0.0274721015063592 0.363843295173311
-0.409359542534627 -0.0429255323725035 0.363843295173311
-0.41037246413043 -0.0606457918646729 0.363843295173311
-0.411053921657601 -0.0603347720610071 0.363843295173311
-0.410485186978585 -0.0693469300348214 0.363843295173311
-0.410117838890147 -0.0934535590457528 0.363843295173311
-0.413131725083224 -0.0998099276358203 0.363843295173311
-0.417393536237308 -0.106843055832629 0.363843295173311
-0.420077486015142 -0.123201063995887 0.363843295173311
-0.423239979183997 -0.136931591920958 0.363843295173311
-0.417175550526104 -0.154582439279036 0.363843295173311
-0.422976261863029 -0.167509398037791 0.363843295173311
-0.363942035792445 0.202677301066701 0.362161338239973
-0.362897233070469 0.190608996271569 0.363843295173311
-0.366652196290717 0.18454698577888 0.363843295173311
-0.36417282322711 0.171940175309492 0.363843295173311
-0.368692490238587 0.169758578072504 0.363843295173311
-0.366049224315109 0.153119195887049 0.363843295173311
-0.36712334594649 0.151657379323711 0.363843295173311
-0.377513045767195 0.136293420859066 0.363843295173311
-0.370011602972681 0.122501208565733 0.363843295173311
-0.372311308373146 0.119991511233586 0.363843295173311
-0.381224199709967 0.105250096789192 0.363843295173311
-0.381894035973415 0.0940599790100268 0.363843295173311
-0.382507020541117 0.0812559722501942 0.363843295173311
-0.378122746345355 0.0698273895318193 0.363843295173311
-0.380853021075645 0.0555736468121636 0.363843295173311
-0.386889753875683 0.0415852975603682 0.363843295173311
-0.386495606607065 0.0327090004599741 0.363843295173311
-0.383123598420993 0.0331010539369757 0.363843295173311
-0.387366939757791 0.0144244727939972 0.363843295173311
-0.384307976881032 0.00791929406774157 0.363843295173311
-0.387724270975418 -0.000801327613591274 0.363843295173311
-0.392338426414968 -0.012287109836738 0.363843295173311
-0.394430107084577 -0.0314534243744775 0.363843295173311
-0.395828953827108 -0.0378366639056738 0.363843295173311
-0.399739722764406 -0.0559553123812648 0.363843295173311
-0.395218116811394 -0.069744524147809 0.363843295173311
-0.395766217324468 -0.0698823613378869 0.363843295173311
-0.402333712735115 -0.091257631386468 0.363843295173311
-0.402537284554507 -0.106841607906507 0.363843295173311
-0.406998988860719 -0.112657687406187 0.363843295173311
-0.403705173283555 -0.128596744732089 0.363843295173311
-0.410575234481069 -0.135685620456404 0.363843295173311
-0.412277047247953 -0.149602289129708 0.363843295173311
-0.414519235544622 -0.157862154786915 0.363843295173311
-0.416984303275453 -0.171212916623885 0.363843295173311
-0.358198872465441 0.205400906685301 0.356819455650924
-0.358533084028896 0.2053419761694 0.362919916669571
-0.353284835884905 0.194383165145648 0.363843295173311
-0.353350516543498 0.188091957284947 0.363843295173311
-0.356826257096745 0.182020627581688 0.363843295173311
-0.359923670401491 0.167394716196514 0.363843295173311
-0.362469399441078 0.158990886953204 0.363843295173311
-0.361504983740995 0.146292854174547 0.363843295173311
-0.361286534810507 0.136104461196904 0.363843295173311
-0.36562595425216 0.117029627506011 0.363843295173311
-0.36325672549423 0.110652993231471 0.363843295173311
-0.371028806728784 0.100729735326348 0.363843295173311
-0.365055676121149 0.0986778907974842 0.363843295173311
-0.370810389336949 0.0864865286975403 0.363843295173311
-0.369344390609569 0.0656980518208253 0.363843295173311
-0.37325736234568 0.0621408689120527 0.363843295173311
-0.369820459400355 0.0532353124632057 0.363843295173311
-0.373968522106503 0.0302975086766319 0.363843295173311
-0.378827802044127 0.0317553003632248 0.363843295173311
-0.375495507654882 0.0167286762067756 0.363843295173311
-0.376334166420022 0.00177174106151956 0.363843295173311
-0.379728493942557 -0.000788358000965023 0.363843295173311
-0.379212339952401 -0.0161413447787216 0.363843295173311
-0.388919872699846 -0.0333651824495384 0.363843295173311
-0.388463077045757 -0.0389377765555722 0.363843295173311
-0.390563403139652 -0.0485007589898808 0.363843295173311
-0.38701894506325 -0.0616693458559144 0.363843295173311
-0.385499744022297 -0.0736132917094876 0.363843295173311
-0.388647095937813 -0.0939671999372956 0.363843295173311
-0.3961978767243 -0.10670146985504 0.363843295173311
-0.390091940234596 -0.106967020384802 0.363843295173311
-0.397290934939106 -0.120286131207023 0.363843295173311
-0.395439259770425 -0.139619971855267 0.363843295173311
-0.398847054824382 -0.155020507604391 0.363843295173311
-0.400176560867025 -0.167295956867567 0.363843295173311
-0.398525691387057 -0.169055208639593 0.363843295173311
-0.339367027868709 0.208721468984214 0.362523441865431
-0.346381439306903 0.203071541285532 0.363843295173311
-0.342371134941836 0.195189845401792 0.363843295173311
-0.34742135639412 0.185564222335377 0.363843295173311
-0.345758341854158 0.179553106317936 0.363843295173311
-0.35155922036769 0.158495232708233 0.363843295173311
-0.355320706006054 0.155163540622648 0.363843295173311
-0.354326103683574 0.140024414138974 0.363843295173311
-0.356507990719592 0.142867107446868 0.363843295173311
-0.358610846421418 0.126956822249273 0.363843295173311
-0.353142961362543 0.114742771898983 0.363843295173311
-0.352808211510384 0.105894702994718 0.363843295173311
-0.354529052318861 0.0928761012849096 0.363843295173311
-0.36175415401276 0.0914557639374424 0.363843295173311
-0.361808340170698 0.0714577585767786 0.363843295173311
-0.364971334657431 0.05159932616332 0.363843295173311
-0.3678133581826 0.0494061189046724 0.363843295173311
-0.362403067346094 0.0361286183153979 0.363843295173311
-0.364536974533357 0.0273855876452737 0.363843295173311
-0.371382159928508 0.0123199313530157 0.363843295173311
-0.372149591500724 0.00448433739493089 0.363843295173311
-0.370537427638574 -0.000137527507059805 0.363843295173311
-0.36801455302806 -0.0141889986595306 0.363843295173311
-0.37081770254699 -0.0244232588248878 0.363843295173311
-0.378963464327109 -0.0441808123233263 0.363843295173311
-0.381462596368447 -0.0566345548802902 0.363843295173311
-0.375736036936252 -0.068075234589393 0.363843295173311
-0.377458382885428 -0.0746513861192767 0.363843295173311
-0.381429653716446 -0.0892987422862325 0.363843295173311
-0.37932570913138 -0.0964783121244772 0.363843295173311
-0.384832434477561 -0.117140459430205 0.363843295173311
-0.383676458653352 -0.131920811153628 0.363843295173311
-0.391258147491966 -0.139329009382658 0.363843295173311
-0.390085391865931 -0.152397831536878 0.363843295173311
-0.388710857022071 -0.15874613015726 0.363843295173311
-0.388277611649681 -0.17670128010951 0.363843295173311
-0.397867363978986 -0.182644399519668 0.363843295173311
-0.332049663747916 0.210011717706378 0.360266692917254
-0.339019479924852 0.201185150741349 0.363843295173311
-0.334890161975059 0.201902697008672 0.363843295173311
-0.343014818585858 0.179791005107024 0.363843295173311
-0.339445248474019 0.170365705575421 0.363843295173311
-0.337517536005062 0.168010895138228 0.363843295173311
-0.33959634701925 0.149793106765251 0.363843295173311
-0.337792914553288 0.151977347788598 0.363843295173311
-0.341770037876982 0.133927162230579 0.363843295173311
-0.34441609139877 0.124265369224008 0.363843295173311
-0.348703134760578 0.123253477696636 0.363843295173311
-0.348971397199673 0.0943334731944483 0.363843295173311
-0.345099996871946 0.084657663992774 0.363843295173311
-0.353431140670622 0.0795915507183904 0.363843295173311
-0.350614080021929 0.0734810691377204 0.363843295173311
-0.35567937644366 0.0595574068802591 0.363843295173311
-0.351681084822815 0.0475580743787393 0.363843295173311
-0.353076636487609 0.0360833317761964 0.363843295173311
-0.352587321965434 0.0342249438186065 0.363843295173311
-0.353821916560538 0.0145947612350262 0.363843295173311
-0.359227084239986 0.00539188316404984 0.363843295173311
-0.365239365144546 0.00229900688156483 0.363843295173311
-0.357949210219367 -0.01189868641281 0.363843295173311
-0.366914993830745 -0.0253164854259334 0.363843295173311
-0.361230381079442 -0.0408641021722361 0.363843295173311
-0.36263505414541 -0.0517063090646041 0.363843295173311
-0.369300594515427 -0.0666457004634919 0.363843295173311
-0.372073648443124 -0.0760900515418881 0.363843295173311
-0.375068324785454 -0.0897717788845687 0.363843295173311
-0.367359118311904 -0.0994203708041723 0.363843295173311
-0.368681794712066 -0.108642528348311 0.363843295173311
-0.380124487946754 -0.122096245003382 0.363843295173311
-0.377391791803624 -0.139763350191981 0.363843295173311
-0.38204824011705 -0.152319496761628 0.363843295173311
-0.373807148100067 -0.163869320448965 0.363843295173311
-0.382034982048105 -0.171218178772409 0.363843295173311
-0.380499325996557 -0.186754026716032 0.363843295173311
-0.325962909900565 0.211084976634597 0.362544286506353
-0.322704685742521 0.199139752425903 0.363843295173311
-0.329118980791311 0.19443076024956 0.363843295173311
-0.329076967283289 0.183380535851009 0.363843295173311
-0.330564772530639 0.169821641517523 0.363843295173311
-0.327348517773809 0.172148685072294 0.363843295173311
-0.336170004684127 0.157838966958116 0.363843295173311
-0.330553961252922 0.145479523850067 0.363843295173311
-0.333709404722782 0.133028181616775 0.363843295173311
-0.336162895107804 0.123823771008979 0.363843295173311
-0.332451649710393 0.116258763319708 0.363843295173311
-0.335758658579087 0.103514118381012 0.363843295173311
-0.334672733304256 0.0978008973174752 0.363843295173311
-0.339810851907188 0.0838830032573383 0.363843295173311
-0.345383444068208 0.0728433660250354 0.363843295173311
-0.343299743371732 0.0502546144425702 0.363843295173311
-0.343503677161236 0.0497203324393138 0.363843295173311
-0.347762687656533 0.0414767434981146 0.363843295173311
-0.343462217455009 0.0241210325954227 0.363843295173311
-0.353205564981853 0.0167184956494341 0.363843295173311
-0.347408566334596 0.00443128841574248 0.363843295173311
-0.355136298085444 -0.00292667334976558 0.363843295173311
-0.350441532925869 -0.0186380629200049 0.363843295173311
-0.353026068793848 -0.0266448221738923 0.363843295173311
-0.356402364325227 -0.038153949807798 0.363843295173311
-0.36107755545843 -0.0490978398867674 0.363843295173311
-0.356898040017847 -0.0727395548354529 0.363843295173311
-0.359552440124843 -0.0772573264632549 0.363843295173311
-0.362229081748929 -0.0901130814801546 0.363843295173311
-0.357002222830448 -0.0940153471200372 0.363843295173311
-0.36660799344021 -0.120487159806479 0.363843295173311
-0.367794438891436 -0.125054271686248 0.363843295173311
-0.366209203846852 -0.140923975179153 0.363843295173311
-0.369614849205443 -0.145035881432869 0.363843295173311
-0.36688058172224 -0.172894736705346 0.363843295173311
-0.365753977175716 -0.17521173701448 0.363843295173311
-0.366482541719386 -0.182474656320925 0.363843295173311
-0.312251788544812 0.213502617265384 0.353063322365016
-0.314192582632278 0.213160402903765 0.361429586322422
-0.3129021426412 0.213387942291177 0.363519031327276
-0.317118842969986 0.197115477287499 0.363843295173311
-0.32119287252966 0.184970200258264 0.363843295173311
-0.318632549577732 0.175928525820398 0.363843295173311
-0.319383885477641 0.172409286854583 0.363843295173311
-0.322111785679392 0.157427688185157 0.363843295173311
-0.327036014863944 0.149074393632414 0.363843295173311
-0.32289756876803 0.138949821164846 0.363843295173311
-0.328149018736365 0.121278347768206 0.363843295173311
-0.322889624323883 0.11389412365158 0.363843295173311
-0.328659668697563 0.107776859718985 0.363843295173311
-0.325666588708881 0.0974650859724249 0.363843295173311
-0.325841774249191 0.0844029550400437 0.363843295173311
-0.33037830581975 0.0719482986410373 0.363843295173311
-0.32862518849443 0.0582067926649824 0.363843295173311
-0.33018541983494 0.0502388023534257 0.363843295173311
-0.337251151832586 0.0382075523452204 0.363843295173311
-0.33853634873017 0.0169215279995399 0.363843295173311
-0.341093091223866 0.0209186465176467 0.363843295173311
-0.340569735983389 0.00707924186511466 0.363843295173311
-0.344048825495713 -0.00719102562872495 0.363843295173311
-0.343608423136381 -0.0210585709321083 0.363843295173311
-0.341477910530441 -0.0332591823074102 0.363843295173311
-0.341415138060882 -0.0393446294749085 0.363843295173311
-0.344707602338952 -0.0509958750520648 0.363843295173311
-0.343600825399052 -0.0678864898427042 0.363843295173311
-0.353650848895613 -0.0761057896861874 0.363843295173311
-0.35077462530281 -0.0918619219747365 0.363843295173311
-0.354714302182836 -0.108348202616851 0.363843295173311
-0.352130138568622 -0.112506942899311 0.363843295173311
-0.358546391005306 -0.130938063595549 0.363843295173311
-0.354357066757685 -0.141197250824114 0.363843295173311
-0.362038651197169 -0.152502699749081 0.363843295173311
-0.363352215469109 -0.163106469327679 0.363843295173311
-0.359967753140776 -0.181927148640633 0.363843295173311
-0.362871355364687 -0.18956122262109 0.363843295173311
-0.309428329354785 0.214000469299515 0.355588571462811
-0.301975843464775 0.215314543635273 0.356629780639678
-0.311202564675175 0.207662482753263 0.363843295173311
-0.311326739973191 0.194902064859038 0.363843295173311
-0.307296459041026 0.179786969112815 0.363843295173311
-0.31021937433442 0.175976728299152 0.363843295173311
-0.312939187443674 0.164008523914274 0.363843295173311
-0.311893296879704 0.156753592906055 0.363843295173311
-0.316981771673467 0.14851970176135 0.363843295173311
-0.318735378651198 0.132879091405212 0.363843295173311
-0.313375335995641 0.130854988874957 0.363843295173311
-0.3208795998747 0.110022964548206 0.363843295173311
-0.319314162160838 0.107263692962959 0.363843295173311
-0.320085287550692 0.0946491974594167 0.363843295173311
-0.320423437198887 0.0798769874667836 0.363843295173311
-0.318818506927714 0.0675892945515853 0.363843295173311
-0.328604105119137 0.0584840732503059 0.363843295173311
-0.323606946102845 0.0470552365801371 0.363843295173311
-0.322085476762945 0.0360477289841281 0.363843295173311
-0.324391771823599 0.0219976004950983 0.363843295173311
-0.331198827406053 0.00709723303503475 0.363843295173311
-0.330815705938061 0.00530004686245201 0.363843295173311
-0.326204726838283 -0.0148598056664177 0.363843295173311
-0.330505781585084 -0.0139429582612799 0.363843295173311
-0.332486824488361 -0.0271350032808142 0.363843295173311
-0.329623488015654 -0.0397411009766715 0.363843295173311
-0.331954524655852 -0.0535924722751278 0.363843295173311
-0.342040506271524 -0.0683047603621683 0.363843295173311
-0.341061362852377 -0.0734517723728019 0.363843295173311
-0.342945676379861 -0.089609934807605 0.363843295173311
-0.346801596056225 -0.104328216638289 0.363843295173311
-0.338221799449449 -0.112026417506512 0.363843295173311
-0.342114342200583 -0.124552319617973 0.363843295173311
-0.345943385759566 -0.143990390978575 0.363843295173311
-0.349133663863068 -0.150008694584323 0.363843295173311
-0.342700168001704 -0.164485643564702 0.363843295173311
-0.348441517928684 -0.177625053249794 0.363843295173311
-0.353146508003475 -0.191556080121927 0.363843295173311
-0.292152845018721 0.21704660329277 0.358954126124421
-0.297281738011505 0.213613922558989 0.363843295173311
-0.299438450379677 0.202905753505234 0.363843295173311
-0.296325511473742 0.198642483604042 0.363843295173311
-0.298348985198693 0.182180842749386 0.363843295173311
-0.302139771820243 0.174038744981887 0.363843295173311
-0.30268030065615 0.1671136619009 0.363843295173311
-0.298840246743298 0.15467121423772 0.363843295173311
-0.308064448174723 0.146110717668555 0.363843295173311
-0.306304237789473 0.137628355776117 0.363843295173311
-0.309626779894945 0.126446842220891 0.363843295173311
-0.311692183970409 0.112920684662828 0.363843295173311
-0.306713066676215 0.105498324040834 0.363843295173311
-0.314090335122623 0.0999153726598843 0.363843295173311
-0.313280714713506 0.0851618953542778 0.363843295173311
-0.308080004331064 0.0698327283831159 0.363843295173311
-0.31710178290483 0.0614957553755873 0.363843295173311
-0.318808461827871 0.0437188846660516 0.363843295173311
-0.311213743912473 0.0358557935618326 0.363843295173311
-0.317201851468653 0.0318609038019266 0.363843295173311
-0.318252970084156 0.00952391250874261 0.363843295173311
-0.318207257225079 0.00496838943130951 0.363843295173311
-0.318819108964017 -0.00371927747215651 0.363843295173311
-0.317793848709123 -0.0127662854695944 0.363843295173311
-0.318258708951766 -0.0256260465224245 0.363843295173311
-0.32655600677692 -0.0431470702910303 0.363843295173311
-0.330531094053841 -0.0542239606337528 0.363843295173311
-0.326977326900927 -0.0603477463630999 0.363843295173311
-0.33132453124575 -0.0757810693620936 0.363843295173311
-0.324358384307611 -0.0923041902770886 0.363843295173311
-0.329135546462628 -0.0952061207076417 0.363843295173311
-0.330293222583416 -0.105869964713788 0.363843295173311
-0.332886644977821 -0.129866042642192 0.363843295173311
-0.334417045015629 -0.138007924425851 0.363843295173311
-0.337647917059842 -0.154524772388981 0.363843295173311
-0.342722925092667 -0.166645577505601 0.363843295173311
-0.341552978500187 -0.175603398576357 0.363843295173311
-0.341490703630707 -0.186775301093152 0.363843295173311
-0.345475839364271 -0.197864324594889 0.363843295173311
-0.285454127400189 0.218227767945064 0.357361982697446
-0.283786044805262 0.21508862672107 0.363843295173311
-0.290412234181468 0.202847703553969 0.363843295173311
-0.290180795189319 0.200579212208524 0.363843295173311
-0.286557116000853 0.188834000016493 0.363843295173311
-0.290114146080765 0.176195853041391 0.363843295173311
-0.291160116270562 0.165355427491915 0.363843295173311
-0.297192708130086 0.154723058367234 0.363843295173311
-0.292916303714413 0.138348418669796 0.363843295173311
-0.29789349196922 0.134403788494988 0.363843295173311
-0.300633151645448 0.118836315601219 0.363843295173311
-0.29696188905854 0.113404661297809 0.363843295173311
-0.298337637646627 0.0977233180127269 0.363843295173311
-0.303220672760867 0.0925835676629349 0.363843295173311
-0.298539633478378 0.0849319284917786 0.363843295173311
-0.299862215666845 0.0697567979904841 0.363843295173311
-0.303319753425161 0.0612351695212042 0.363843295173311
-0.308373133497979 0.0416937196393629 0.363843295173311
-0.30382983194847 0.0453795451757007 0.363843295173311
-0.307025096263755 0.0290976128749559 0.363843295173311
-0.308737532822997 0.00901971873221909 0.363843295173311
-0.314412714470913 -0.000281522384748718 0.363843295173311
-0.314398400930093 -0.00318393824572709 0.363843295173311
-0.307356403225077 -0.0227350792279147 0.363843295173311
-0.31138582219715 -0.0231243600838332 0.363843295173311
-0.318359759832837 -0.0435716482138016 0.363843295173311
-0.31242497023609 -0.047762699602023 0.363843295173311
-0.321208455405897 -0.0663170033077343 0.363843295173311
-0.320563877190193 -0.0798377090920623 0.363843295173311
-0.32015384052083 -0.0893401568584122 0.363843295173311
-0.323389038669532 -0.0950146236050407 0.363843295173311
-0.323443227187815 -0.105039235727965 0.363843295173311
-0.325358356333016 -0.129764777986187 0.363843295173311
-0.32517710484045 -0.141428568085534 0.363843295173311
-0.32302621690445 -0.147820620979399 0.363843295173311
-0.322852444938398 -0.159578757632206 0.363843295173311
-0.325187004008094 -0.174286652516815 0.363843295173311
-0.334751872337536 -0.184581951796997 0.363843295173311
-0.330000376049406 -0.205036607052924 0.363843295173311
-0.281076210750806 0.16330397060246 0.156591435194432
-0.283005479873423 0.16330397060246 0.171502855689037
-0.281767999482933 0.16330397060246 0.178919932976072
-0.282052350526607 0.163303970602461 0.202068869295112
-0.279001483755941 0.16330397060246 0.218571015067334
-0.284746607523639 0.16330397060246 0.221603769879255
-0.283280516398342 0.16330397060246 0.254992791880013
-0.280860485396409 0.16330397060246 0.258420971733743
-0.284044627395424 0.16330397060246 0.267020139299443
-0.280622296668415 0.16330397060246 0.276622837484038
-0.284515818157289 0.163303970602461 0.291920494899361
-0.28037141989862 0.218305977103983 0.357622977043559
-0.275396493333371 0.216058246522174 0.363843295173311
-0.282096266550513 0.204538538114854 0.363843295173311
-0.285098255102925 0.198432418812027 0.363843295173311
-0.285619644130836 0.188917547906569 0.363843295173311
-0.27799213381635 0.181281961647711 0.363843295173311
-0.286709307023711 0.167954918403836 0.363843295173311
-0.281536463871829 0.15370605226679 0.363843295173311
-0.284152738406616 0.149065703388198 0.363843295173311
-0.286044937242233 0.13912706348665 0.363843295173311
-0.283470654527196 0.114389516850111 0.363843295173311
-0.288838471971039 0.119493698197919 0.363843295173311
-0.293673830637573 0.10309737977406 0.363843295173311
-0.286522783639957 0.0903956907139434 0.363843295173311
-0.291925724435151 0.0770443838896173 0.363843295173311
-0.293747989956912 0.0705553700096027 0.363843295173311
-0.297940919542772 0.0656162385794314 0.363843295173311
-0.292775737318768 0.0396108484417918 0.363843295173311
-0.300850396148562 0.0430037373993121 0.363843295173311
-0.301904499556228 0.0298446793574923 0.363843295173311
-0.302271376822091 0.0196965336768104 0.363843295173311
-0.297934572952671 0.009212567102549 0.363843295173311
-0.303928190104355 -0.00198060647305737 0.363843295173311
-0.306907474945391 -0.0190994025705726 0.363843295173311
-0.305991893102171 -0.02881181153918 0.363843295173311
-0.306081886234438 -0.0462982439178826 0.363843295173311
-0.304140961101914 -0.0510542711790192 0.363843295173311
-0.307008581414965 -0.0567867091042831 0.363843295173311
-0.307210439298347 -0.0803582026214854 0.363843295173311
-0.308895458237246 -0.0919600343396255 0.363843295173311
-0.308355435546087 -0.103245897071304 0.363843295173311
-0.311497327391731 -0.112010377642085 0.363843295173311
-0.315353842309403 -0.131123445028917 0.363843295173311
-0.309257173578087 -0.144401354177162 0.363843295173311
-0.318009554063781 -0.155186722055174 0.363843295173311
-0.320596283238366 -0.161253944398668 0.363843295173311
-0.322000827972151 -0.17685456899815 0.363843295173311
-0.314612034458634 -0.18566609287712 0.363843295173311
-0.319794859355452 -0.199533876526283 0.363843295173311
-0.275462671233569 0.16330397060246 0.153051444025475
-0.272882471379978 0.134164329641397 0.137105299369083
-0.275933417477498 0.16330397060246 0.176744529433051
-0.275016272836705 0.16330397060246 0.185021976028247
-0.272882471379978 0.129646974317229 0.152134239730478
-0.272882471379978 0.161704684831498 0.192522882452054
-0.277945275974 0.16330397060246 0.213630665663764
-0.272882471379978 0.137394845192939 0.193683493701555
-0.27615874895757 0.16330397060246 0.234990498123494
-0.276094322214256 0.16330397060246 0.242253053076699
-0.276680724720618 0.163303970602461 0.243852311930218
-0.273487516023569 0.163303970602461 0.256924084876772
-0.272882471379978 0.143783278971136 0.248723317439553
-0.278569655723963 0.16330397060246 0.278371419930235
-0.274115759128915 0.16330397060246 0.286505688914631
-0.276613792233057 0.16330397060246 0.293129381590027
-0.265596502377404 0.218305977103983 0.357027398585992
-0.270442665730411 0.208669420824764 0.363843295173311
-0.269422040757294 0.205043209727493 0.363843295173311
-0.267250646837592 0.197460158038583 0.363843295173311
-0.276124284964142 0.187823785286487 0.363843295173311
-0.271399118406918 0.177629324634629 0.363843295173311
-0.275220055640369 0.171880334514752 0.363843295173311
-0.275481415633035 0.147240631639043 0.363843295173311
-0.272156537280719 0.147560419356197 0.363843295173311
-0.281244668286453 0.134737930711714 0.363843295173311
-0.272882093812063 0.125200188434804 0.363843295173311
-0.282056655514581 0.112240837925067 0.363843295173311
-0.283605459312425 0.104436343492591 0.363843295173311
-0.282745882931961 0.0994097498152318 0.363843295173311
-0.279396387876714 0.0758040099781019 0.363843295173311
-0.280266704679504 0.0631657730751085 0.363843295173311
-0.280926675873569 0.0624712066048582 0.363843295173311
-0.285229990769477 0.0452690233752461 0.363843295173311
-0.289654256232982 0.0389607211621007 0.363843295173311
-0.283582502840688 0.0350355888858075 0.363843295173311
-0.291139026009723 0.0124335907651226 0.363843295173311
-0.294051277389371 0.000184476560198378 0.363843295173311
-0.285850118951602 -0.0119880983544922 0.363843295173311
-0.294017498862676 -0.0268986428750759 0.363843295173311
-0.292726933587282 -0.0290260512601644 0.363843295173311
-0.28993659817914 -0.049330506369383 0.363843295173311
-0.29206379413776 -0.0445168430119768 0.363843295173311
-0.300222719078399 -0.0663317083581225 0.363843295173311
-0.29342432883128 -0.0707065470453177 0.363843295173311
-0.299295951699681 -0.0961823274498226 0.363843295173311
-0.296012569063091 -0.0946489109610113 0.363843295173311
-0.298512908676028 -0.117151606684945 0.363843295173311
-0.306219747561576 -0.124218103803217 0.363843295173311
-0.307028234491527 -0.142089493228465 0.363843295173311
-0.309695588732926 -0.160579981181201 0.363843295173311
-0.310012817215261 -0.163246888594338 0.363843295173311
-0.303097974725901 -0.17851291892576 0.363843295173311
-0.304618652113654 -0.192509613681955 0.363843295173311
-0.305404850080538 -0.200427864674733 0.363843295173311
-0.272882471379978 0.0278899860869454 0.0111941509724265
-0.272882471379978 0.0934257304691491 0.0942171811030558
-0.272882471379978 0.0349894292883164 0.0485111766080945
-0.272882471379978 0.0767671067934311 0.0967674306292828
-0.272882471379978 0.0676741313475506 0.0921414448329828
-0.272882471379978 0.0504242460816326 0.0953488321554702
-0.272882471379978 0.0453534614759001 0.0926239034374671
-0.272882471379978 0.0647201656592121 0.12406782458794
-0.272882471379978 0.0733819970443147 0.144948003775217
-0.272882471379978 0.0371730371838096 0.119670958326534
-0.272882471379978 0.0614213103799851 0.152470464695656
-0.272882471379978 0.0594914192586408 0.155145410016933
-0.272882471379978 0.0525341110970264 0.162330578926642
-0.272882471379978 0.0562725072256961 0.165897444910262
-0.272882471379978 0.0933909168438501 0.214605909197105
-0.272882471379978 0.0862143478780211 0.222498533485202
-0.261220223084275 0.218305977103983 0.360732731426223
-0.256920322103692 0.218305977103983 0.361059498689989
-0.261382521161637 0.210093673691569 0.363843295173311
-0.260192852121551 0.189223849971346 0.363843295173311
-0.262871203266453 0.177360981988529 0.363843295173311
-0.266813342080814 0.174237200562441 0.363843295173311
-0.26021148675751 0.163564407406442 0.363843295173311
-0.265188743100219 0.161731452540046 0.363843295173311
-0.266977605038009 0.144608046489436 0.363843295173311
-0.269527464543685 0.139531954886392 0.363843295173311
-0.267117792638755 0.127037120950228 0.363843295173311
-0.265307851576587 0.109976300225929 0.363843295173311
-0.269705221600669 0.103150127785448 0.363843295173311
-0.268857117808638 0.0954963043437026 0.363843295173311
-0.268657655356862 0.0848360980653281 0.363843295173311
-0.275973650822842 0.0734106792899777 0.363843295173311
-0.275998531671734 0.0565454151325472 0.363843295173311
-0.270542942207547 0.0494470985466516 0.363843295173311
-0.280580553394994 0.0312643682082628 0.363843295173311
-0.279928402229268 0.0328268681748771 0.363843295173311
-0.280155787069163 0.0185105167898664 0.363843295173311
-0.28068300867388 0.00167687528471895 0.363843295173311
-0.281481570937044 0.000922356374886989 0.363843295173311
-0.283763402944472 -0.0133773155455558 0.363843295173311
-0.281449695849118 -0.0270983910467022 0.363843295173311
-0.28662140136527 -0.0408629759350576 0.363843295173311
-0.286495293176065 -0.0576935849755658 0.363843295173311
-0.283739664287542 -0.0687882624632541 0.363843295173311
-0.283716578371098 -0.0772391972313191 0.363843295173311
-0.283840603931851 -0.084925328428021 0.363843295173311
-0.290964604232867 -0.106219225839938 0.363843295173311
-0.293750420822258 -0.118860908496953 0.363843295173311
-0.292861862762463 -0.115412463305333 0.363843295173311
-0.294070481415303 -0.129905441209817 0.363843295173311
-0.295770676523947 -0.153653011190689 0.363843295173311
-0.291942406366979 -0.157054930602406 0.363843295173311
-0.294322044020617 -0.174346118282418 0.363843295173311
-0.298938912582513 -0.194651270190949 0.363843295173311
-0.295225276796724 -0.202154132813442 0.363843295173311
-0.272882471379978 0.00727289496982638 0.0186002346894014
-0.272882471379978 -0.00392543334823016 0.0176333376626222
-0.272882471379978 -0.00675917358395197 0.0293467920770621
-0.272882471379978 -0.0258531777406189 0.0152347370062516
-0.272882471379978 -0.0335641176397706 0.0242015157139214
-0.272882471379978 -0.0350912359119942 0.0288621743909129
-0.272882471379978 -0.0233741718335333 0.0496518780482759
-0.272882471379978 -0.0543982601789755 0.0347073763384539
-0.272882471379978 -0.0628254812408139 0.0376292277394722
-0.272882471379978 -0.0335550171579476 0.0710602556644852
-0.272882471379978 0.0167465557397414 0.138302920756336
-0.272882471379978 -0.0593769564878421 0.0646037711587158
-0.272882471379978 -0.0343528489297401 0.103725333418488
-0.247872428177064 0.218305977103982 0.360526848832342
-0.248906857759031 0.217863437537224 0.363843295173311
-0.248416920457739 0.20372404229958 0.363843295173311
-0.253776332336152 0.201855277735029 0.363843295173311
-0.257419618227425 0.183693735194095 0.363843295173311
-0.255504674397343 0.171318697081219 0.363843295173311
-0.253448563560816 0.166703935814571 0.363843295173311
-0.252657709497998 0.158610013496868 0.363843295173311
-0.257820285198305 0.14410269644431 0.363843295173311
-0.255769478661246 0.137358277623379 0.363843295173311
-0.257229750784515 0.125349835114619 0.363843295173311
-0.256962157284018 0.111655273549326 0.363843295173311
-0.261528002593783 0.0998321897331573 0.363843295173311
-0.261864754645756 0.0920762103064741 0.363843295173311
-0.261244358947816 0.0756544239041933 0.363843295173311
-0.262199760348641 0.0702197105714154 0.363843295173311
-0.260853777760136 0.0544374457866733 0.363843295173311
-0.266116666127105 0.0508343107245415 0.363843295173311
-0.262850575055078 0.046990337987803 0.363843295173311
-0.267977305897095 0.0251111527411668 0.363843295173311
-0.272568514698617 0.0102943937934898 0.363843295173311
-0.267413396742568 0.00319532037626667 0.363843295173311
-0.271797773887904 0.000483784080144426 0.363843295173311
-0.273041663331431 -0.0109317982694295 0.363843295173311
-0.270657409091051 -0.0304877730497169 0.363843295173311
-0.271095722166949 -0.0444438526020131 0.363843295173311
-0.27574750611001 -0.04345646669942 0.363843295173311
-0.272977941734222 -0.0698440592727589 0.363843295173311
-0.281784842573028 -0.0811547408145829 0.363843295173311
-0.282472464371446 -0.0897114484416893 0.363843295173311
-0.280697481334198 -0.107545891224307 0.363843295173311
-0.281821580935232 -0.113258612774367 0.363843295173311
-0.28117146338416 -0.11756997095161 0.363843295173311
-0.285263537105462 -0.145334419011355 0.363843295173311
-0.28834299696935 -0.152085180718383 0.363843295173311
-0.283551278366791 -0.155057262648307 0.363843295173311
-0.2840633931589 -0.178346631746826 0.363843295173311
-0.287482825440154 -0.189197116960483 0.363843295173311
-0.284895988861967 -0.205515924595419 0.363843295173311
-0.272882471379978 -0.141821036606346 0.00140405419279175
-0.272882471379978 -0.110245901761427 0.034899826646968
-0.237808089444192 0.216484985177668 0.363843295173311
-0.244913002934232 0.210320000199689 0.363843295173311
-0.243720538704104 0.199302500956987 0.363843295173311
-0.24162600283511 0.183660231999278 0.363843295173311
-0.2406546160647 0.178859711924233 0.363843295173311
-0.242721409070157 0.161221330450158 0.363843295173311
-0.24210165662574 0.16161772070091 0.363843295173311
-0.252163589267384 0.135650811852708 0.363843295173311
-0.245986408310428 0.132511516551416 0.363843295173311
-0.246818651834224 0.124508289300761 0.363843295173311
-0.250130028420058 0.113223990961041 0.363843295173311
-0.252516939277157 0.110112381200777 0.363843295173311
-0.257220268681618 0.0892555638098806 0.363843295173311
-0.248301123513542 0.078631680377623 0.363843295173311
-0.254124556421375 0.0687224643192974 0.363843295173311
-0.251427280321641 0.0588758243545723 0.363843295173311
-0.258361513431929 0.054377948443395 0.363843295173311
-0.253898143318755 0.0284137384933228 0.363843295173311
-0.258700368433079 0.0243094547795563 0.363843295173311
-0.260228410815163 0.0229120059374014 0.363843295173311
-0.257746166056371 0.0107158402906482 0.363843295173311
-0.264177703559293 -0.0068149235272973 0.363843295173311
-0.26239681418136 -0.0113746806328289 0.363843295173311
-0.26380188130515 -0.0309169172722544 0.363843295173311
-0.268504049148893 -0.0387140674967655 0.363843295173311
-0.268407817298551 -0.0576410367596916 0.363843295173311
-0.270389140341677 -0.0688088104076096 0.363843295173311
-0.270300215671714 -0.0729490425510834 0.363843295173311
-0.272693250175266 -0.0952756821842083 0.363843295173311
-0.267997352432438 -0.103157623106641 0.363843295173311
-0.266553187265878 -0.120919785192619 0.363843295173311
-0.267015027814779 -0.121192284167591 0.363843295173311
-0.276933703038969 -0.141215982068318 0.363843295173311
-0.275472978233893 -0.15704399613021 0.363843295173311
-0.270055102107965 -0.160308956551679 0.363843295173311
-0.277848880113361 -0.174446810625988 0.363843295173311
-0.271869700976727 -0.197871668384785 0.363843295173311
-0.272731572721835 -0.203956330390137 0.363843295173311
-0.278726085863952 -0.214482815082415 0.363843295173311
-0.229737905706245 0.218305977103983 0.355538837727138
-0.236510414201914 0.205917767983918 0.363843295173311
-0.229658321501035 0.201941176904344 0.363843295173311
-0.232257726798282 0.188408560347446 0.363843295173311
-0.237662244793661 0.187999061124957 0.363843295173311
-0.23142438048996 0.176271132177616 0.363843295173311
-0.233383391002597 0.172489772874879 0.363843295173311
-0.234810502195322 0.160869419322923 0.363843295173311
-0.240102312250465 0.147008548851641 0.363843295173311
-0.238759542792389 0.13816808827107 0.363843295173311
-0.241888301129106 0.119847535653189 0.363843295173311
-0.238403604582091 0.106824027384007 0.363843295173311
-0.237774794853116 0.0998655899898761 0.363843295173311
-0.240654764393953 0.0891326683692611 0.363843295173311
-0.242190674557794 0.0843371705195795 0.363843295173311
-0.241299785473253 0.0695363915363999 0.363843295173311
-0.243874051231661 0.0682407060000238 0.363843295173311
-0.249476941790948 0.0529091442071004 0.363843295173311
-0.242513443631715 0.0377578036162989 0.363843295173311
-0.250644482224321 0.0300598925789485 0.363843295173311
-0.249607980864469 0.0219635134792859 0.363843295173311
-0.250062376408379 0.000208977418994211 0.363843295173311
-0.253100015544288 -0.0112476130932928 0.363843295173311
-0.255720932637926 -0.0143503430432369 0.363843295173311
-0.257362806650283 -0.0310483276541393 0.363843295173311
-0.249709276375028 -0.043635662603599 0.363843295173311
-0.255146084962195 -0.0604988897080214 0.363843295173311
-0.252098940560375 -0.0627942163337767 0.363843295173311
-0.259649256825757 -0.0791800886071226 0.363843295173311
-0.260679183195876 -0.0966882664248403 0.363843295173311
-0.262884614035212 -0.0976178232051972 0.363843295173311
-0.255561412772815 -0.112076861862869 0.363843295173311
-0.259355987759095 -0.118674504047471 0.363843295173311
-0.263872331220598 -0.1308087471007 0.363843295173311
-0.265864527754031 -0.152416534102864 0.363843295173311
-0.26182706084547 -0.165099374459167 0.363843295173311
-0.268452563151604 -0.186781077876636 0.363843295173311
-0.264481931676692 -0.185320682302852 0.363843295173311
-0.262117520751815 -0.200599664809838 0.363843295173311
-0.26251953838489 -0.20763106722341 0.363843295173311
-0.22695679215099 0.218305977103982 0.363262104533112
-0.22316053345216 0.218305977103983 0.36363703993634
-0.226046863928231 0.201868435885845 0.363843295173311
-0.229220136041193 0.194167051045642 0.363843295173311
-0.229504651785291 0.187131706150178 0.363843295173311
-0.221826980909885 0.1715279280077 0.363843295173311
-0.223534911662713 0.163903893456464 0.363843295173311
-0.224407381359281 0.151539289132566 0.363843295173311
-0.226746921472578 0.144212427740588 0.363843295173311
-0.224634062306608 0.133007355135828 0.363843295173311
-0.23454994215949 0.126905827478105 0.363843295173311
-0.228763607537895 0.116566341518448 0.363843295173311
-0.230266175010695 0.100291817184428 0.363843295173311
-0.230578882527653 0.0942372063618905 0.363843295173311
-0.235029292027196 0.0860330352081302 0.363843295173311
-0.229679541796312 0.0731503082002684 0.363843295173311
-0.232572716582391 0.0626892123659207 0.363843295173311
-0.233025495986996 0.0557029680515805 0.363843295173311
-0.238228209529866 0.035595421552286 0.363843295173311
-0.23495438220409 0.0291960116808965 0.363843295173311
-0.239527598301454 0.0152343146523991 0.363843295173311
-0.244129056193387 0.0057228532198709 0.363843295173311
-0.23855697680203 -0.0102000457772876 0.363843295173311
-0.244591810774041 -0.0263998682090124 0.363843295173311
-0.240124862787211 -0.0339442109730923 0.363843295173311
-0.244317411882406 -0.0438906296923398 0.363843295173311
-0.242191061249517 -0.0581664698069609 0.363843295173311
-0.247119536591652 -0.0632501739984591 0.363843295173311
-0.249443600771154 -0.0740966407838599 0.363843295173311
-0.243583719421228 -0.0869810520242055 0.363843295173311
-0.243337713177907 -0.104650047794609 0.363843295173311
-0.249106399698637 -0.113162153410094 0.363843295173311
-0.252703224882187 -0.12922090352896 0.363843295173311
-0.252532647298099 -0.142512104097393 0.363843295173311
-0.255624038765759 -0.156710668351356 0.363843295173311
-0.248315331447971 -0.168063836846302 0.363843295173311
-0.254969333891487 -0.17998783047527 0.363843295173311
-0.25424226902475 -0.183083051013465 0.363843295173311
-0.259727169449434 -0.195494268049574 0.363843295173311
-0.211137339571484 0.218305977103983 0.354750071725112
-0.213845374756052 0.216090858256946 0.363843295173311
-0.214976176451566 0.209210768986263 0.363843295173311
-0.21800292480735 0.195910506493652 0.363843295173311
-0.213975170383377 0.183626184774566 0.363843295173311
-0.212909010100431 0.173353345292748 0.363843295173311
-0.218917573379917 0.165583645438185 0.363843295173311
-0.220960295928523 0.155895524910326 0.363843295173311
-0.217063344368736 0.144771776291877 0.363843295173311
-0.21751921168202 0.129668423489 0.363843295173311
-0.220395633494546 0.118906018817744 0.363843295173311
-0.21692691875445 0.107331173898413 0.363843295173311
-0.2184488759414 0.100200484524512 0.363843295173311
-0.217946956779141 0.0943610613658228 0.363843295173311
-0.220956007271796 0.0899508522689237 0.363843295173311
-0.223536355178104 0.0644030564591739 0.363843295173311
-0.223791682621952 0.0660451312512256 0.363843295173311
-0.228539029406899 0.0539073272090159 0.363843295173311
-0.231001614817105 0.0391997702265072 0.363843295173311
-0.227048969254148 0.0350863034481543 0.363843295173311
-0.229005997782771 0.0176079899702891 0.363843295173311
-0.233773590409108 0.00729884851031181 0.363843295173311
-0.225783416503743 -0.00535984054334816 0.363843295173311
-0.228927510875387 -0.0242131801931149 0.363843295173311
-0.236133587983459 -0.037059685744999 0.363843295173311
-0.231337159244775 -0.0383894685734075 0.363843295173311
-0.233767936478619 -0.0460781662902311 0.363843295173311
-0.233777268489235 -0.0700471682091105 0.363843295173311
-0.231918006878333 -0.0881988949752433 0.363843295173311
-0.23410434429157 -0.0884299028763147 0.363843295173311
-0.241656611634601 -0.0949086383536175 0.363843295173311
-0.240202653804009 -0.104963254266386 0.363843295173311
-0.238797172594542 -0.124444946837508 0.363843295173311
-0.239175422294428 -0.135787947513731 0.363843295173311
-0.244868857311211 -0.14502253251645 0.363843295173311
-0.238012944723112 -0.164952583347514 0.363843295173311
-0.240910263413462 -0.172976626969556 0.363843295173311
-0.239311340824114 -0.192232370216884 0.363843295173311
-0.241256724381233 -0.196122700283817 0.363843295173311
-0.241775020408171 -0.215939611381179 0.363843295173311
-0.203538633827503 0.218305977103982 0.360485594412148
-0.202811005761647 0.212312660320394 0.363843295173311
-0.201951812663536 0.202287448542483 0.363843295173311
-0.207398398402566 0.195014570628319 0.363843295173311
-0.209471988458123 0.190917891292523 0.363843295173311
-0.209516921702196 0.177736990750393 0.363843295173311
-0.209663483556701 0.169610126677423 0.363843295173311
-0.204357617561817 0.152852117306507 0.363843295173311
-0.213767745916164 0.141380190480706 0.363843295173311
-0.208143810961074 0.132334341047663 0.363843295173311
-0.215346566388396 0.123057003185493 0.363843295173311
-0.21630219202957 0.113568051492201 0.363843295173311
-0.214260606197303 0.103596921774975 0.363843295173311
-0.21760460246119 0.0947441282658954 0.363843295173311
-0.213004429581841 0.0819951515278185 0.363843295173311
-0.219081893158284 0.073708468853418 0.363843295173311
-0.213182064219224 0.0665670170727382 0.363843295173311
-0.213034149853196 0.0471223928720119 0.363843295173311
-0.214434540410263 0.0400817726284652 0.363843295173311
-0.219108500964192 0.0284916436853999 0.363843295173311
-0.214617185873235 0.0152303179833552 0.363843295173311
-0.222896932689575 0.00709193223811243 0.363843295173311
-0.221196579682701 -0.000397850079823585 0.363843295173311
-0.226605822318672 -0.0247211650981503 0.363843295173311
-0.222308390812856 -0.0391152550224123 0.363843295173311
-0.226487315864683 -0.0345708372829019 0.363843295173311
-0.219918809750119 -0.0539809840194656 0.363843295173311
-0.225429402129725 -0.0700211651391809 0.363843295173311
-0.226934017814271 -0.0749357749515177 0.363843295173311
-0.228922028458958 -0.091448453896807 0.363843295173311
-0.232068927970778 -0.102442993875359 0.363843295173311
-0.224186562483816 -0.106748276259276 0.363843295173311
-0.223881403489871 -0.120036479628906 0.363843295173311
-0.228540004999688 -0.137173134179308 0.363843295173311
-0.227310117877103 -0.144402386199905 0.363843295173311
-0.229417334586315 -0.166558806214547 0.363843295173311
-0.238400633619727 -0.186603033256555 0.363843295173311
-0.229075855793874 -0.187528100489865 0.363843295173311
