ply
format ascii 1.0
element vertex 854
property float x
property float y
property float z
end_header
0.0214627724694445 0.413034040669734 0.790532667469845
0.00916688746803191 0.427445391243357 0.790532667469845
-0.00638087294715925 0.442869482979391 0.790532667469845
-0.0199732552106285 0.460708823836661 0.790532667469845
-0.0253585527144435 0.463620195887704 0.790532667469845
-0.0308583940124604 0.48239685586185 0.790532667469845
-0.0504165328792091 0.494580486119324 0.790532667469845
0.476433833641296 -0.153776378983996 0.7496249601768
0.475326318494272 -0.157909681782839 0.765049004051016
0.47654552754693 -0.153359531653272 0.769793169676768
0.477036087175139 -0.151528738196652 0.77439732920938
0.476502401618917 -0.153520479807739 0.787445419682219
0.476701354324567 -0.150911070854314 0.790532667469845
0.467409896594424 -0.133883258791463 0.790532667469845
0.463323109450167 -0.137547019917483 0.790532667469845
0.453143990516256 -0.120719196802053 0.790532667469845
0.455050086422867 -0.123804384681129 0.790532667469845
0.440315007875888 -0.107827395758566 0.790532667469845
0.437482254166971 -0.104157313801861 0.790532667469845
0.434488818471859 -0.0985001657761485 0.790532667469845
0.423482204870244 -0.0867293608696801 0.790532667469845
0.417674752193642 -0.0762274038460043 0.790532667469845
0.412541872015561 -0.0729484350827005 0.790532667469845
0.398281773473317 -0.0596083028097716 0.790532667469845
0.389266469928899 -0.0498942473570145 0.790532667469845
0.387898139239852 -0.0466624959082671 0.790532667469845
0.37624335612647 -0.0332168500701605 0.790532667469845
0.372353603143562 -0.0316281221469975 0.790532667469845
0.371358580685027 -0.0183340083403995 0.790532667469845
0.356753422902171 -0.00689767781447971 0.790532667469845
0.349234080487284 -0.000491378175337747 0.790532667469845
0.340693213805232 0.00825967305255132 0.790532667469845
0.335101771488612 0.0132606657330374 0.790532667469845
0.330012441599244 0.0282319406306627 0.790532667469845
0.31641292050875 0.0398210786326971 0.790532667469844
0.319095728801982 0.0452533314092091 0.790532667469845
0.306765849681951 0.0473947343207857 0.790532667469845
0.301760350776334 0.0669625798295784 0.790532667469845
0.294970633918814 0.066872051710905 0.790532667469844
0.283347238180539 0.085623875852991 0.790532667469845
0.276208403382734 0.0875236286443123 0.790532667469845
0.270256217888887 0.0962544974470567 0.790532667469845
0.263563994448079 0.108528293854357 0.790532667469845
0.248976485768022 0.119048837367351 0.790532667469845
0.2461866325181 0.134099895051251 0.790532667469845
0.234065670266836 0.138665122676012 0.790532667469845
0.219998659651643 0.152030566798177 0.790532667469845
0.2188689607266 0.164674345613681 0.790532667469845
0.206121266297035 0.169757391237759 0.790532667469845
0.201204685728481 0.184880894166968 0.790532667469844
0.187663203953951 0.188263432527055 0.790532667469845
0.181685751346206 0.202438951042658 0.790532667469845
0.168715895383419 0.221074925110699 0.790532667469845
0.164179364678057 0.221415027340192 0.790532667469845
0.154068598902865 0.233417265141377 0.790532667469845
0.152755065822869 0.240213021154467 0.790532667469845
0.13271664125211 0.255401624351214 0.790532667469845
0.125151771494243 0.263796776254993 0.790532667469845
0.121208497508369 0.270410108143978 0.790532667469845
0.111378389936123 0.279353429009955 0.790532667469845
0.102552074408372 0.293785656535584 0.790532667469845
0.0916098004531165 0.311989515752033 0.790532667469845
0.0756202888322867 0.329800172577796 0.790532667469845
0.0627806394989151 0.335991973993915 0.790532667469845
0.0617270679925476 0.335819599184124 0.790532667469844
0.050360862613974 0.360867789590604 0.790532667469844
0.0376953086485677 0.368200591399455 0.790532667469845
0.0340516871000391 0.380847569001746 0.790532667469845
0.0201527522379105 0.395551302131492 0.790532667469845
0.0120887320568236 0.409165694257005 0.790532667469845
0.00394175494131834 0.415036061647773 0.790532667469845
-0.00285751286780676 0.425380738608416 0.790532667469845
-0.0195064183305664 0.450261787846461 0.790532667469845
-0.025655484492624 0.448525065703667 0.790532667469845
-0.0433215728042119 0.473474720375244 0.790532667469845
-0.0611588649319676 0.487378147701863 0.790532667469845
-0.0591831640037334 0.487106321979508 0.790532667469845
0.473983050472314 -0.162922826288968 0.762581764014739
0.473592392841957 -0.164380780413826 0.765744006940546
0.47409340333927 -0.162510983782727 0.776765093555234
0.473353911923777 -0.16527080331711 0.77763437663576
0.471603587605099 -0.15867043384902 0.790532667469845
0.461669558735886 -0.147029801833949 0.790532667469845
0.467218878608395 -0.149919959148558 0.790532667469845
0.453914878646048 -0.138957781123837 0.790532667469845
0.444631777830323 -0.128868709376447 0.790532667469845
0.440540697241138 -0.125286674956346 0.790532667469845
0.438739931618394 -0.114252187939891 0.790532667469845
0.426476424229749 -0.110382504604445 0.790532667469845
0.424501754939164 -0.0993858432608969 0.790532667469845
0.411549600533482 -0.086638408160942 0.790532667469845
0.411116860888379 -0.0905305828182975 0.790532667469845
0.402293505785338 -0.0691339449394701 0.790532667469845
0.387454217838504 -0.0632510380331748 0.790532667469845
0.387009321029783 -0.0557856696499374 0.790532667469845
0.383274470107269 -0.0526845311538219 0.790532667469845
0.381710172238807 -0.0423347896199466 0.790532667469845
0.364746523395464 -0.0332451623472801 0.790532667469845
0.352675129448527 -0.0185412736019142 0.790532667469845
0.346200455521824 -0.0107123441476433 0.790532667469845
0.346507820598821 -0.00666887076149475 0.790532667469845
0.331716760392573 0.00565016788999514 0.790532667469845
0.333225291320647 0.0131120874935744 0.790532667469845
0.315114548576284 0.0200149303544335 0.790532667469845
0.309216139300686 0.0297500206353888 0.790532667469845
0.311383216506898 0.032250400593563 0.790532667469845
0.294599562469832 0.0484931609638762 0.790532667469845
0.291549342512128 0.0570317230463263 0.790532667469844
0.286494950756449 0.0612576414147821 0.790532667469845
0.278169731937364 0.0738849198068923 0.790532667469845
0.275533868277323 0.0775544490180628 0.790532667469845
0.264658696993301 0.0931772067947951 0.790532667469844
0.253478887330486 0.104475023066502 0.790532667469845
0.244538383143411 0.11272872792386 0.790532667469845
0.234940937785562 0.119766219624964 0.790532667469845
0.224848954486662 0.133255501809914 0.790532667469845
0.213448959285447 0.147545737075544 0.790532667469845
0.212554792123835 0.157347470324072 0.790532667469845
0.202621549802451 0.160736553383485 0.790532667469845
0.190128820706747 0.182225687140925 0.790532667469845
0.184565759426411 0.180606984493115 0.790532667469845
0.175328550629596 0.192087837509248 0.790532667469845
0.165710849152408 0.198314138705821 0.790532667469845
0.160478132124397 0.215832733418797 0.790532667469845
0.146283718126783 0.222092866368039 0.790532667469845
0.139434391502076 0.23532672379767 0.790532667469845
0.127796808816358 0.250493400993235 0.790532667469845
0.128559455349615 0.253659994970664 0.790532667469845
0.11366143017393 0.26789567079624 0.790532667469845
0.0931233081036501 0.285041463868823 0.790532667469845
0.0923475527951142 0.286692390941793 0.790532667469844
0.0839629472069507 0.303538522954568 0.790532667469845
0.0683598858918379 0.31223182511127 0.790532667469844
0.0661878724681103 0.326132710232641 0.790532667469845
0.0526643329091263 0.330151276505572 0.790532667469845
0.0442274129971954 0.354726518628008 0.790532667469845
0.03172508711409 0.364290015813292 0.790532667469845
0.0225471901990442 0.379995583898511 0.790532667469845
0.01080756643005 0.387585520601369 0.790532667469845
0.00554925361946436 0.402696190993954 0.790532667469845
-0.0106193757706328 0.422302897390558 0.790532667469844
-0.00929807352514876 0.419915962907268 0.790532667469845
-0.0262184646335398 0.433808602416638 0.790532667469845
-0.0402984133208714 0.446002812987283 0.790532667469845
-0.0546529862001278 0.464963429069264 0.790532667469845
-0.0661659641323692 0.47919466970079 0.790532667469845
-0.0752280248364143 0.485258873049455 0.790532667469845
0.472208250713088 -0.169546469163659 0.75771182216798
0.471758501986576 -0.171224954261646 0.762060997082815
0.471922703407259 -0.170612146216979 0.766455828554962
0.470477996991772 -0.176003863961598 0.778917824597733
0.472317494159428 -0.169138767071527 0.787558151575681
0.471970786737652 -0.170440313396738 0.790532667469845
0.461177267312108 -0.154945041596979 0.790532667469845
0.459319666319469 -0.156705902985796 0.790532667469845
0.451597067589382 -0.146002241877988 0.790532667469845
0.44718793699081 -0.136885783178016 0.790532667469845
0.434493645319138 -0.130779690986933 0.790532667469845
0.434289209888687 -0.125925870914042 0.790532667469845
0.425445965463363 -0.114785250673275 0.790532667469845
0.417619171604171 -0.105581516448062 0.790532667469845
0.410022578678302 -0.10224889976996 0.790532667469845
0.401979048450015 -0.0918290947723513 0.790532667469845
0.393604684270395 -0.0795266183373346 0.790532667469845
0.389923538705922 -0.0727231732922432 0.790532667469845
0.384429021052013 -0.0669158916392876 0.790532667469845
0.374327745101527 -0.0630176023004233 0.790532667469845
0.36549016095083 -0.0464675247261656 0.790532667469845
0.357044449498957 -0.037762857409446 0.790532667469845
0.348577482864386 -0.0307729993028618 0.790532667469845
0.340385101443555 -0.0209156605698391 0.790532667469845
0.340708966774591 -0.00824305312886999 0.790532667469845
0.336681654334189 -0.00603715024367613 0.790532667469845
0.322479941018849 0.0111303129959119 0.790532667469845
0.31854961505623 0.00607842410614152 0.790532667469845
0.311068519981256 0.018189665266292 0.790532667469845
0.299329226883303 0.0308005976170064 0.790532667469845
0.299244178538554 0.0341550776745291 0.790532667469845
0.287920220278807 0.0456495110597393 0.790532667469845
0.282114813174922 0.0513655898581133 0.790532667469845
0.266021674121026 0.0715433284067074 0.790532667469845
0.254150610692865 0.0758074751387885 0.790532667469845
0.251425005771584 0.0890100653056804 0.790532667469845
0.244154327316636 0.100633066290179 0.790532667469844
0.238296902507275 0.111104101173269 0.790532667469845
0.231179726971285 0.117094023975787 0.790532667469845
0.220519165908576 0.124038410809208 0.790532667469845
0.209830768626742 0.131748233298809 0.790532667469845
0.206931399006829 0.145650584624559 0.790532667469845
0.196206089487491 0.159121000029011 0.790532667469845
0.183931605857758 0.175459727695717 0.790532667469845
0.175029259096857 0.172851210263766 0.790532667469845
0.17359489943535 0.186776402560517 0.790532667469845
0.15410852983004 0.198627915681545 0.790532667469845
0.153229377386242 0.208441813720017 0.790532667469845
0.143853623047574 0.222381756742736 0.790532667469845
0.129236960496211 0.225847494949346 0.790532667469845
0.128027943874575 0.231670661668928 0.790532667469845
0.110022317395616 0.253305258688514 0.790532667469845
0.110252087151018 0.257276054067465 0.790532667469845
0.102370942268209 0.272538752683441 0.790532667469845
0.0823564502071429 0.282492421380151 0.790532667469845
0.0737538139114346 0.290894264468714 0.790532667469845
0.065256274461914 0.312662542363147 0.790532667469845
0.0553055654479775 0.319137205037602 0.790532667469845
0.0423611759021936 0.327793002940001 0.790532667469845
0.036006878317672 0.34962417700535 0.790532667469845
0.0202812777977436 0.355627434415413 0.790532667469845
0.012413339803557 0.367030559556603 0.790532667469845
0.0121172911948333 0.374250485367247 0.790532667469845
-0.00101511058977265 0.38464873660972 0.790532667469844
-0.0107689280487523 0.406503869507452 0.790532667469845
-0.0190427448056431 0.408663911243926 0.790532667469845
-0.0441580743714528 0.428046210531778 0.790532667469845
-0.041170723050528 0.445364546637206 0.790532667469845
-0.0631843994813444 0.462909162043643 0.790532667469845
-0.0684215561036455 0.463458307291416 0.790532667469845
-0.0847194616226166 0.486989164427098 0.790532667469845
0.468448712119762 -0.18357725820697 0.754452676107311
0.469782526057116 -0.17859939682492 0.76385290067661
0.468598354356505 -0.183018785776488 0.780207081377887
0.468904103259064 -0.181877715337777 0.785572442603374
0.46818644278883 -0.184556060675276 0.789059382858921
0.462791862423625 -0.169648280714769 0.790532667469845
0.460943036728346 -0.166968593152618 0.790532667469845
0.452809239363253 -0.165258850732455 0.790532667469845
0.43735928911765 -0.144885173561618 0.790532667469845
0.440897491956143 -0.14152814220219 0.790532667469845
0.430070097383294 -0.134605665430621 0.790532667469845
0.424357386623223 -0.127929314271692 0.790532667469845
0.415098359837943 -0.120554145841893 0.790532667469845
0.409321596699463 -0.106436088003357 0.790532667469845
0.406308740114665 -0.101555182912036 0.790532667469845
0.397016265633296 -0.0987354981835262 0.790532667469845
0.3850902946285 -0.0913403239561146 0.790532667469845
0.379415137960047 -0.0805415236586585 0.790532667469845
0.37540628849076 -0.0655320921719828 0.790532667469845
0.363215166237029 -0.064237213622974 0.790532667469845
0.357021170997475 -0.0480051681815594 0.790532667469845
0.35575311493206 -0.0549833497118707 0.790532667469845
0.346827314309806 -0.0347448138816977 0.790532667469845
0.340270228839774 -0.0282364643749348 0.790532667469845
0.328685512004177 -0.0216607503926357 0.790532667469845
0.325509832731103 -0.0176271606974877 0.790532667469845
0.310714159436212 -0.00369024910926521 0.790532667469844
0.304440805852093 0.00989386581098633 0.790532667469844
0.297656858044712 0.0159538943995716 0.790532667469845
0.286841297337455 0.0230815800960142 0.790532667469845
0.291418243069843 0.0265462627084021 0.790532667469845
0.283394590171909 0.0338988746435899 0.790532667469845
0.268407659394934 0.0535676475076748 0.790532667469845
0.262715134668901 0.069728555318291 0.790532667469845
0.250857282262433 0.070645677981625 0.790532667469845
0.253108996027525 0.0810851865922986 0.790532667469845
0.242158486099823 0.0920328137484248 0.790532667469845
0.225992158131821 0.101950499937119 0.790532667469845
0.225415336387415 0.106374446451477 0.790532667469845
0.214073632858689 0.123542700501004 0.790532667469844
0.204083994625097 0.12818042685707 0.790532667469844
0.192101440823401 0.138949111812709 0.790532667469845
0.186950254271927 0.153554620129322 0.790532667469844
0.18027932581638 0.155334800678617 0.790532667469844
0.16799972529153 0.1740022290875 0.790532667469845
0.165068725781608 0.180076038525845 0.790532667469845
0.149541265542783 0.193134870030397 0.790532667469844
0.147813594013581 0.193905816188462 0.790532667469845
0.137073912056452 0.202836676437226 0.790532667469845
0.127163686262 0.22274175401752 0.790532667469845
0.11107476895727 0.232625579092366 0.790532667469845
0.101947657077158 0.240244580617134 0.790532667469845
0.0909431661508005 0.264057708282487 0.790532667469845
0.0796918708392207 0.270737669670322 0.790532667469845
0.0718600558864482 0.286654636062578 0.790532667469845
0.069501845586966 0.293540689485654 0.790532667469845
0.058325586324763 0.299283511746362 0.790532667469845
0.0412077130164248 0.312430926518999 0.790532667469844
0.0448990921657009 0.3225359057947 0.790532667469845
0.0237242647542221 0.333235304024877 0.790532667469845
0.0156052456355009 0.35061684725083 0.790532667469845
0.0126795519038424 0.355045287555905 0.790532667469845
-0.00633268887852622 0.37689798891711 0.790532667469845
-0.0109977282961124 0.381807140714396 0.790532667469845
-0.0230909142387442 0.395714439339879 0.790532667469845
-0.0387093513221574 0.413282030106666 0.790532667469845
-0.0487929014992431 0.422831563434793 0.790532667469845
-0.0582987687189404 0.442691822857045 0.790532667469845
-0.069074206671166 0.447105869820282 0.790532667469845
-0.0724466845579489 0.451875524534917 0.790532667469845
-0.0943216299818795 0.481787469046304 0.790532667469845
0.466964582716817 -0.189116104543766 0.749946964884861
0.463868262869376 -0.196556600691521 0.763935302491045
0.466601410370873 -0.190471482190735 0.762431341054377
0.467879095107582 -0.18570309783728 0.773109146599046
0.466613986785855 -0.190424546371045 0.784380160271772
0.462363242989797 -0.19150583729667 0.790532667469845
0.451923684574148 -0.178613662469227 0.790532667469845
0.45283661666165 -0.177646296819359 0.790532667469845
0.443453283044392 -0.165186626808026 0.790532667469845
0.432042496659665 -0.157328374067523 0.790532667469845
0.425950601841472 -0.146730874221951 0.790532667469845
0.425394679511797 -0.138738619581868 0.790532667469845
0.415744271405929 -0.128532619242581 0.790532667469845
0.41417906875956 -0.126524469436405 0.790532667469845
0.405883362433208 -0.123916152108831 0.790532667469845
0.395210935135924 -0.114948963863468 0.790532667469845
0.386523038885371 -0.0990004441995949 0.790532667469845
0.384464620593555 -0.095783273856061 0.790532667469845
0.375650895599955 -0.0890302251788717 0.790532667469845
0.369387504995942 -0.0722296922187089 0.790532667469845
0.362155321654664 -0.0716555872350091 0.790532667469845
0.352498154879047 -0.0549192719356515 0.790532667469845
0.348121142275835 -0.0484271626263212 0.790532667469845
0.33560786192764 -0.0454889320519821 0.790532667469845
0.335064923495958 -0.0373767241127971 0.790532667469845
0.323901507668174 -0.0268985059755145 0.790532667469845
0.320101780241702 -0.0156795000253318 0.790532667469845
0.310882065614151 -0.00612718828431698 0.790532667469844
0.301349483604285 0.00107214272321612 0.790532667469845
0.294527176748665 0.0156378555100043 0.790532667469845
0.284550272883466 0.019973858356797 0.790532667469845
0.277778802057714 0.020670382773483 0.790532667469845
0.273773223069295 0.0356187038034676 0.790532667469845
0.260850919585644 0.052692895515902 0.790532667469845
0.255196338298254 0.0547506824112009 0.790532667469845
0.248155518845851 0.0641319724274831 0.790532667469845
0.239074034723479 0.0722676535001109 0.790532667469845
0.234562180324155 0.0804994458809701 0.790532667469845
0.231129729875266 0.0909654514632038 0.790532667469845
0.210302811420207 0.105295389388968 0.790532667469845
0.203049981272922 0.114980831268509 0.790532667469845
0.193025454565721 0.119723484623947 0.790532667469845
0.189559760269495 0.127545394539856 0.790532667469845
0.184785183486262 0.134601050329041 0.790532667469845
0.170399639755537 0.146455348660558 0.790532667469845
0.160725425788121 0.162083580290345 0.790532667469845
0.160339023293375 0.172461736337099 0.790532667469845
0.140307033200396 0.188701365907781 0.790532667469845
0.142391720285446 0.193123573161721 0.790532667469845
0.134704680236562 0.195525743215817 0.790532667469845
0.124090108586479 0.215407717572312 0.790532667469845
0.104678957170633 0.221106404864064 0.790532667469845
0.10225355596392 0.238438203058343 0.790532667469845
0.0853538046082926 0.249614288698844 0.790532667469845
0.0817556635045441 0.260175809621652 0.790532667469845
0.0757981192123332 0.268817786769786 0.790532667469845
0.0665077213187557 0.272120386224906 0.790532667469845
0.0456200772753662 0.295295373973092 0.790532667469845
0.0427015465627878 0.308645064733748 0.790532667469845
0.0278101316210037 0.321973209880796 0.790532667469845
0.0228131639379563 0.328575536296519 0.790532667469845
0.0113378966233049 0.345868835553953 0.790532667469845
0.00524464360547587 0.345951355865932 0.790532667469845
-0.00531027345540578 0.367497627708451 0.790532667469845
-0.0200228419390045 0.380343217866396 0.790532667469845
-0.0294025439650182 0.384364048686514 0.790532667469845
-0.0478514721528776 0.404009192315632 0.790532667469845
-0.0529411179496728 0.422646717740935 0.790532667469845
-0.0695013069620766 0.433441208331161 0.790532667469845
-0.0734845631287225 0.44132916654797 0.790532667469845
-0.0970067755168527 0.461488414108226 0.790532667469845
-0.0987546815498858 0.458201754630506 0.790532667469845
-0.104956914033064 0.478933965052339 0.790532667469845
0.0138689941661381 0.321893432096865 0.00757079011886872
0.0138689941661377 0.321541324957965 0.0125434475928563
0.0102804225551945 0.313045000665259 0.0281160927309817
-0.000163559000025399 0.328862207709386 0.0249854156505331
0.462076219980069 -0.199660510025145 0.760719947053787
0.461864761200443 -0.200026767375163 0.766009050010268
0.460393783260879 -0.2025745759033 0.776441266198852
0.463393048144144 -0.197379696740129 0.783166784109107
0.459995401487978 -0.197143552834937 0.790532667469845
0.454530475226884 -0.192741026213566 0.790532667469845
0.448251867479501 -0.180183606011453 0.790532667469845
0.446598517112355 -0.182261124197452 0.790532667469845
0.431836004499101 -0.171790697683823 0.790532667469845
0.432953360819521 -0.167394152526616 0.790532667469845
0.4220183582932 -0.154820458403995 0.790532667469845
0.415144444501401 -0.143328004903737 0.790532667469845
0.406436955767139 -0.13729448568755 0.790532667469845
0.398853733191698 -0.133111304822402 0.790532667469845
0.391896716574875 -0.118241330560017 0.790532667469845
0.390164795388766 -0.114165183989029 0.790532667469845
0.390018637923839 -0.109834205774092 0.790532667469845
0.377145810665203 -0.100334470367347 0.790532667469845
0.37080934708677 -0.0883512870564292 0.790532667469845
0.357976792529484 -0.0837374508840518 0.790532667469845
0.355026698944174 -0.0801157294841048 0.790532667469845
0.353675713696267 -0.0714006097713939 0.790532667469845
0.345094471086862 -0.0648930973767305 0.790532667469845
0.333847397820538 -0.0447623033764645 0.790532667469845
0.320208839733521 -0.041794809810304 0.790532667469845
0.318558047759146 -0.0304057466043744 0.790532667469845
0.309192287773459 -0.021512955619997 0.790532667469845
0.301687779776855 -0.0114741454733994 0.790532667469844
0.294524891646929 -0.00949063979492306 0.790532667469845
0.291805769080741 0.00619996397488722 0.790532667469845
0.282446491532872 0.00460755768666764 0.790532667469845
0.280923897218245 0.0129465454522877 0.790532667469845
0.261174582598915 0.0292669961526869 0.790532667469845
0.25278380018402 0.0377411491568832 0.790532667469844
0.248478589666996 0.0484956261620153 0.790532667469845
0.242714132607693 0.0522402650591792 0.790532667469845
0.225042149396373 0.0665862281573551 0.790532667469845
0.222256981093919 0.0824195596368638 0.790532667469845
0.219113707332023 0.0804661047713834 0.790532667469845
0.211928620453448 0.0975224924091994 0.790532667469845
0.195275875648118 0.108366449224928 0.790532667469845
0.188631781722114 0.112733907013165 0.790532667469845
0.184847555044784 0.1296758329037 0.790532667469844
0.175019759863628 0.134025062406465 0.790532667469845
0.169049970115683 0.141265894242747 0.790532667469845
0.150989174452216 0.150942311202098 0.790532667469845
0.147819095833216 0.161287000060554 0.790532667469845
0.135512767509574 0.172257927424006 0.790532667469845
0.125777829191762 0.185511514503234 0.790532667469845
0.120014870257393 0.199612542880191 0.790532667469845
0.108923912209874 0.211140329752734 0.790532667469845
0.0956827644661472 0.216948176300486 0.790532667469844
0.0921613039873572 0.222760023643455 0.790532667469845
0.0847998852650094 0.236565943675085 0.790532667469845
0.0716919170968103 0.245549032201435 0.790532667469845
0.0573754080956818 0.266714710006496 0.790532667469845
0.0530387850470453 0.273024475515284 0.790532667469845
0.0411364869558519 0.282709497876693 0.790532667469845
0.0250363830651649 0.307298616484002 0.790532667469845
0.0300628533202767 0.307609066560166 0.790532667469845
0.00672496868569594 0.329587503256301 0.790532667469845
0.00544140789247516 0.325341587704763 0.790532667469845
6.55251812527201e-005 0.337338689004936 0.790532667469845
-0.0201821046657815 0.350913709588864 0.790532667469845
-0.0317396394391221 0.363685651734233 0.790532667469845
-0.0475456925173576 0.38076875459915 0.790532667469845
-0.0493584300122853 0.389467758340266 0.790532667469845
-0.0568422683848944 0.405175749322152 0.790532667469845
-0.0649612008563732 0.40873348074026 0.790532667469845
-0.0820525870994566 0.431989248788672 0.790532667469845
-0.0967348737136875 0.439302315469537 0.790532667469845
-0.104395547919901 0.462385404676725 0.790532667469845
-0.112272950878305 0.466507156740242 0.790532667469845
0.0138689941661377 0.307033797845863 0.00395766994942103
0.0138689941661377 0.306442340822024 0.0215420996669663
0.0123219419541566 0.303507624104061 0.0300038119803057
0.00652352341589556 0.319501237969228 0.0268382189510481
-0.00140962493092473 0.331343764580878 0.0244942446618917
-0.00960832481929082 0.326019927203029 0.0255479841503085
0.457927418692995 -0.206846444644864 0.75093625419215
0.458788006007108 -0.205355863692469 0.751005022814198
0.459111674394892 -0.204795253600025 0.765511423273138
0.455887209561627 -0.210380190518457 0.777189491098575
0.458982045529208 -0.205019777381517 0.778209674136884
0.454222845401007 -0.20025175758143 0.790532667469845
0.449740433208071 -0.192579876652542 0.790532667469845
0.441505841547202 -0.195034717216919 0.790532667469845
0.432094513944889 -0.179355493198133 0.790532667469845
0.432563174834544 -0.181239232615337 0.790532667469845
0.423513636110598 -0.168462786709143 0.790532667469845
0.412599396418301 -0.162174555758041 0.790532667469845
0.411067423378438 -0.149921899007724 0.790532667469845
0.405913856613722 -0.14468647615361 0.790532667469845
0.398436978946706 -0.132330896322772 0.790532667469845
0.39027744162371 -0.12666057883363 0.790532667469845
0.387303663912612 -0.118798350850192 0.790532667469845
0.378453521682348 -0.116555386780953 0.790532667469845
0.377624665963399 -0.111368589807901 0.790532667469845
0.363076862930324 -0.0962386606415533 0.790532667469845
0.35633758655611 -0.0932765719759255 0.790532667469845
0.348027769939967 -0.0826673126065323 0.790532667469845
0.340363272801837 -0.0682134889101522 0.790532667469845
0.328936712900874 -0.0660008753236833 0.790532667469845
0.326913183013144 -0.0565063463010007 0.790532667469845
0.324003395326903 -0.0499275365135831 0.790532667469845
0.306533129134414 -0.0370382733024227 0.790532667469845
0.303146715419962 -0.0349785177525499 0.790532667469845
0.302941319249039 -0.0298653570815923 0.790532667469845
0.282494771091159 -0.0114673126465493 0.790532667469845
0.278558453944778 -0.00282456795357572 0.790532667469845
0.275983939078039 0.0016511801183702 0.790532667469845
0.269573046945451 0.00758177287783527 0.790532667469845
0.253832999076847 0.025105938024673 0.790532667469845
0.243221077084847 0.0304157909410782 0.790532667469845
0.239257462136701 0.0418211224667842 0.790532667469845
0.232873027437296 0.0540513766208899 0.790532667469845
0.219646730469872 0.0644352216763536 0.790532667469845
0.217284450942082 0.0668617652013129 0.790532667469845
0.209432055463766 0.0739173075609281 0.790532667469845
0.200252564622241 0.0889340486805037 0.790532667469845
0.196651258106567 0.0905086364986924 0.790532667469845
0.18792076427524 0.103640651147119 0.790532667469845
0.181147098484612 0.112960030917023 0.790532667469845
0.167589928776249 0.130339803752724 0.790532667469845
0.153715786997993 0.139269105281846 0.790532667469845
0.148268453280688 0.151080315023212 0.790532667469845
0.14552691144912 0.150844923885815 0.790532667469845
0.128484354937257 0.166680464077221 0.790532667469845
0.123399777771951 0.176995773286983 0.790532667469845
0.116181245346063 0.18812270507424 0.790532667469845
0.100163045612595 0.207909782446665 0.790532667469845
0.0895940384901318 0.219964586917421 0.790532667469845
0.080143322013678 0.231535138479612 0.790532667469844
0.0718489918338536 0.230861038584514 0.790532667469845
0.0611448914034498 0.247763336913249 0.790532667469845
0.0543579603897081 0.250518745427689 0.790532667469845
0.0446681963902461 0.272048682983369 0.790532667469845
0.0428116788866718 0.27048711896538 0.790532667469844
0.0250807493929815 0.289961584234931 0.790532667469845
0.0191464020125148 0.299148283342444 0.790532667469845
-0.00160715819237308 0.316539748373736 0.790532667469845
-0.00596672253904463 0.31473344040424 0.790532667469845
-0.00786405282997217 0.335873125908543 0.790532667469845
-0.0242163612186855 0.346992753668661 0.790532667469845
-0.0292922569522357 0.350579925239015 0.790532667469845
-0.0496316893603115 0.374166561151505 0.790532667469845
-0.0570261516390616 0.396726542279849 0.790532667469845
-0.0732233099301765 0.39857373021712 0.790532667469845
-0.0856530517150884 0.41804500691673 0.790532667469845
-0.0947503157996497 0.427359801458718 0.790532667469845
-0.10170917921992 0.4384705589576 0.790532667469845
-0.108661379852267 0.44919684973654 0.790532667469845
-0.126165389459768 0.453662495123781 0.790532667469845
-0.131147750874182 0.467872416175453 0.790532667469845
0.0138689941661377 0.290689349337673 0.00245422489750202
0.0138689941661377 0.284515104311767 0.00852550898268424
0.0138689941661381 0.29467568515685 0.016072470940014
0.0138689941661377 0.291474064451248 0.0248412597470761
0.00893634012744737 0.302217497049979 0.0302591649758006
-0.00149219585873657 0.302093088433358 0.0302837889946664
-0.00293417015606065 0.310806075691454 0.0285592399364762
0.453646509212098 -0.214261197368381 0.749194984102873
0.454180283804535 -0.213336672654489 0.757894517727403
0.451255614001371 -0.218402349348933 0.769379245607893
0.454081109026603 -0.213508448408698 0.775970929120127
0.453905739423086 -0.213812197472092 0.788805606996246
0.452090236919925 -0.212292296959806 0.790532667469845
0.447965751449051 -0.207648620557936 0.790532667469845
0.437921151667558 -0.200887232690621 0.790532667469845
0.431199206888641 -0.188546699772195 0.790532667469845
0.427594456660682 -0.18909691629232 0.790532667469845
0.420944101259551 -0.178115745637179 0.790532667469845
0.411613385582013 -0.173582572989896 0.790532667469845
0.409314660924381 -0.158438781770781 0.790532667469845
0.397859779699806 -0.154540708789973 0.790532667469845
0.394140818687113 -0.148479556322351 0.790532667469845
0.383943592043098 -0.138313225151036 0.790532667469845
0.376626959235305 -0.130056323224532 0.790532667469845
0.367146510823165 -0.117834500043333 0.790532667469845
0.369567001811214 -0.113614670992726 0.790532667469845
0.357680231501642 -0.103847881359919 0.790532667469845
0.352518091537685 -0.105295420700058 0.790532667469845
0.347819838069587 -0.0917923962363879 0.790532667469845
0.332402830231743 -0.0772901066275439 0.790532667469845
0.330632995412698 -0.0696986197596159 0.790532667469845
0.316626328118545 -0.0587210898672482 0.790532667469845
0.317071586133898 -0.0575269597218081 0.790532667469845
0.302520505860794 -0.0443554855057273 0.790532667469845
0.293942891486305 -0.0399439594992032 0.790532667469845
0.286355765709492 -0.0298125494001205 0.790532667469845
0.283721715977565 -0.0183577175477444 0.790532667469845
0.283563909068824 -0.018404651453021 0.790532667469845
0.275146855649552 -0.0024801160555396 0.790532667469845
0.257310220317352 0.00105752416857655 0.790532667469845
0.250189426607038 0.0141475642548581 0.790532667469845
0.241994363769148 0.0229459817019334 0.790532667469845
0.23454580960573 0.0402044206751742 0.790532667469845
0.22853391808422 0.0431898851485993 0.790532667469845
0.218677932012018 0.0566012001860406 0.790532667469845
0.214939446425797 0.0625073947438629 0.790532667469845
0.208643641791223 0.0624413422864832 0.790532667469844
0.191941783657682 0.0740430845026476 0.790532667469845
0.184065775775066 0.0948270789316329 0.790532667469845
0.181073108071923 0.103271517331089 0.790532667469845
0.166378707623914 0.114356887914509 0.790532667469845
0.156557302519642 0.118333372634192 0.790532667469845
0.150035596348157 0.12858259934826 0.790532667469845
0.138662777732261 0.14010836192071 0.790532667469845
0.127843831028744 0.155284676156896 0.790532667469845
0.126396410316181 0.157375474334391 0.790532667469845
0.114864597469022 0.170566152381071 0.790532667469845
0.106452737988613 0.181594301757247 0.790532667469845
0.0965166410754463 0.197594501601493 0.790532667469845
0.0812267719259298 0.204538286949533 0.790532667469845
0.0788807389584683 0.21305468195658 0.790532667469845
0.0636820049972383 0.231335229172252 0.790532667469845
0.0524710373541932 0.235482624375468 0.790532667469845
0.0443972802906833 0.243722900121025 0.790532667469845
0.0355300770159365 0.267045937884848 0.790532667469845
0.0248730935465157 0.272786538089487 0.790532667469845
0.0189346017777036 0.274640989410027 0.790532667469845
0.0119812700613287 0.283410948232379 0.790532667469845
0.000567272431597945 0.303217242474365 0.790532667469845
-0.00815255380256838 0.313258554726068 0.790532667469845
-0.0178470925385464 0.3240137102809 0.790532667469845
-0.0358875065795965 0.342392547930117 0.790532667469844
-0.0422643848835806 0.35922040740654 0.790532667469845
-0.0594588029790674 0.371641586525221 0.790532667469844
-0.0677963200307255 0.372239369025562 0.790532667469845
-0.0860196177397792 0.400249568589511 0.790532667469845
-0.0876550217078789 0.414628193546332 0.790532667469845
-0.094743431386615 0.415496095764614 0.790532667469845
-0.10164056300002 0.427199867127316 0.790532667469845
-0.122135496079497 0.444192059460727 0.790532667469845
-0.135056265362444 0.461076077939033 0.790532667469845
-0.153453788614149 0.476294727913939 0.790532667469844
0.0138689941661377 0.265650393353332 0.00331364251390018
0.0138689941661381 0.27676787286637 0.0025056302873762
0.0138689941661377 0.272506691086271 0.0142312012345141
0.0138689941661377 0.272921353297023 0.0267693336632919
0.0126466974189779 0.280522168223264 0.0345532902610744
4.92326273996645e-005 0.279886750583135 0.0346790575622747
-0.00665653258157802 0.300261060612381 0.0306463996309113
-0.00847190598931752 0.296571942033843 0.0313765815744535
0.446200667949767 -0.227157772739831 0.765802723032813
0.450995786361021 -0.21885238402323 0.76879291765843
0.447360679360764 -0.225148574038624 0.774218929514011
0.449606402257021 -0.219072028002139 0.790532667469845
0.440525505500561 -0.219502163158774 0.790532667469845
0.434641181350251 -0.21031955489012 0.790532667469845
0.427870823561439 -0.199938423667399 0.790532667469845
0.429938174545827 -0.197555120092624 0.790532667469845
0.420269450874923 -0.188253894973631 0.790532667469845
0.408147519745009 -0.179592300790715 0.790532667469845
0.403730196278568 -0.174589421685096 0.790532667469845
0.396649260416504 -0.170009976560019 0.790532667469845
0.389431270938075 -0.162871665125589 0.790532667469845
0.385717270311386 -0.15207392488371 0.790532667469845
0.380804266797582 -0.140757231084269 0.790532667469845
0.370535309200239 -0.136362326419301 0.790532667469845
0.367205878863952 -0.126664741557143 0.790532667469845
0.364122969349737 -0.120492902352742 0.790532667469845
0.350255397646539 -0.108387114715609 0.790532667469845
0.347881052618423 -0.102479239353922 0.790532667469845
0.330789891775406 -0.0909021068816091 0.790532667469845
0.33485479601975 -0.0857106301536466 0.790532667469845
0.318050813111511 -0.0801149448786357 0.790532667469845
0.312263213540877 -0.0661556885423326 0.790532667469845
0.305071468061502 -0.055863005459637 0.790532667469845
0.300828541886117 -0.0602250049327793 0.790532667469845
0.297964785979953 -0.0491717437117618 0.790532667469845
0.278885151450551 -0.0297721892919704 0.790532667469845
0.279866504277335 -0.0254083547767971 0.790532667469845
0.271400773514899 -0.0202126300301272 0.790532667469845
0.265041944748337 -0.00564911872220768 0.790532667469845
0.246262182997972 0.0021945899322645 0.790532667469845
0.243688686343259 0.0101856704794236 0.790532667469844
0.233472559081682 0.0225786142355634 0.790532667469845
0.235638484631956 0.0198324886973874 0.790532667469845
0.220742527850232 0.0424324874495962 0.790532667469845
0.212469326803642 0.0491561841321067 0.790532667469845
0.200739112884152 0.0592265989370904 0.790532667469845
0.196858991011519 0.0672993790789677 0.790532667469845
0.192729596330976 0.0746538552513189 0.790532667469845
0.181315217514613 0.0793995417836939 0.790532667469844
0.16951579032634 0.0966086441773366 0.790532667469845
0.156469257370923 0.10682096830114 0.790532667469845
0.151910187141552 0.117586436677902 0.790532667469845
0.139684295704112 0.128154487785475 0.790532667469845
0.127304777064573 0.133396441513215 0.790532667469845
0.123486650603702 0.151582028922158 0.790532667469845
0.118690035536033 0.152126303849339 0.790532667469845
0.113127995198927 0.167501082201258 0.790532667469845
0.106634555894583 0.172574460873 0.790532667469845
0.0895553895410246 0.191547551038414 0.790532667469845
0.0805377632215733 0.199013134491081 0.790532667469845
0.0638769332531807 0.210410853493679 0.790532667469845
0.0654526902203026 0.215498437899968 0.790532667469845
0.0585567099454394 0.227502281022255 0.790532667469845
0.0377974611815333 0.242958035917384 0.790532667469845
0.0280754929616456 0.256420101064569 0.790532667469845
0.0247509204744887 0.255010758180517 0.790532667469844
0.0128973614805291 0.268504905860239 0.790532667469845
0.00783027191499245 0.28417441730086 0.790532667469845
-0.0167273392152201 0.304537113976335 0.790532667469845
-0.0167215773766314 0.310194944071207 0.790532667469845
-0.0377113147565178 0.326898292717615 0.790532667469845
-0.0378551695714455 0.331359730816074 0.790532667469845
-0.0623905421899483 0.347749522707218 0.790532667469845
-0.0632965756580888 0.351060055194918 0.790532667469845
-0.0692360724431416 0.364228838301416 0.790532667469845
-0.0855343114840597 0.380933161986413 0.790532667469845
-0.104826969793096 0.397400772431674 0.790532667469845
-0.101605140706618 0.409836322076403 0.790532667469845
-0.117031494766598 0.429173697645714 0.790532667469845
-0.134747242047133 0.440372850420967 0.790532667469845
-0.142554752574593 0.441053737977303 0.790532667469845
-0.149313243949709 0.461979350841175 0.790532667469845
0.0138689941661377 0.256271877047673 0.0125437105705715
0.0138689941661381 0.259525402336179 0.0142291365515155
0.0138689941661377 0.254768263238973 0.0245357037914658
0.0138689941661377 0.252632085345465 0.0369576017972976
0.00469449888170341 0.268123848390801 0.0370072719044373
-0.00879097113205939 0.271173250095852 0.0364037082031818
0.443992193373679 -0.230982962912838 0.749617131853012
0.443861421677929 -0.231209466134069 0.756976917818075
0.444927727458373 -0.229362570345936 0.755270343643722
0.445403115228469 -0.228539174574833 0.772281936015573
0.446176474330383 -0.227199677317822 0.775321655079163
0.444094012152415 -0.230806607614903 0.789894186358918
0.439534544892846 -0.219020124656436 0.790532667469845
0.431365046955518 -0.214969548804477 0.790532667469845
0.427434841249657 -0.211848297674159 0.790532667469845
0.418449328807095 -0.20725081753421 0.790532667469845
0.407865802236835 -0.18855181567975 0.790532667469845
0.402571073866667 -0.185139931355725 0.790532667469845
0.402014944106989 -0.186457446690798 0.790532667469845
0.395354947104684 -0.176061822003491 0.790532667469845
0.386566262393829 -0.168946739745783 0.790532667469845
0.37914699712638 -0.154435633992472 0.790532667469845
0.368716789222 -0.147705062196769 0.790532667469845
0.362989941743913 -0.145529199070648 0.790532667469845
0.358196560362077 -0.134964536013251 0.790532667469845
0.355965662268908 -0.121974954175083 0.790532667469845
0.343419585827345 -0.11270605467984 0.790532667469845
0.334723680417956 -0.104723691147445 0.790532667469845
0.323929489806216 -0.0971288579982629 0.790532667469845
0.316295382640979 -0.0926925736459352 0.790532667469845
0.314101291038433 -0.0891088099023467 0.790532667469845
0.313365659052442 -0.0771630780400548 0.790532667469845
0.299675833918665 -0.0666632840168819 0.790532667469845
0.297496838608341 -0.0561815639222309 0.790532667469845
0.288874091952128 -0.0541477221115971 0.790532667469845
0.275996148741031 -0.0468623536449027 0.790532667469845
0.270765557257079 -0.0353976598683676 0.790532667469845
0.266621471272392 -0.0290495667390967 0.790532667469845
0.249558569430598 -0.0134807483025076 0.790532667469845
0.23950680557499 0.000388909205439841 0.790532667469845
0.238580971024316 0.00392936155044565 0.790532667469845
0.228555344728106 0.0130573161197002 0.790532667469845
0.224584988733364 0.0141232032880581 0.790532667469845
0.214203947000787 0.0322253939865317 0.790532667469845
0.201965134018186 0.0454016343921942 0.790532667469845
0.193752214614565 0.0550556961566104 0.790532667469845
0.192566004676607 0.0531596082731394 0.790532667469845
0.183429811130344 0.0614188544497996 0.790532667469845
0.171111558711178 0.0733916605748149 0.790532667469844
0.164297243228835 0.087014216308667 0.790532667469845
0.158152569220729 0.0922522010210815 0.790532667469845
0.146424001012028 0.106509381398676 0.790532667469845
0.132621704539879 0.123579678481769 0.790532667469845
0.121193561489473 0.134105593264553 0.790532667469845
0.114101792526306 0.140447347271411 0.790532667469845
0.112584074005898 0.147989811601034 0.790532667469845
0.100751105138236 0.153085975521453 0.790532667469845
0.089731795490812 0.169675120072889 0.790532667469845
0.0813375706917803 0.172998820013717 0.790532667469845
0.0722295587125169 0.188192529151257 0.790532667469845
0.0632712335394599 0.198405290401607 0.790532667469845
0.0470916689050726 0.208730446219773 0.790532667469845
0.0419306003966855 0.214248322102219 0.790532667469845
0.0294651944291006 0.237051682684398 0.790532667469844
0.0165953229536626 0.251938005372396 0.790532667469845
0.00689818325059141 0.261157316817559 0.790532667469845
0.00824632989441791 0.27196377228326 0.790532667469845
-0.011843093441028 0.275129485793445 0.790532667469845
-0.0200463870664444 0.289357887953993 0.790532667469844
-0.0212052482520401 0.294014176297333 0.790532667469845
-0.0374214342848335 0.314344778456566 0.790532667469845
-0.0413411899800822 0.316126372268573 0.790532667469845
-0.0543553564099106 0.333784273811535 0.790532667469845
-0.0655816463826876 0.349332413130353 0.790532667469845
-0.090274428906376 0.366497676162892 0.790532667469845
-0.0954441537019991 0.369797893794514 0.790532667469845
-0.106579046977246 0.386406460520119 0.790532667469845
-0.104221292830425 0.39042378833192 0.790532667469845
-0.124776487432206 0.413354199027987 0.790532667469845
-0.134591996070315 0.433866928510791 0.790532667469845
-0.153817107630448 0.438475551909017 0.790532667469845
-0.159349280805146 0.446930150556833 0.790532667469845
-0.172785197592956 0.46613340881242 0.790532667469845
0.0138689941661381 0.235807330153533 0.00147600889647645
0.0138689941661377 0.242042373372297 0.00696543125226472
0.0138689941661377 0.236961315963237 0.0190005916522369
0.0138689941661381 0.239257956406189 0.0371720149643419
0.0138689941661377 0.245748263509774 0.03243174030995
0.0131095424520938 0.246255552727358 0.0413356322673653
0.00432356909035735 0.249767995476679 0.0406404195170344
-0.00985710420985574 0.271239056961493 0.0363906831447481
0.442552447350625 -0.233476676174764 0.750112943531171
0.441792079000804 -0.23479367278912 0.758291456146003
0.442024510823994 -0.23439108906206 0.769669564298685
0.437872637160381 -0.241582345194044 0.77265628625969
0.440519363475052 -0.236998080743304 0.781080044842549
0.439512054227082 -0.238742791539722 0.789748777129541
0.43377362348138 -0.232023499691067 0.790532667469845
0.423877295749919 -0.224313838795607 0.790532667469845
0.420053838595544 -0.222440933103265 0.790532667469845
0.41917603021969 -0.211667720531575 0.790532667469845
0.404625627332716 -0.200338225833198 0.790532667469845
0.40372296429964 -0.1918418097967 0.790532667469845
0.394457324205026 -0.185547798901696 0.790532667469845
0.389113119143659 -0.184195818612177 0.790532667469845
0.383559763887794 -0.172624173871216 0.790532667469845
0.375243046538097 -0.166617492184064 0.790532667469845
0.360852646216792 -0.156916308644264 0.790532667469845
0.362463211476907 -0.152333667334754 0.790532667469845
0.349457941958193 -0.141797230646727 0.790532667469845
0.345749597718736 -0.135857979847198 0.790532667469845
0.332278941869578 -0.120528152203993 0.790532667469845
0.327424343995147 -0.115334337039316 0.790532667469845
0.325042130300602 -0.111567232491137 0.790532667469845
0.314093693284891 -0.105237813765948 0.790532667469845
0.309884215790227 -0.093327097703869 0.790532667469845
0.301910083139236 -0.0859075971543782 0.790532667469845
0.298738753423103 -0.0802541911032936 0.790532667469845
0.286799979226352 -0.0659286890379509 0.790532667469845
0.277417155185779 -0.0505601679818891 0.790532667469845
0.2726296436267 -0.0542880003971796 0.790532667469845
0.264410109736238 -0.0472320476529123 0.790532667469845
0.247911856387492 -0.0237000824369406 0.790532667469845
0.243216225955884 -0.0187245347753518 0.790532667469845
0.23459808100742 -0.00892770051075297 0.790532667469845
0.227968463083008 0.00225136941537909 0.790532667469845
0.220907621174107 0.00751486825157849 0.790532667469845
0.216906572443798 0.011889811136427 0.790532667469845
0.205165943379362 0.0269710061699892 0.790532667469844
0.198760922935824 0.0363521695664467 0.790532667469845
0.19727787736603 0.037944224926275 0.790532667469845
0.182790482701655 0.0500280360603793 0.790532667469845
0.18032644724313 0.0560265479113894 0.790532667469845
0.160324817338846 0.0711944222949234 0.790532667469845
0.162503475501649 0.0751152324002675 0.790532667469844
0.144392883236948 0.0885056995562372 0.790532667469845
0.136513030533787 0.0988115450784641 0.790532667469845
0.12120135735424 0.115336063027121 0.790532667469845
0.11874394891971 0.122095261028277 0.790532667469845
0.112214586726393 0.131174976975179 0.790532667469845
0.102716443816256 0.139472988122807 0.790532667469845
0.0916857349806092 0.15572326478645 0.790532667469845
0.0816970507389172 0.162926078084705 0.790532667469845
0.0655690848850619 0.171940196774992 0.790532667469845
0.0622735640404836 0.175882763875475 0.790532667469845
0.0514067741454421 0.191479686169822 0.790532667469845
0.0492574340549707 0.196217916954433 0.790532667469845
0.0312265982258312 0.215888717539649 0.790532667469845
0.0210726185226919 0.228377623002617 0.790532667469845
0.011817083390833 0.235623233695493 0.790532667469845
0.00650848206718576 0.247853256047061 0.790532667469845
-0.00839346131825343 0.25698687019096 0.790532667469845
-0.0152950756530143 0.269279862725101 0.790532667469845
-0.023693228759342 0.286865164590881 0.790532667469845
-0.0404946859522812 0.296178763762018 0.790532667469845
-0.0457817135067348 0.315578164524759 0.790532667469845
-0.0517658611034815 0.314277329252733 0.790532667469845
-0.0632420885509379 0.324213899161666 0.790532667469844
-0.0795268839261657 0.336545272459132 0.790532667469845
-0.0821154120047612 0.348933500897173 0.790532667469845
-0.100738633210875 0.367424972229627 0.790532667469845
-0.110704571827521 0.373987678481358 0.790532667469845
-0.126282168820654 0.395871063287318 0.790532667469845
-0.124845241903336 0.397190626647726 0.790532667469845
-0.144377752389791 0.413756679510654 0.790532667469845
-0.156108544036871 0.424513783384498 0.790532667469844
-0.160428044232183 0.437859244866477 0.790532667469845
-0.183003855391153 0.453781739495673 0.790532667469845
0.0138689941661377 0.228505886228751 0.00236859451166253
0.0138689941661377 0.21970443230995 0.0279351999262572
