ply
format ascii 1.0
element vertex 843
property float x
property float y
property float z
end_header
-0.231285460128691 -0.429085688716199 0.790532667469845
-0.222427100761624 -0.426702949945412 0.790532667469845
-0.217692123041554 -0.419903307774653 0.790532667469845
-0.207547240840241 -0.411876801263281 0.790532667469845
-0.206348470565594 -0.405771467515953 0.790532667469845
-0.197946674051558 -0.401533581374796 0.790532667469845
-0.186522534642277 -0.399087198070701 0.790532667469845
-0.184544472109127 -0.393642057401697 0.790532667469845
-0.170996035163533 -0.380866686545967 0.790532667469845
-0.159868212722458 -0.371063937902877 0.790532667469845
-0.159629747870935 -0.363027432356264 0.790532667469845
-0.146876848846159 -0.355565693974767 0.790532667469845
-0.144115199707184 -0.353808642111573 0.790532667469845
-0.130928510106312 -0.346083124135717 0.790532667469845
-0.122551731889671 -0.34120891572277 0.790532667469845
-0.118131635407218 -0.330313573487194 0.790532667469845
-0.113086636606212 -0.330289965328432 0.790532667469845
-0.0980976699695809 -0.317304579501125 0.790532667469845
-0.09404931603468 -0.306835424276023 0.790532667469845
-0.0845001969772073 -0.302580556357812 0.790532667469845
-0.0710577729457152 -0.291731628809458 0.790532667469845
-0.0709576734612791 -0.286833565363109 0.790532667469845
-0.0558684601583907 -0.271577048293748 0.790532667469845
-0.045793428575457 -0.266850342419429 0.790532667469845
-0.0419240861377563 -0.265892104717211 0.790532667469845
-0.0359112883470718 -0.25704111813232 0.790532667469845
-0.0195897101591282 -0.24614814332232 0.790532667469845
-0.0160020314761882 -0.240224636173575 0.790532667469845
-0.0111715364828511 -0.235006102738075 0.790532667469845
0.00809496044626693 -0.219331258016294 0.790532667469845
0.0206809137167107 -0.215981185384235 0.790532667469845
0.0308619337479263 -0.20223367867169 0.790532667469845
0.032663854065476 -0.205152352298057 0.790532667469845
0.03855376472047 -0.190873336654881 0.790532667469845
0.0548743094860613 -0.180452684278184 0.790532667469845
0.0626307272502477 -0.168618289127772 0.790532667469844
0.0702851069033084 -0.164230554956279 0.790532667469845
0.0885299882649637 -0.147403567712689 0.790532667469845
0.0870387511370342 -0.143646742911393 0.790532667469845
0.104241062706546 -0.13702702404768 0.790532667469845
0.109424125369642 -0.129537880018828 0.790532667469845
0.125822821248087 -0.121020878235758 0.790532667469845
0.129930355358493 -0.110580231014974 0.790532667469845
0.135725641165356 -0.104299949672727 0.790532667469845
0.153907369841878 -0.0865223444920486 0.790532667469845
0.158021293540743 -0.0906273688037487 0.790532667469845
0.174710797281539 -0.0801431344644524 0.790532667469845
0.183023195911277 -0.0649415546953956 0.790532667469845
0.194200019148867 -0.0633735399468972 0.790532667469845
0.211418442464692 -0.042434588547709 0.790532667469845
0.214660467045227 -0.0302819354041587 0.790532667469845
0.228235898598736 -0.0271512568179977 0.790532667469844
0.233175035537349 -0.0230411280279679 0.790532667469845
0.256008945491599 -0.00214463016246136 0.790532667469845
0.254210639152897 0.00569402433699918 0.790532667469845
0.278132899550845 0.022092003012068 0.790532667469845
0.286229303766373 0.0231091444655903 0.790532667469845
0.297477473785411 0.033637880370294 0.790532667469845
0.314230461333653 0.0455366918960727 0.790532667469845
0.320096866082001 0.059910860871353 0.790532667469845
0.327055856924373 0.0696509938576049 0.790532667469845
0.346838147855491 0.0796511232742008 0.790532667469845
0.352071746093424 0.0823279768510543 0.790532667469845
0.370375411870413 0.101242453727962 0.790532667469845
0.383846538872817 0.107879521072593 0.790532667469845
0.39147093001603 0.121434742520639 0.790532667469845
0.398439857290497 0.127517222641529 0.790532667469845
0.42489227145278 0.150505464413046 0.790532667469845
0.434780526767654 0.160914448769913 0.790532667469845
0.445848917606564 0.176861951171963 0.790532667469845
0.46172989261206 0.185534777692875 0.790532667469845
0.223463011236425 -0.0138689941661386 0.00631268386014228
0.224708641021297 -0.0138689941661386 0.00206470939006701
0.23143303996729 -0.0138689941661386 0.0145795050785211
0.221254805611308 -0.0138689941661386 0.0318900654793005
0.223983287753012 -0.0124269034600234 0.0453671319546452
0.230692394608881 -0.00213745621395446 0.0440392080673659
0.236600677605529 0.00334285714226395 0.0428697900967462
0.247028350055313 0.0124656792527018 0.0408058558604492
-0.244518282899312 -0.436177572735922 0.764850670884679
-0.24393442629636 -0.436514662502804 0.770401173221655
-0.243051430779147 -0.437024460202361 0.775575715484303
-0.243608806565467 -0.436702659142089 0.77874905277754
-0.240241537797719 -0.434628457840961 0.790532667469845
-0.238533639679584 -0.429200911116903 0.790532667469845
-0.228832608562606 -0.415085037100737 0.790532667469845
-0.224211156967626 -0.420999668265634 0.790532667469845
-0.212489157962406 -0.408313549233486 0.790532667469845
-0.210987567446598 -0.407562706126814 0.790532667469845
-0.205850993621148 -0.399717442042316 0.790532667469845
-0.191278908427388 -0.386730261851771 0.790532667469845
-0.184125833081711 -0.382543503043016 0.790532667469845
-0.175961945042893 -0.375583337801442 0.790532667469845
-0.174486978804496 -0.368053058059552 0.790532667469845
-0.160916275572813 -0.3609946822933 0.790532667469845
-0.156157950897724 -0.353661174832903 0.790532667469845
-0.140402988818315 -0.342989964735415 0.790532667469845
-0.136540178346055 -0.334539652792595 0.790532667469845
-0.132270485750307 -0.328704266074151 0.790532667469845
-0.124564279592338 -0.32340709013909 0.790532667469845
-0.11425224061111 -0.322379439713134 0.790532667469845
-0.10460566553767 -0.304484287914186 0.790532667469845
-0.096783359372854 -0.304288252870163 0.790532667469845
-0.0933831304347724 -0.294373691574827 0.790532667469845
-0.0779069613294337 -0.287522211329311 0.790532667469845
-0.0695680793728367 -0.278592100283622 0.790532667469845
-0.0646666424600089 -0.277604056547801 0.790532667469845
-0.0500829014217614 -0.260658395680454 0.790532667469845
-0.0495206267363228 -0.253116593142863 0.790532667469845
-0.0431464741156467 -0.253574160921321 0.790532667469845
-0.0293503119457836 -0.239882914734634 0.790532667469845
-0.0220231322084023 -0.240280253737852 0.790532667469845
-0.00856822484279519 -0.223811387388336 0.790532667469845
-0.00214481590962681 -0.217078502898646 0.790532667469845
0.0103053014884358 -0.207683239352283 0.790532667469845
0.0123004098411056 -0.205469827614286 0.790532667469845
0.0257626109296749 -0.187935090503218 0.790532667469844
0.0290201566339453 -0.188655282024517 0.790532667469845
0.0466349459397767 -0.170213353732072 0.790532667469845
0.0496087135801504 -0.166844419003156 0.790532667469844
0.0681280770576382 -0.155815001550874 0.790532667469845
0.0710914476098228 -0.151285017840419 0.790532667469845
0.0827047480727865 -0.140587916425192 0.790532667469845
0.0908794146093302 -0.127380435178982 0.790532667469845
0.100929485374124 -0.125034150609227 0.790532667469845
0.110981888384377 -0.114350523624199 0.790532667469845
0.127681378491783 -0.108394823892946 0.790532667469845
0.138952130517486 -0.0972481548182236 0.790532667469845
0.143776552075051 -0.0877955272934028 0.790532667469845
0.155445973742579 -0.0789890770378218 0.790532667469845
0.168517231941409 -0.0639924834793644 0.790532667469845
0.172570578280581 -0.0584275187804079 0.790532667469845
0.188038999969742 -0.047912441931476 0.790532667469845
0.197773169257054 -0.0380874714006508 0.790532667469845
0.205358546131121 -0.0278828939286902 0.790532667469845
0.211845333079865 -0.0186651474177221 0.790532667469845
0.233270520307206 -0.00318758196031406 0.790532667469845
0.243827306445266 0.00219511843221371 0.790532667469845
0.249503925423852 0.0131013181266685 0.790532667469845
0.256908340170903 0.0134967978748985 0.790532667469845
0.275003609255247 0.0322802869198932 0.790532667469845
0.290475183202462 0.0499459537489136 0.790532667469845
0.300159895424978 0.0527282353206445 0.790532667469845
0.314663717995488 0.0642121046299015 0.790532667469845
0.324682803154023 0.0800195805357179 0.790532667469845
0.329812635810968 0.0865739397330222 0.790532667469845
0.358107957967592 0.100502953691603 0.790532667469845
0.359745801192036 0.10455580755147 0.790532667469845
0.370962129116769 0.123103882344719 0.790532667469845
0.380870760915633 0.126440216127104 0.790532667469845
0.391024522014834 0.142619592688649 0.790532667469845
0.399490440102938 0.153712677786787 0.790532667469845
0.421891308395779 0.167705606474855 0.790532667469845
0.43128643783052 0.177465809087735 0.790532667469845
0.450024662197056 0.185304742860268 0.790532667469845
0.207603763667862 -0.0138689941661386 0.00168863269409276
0.208674856386875 -0.0138689941661386 0.0219816627687744
0.200100431562266 -0.0138689941661386 0.0312544975947578
0.207882503131878 -0.0138689941661386 0.0346301637670759
0.204284297767773 -0.0138689941661386 0.0474640605441569
0.215685925818922 -0.002365623556599 0.0470094168891963
0.233874678035909 0.0112692147561491 0.0434093432776654
-0.254257120532788 -0.430554852206641 0.751012613287472
-0.24991532879274 -0.433061586836522 0.754505827270295
-0.252805185605089 -0.431393127227994 0.763824819293808
-0.258408670770372 -0.428157953559417 0.771977152051076
-0.248578604937223 -0.433833344714337 0.7724465317926
-0.253185125321946 -0.43117376893019 0.782247298610076
-0.245534346333048 -0.423470779325888 0.790532667469845
-0.242364603580701 -0.42149490430266 0.790532667469845
-0.233645334329375 -0.413443925838982 0.790532667469845
-0.232554471815369 -0.407665820585946 0.790532667469845
-0.221469638668887 -0.401002363616174 0.790532667469845
-0.208691981054186 -0.396106187795308 0.790532667469845
-0.209150184254907 -0.386116238610976 0.790532667469845
-0.201586059921032 -0.384818628729466 0.790532667469845
-0.188258764216172 -0.368616715555507 0.790532667469845
-0.186087990601378 -0.364787861401213 0.790532667469845
-0.174061452415654 -0.365651678164234 0.790532667469845
-0.170326233905093 -0.355233216882298 0.790532667469845
-0.165989849191156 -0.353304998550859 0.790532667469845
-0.156834357683925 -0.343013298596257 0.790532667469845
-0.143589237691431 -0.332057801408116 0.790532667469845
-0.133156603815666 -0.324678879742371 0.790532667469845
-0.128847654929092 -0.318175223771504 0.790532667469845
-0.118517692441674 -0.31225568162662 0.790532667469845
-0.114254382952405 -0.304625810847726 0.790532667469845
-0.105459088490119 -0.301078836497442 0.790532667469845
-0.0988228844785348 -0.287420582609451 0.790532667469845
-0.0950453425413954 -0.287608519833371 0.790532667469845
-0.0854805716588145 -0.272695007449473 0.790532667469845
-0.0715726573342619 -0.267665307081422 0.790532667469845
-0.0597725845040177 -0.259222863601325 0.790532667469845
-0.0521852223960465 -0.251363310245634 0.790532667469845
-0.051468957712136 -0.250156716144692 0.790532667469845
-0.0372727646942095 -0.234672830296772 0.790532667469845
-0.0287628647964282 -0.223559715169002 0.790532667469845
-0.0154018145959274 -0.216212858024918 0.790532667469845
-0.00753237147104479 -0.211531697152983 0.790532667469845
-0.00332547837928926 -0.20947595224344 0.790532667469845
0.00884813150601071 -0.19486368735589 0.790532667469845
0.0199680701910715 -0.178725370322944 0.790532667469845
0.029489034652925 -0.176432587722136 0.790532667469845
0.0365658363026601 -0.170958917873461 0.790532667469845
0.0509747239179121 -0.157375653626389 0.790532667469845
0.0556102407969673 -0.156774396160919 0.790532667469845
0.0641137281338123 -0.1435073650954 0.790532667469845
0.0768759062724215 -0.131372202302001 0.790532667469845
0.0786725169180359 -0.131409822688964 0.790532667469845
0.0951713065755637 -0.119271435559942 0.790532667469845
0.107894485919363 -0.112285443577388 0.790532667469845
0.117886128100344 -0.097569888974608 0.790532667469845
0.133916401896606 -0.0808955899270892 0.790532667469845
0.134700903273948 -0.0740562460272774 0.790532667469844
0.149483246301729 -0.0619742936678569 0.790532667469845
0.156698099110586 -0.0670306877483814 0.790532667469845
0.163340585395655 -0.0470848428109466 0.790532667469845
0.177923268969001 -0.0408957188101524 0.790532667469845
0.187489220586548 -0.0242612307561282 0.790532667469845
0.197674317897795 -0.0228600146644937 0.790532667469845
0.216309818723975 -0.00949489231911701 0.790532667469845
0.226794367610791 0.00368609080334156 0.790532667469845
0.236106592917467 0.00632560382957763 0.790532667469845
0.244316015752717 0.0230397003572751 0.790532667469845
0.263671996090888 0.0339362110342898 0.790532667469845
0.265585214156108 0.0392449999484712 0.790532667469845
0.281969943492452 0.0561339162265602 0.790532667469845
0.292809664309352 0.0603528917638693 0.790532667469845
0.309305503639901 0.0728801795805195 0.790532667469845
0.311760118174566 0.0764503867735674 0.790532667469845
0.331064903690597 0.0962050546265564 0.790532667469845
0.335449100338071 0.10256011241657 0.790532667469845
0.349590582386103 0.111311053142531 0.790532667469845
0.369411177909411 0.131196694777647 0.790532667469845
0.365391095899308 0.132176421702928 0.790532667469845
0.377867263071314 0.147356871473653 0.790532667469845
0.404332690881127 0.160969834565922 0.790532667469845
0.4135003498358 0.165176785386097 0.790532667469845
0.428296779846836 0.185257733804889 0.790532667469845
0.434040095440952 0.195886454166614 0.790532667469845
0.19478982698934 -0.0138689941661386 0.0118958651940705
0.192841444823371 -0.0138689941661386 0.0148594406112654
0.197033487918012 -0.0138689941661386 0.0226018318700636
0.193733608235801 -0.0138689941661386 0.0391779951764334
0.194838610186779 -0.0138689941661386 0.0490258881358765
0.196694130196345 -0.00546573191503808 0.0507684357290137
0.205408188998752 0.00522106447814513 0.0490436745815957
0.224435014998982 0.010984566074462 0.0452777222294243
-0.261454577731707 -0.426399398355364 0.756545666108872
-0.259804174525338 -0.427352259090832 0.764781169572295
-0.260375568651136 -0.42702236453849 0.774961256390167
-0.260280698484803 -0.42707713785456 0.776874680761985
-0.264044426950566 -0.424904148211695 0.787500077898134
-0.255828635055736 -0.418395013580078 0.790532667469845
-0.250945241960051 -0.411793338449386 0.790532667469845
-0.241754149360054 -0.405241758539083 0.790532667469845
-0.232109731393338 -0.39915735920764 0.790532667469845
-0.229611501660901 -0.396975020752047 0.790532667469845
-0.225509208278816 -0.387993518679995 0.790532667469845
-0.209766639028449 -0.382588989452767 0.790532667469845
-0.200871656676342 -0.375714299007217 0.790532667469845
-0.204002623346135 -0.368655933357546 0.790532667469845
-0.187524284998304 -0.361650765007291 0.790532667469845
-0.182736417033631 -0.356575223484418 0.790532667469845
-0.174825121023751 -0.354007069109117 0.790532667469845
-0.16867690443334 -0.345108556406156 0.790532667469845
-0.153949531292775 -0.329311294685308 0.790532667469845
-0.151183379355925 -0.322335711930102 0.790532667469845
-0.144948026804617 -0.317388662096114 0.790532667469845
-0.133642868174425 -0.314427848617409 0.790532667469845
-0.124649774867996 -0.302694583091465 0.790532667469845
-0.123799298427813 -0.302075903245496 0.790532667469845
-0.102470117339056 -0.287853179863254 0.790532667469845
-0.10152920023074 -0.288756815390747 0.790532667469845
-0.0974532443313138 -0.277140230814995 0.790532667469845
-0.0820217516817952 -0.265004246635002 0.790532667469845
-0.0845149341421989 -0.26522250608578 0.790532667469845
-0.0702639310634329 -0.252499805048372 0.790532667469845
-0.064206964623848 -0.240635108090708 0.790532667469845
-0.0476321023435095 -0.233286447024358 0.790532667469845
-0.0493252849633843 -0.232085944053601 0.790532667469845
-0.03683072480249 -0.220988911449242 0.790532667469845
-0.0234084146143088 -0.215890840003169 0.790532667469845
-0.0146065996204138 -0.20230594339645 0.790532667469845
-0.0126496735018241 -0.201039160535292 0.790532667469845
0.00545902038894175 -0.188963025546611 0.790532667469844
0.0165977846521546 -0.174987938428854 0.790532667469845
0.0221728001193236 -0.171225514659437 0.790532667469845
0.030659636741428 -0.163431042676451 0.790532667469845
0.0414436831572456 -0.152593420954969 0.790532667469845
0.0498846890046191 -0.142241473393067 0.790532667469845
0.0565379263916827 -0.141182118211359 0.790532667469845
0.0686900663472708 -0.125076380075226 0.790532667469844
0.0737416045020294 -0.123061675374752 0.790532667469844
0.085703453079603 -0.116145673242344 0.790532667469845
0.0901968007460635 -0.0984820566015561 0.790532667469845
0.11091733774788 -0.083993846277192 0.790532667469845
0.124545727705611 -0.0782067861586194 0.790532667469845
0.124109515709919 -0.0745719409938052 0.790532667469845
0.142617011468162 -0.0651082944991205 0.790532667469845
0.148384000498075 -0.0449723563276809 0.790532667469845
0.155757617400348 -0.0434025854883497 0.790532667469845
0.169612622748902 -0.0320472040409497 0.790532667469845
0.187797604821014 -0.0171170075028154 0.790532667469845
0.191672384284459 -0.00763032860911901 0.790532667469845
0.197511363575512 -0.0140010335651511 0.790532667469845
0.21939913850365 0.0134245058211655 0.790532667469845
0.229104544922732 0.0168511494321114 0.790532667469845
0.238067793152143 0.0305725889576698 0.790532667469845
0.248764034823286 0.0403957016965068 0.790532667469845
0.262725949231781 0.0474087914829543 0.790532667469845
0.273249443217261 0.0601845188548431 0.790532667469844
0.277048267347146 0.0683166604645954 0.790532667469845
0.295822210892255 0.0806105408131119 0.790532667469845
0.304961334869906 0.0896739662337459 0.790532667469845
0.311723937272694 0.0945871967455514 0.790532667469845
0.329433299716668 0.104506592113635 0.790532667469845
0.343368884432756 0.127311747888693 0.790532667469845
0.351688515862617 0.133045728430344 0.790532667469845
0.364151738504099 0.144280724889802 0.790532667469845
0.379874393594309 0.161044595500041 0.790532667469845
0.401784077150711 0.176562468765534 0.790532667469844
0.406090710495723 0.183516224142 0.790532667469845
0.420707749401294 0.19893492751188 0.790532667469845
0.438041585524116 0.207485449037476 0.790532667469845
0.438066384885896 0.214076026486696 0.790532667469845
0.176024694255546 -0.0138689941661386 0.010192803319238
0.177573351573868 -0.0138689941661386 0.0129224658218537
0.182222163153927 -0.0138689941661386 0.032296841025485
0.178911084693133 -0.0138689941661386 0.0381597853547018
0.17863417469252 -0.011903307933148 0.05434301679203
0.179115224428452 -0.0138151604781659 0.0542478033084715
0.191432734370593 0.00438929522161968 0.0518098162506756
0.206282968871636 0.011143121034169 0.048870530657334
-0.269106008694166 -0.421981842629502 0.754470212830487
-0.266152272488369 -0.423687183023034 0.761745106466049
-0.272448879652385 -0.420051835181908 0.773660365258456
-0.269532507722245 -0.421735603300832 0.780252715040227
-0.268860382923774 -0.421579454029095 0.790532667469845
-0.261904847320318 -0.417692743679843 0.790532667469845
-0.261057719532659 -0.413694656245648 0.790532667469845
-0.240759929666324 -0.403238184527495 0.790532667469845
-0.242097869412351 -0.397256631904857 0.790532667469845
-0.234145604919937 -0.393857023586471 0.790532667469845
-0.229892105775665 -0.379385914828522 0.790532667469845
-0.223892071057666 -0.375035095998682 0.790532667469845
-0.208967290908687 -0.369308056325614 0.790532667469845
-0.197259355488824 -0.364757559740354 0.790532667469845
-0.194731756052593 -0.354776970091475 0.790532667469845
-0.188533745477498 -0.346642671401714 0.790532667469845
-0.184263887075422 -0.344202819696232 0.790532667469845
-0.170345216574904 -0.337550199208365 0.790532667469845
-0.166200384336926 -0.328435042701659 0.790532667469845
-0.153631379406023 -0.317832330885121 0.790532667469845
-0.144735246781321 -0.317192014171585 0.790532667469845
-0.145119361891488 -0.308424385851551 0.790532667469845
-0.132828516344306 -0.300682152231924 0.790532667469845
-0.120495964966869 -0.286284980796273 0.790532667469845
-0.118552384650004 -0.282080917352979 0.790532667469845
-0.112420908509834 -0.281482309888498 0.790532667469845
-0.0995566903654304 -0.267579699464906 0.790532667469845
-0.0901327641619887 -0.259069089455889 0.790532667469845
-0.0858898687062414 -0.252885115040532 0.790532667469845
-0.0679119194737054 -0.237829725629961 0.790532667469845
-0.0739331593800414 -0.241821948147197 0.790532667469845
-0.0562643140436677 -0.227907128668251 0.790532667469845
-0.0487879597205239 -0.216167311192375 0.790532667469845
-0.0447206759905067 -0.215988653847797 0.790532667469845
-0.0273315678096676 -0.204961319563062 0.790532667469845
-0.0304084047419634 -0.202729979431235 0.790532667469845
-0.0158434257777898 -0.191943906721874 0.790532667469845
0.00215019875608957 -0.177686662868389 0.790532667469845
0.0043896600811666 -0.169321608215213 0.790532667469845
0.0124510084583308 -0.163690881742111 0.790532667469844
0.0193521907749437 -0.156979995125806 0.790532667469845
0.0371480653356616 -0.146410327172047 0.790532667469845
0.044556752782649 -0.133975529900149 0.790532667469845
0.0556372242697777 -0.129424322337878 0.790532667469845
0.0604304206946786 -0.117971977484051 0.790532667469845
0.0784033661035564 -0.104797993287334 0.790532667469845
0.0788765319644862 -0.108321564218589 0.790532667469845
0.0880457157179538 -0.0936870449173741 0.790532667469845
0.0981415008881331 -0.0898214880140108 0.790532667469845
0.110203272338519 -0.0756726541066444 0.790532667469845
0.118843043576949 -0.0651165324289304 0.790532667469845
0.127835678993705 -0.0592824245847234 0.790532667469845
0.14427810627811 -0.043427625234065 0.790532667469845
0.158972525198227 -0.028638050511406 0.790532667469845
0.166460424312497 -0.0187756992045502 0.790532667469845
0.171797633558709 -0.0210245507268342 0.790532667469845
0.184395419830122 -0.010360322949714 0.790532667469845
0.196189045140332 0.00115628260834655 0.790532667469845
0.215866989743527 0.0150268028638716 0.790532667469845
0.216264474464832 0.0160963292776073 0.790532667469845
0.228566363478741 0.0355962300549067 0.790532667469845
0.243343191928528 0.0418213943548641 0.790532667469845
0.253335442442617 0.0557848901839825 0.790532667469845
0.25648633778577 0.0567368694568015 0.790532667469845
0.274005807976328 0.0766398389421888 0.790532667469845
0.295519749851449 0.0864988104029119 0.790532667469845
0.303172576748005 0.0948435644466746 0.790532667469845
0.315620676802485 0.113376074147467 0.790532667469845
0.321742502040662 0.117938880531284 0.790532667469845
0.325822192645619 0.12475761277727 0.790532667469845
0.34869612443919 0.138535973602228 0.790532667469845
0.358928290145198 0.160691230465515 0.790532667469845
0.374920360975022 0.164318229129596 0.790532667469844
0.386206966566987 0.177993901864128 0.790532667469845
0.401274282470978 0.197886628528041 0.790532667469845
0.416201090513964 0.201171960764912 0.790532667469845
0.429669568926354 0.215496854419903 0.790532667469845
0.433137489876538 0.231370947772012 0.790532667469845
0.159609554560935 -0.0138689941661386 5.97277356570108e-005
0.156164339836318 -0.0138689941661386 0.0112593473897955
0.167219145004519 -0.0138689941661386 0.0151789716910146
0.166329586442128 -0.0138689941661386 0.0272712120011681
0.160141653899263 -0.0138689941661386 0.0460324082167703
0.168170008143638 -0.0138689941661386 0.0443223697439612
0.165844906028482 -0.0138689941661386 0.0550180678442204
0.174200864753329 -0.00780775057708657 0.0552204954631022
0.189027296465111 0.0128688628951771 0.0522859211216635
-0.271900312145094 -0.420368550779912 0.753382746045688
-0.275197612293681 -0.418464853651526 0.757006393424219
-0.271629993940327 -0.4205246190682 0.770538731108336
-0.272839278482696 -0.419826438312137 0.775102094213991
-0.273054143308333 -0.419702386047216 0.787481302735399
-0.27740277830964 -0.415970425759308 0.790532667469845
-0.27187304698456 -0.410319996924674 0.790532667469845
-0.264829049170967 -0.409696659606055 0.790532667469845
-0.250267854259949 -0.396126479721843 0.790532667469845
-0.248315748606496 -0.392750438460589 0.790532667469845
-0.246126367294062 -0.388437639245674 0.790532667469845
-0.233673085329034 -0.379569699933887 0.790532667469845
-0.220976500937106 -0.368851364577111 0.790532667469845
-0.215596983868664 -0.359921946931853 0.790532667469845
-0.202024701645456 -0.354180195182772 0.790532667469845
-0.199997429528171 -0.351502463553873 0.790532667469845
-0.197791450275929 -0.343056909136114 0.790532667469845
-0.186088441092052 -0.33513398352644 0.790532667469845
-0.174689020869986 -0.326563721968881 0.790532667469845
-0.176082808185147 -0.326603845443494 0.790532667469845
-0.166990336228396 -0.314163778576212 0.790532667469845
-0.16152431085515 -0.30956634356046 0.790532667469845
-0.146889612144024 -0.30332652323295 0.790532667469845
-0.141940026582916 -0.287282802593053 0.790532667469845
-0.132509087651615 -0.285233256411685 0.790532667469845
-0.131503182214 -0.283996666079394 0.790532667469845
-0.118461175216316 -0.268193445826925 0.790532667469845
-0.105852168671563 -0.261171823386086 0.790532667469845
-0.102233051139662 -0.253576000197727 0.790532667469845
-0.094745581916735 -0.252566788721682 0.790532667469845
-0.0833001607024129 -0.237789300680319 0.790532667469845
-0.0742377672018958 -0.231462407616457 0.790532667469845
-0.0685192294952224 -0.228792296996195 0.790532667469845
-0.0600974901416421 -0.213087389447053 0.790532667469844
-0.0458570567058606 -0.20048009843071 0.790532667469845
-0.0331904875089138 -0.19347595040524 0.790532667469845
-0.0256378526121825 -0.183806261130562 0.790532667469845
-0.0209780813292663 -0.186104056334943 0.790532667469845
-0.00941426640341686 -0.177577874501123 0.790532667469845
-0.00645305254637628 -0.169694880776328 0.790532667469845
0.00187532546894405 -0.159460988852672 0.790532667469845
0.0242314747175094 -0.148621527363172 0.790532667469845
0.0263658184327454 -0.138114112333001 0.790532667469845
0.0355644137245855 -0.129648852262999 0.790532667469845
0.0408789764444267 -0.120612795758552 0.790532667469845
0.049800512058889 -0.117697261436304 0.790532667469845
0.0733472033528637 -0.101528388202591 0.790532667469845
0.0760392483540235 -0.088517011699952 0.790532667469845
0.0855754564579804 -0.0891665739037657 0.790532667469845
0.0957537299897707 -0.0738672539690713 0.790532667469844
0.102435286968356 -0.0681390481281086 0.790532667469845
0.117399097612659 -0.0612254737467985 0.790532667469845
0.130144830483551 -0.0390779804491184 0.790532667469845
0.127003310178885 -0.0367604756117482 0.790532667469845
0.146558058870528 -0.022973861753365 0.790532667469845
0.155490044772392 -0.0199673481217593 0.790532667469845
0.158326252536695 -0.00980737354168509 0.790532667469845
0.178804221954658 0.00291344307390228 0.790532667469845
0.188838966160264 0.00575373522751752 0.790532667469845
0.202796759627682 0.0271028627312085 0.790532667469845
0.208440109709688 0.0330974668461393 0.790532667469845
0.224609859435817 0.0453341282565179 0.790532667469845
0.237110065036006 0.0524922300035288 0.790532667469845
0.25193883358084 0.0629257522257547 0.790532667469845
0.258205665766834 0.0815115933130856 0.790532667469845
0.268469983935795 0.083343347221481 0.790532667469845
0.27982648798974 0.0863781454768037 0.790532667469845
0.29485351219031 0.106567669276337 0.790532667469845
0.309403225391846 0.12508652709705 0.790532667469845
0.307562894217972 0.119579447341692 0.790532667469845
0.338875304995609 0.145129674957841 0.790532667469845
0.335005063462218 0.151162537902078 0.790532667469845
0.354832051019197 0.159528276442302 0.790532667469845
0.362210507098907 0.173640696377334 0.790532667469845
0.371847448561074 0.179386777656264 0.790532667469845
0.391704126032626 0.198183943438766 0.790532667469845
0.405874317776495 0.214585720209221 0.790532667469845
0.414409572384068 0.223316727973199 0.790532667469845
0.42891309257512 0.241620772754021 0.790532667469845
0.142144293314806 -0.0138689941661386 0.0127514050990713
0.146610982435215 -0.0138689941661386 0.015876833347607
0.152848304117384 -0.0138689941661386 0.0227495264719349
0.154335868610881 -0.0138689941661386 0.0345003541290932
0.147886475753902 -0.0138689941661386 0.0399418710476763
0.151612251513851 -0.0138689941661386 0.0578617439272797
0.155957164679032 -0.00288521903054393 0.0588314448251381
0.161453706216392 0.00383464457150023 0.057743522250391
-0.283659845599504 -0.413579180974464 0.753080422263833
-0.285885174868266 -0.412294386522108 0.758037083290485
-0.286601992489637 -0.41188053167545 0.771522944654861
-0.284597298019068 -0.413037942567676 0.778445254847751
-0.279785351726048 -0.415816121055277 0.787193330264926
-0.28258036343021 -0.409178058420208 0.790532667469845
-0.279000608248845 -0.402863898361162 0.790532667469845
-0.266900436529205 -0.392330452060851 0.790532667469845
-0.262635813304827 -0.393556331644869 0.790532667469845
-0.255424185046107 -0.391018933737748 0.790532667469845
-0.243139510508683 -0.37646490859277 0.790532667469845
-0.235267947598943 -0.368371059623587 0.790532667469845
-0.225349060159119 -0.363402791387974 0.790532667469845
-0.22610078141175 -0.355172634123547 0.790532667469845
-0.219454662420706 -0.35489894684946 0.790532667469845
-0.201672448736979 -0.342754600302437 0.790532667469845
-0.204616739380425 -0.342162494915583 0.790532667469845
-0.192360290370538 -0.324972992949215 0.790532667469845
-0.185149324829569 -0.315513153802231 0.790532667469845
-0.173160128379869 -0.311623236094217 0.790532667469845
-0.170103631365857 -0.308362137517039 0.790532667469845
-0.158319146980097 -0.301733225631781 0.790532667469845
-0.155142457871397 -0.291719298650817 0.790532667469845
-0.148591552166266 -0.284201744798731 0.790532667469845
-0.135654511043464 -0.273508058094588 0.790532667469845
-0.134194439300913 -0.268813017395054 0.790532667469845
-0.126705608281978 -0.263344554413564 0.790532667469845
-0.116513462117932 -0.262514955508746 0.790532667469845
-0.104202673789357 -0.242918263544148 0.790532667469845
-0.0930249814764822 -0.241263003923252 0.790532667469845
-0.0962027360166358 -0.239031043755986 0.790532667469845
-0.0835935225927764 -0.222088112496647 0.790532667469845
-0.067450545037707 -0.216543851537802 0.790532667469845
-0.0603671112783577 -0.210629047965701 0.790532667469845
-0.0497578775462056 -0.199346254297021 0.790532667469845
-0.0455186484157777 -0.198536739041984 0.790532667469845
-0.0320237597348282 -0.179680750339959 0.790532667469845
-0.022944291160783 -0.170227278878326 0.790532667469845
-0.0182263982277147 -0.165196801694107 0.790532667469845
-0.00755102477138002 -0.154727001269889 0.790532667469845
0.00326129573457591 -0.145088238568661 0.790532667469845
0.0102638252827495 -0.133112972142862 0.790532667469845
0.017854152106135 -0.135452696011241 0.790532667469844
0.0300400049042867 -0.117242405192604 0.790532667469845
0.0381722408273433 -0.109626793557369 0.790532667469845
0.0484143958141143 -0.110071816404936 0.790532667469845
0.0587271975514527 -0.0965719154647147 0.790532667469845
0.0704065758629522 -0.0799138412695438 0.790532667469845
0.0827571192586391 -0.070076643674671 0.790532667469845
0.0892526162358908 -0.0686953376509355 0.790532667469845
0.102201025793854 -0.062028871090376 0.790532667469845
0.108948823941733 -0.0448705880972992 0.790532667469845
0.115329248817489 -0.0389330437428478 0.790532667469845
0.118984418230909 -0.0353935999889563 0.790532667469845
0.133712121993036 -0.0281379032799661 0.790532667469845
0.141157002220977 -0.019978314284051 0.790532667469845
0.162021709605065 0.000533483969670572 0.790532667469845
0.170459072675968 0.00986860753014361 0.790532667469845
0.184417442588495 0.0232190863246064 0.790532667469845
0.196553417444299 0.0277392173563334 0.790532667469845
0.211895530196317 0.0389733244269281 0.790532667469845
0.215101662177285 0.0560387580342917 0.790532667469845
0.21817922521099 0.0572340239055045 0.790532667469845
0.239096733554963 0.0760105407322032 0.790532667469845
0.241854400754866 0.073612069505539 0.790532667469844
0.251866217092076 0.0836947363669319 0.790532667469845
0.27439499910681 0.106784825482964 0.790532667469845
0.290457887428687 0.121340548892361 0.790532667469845
0.299695695596643 0.131801182303344 0.790532667469845
0.304344714777965 0.129445031296712 0.790532667469845
0.330461317637704 0.154071885989115 0.790532667469845
0.341661745103497 0.161566525265377 0.790532667469845
0.354254152168223 0.176106774373533 0.790532667469845
0.360630867191514 0.18267949858862 0.790532667469845
0.362989007502127 0.191161589312239 0.790532667469845
0.390477553168858 0.20955382231228 0.790532667469844
0.401862449289619 0.224757388087127 0.790532667469845
0.407787787601931 0.233867278588021 0.790532667469845
0.41828198068223 0.23422822345344 0.790532667469845
0.130961773047541 -0.0138689941661386 0.00744509612071879
0.128982275468232 -0.0138689941661386 0.0144709359806067
0.137822129518388 -0.0138689941661386 0.0249132627930213
0.138273034853926 -0.0138689941661386 0.0415091264032415
0.132039526163648 -0.0138689941661386 0.0510598375220789
0.131668412826581 -0.0129201597003554 0.0636388826063483
0.137923986297891 -0.00947470420714872 0.0624007259307067
0.142669805460333 -0.00381479752476118 0.0614613927577666
-0.293940452594354 -0.407643669758554 0.749554698876208
-0.293748114919982 -0.407754715966628 0.752833826520329
-0.293061480996252 -0.408151144247329 0.765940951247546
-0.293122411073794 -0.408115966250658 0.774737604036947
-0.291993257964038 -0.408767883102531 0.773583436378196
-0.288486325643214 -0.40808290066974 0.790532667469845
-0.285150305630181 -0.405248907739067 0.790532667469845
-0.286382197958046 -0.404981537257218 0.790532667469845
-0.27777796266117 -0.397000755286921 0.790532667469845
-0.269152477398269 -0.383238804377294 0.790532667469845
-0.260117498684089 -0.379153731860092 0.790532667469845
-0.256940285222832 -0.374516009454423 0.790532667469845
-0.245633328320197 -0.364254144706361 0.790532667469845
-0.23964664716332 -0.357178319995153 0.790532667469845
-0.232797025745032 -0.354017284845311 0.790532667469845
-0.223935960227391 -0.343659135794634 0.790532667469845
-0.218254606344713 -0.333388315403017 0.790532667469845
-0.206297214088593 -0.331439202726901 0.790532667469845
-0.203453422256859 -0.326135743348754 0.790532667469845
-0.191254201593752 -0.316214083270667 0.790532667469845
-0.186472824307555 -0.314752482215042 0.790532667469845
-0.181991285873141 -0.308713543873902 0.790532667469845
-0.174668678430014 -0.300193553307538 0.790532667469845
-0.161814126799252 -0.288433210514066 0.790532667469845
-0.154559369888687 -0.278543085541817 0.790532667469845
-0.148536710665592 -0.278536480902386 0.790532667469845
-0.135419405533733 -0.263771580869459 0.790532667469845
-0.126997922751564 -0.25801295805463 0.790532667469845
-0.115149396881871 -0.25030279798148 0.790532667469845
-0.106062794227141 -0.237191945907478 0.790532667469845
-0.102891029921314 -0.237538752261978 0.790532667469845
-0.0954489559205809 -0.225768257379098 0.790532667469845
-0.0799378608399415 -0.211918559399169 0.790532667469845
-0.0755525715634999 -0.207921348122823 0.790532667469845
-0.0672994192213023 -0.201701880589802 0.790532667469845
-0.0609701513239566 -0.195250673866499 0.790532667469845
-0.0507678670221349 -0.182959808406321 0.790532667469845
-0.0462054776998674 -0.178226732459938 0.790532667469845
-0.0385932319074544 -0.167805738139758 0.790532667469845
-0.0241538660320128 -0.163957471231124 0.790532667469845
-0.0177876241987749 -0.150462874547 0.790532667469845
-0.00194473996963058 -0.139860559634554 0.790532667469845
0.00462551596093302 -0.136332623227051 0.790532667469845
0.00897308716653494 -0.121572688070077 0.790532667469845
0.0214045502544895 -0.123772501546613 0.790532667469845
0.0374190958631736 -0.106146530175082 0.790532667469845
0.0365118856500236 -0.0988333324380753 0.790532667469845
0.0447280959911998 -0.0961133828192989 0.790532667469845
0.0591042882075606 -0.0854445512468884 0.790532667469845
0.071926345912835 -0.0730632552856275 0.790532667469845
0.0871231453854272 -0.0596683201818567 0.790532667469845
0.0839119861272423 -0.0599721452879419 0.790532667469845
0.10115546285102 -0.0444228494972935 0.790532667469845
0.11622247239472 -0.032353820570444 0.790532667469844
0.121342534477113 -0.0224305441525831 0.790532667469845
0.129156154566212 -0.014490045968547 0.790532667469845
0.143215347223949 -0.00942604694485223 0.790532667469845
0.150106291162079 0.00264013515909811 0.790532667469845
0.163648797026644 0.019879185325196 0.790532667469845
0.172472188978984 0.0273619781412968 0.790532667469845
0.18616881515132 0.0399170427557725 0.790532667469845
0.198136389285676 0.0484398324507828 0.790532667469845
0.206852282248676 0.0508060207088601 0.790532667469845
0.215368009981488 0.0643579891948826 0.790532667469845
0.235295336656346 0.080377162279347 0.790532667469845
0.239366572781721 0.0863343592352041 0.790532667469845
0.25197333084962 0.101717862320011 0.790532667469845
0.260948374403299 0.114855162563974 0.790532667469845
0.267714311170414 0.111480615498081 0.790532667469845
0.284508522764264 0.13415806952895 0.790532667469845
0.298971876622869 0.137110210842853 0.790532667469845
0.307064215483856 0.156443357710503 0.790532667469845
0.328219828773846 0.169640965466391 0.790532667469845
0.330310894013143 0.180368753897206 0.790532667469845
0.348755573877804 0.184161935812144 0.790532667469844
0.373010794492956 0.207418495431997 0.790532667469845
0.383162820140505 0.21839934935895 0.790532667469845
0.387761160556738 0.228557788763948 0.790532667469845
0.402149299075824 0.234718580071622 0.790532667469845
0.411285760038286 0.24816604996656 0.790532667469845
0.0126346778232421 -0.116527666755491 0.0670124864789917
0.118073105579796 -0.0138689941661386 0.0166183775294359
0.118935407918837 -0.0138689941661386 0.0198627382356549
0.115200929472186 -0.0138689941661386 0.023691047944859
0.116230667256487 -0.0138689941661386 0.0428546865507534
0.112715838225796 -0.0138689941661386 0.0494397108271762
0.108977713365583 -0.0138689941661386 0.0644892960408559
0.119013969289323 -0.0104334082242234 0.0661435584468684
0.129385036059776 0.000977394467098322 0.0640908280914095
0.141875310694564 0.0124426624982531 0.0616186459660472
0.146325895683103 0.0119872942835926 0.0607377480692606
-0.298448357886101 -0.405041029424883 0.754226264419301
-0.297069945269815 -0.40583685631995 0.764237118264133
-0.302269446478382 -0.402834922897532 0.777382456354321
-0.296074264818074 -0.406411712696789 0.780736283455897
-0.297474639864228 -0.405603205786926 0.787703294774381
-0.296751678571626 -0.399547909211909 0.790532667469845
-0.283385003745543 -0.395407747763703 0.790532667469845
-0.282071005895047 -0.381300496477361 0.790532667469845
-0.271899695076448 -0.378377983555248 0.790532667469845
-0.266210900128228 -0.376918347408257 0.790532667469845
-0.257900682858914 -0.363611640480293 0.790532667469845
-0.247188119268318 -0.361460484323733 0.790532667469845
-0.240693196531414 -0.353378062867126 0.790532667469845
-0.230088219634806 -0.344307366327122 0.790532667469845
-0.230226614132329 -0.337380392146151 0.790532667469845
-0.220113159436572 -0.329216761931838 0.790532667469845
-0.206247212816119 -0.321868986749506 0.790532667469845
-0.209030367891371 -0.314447827069959 0.790532667469845
-0.200484368277576 -0.312137583334631 0.790532667469845
-0.191972122974843 -0.308825123914107 0.790532667469845
-0.18028995519212 -0.297811356272985 0.790532667469845
-0.170291382293726 -0.291240365704982 0.790532667469845
-0.165622452642159 -0.2822050981004 0.790532667469845
-0.152941754077735 -0.266724910468584 0.790532667469845
-0.147827825878444 -0.266316305288683 0.790532667469845
-0.138055591474744 -0.252287028964904 0.790532667469845
-0.132764809718747 -0.245225554538886 0.790532667469845
-0.128339937062413 -0.242512187738084 0.790532667469845
-0.12235682726347 -0.239059555770201 0.790532667469845
-0.108512752930868 -0.225144963676834 0.790532667469845
-0.0939161257653972 -0.211639254191445 0.790532667469844
-0.090024257075437 -0.204389541697828 0.790532667469845
-0.083636333151667 -0.199135311427847 0.790532667469845
-0.0794258679650698 -0.194739231180016 0.790532667469845
-0.0724800308811406 -0.188360333390799 0.790532667469844
-0.0600354670589816 -0.177106155344225 0.790532667469845
-0.0523315715498485 -0.167782497513797 0.790532667469845
-0.0444781100111597 -0.16619046034721 0.790532667469845
-0.0258754274682956 -0.146692216619458 0.790532667469845
-0.0186005346199133 -0.148589029841036 0.790532667469845
-0.0170404551228721 -0.138161838312829 0.790532667469845
-0.00562972065537677 -0.128900854027683 0.790532667469845
-0.000689334053115106 -0.117666333582177 0.790532667469845
0.019967437640807 -0.107753374860464 0.790532667469845
0.0238956136144481 -0.0982911290560773 0.790532667469845
0.0302504546795601 -0.0932349396835319 0.790532667469845
0.048406134778415 -0.0820808664740163 0.790532667469845
0.0538523806528538 -0.0704150394492251 0.790532667469845
0.0657029689208541 -0.055549182983681 0.790532667469845
0.0683566756123149 -0.0632654336469237 0.790532667469845
0.0847306822958916 -0.043223146047905 0.790532667469845
0.0915146010959986 -0.0317971172533784 0.790532667469844
0.0969903411751905 -0.0324513393430807 0.790532667469845
0.116618091919624 -0.0209636908137915 0.790532667469845
0.120367796809001 -0.014930951768452 0.790532667469844
0.138683878850386 0.00473881199181658 0.790532667469845
0.145742208776746 0.0149741580094087 0.790532667469845
0.149725069138861 0.0215381982648926 0.790532667469845
0.168827580252371 0.0270201910197082 0.790532667469845
0.179078371327802 0.0456651388907693 0.790532667469845
0.189901016808633 0.0541664620684977 0.790532667469845
0.20253488606586 0.0690546573055219 0.790532667469845
0.218865560467243 0.0816176178476507 0.790532667469845
0.217034549356768 0.086026364266285 0.790532667469845
0.233139857878934 0.0965370804253801 0.790532667469845
0.245292449334219 0.110582449917634 0.790532667469845
0.257018592826054 0.121882758588206 0.790532667469845
0.273907162344614 0.127033811383674 0.790532667469845
0.281824701424546 0.143090233582288 0.790532667469845
0.296581720464484 0.154102101309565 0.790532667469844
0.300746412737753 0.15611795090935 0.790532667469845
0.30778167599219 0.169506278697032 0.790532667469845
0.331303639545246 0.187938952744333 0.790532667469844
0.34548487070923 0.192543848534227 0.790532667469845
0.356314984819214 0.210563549306908 0.790532667469845
0.372291078825368 0.226185923402329 0.790532667469844
0.384436607112369 0.234451480120818 0.790532667469845
0.399278330907661 0.245510408259736 0.790532667469845
0.407150495438016 0.259854315099255 0.790532667469845
0.00163994914749818 -0.111786372653829 0.0679509240131488
0.0080877745099743 -0.101762299350105 0.069934974449939
0.0118685033898064 -0.101332176083222 0.070020108130597
0.0986843848922388 -0.0138689941661386 0.0140065371760168
0.100876603529967 -0.0138689941661386 0.0166587093945315
0.100781029416742 -0.0138689941661386 0.0364854534949546
0.0987741771921052 -0.0138689941661386 0.0449713437803381
0.10172695764091 -0.0138689941661386 0.0496887708505094
0.10217836736263 -0.0138689941661386 0.0608531430113063
0.112601469659986 -0.00713341051763956 0.0674127752916589
0.109039825921223 -0.0072816812820404 0.0681177263231883
0.119943433756063 0.00138394158149428 0.0659595908794591
-0.306427868710337 -0.400434056702508 0.765301688157169
-0.305155219767852 -0.401168820912036 0.767405494401259
-0.30422416630621 -0.401706364878745 0.775230893551415
-0.30657289440805 -0.400350326076895 0.788510773476198
-0.300292785379863 -0.398867664802637 0.790532667469845
-0.300848651828621 -0.393797801732552 0.790532667469845
-0.284726980395879 -0.38544904324744 0.790532667469845
-0.285532709874051 -0.375563207962854 0.790532667469845
-0.275421852119127 -0.36951887614606 0.790532667469845
-0.271928668233546 -0.37197048482504 0.790532667469845
-0.260523817981252 -0.361426179043094 0.790532667469845
-0.257545023355605 -0.352851200492109 0.790532667469845
-0.246272423350107 -0.345302960139085 0.790532667469845
-0.239481598292868 -0.334582224850887 0.790532667469845
-0.2363392437702 -0.331639010598005 0.790532667469845
-0.227684534212391 -0.326399325269782 0.790532667469845
-0.220598811219326 -0.314502133180536 0.790532667469845
-0.213441478445447 -0.313215025307456 0.790532667469845
-0.208207400819942 -0.306145192589491 0.790532667469845
-0.1945378637063 -0.294212295565841 0.790532667469845
-0.184904729368868 -0.284437939253802 0.790532667469845
-0.184334418833464 -0.279882671496472 0.790532667469845
-0.169380452090842 -0.271281618743973 0.790532667469845
-0.16257723508437 -0.263686951198188 0.790532667469845
-0.15562610800182 -0.25257355436233 0.790532667469845
-0.148026915280457 -0.246826678052984 0.790532667469845
-0.141930613763294 -0.241482074422241 0.790532667469845
-0.133216614616688 -0.237687522330063 0.790532667469845
-0.123805471247881 -0.228904839891608 0.790532667469845
-0.114189425089807 -0.226026227843494 0.790532667469845
-0.10483294164808 -0.207929431168102 0.790532667469845
-0.0961853764287334 -0.205804235905198 0.790532667469845
-0.0885583055882555 -0.199553443429714 0.790532667469845
-0.0842906693363897 -0.189414280305215 0.790532667469845
-0.0717045717177049 -0.180528906474209 0.790532667469845
-0.065509519617989 -0.171173495957073 0.790532667469845
-0.0586981897176129 -0.157278730725683 0.790532667469845
-0.0461867377118373 -0.158574901251844 0.790532667469845
-0.0382934521725966 -0.146529940903869 0.790532667469845
-0.0222958630518642 -0.134762362525839 0.790532667469845
-0.0212997094183693 -0.125905603539696 0.790532667469844
-0.0157350628641887 -0.119902082617454 0.790532667469845
-0.00153702464084001 -0.113050407685936 0.790532667469845
0.00795682900456503 -0.0997838839977965 0.790532667469845
0.0168115974809804 -0.101472941243109 0.790532667469845
0.0246917237922185 -0.0835543290306007 0.790532667469845
0.0408515506660237 -0.0696187971860324 0.790532667469845
0.046906293532211 -0.0651497104188113 0.790532667469845
0.0649818332177695 -0.0524684732498654 0.790532667469845
0.0718469002145196 -0.0467279057020535 0.790532667469845
0.0808075719889373 -0.0372657675329818 0.790532667469845
0.0852554441645546 -0.0329723268354862 0.790532667469845
0.0982788696513866 -0.0259857896536875 0.790532667469845
0.113444111509824 -0.00133209639446878 0.790532667469845
0.110459512896571 -0.00822483086022305 0.790532667469845
0.119124583382987 0.00594229319583733 0.790532667469845
0.1422956504294 0.0229084722497338 0.790532667469845
0.142864473521358 0.0243512210821359 0.790532667469845
0.161654782308982 0.0401237376810281 0.790532667469845
0.173569680305411 0.0585428109005059 0.790532667469845
0.176722356242068 0.0531130029493794 0.790532667469845
0.188392725726728 0.0712385768811554 0.790532667469845
0.193865898391645 0.0821408220213835 0.790532667469845
0.213108428014331 0.0942615139204653 0.790532667469845
0.225696521309817 0.0982105260600181 0.790532667469845
0.248226603072931 0.119181591387587 0.790532667469845
