ply
format ascii 1.0
element vertex 844
property float x
property float y
property float z
end_header
-0.393330559107018 -0.261517732902947 0.416666666666667
-0.394301723157569 -0.247813395012648 0.416666666666667
-0.395896527811213 -0.245024438872425 0.416666666666667
-0.398484908416666 -0.231298123424407 0.416666666666666
-0.401776081894634 -0.220566288804352 0.416666666666666
-0.403606303379387 -0.212505429874 0.416666666666667
-0.398710032529882 -0.197216096297975 0.416666666666667
-0.399117768149932 -0.19443591618667 0.416666666666667
-0.40715818880274 -0.179449232146097 0.416666666666667
-0.404751876084176 -0.167138842805466 0.416666666666667
-0.407407880278366 -0.162072617449154 0.416666666666667
-0.407231863871013 -0.15010051130654 0.416666666666667
-0.410405504150168 -0.137420965451386 0.416666666666667
-0.408715980293553 -0.12921937415004 0.416666666666667
-0.41625434461514 -0.124879029010423 0.416666666666667
-0.412267581326206 -0.105352208701338 0.416666666666667
-0.418926926303393 -0.0966915752752434 0.416666666666667
-0.413784263791367 -0.0900045062719719 0.416666666666667
-0.422570943658397 -0.0773923123157086 0.416666666666666
-0.420296103577369 -0.0644086913355607 0.416666666666667
-0.425804195139905 -0.0501976727065153 0.416666666666667
-0.424379845982826 -0.0453921083886433 0.416666666666667
-0.428382502161962 -0.0252495746989322 0.416666666666667
-0.425351626796639 -0.0216654830848271 0.416666666666667
-0.424576537229547 -0.00448647296596017 0.416666666666667
-0.435692500414226 0.0141924109356002 0.416666666666667
-0.427334487925259 0.0125593980597109 0.416666666666667
-0.438357339131211 0.0293263105773143 0.416666666666667
-0.431094331938834 0.0402226090506986 0.416666666666667
-0.433584267587072 0.0517352161169144 0.416666666666667
-0.443308427333414 0.0633202624127712 0.416666666666667
-0.438446423180803 0.0767049762558064 0.416666666666667
-0.446641012385958 0.0922148061268203 0.416666666666667
-0.449384784867738 0.0995862352790152 0.416666666666667
-0.448066897322189 0.120249185501135 0.416666666666667
-0.451904987257697 0.123208764977705 0.416666666666667
-0.449414784079562 0.138585224419829 0.416666666666667
-0.449170046605513 0.141234134059805 0.416666666666666
-0.450266999976486 0.160869659015778 0.416666666666667
-0.4581844471797 0.166680615654381 0.416666666666667
-0.459409488759022 0.195438780229556 0.416666666666667
-0.46424813340155 0.210404178905591 0.416666666666667
-0.455736229411683 0.212503859719303 0.416666666666667
-0.463257435815506 0.2342830396698 0.416666666666667
-0.461631227875262 0.238285703202483 0.416666666666667
-0.46660067944712 0.255019175014192 0.416666666666667
-0.46670303339476 0.262651622724853 0.416666666666667
-0.379281652352303 -0.256944444444444 0.382772764915424
-0.383465665428565 -0.256944444444444 0.381592663195144
-0.380912315540657 -0.256944444444444 0.388490995921549
-0.386887534530578 -0.270833333333333 0.414541638523828
-0.385133414088203 -0.25819886471628 0.416666666666667
-0.38476257252985 -0.252566040049058 0.416666666666667
-0.384491688682737 -0.241617869958204 0.416666666666667
-0.387099964776128 -0.236888407148883 0.416666666666667
-0.391021199700149 -0.225690986124816 0.416666666666667
-0.387381730195476 -0.213651259653931 0.416666666666667
-0.387701692677016 -0.206141952274632 0.416666666666667
-0.393329667478333 -0.198532265998076 0.416666666666667
-0.396912826255365 -0.180793828448643 0.416666666666667
-0.400087920861328 -0.173080886082555 0.416666666666667
-0.40110691346138 -0.15839262160478 0.416666666666666
-0.396215371062923 -0.15009751813851 0.416666666666667
-0.398680540584881 -0.143448141217372 0.416666666666667
-0.404128896539005 -0.128124902094176 0.416666666666667
-0.400992627296053 -0.123948138906762 0.416666666666667
-0.399953459848742 -0.10912674948306 0.416666666666667
-0.404715033277224 -0.097364599064921 0.416666666666667
-0.405599487157123 -0.0791379259294878 0.416666666666667
-0.409640572481715 -0.074538462791996 0.416666666666667
-0.40721240217323 -0.0676379725883909 0.416666666666667
-0.417752225215886 -0.0512627055424132 0.416666666666667
-0.41640615470669 -0.0387550229589842 0.416666666666667
-0.417416494446068 -0.0241102522548603 0.416666666666667
-0.420395311054446 -0.0144233298450931 0.416666666666667
-0.415783342616593 -0.00267221573906002 0.416666666666667
-0.416050145193278 0.0094481039548074 0.416666666666667
-0.425257544744053 0.00881184281228421 0.416666666666666
-0.422386100482262 0.0233620661989086 0.416666666666667
-0.430051956011437 0.0412651652451861 0.416666666666667
-0.423465724972341 0.0502175849093993 0.416666666666666
-0.431764840522544 0.0650014782344751 0.416666666666667
-0.431174196857281 0.0778198599374476 0.416666666666667
-0.427965784509133 0.0915759056562911 0.416666666666667
-0.428925144225493 0.0924999713401158 0.416666666666667
-0.433731693526368 0.115341526285266 0.416666666666667
-0.434771794078163 0.126215839247607 0.416666666666667
-0.437781181066537 0.138059111367132 0.416666666666666
-0.441062226873341 0.150982072179611 0.416666666666667
-0.446890569638783 0.162510105333475 0.416666666666667
-0.446045055169668 0.166237183337377 0.416666666666667
-0.448148608653945 0.182175527810719 0.416666666666667
-0.444336877946879 0.205414275013641 0.416666666666667
-0.450449916383262 0.214382937097679 0.416666666666667
-0.455752628990259 0.229492245042654 0.416666666666667
-0.448472351569021 0.2406858565764 0.416666666666667
-0.459682727050111 0.24742818832875 0.416666666666667
-0.457874215917018 0.267715340835515 0.416666666666667
-0.379029851990843 -0.256944444444444 0.377935765685929
-0.372081179691275 -0.256944444444444 0.389210425286234
-0.375380739806445 -0.256944444444444 0.388224046652215
-0.372930217793331 -0.270833333333333 0.415379064883146
-0.370341912338333 -0.268178407668944 0.416666666666667
-0.373127093755134 -0.24564468296253 0.416666666666667
-0.376012703790008 -0.233866001040875 0.416666666666667
-0.377086741363971 -0.229817618900331 0.416666666666667
-0.376282900504752 -0.219144048346983 0.416666666666667
-0.384290267407979 -0.209236777274863 0.416666666666667
-0.37834546523287 -0.202340643964485 0.416666666666667
-0.382781620531864 -0.188638849487124 0.416666666666666
-0.388728484863543 -0.176078452505357 0.416666666666667
-0.384913132065193 -0.173481139620266 0.416666666666667
-0.389480587754704 -0.167309602887438 0.416666666666666
-0.3939742436074 -0.146017657864535 0.416666666666667
-0.389602891395599 -0.144162918129182 0.416666666666666
-0.395584528681368 -0.130574455298699 0.416666666666667
-0.393188310806346 -0.119018594571187 0.416666666666667
-0.395800792086723 -0.109474931513465 0.416666666666667
-0.395227837757408 -0.0967436238896744 0.416666666666667
-0.402878009462436 -0.0846261108653284 0.416666666666667
-0.395415683042051 -0.0823588713832288 0.416666666666666
-0.40133379073006 -0.061811523728839 0.416666666666667
-0.401202437454587 -0.0509241350721533 0.416666666666667
-0.404596058166638 -0.0441439615141301 0.416666666666666
-0.403039421545463 -0.0385360345907681 0.416666666666667
-0.408549916720692 -0.0248986039054603 0.416666666666667
-0.406718317096319 -0.000880524993837514 0.416666666666667
-0.40927688811559 -0.000354615842718545 0.416666666666667
-0.409631553048144 0.0216322340294557 0.416666666666667
-0.410266454298778 0.0318626522219022 0.416666666666667
-0.415598339349589 0.0418345620138835 0.416666666666667
-0.413526467504491 0.0444806264222712 0.416666666666667
-0.419317316562207 0.0681870582399589 0.416666666666667
-0.424276893043152 0.0824300426132123 0.416666666666666
-0.419393920205663 0.0883035152114292 0.416666666666667
-0.425476336330328 0.096983192013546 0.416666666666667
-0.420604604586814 0.110396290199511 0.416666666666667
-0.426745628574099 0.128084815331579 0.416666666666667
-0.424866836866755 0.135359417321076 0.416666666666667
-0.432250271200842 0.150228298432929 0.416666666666667
-0.433730129346593 0.156950702448527 0.416666666666666
-0.43973606133825 0.180778347553986 0.416666666666667
-0.439639528478684 0.187689864485953 0.416666666666667
-0.436428873312857 0.200883720006774 0.416666666666667
-0.438729144040637 0.224279162268265 0.416666666666667
-0.44582987437259 0.225321195841685 0.416666666666667
-0.443383942683276 0.244489787346282 0.416666666666667
-0.442695583563679 0.257006970108298 0.416666666666667
-0.365075359280801 -0.256944444444444 0.382038778768529
-0.36586328469862 -0.256944444444444 0.384457704553537
-0.359707253756371 -0.270833333333333 0.40618806415406
-0.367454229018018 -0.270833333333333 0.414289392044136
-0.369902942908882 -0.262410312191489 0.416666666666667
-0.368865558433348 -0.247010574194857 0.416666666666666
-0.363938395825226 -0.240888700433716 0.416666666666667
-0.369749961848804 -0.233566011363096 0.416666666666667
-0.374243615351137 -0.228876029280488 0.416666666666667
-0.375512343261607 -0.211031516012717 0.416666666666667
-0.369706219449213 -0.206716862951377 0.416666666666667
-0.369685240962468 -0.195573370813856 0.416666666666667
-0.373196666310763 -0.178624453388993 0.416666666666667
-0.377717386769034 -0.171673685258472 0.416666666666667
-0.373343385319666 -0.16667347156422 0.416666666666667
-0.38102672483209 -0.148364187939997 0.416666666666667
-0.378659858825463 -0.136024018539389 0.416666666666666
-0.382511576249441 -0.130229774823578 0.416666666666667
-0.379888637179541 -0.122977115743865 0.416666666666667
-0.388368810917028 -0.102935761666494 0.416666666666667
-0.390108515022867 -0.0935087146739891 0.416666666666667
-0.387960210054533 -0.0857461463298809 0.416666666666666
-0.385321859542513 -0.0714057389718985 0.416666666666667
-0.386510238705011 -0.0720759639848992 0.416666666666667
-0.389788640318331 -0.0545056319140682 0.416666666666667
-0.393723984946387 -0.0397780898606497 0.416666666666667
-0.394522409217494 -0.0298589465904994 0.416666666666666
-0.394417371305408 -0.0115919009038459 0.416666666666667
-0.396793147772746 -0.00779147101815701 0.416666666666667
-0.402098936996786 0.00653351021954206 0.416666666666667
-0.401603105382131 0.017071940748209 0.416666666666667
-0.4054176754247 0.0215029283847257 0.416666666666667
-0.4071872797141 0.040532063975787 0.416666666666667
-0.402248383945945 0.0417763255014826 0.416666666666667
-0.410027290560061 0.0620775637042759 0.416666666666667
-0.4073126132912 0.0743953117230665 0.416666666666667
-0.4133867167509 0.0902919676072257 0.416666666666667
-0.412257275551272 0.099171455664999 0.416666666666667
-0.416601370575345 0.112257632738379 0.416666666666667
-0.419040841955404 0.131361715495635 0.416666666666667
-0.418091072249498 0.1284174186148 0.416666666666667
-0.417791222320473 0.151189005616089 0.416666666666667
-0.424197746001147 0.173070066796861 0.416666666666667
-0.419863260954482 0.183697655463785 0.416666666666667
-0.428623459070555 0.180183207258164 0.416666666666667
-0.432399290848107 0.207856366269213 0.416666666666667
-0.427667003109073 0.206769173842509 0.416666666666667
-0.428170363373137 0.230544336475404 0.416666666666667
-0.432248283216254 0.244053365716711 0.416666666666667
-0.435215876954658 0.265102297634808 0.416666666666667
-0.43800606099656 0.263852014460613 0.416666666666667
-0.361417153216667 -0.256944444444444 0.380604219936563
-0.358572850330028 -0.270833333333333 0.410455895627473
-0.359589809136109 -0.266550305346253 0.416666666666667
-0.356494504262063 -0.262236926386345 0.416666666666667
-0.354587715616742 -0.249087271387486 0.416666666666666
-0.362729221907235 -0.246240115495828 0.416666666666667
-0.359805245185085 -0.226764343873035 0.416666666666667
-0.357399059985429 -0.217142515711693 0.416666666666667
-0.366390260449498 -0.211857625785209 0.416666666666667
-0.360661664943777 -0.197255027538427 0.416666666666667
-0.36105852843125 -0.194604904345195 0.416666666666667
-0.366354804166944 -0.181599288631779 0.416666666666667
-0.371039193565378 -0.170423125743736 0.416666666666666
-0.367631473933802 -0.160941776979148 0.416666666666667
-0.366820292211235 -0.157537102745587 0.416666666666666
-0.370494625391139 -0.142100392401188 0.416666666666667
-0.376166800980939 -0.122114146670396 0.416666666666667
-0.372915607067305 -0.11231845020408 0.416666666666666
-0.379844382128076 -0.112868228763862 0.416666666666667
-0.377834861978305 -0.101485663977924 0.416666666666667
-0.376436863624449 -0.0835978787251111 0.416666666666667
-0.379253816489016 -0.0746434445145247 0.416666666666667
-0.377174068988748 -0.0651365318160003 0.416666666666667
-0.387906526827944 -0.0530040707881306 0.416666666666667
-0.388693086114073 -0.0439761361330195 0.416666666666667
-0.388930440903943 -0.0363904048891052 0.416666666666667
-0.38857487955946 -0.0184046371369276 0.416666666666667
-0.393012321257126 -0.00983588285240787 0.416666666666667
-0.391235885181125 0.00803365237470435 0.416666666666667
-0.39487675250167 0.017855976474464 0.416666666666667
-0.389416683578343 0.0259535049575555 0.416666666666667
-0.391183284764 0.0414922141463683 0.416666666666667
-0.398674355946445 0.0565618710484366 0.416666666666667
-0.396704186035215 0.0664417846391396 0.416666666666667
-0.394847676276718 0.07706233825326 0.416666666666667
-0.401459203771133 0.0795659594474667 0.416666666666667
-0.408710028199308 0.102983374964672 0.416666666666666
-0.406813342960457 0.114749699538633 0.416666666666667
-0.400712854283915 0.127502360239525 0.416666666666667
-0.403403563950353 0.139187537078644 0.416666666666667
-0.409192345115763 0.15353795482899 0.416666666666666
-0.40988414366065 0.165885954705414 0.416666666666667
-0.414180252534298 0.182174869821507 0.416666666666667
-0.413078390476397 0.19146878412503 0.416666666666667
-0.413442621240267 0.209854927361471 0.416666666666666
-0.418476376573402 0.214019342187771 0.416666666666667
-0.425868813351311 0.232411024523633 0.416666666666666
-0.420233116387317 0.234359992970272 0.416666666666667
-0.423656198154416 0.264997054323337 0.416666666666667
-0.42045778712994 0.26929348924188 0.416666666666667
-0.344792926263737 -0.256944444444444 0.37665813595675
-0.344739267973887 -0.256944444444444 0.377257553593478
-0.349317057866471 -0.256944444444444 0.387125524072875
-0.35055272788544 -0.267425736922566 0.416666666666667
-0.347817378196203 -0.252299017069132 0.416666666666667
-0.344959028955987 -0.255300065756584 0.416666666666667
-0.353259536005006 -0.235058893135376 0.416666666666667
-0.351580452103605 -0.228623608073501 0.416666666666666
-0.349966397735481 -0.225604933577748 0.416666666666667
-0.349409506909003 -0.21654748673589 0.416666666666667
-0.351960943615136 -0.20128770670388 0.416666666666667
-0.356907961041714 -0.193421019681279 0.416666666666667
-0.352978549167291 -0.180777758843637 0.416666666666667
-0.361171377214289 -0.175387510537569 0.416666666666667
-0.361202617657351 -0.15740845535874 0.416666666666667
-0.360888651779382 -0.147943192263413 0.416666666666667
-0.363773246112547 -0.148067152943695 0.416666666666667
-0.360744402894463 -0.128017545339506 0.416666666666667
-0.364790311979894 -0.116049296604687 0.416666666666667
-0.366154098108793 -0.103924661374421 0.416666666666667
-0.367065310435951 -0.0900461619007924 0.416666666666667
-0.366880422998789 -0.0888340816632276 0.416666666666667
-0.367056821267963 -0.0744351949072488 0.416666666666667
-0.368677007961092 -0.0694102057814035 0.416666666666667
-0.370707846151439 -0.0466526852786408 0.416666666666666
-0.374516444275557 -0.0383042154873178 0.416666666666667
-0.375293175704384 -0.0296739472033398 0.416666666666667
-0.376621810287114 -0.0247661966973003 0.416666666666667
-0.378586220721754 -0.0111491503597026 0.416666666666666
-0.383537633793945 0.00417587359227423 0.416666666666667
-0.382067762429312 0.0164898806840936 0.416666666666667
-0.379208722522705 0.0267294806278875 0.416666666666667
-0.380428179668802 0.0349130837475073 0.416666666666667
-0.38075806358242 0.051130021559846 0.416666666666666
-0.385909566742244 0.0617657919706359 0.416666666666667
-0.384986493646617 0.0778256255548357 0.416666666666667
-0.391148572878479 0.0785407907509465 0.416666666666667
-0.390672164662647 0.100758750126232 0.416666666666667
-0.391047731302568 0.111660218014154 0.416666666666666
-0.397018495125137 0.12554578707547 0.416666666666667
-0.393767775026856 0.132194567258218 0.416666666666667
-0.403585245057332 0.145357033740574 0.416666666666667
-0.405345990523489 0.168938962610348 0.416666666666666
-0.397988099119879 0.184194563270991 0.416666666666667
-0.408809564013928 0.189102633586913 0.416666666666667
-0.406068603509063 0.203002269820647 0.416666666666667
-0.409128349552519 0.213654207256107 0.416666666666666
-0.405946629550278 0.23505385180073 0.416666666666667
-0.4109855329654 0.236376560004329 0.416666666666666
-0.414489942628311 0.260437833410202 0.416666666666667
-0.335723976373289 -0.256944444444444 0.377508103381583
-0.338368114452398 -0.256944444444445 0.379140528414353
-0.336007654985336 -0.270833333333333 0.407592200006562
-0.337894851395112 -0.269821876292088 0.416666666666667
-0.337018836606956 -0.255731961321242 0.416666666666666
-0.341565124055483 -0.254899472345326 0.416666666666667
-0.340208915213805 -0.248426421687762 0.416666666666667
-0.343898570860366 -0.234725597400853 0.416666666666667
-0.344823280438139 -0.221808187947718 0.416666666666667
-0.343019357016701 -0.2180545934883 0.416666666666667
-0.344103362642049 -0.207837536144078 0.416666666666667
-0.347888581331188 -0.193843502659594 0.416666666666667
-0.346410662541319 -0.17988600605581 0.416666666666667
-0.346023711597253 -0.178121184945823 0.416666666666667
-0.346192382681596 -0.15311897459198 0.416666666666666
-0.349837882791726 -0.146221513258519 0.416666666666666
-0.353886397909953 -0.138706904855101 0.416666666666667
-0.350501876183604 -0.127852775626058 0.416666666666667
-0.35076798029837 -0.121920865408497 0.416666666666667
-0.35514929989062 -0.108331477294235 0.416666666666667
-0.357620792006069 -0.0980604271614896 0.416666666666667
-0.356928384645335 -0.0841045161829984 0.416666666666667
-0.361283481609683 -0.0809990262313535 0.416666666666667
-0.360772622376496 -0.0717319244455482 0.416666666666667
-0.361438973917007 -0.0483003267423357 0.416666666666667
-0.363733560972663 -0.0376328153307218 0.416666666666667
-0.370808453266253 -0.0331853276199881 0.416666666666667
-0.368302783713407 -0.0241471460175126 0.416666666666667
-0.367971649122585 -0.00741273148460814 0.416666666666666
-0.369225057222042 -0.0020476044815765 0.416666666666667
-0.36765545318828 0.0187208665709083 0.416666666666667
-0.37205282663554 0.0335102482885711 0.416666666666666
-0.371506480589201 0.0374098296662712 0.416666666666667
-0.373453778859628 0.0496849817526315 0.416666666666667
-0.375515281826179 0.060010481537992 0.416666666666667
-0.378532370798125 0.0751363537827699 0.416666666666667
-0.382977952885303 0.0847879761389087 0.416666666666667
-0.379664611776586 0.104205911862219 0.416666666666667
-0.388524223793845 0.11771882906343 0.416666666666667
-0.381651331492516 0.119908767375281 0.416666666666667
-0.382010653989317 0.1271075220989 0.416666666666667
-0.392326419867269 0.152975101488662 0.416666666666667
-0.386569233053209 0.162203023957175 0.416666666666667
-0.388244655429878 0.175711124264925 0.416666666666667
-0.392082269576704 0.188594875043534 0.416666666666667
-0.393833920805341 0.205757050245252 0.416666666666667
-0.392748630194868 0.208062119189258 0.416666666666667
-0.395263975941367 0.239121619881795 0.416666666666667
-0.404821655037875 0.245039434688816 0.416666666666666
-0.401651521018229 0.25671952418084 0.416666666666667
-0.399146794119966 0.267463132478539 0.416666666666667
-0.325124975838878 -0.256944444444444 0.382212660053737
-0.330173338313494 -0.270833333333333 0.409599045213241
-0.329458143983003 -0.268380296866166 0.416666666666667
-0.326326764010239 -0.258486396526 0.416666666666667
-0.330548982997421 -0.257805058022627 0.416666666666667
-0.327331041191769 -0.241113227654276 0.416666666666667
-0.331694357807075 -0.22736306825295 0.416666666666667
-0.336232349096105 -0.224407151956102 0.416666666666667
-0.338287363246527 -0.207328251270303 0.416666666666667
-0.334189569305703 -0.201766715199282 0.416666666666667
-0.337334441403615 -0.200178249915736 0.416666666666667
-0.343389969914854 -0.180491849515925 0.416666666666667
-0.334782664144457 -0.171899905041286 0.416666666666666
-0.34437272794485 -0.163932066645181 0.416666666666667
-0.343225381476106 -0.147278956289485 0.416666666666667
-0.347702133907739 -0.143594046540316 0.416666666666667
-0.340805876843927 -0.127266996438217 0.416666666666667
-0.344652566819544 -0.121617222966709 0.416666666666666
-0.345439743819546 -0.11150233460151 0.416666666666667
-0.346734309114201 -0.098899223731728 0.416666666666667
-0.347097316004508 -0.0798056655863952 0.416666666666667
-0.351297801687804 -0.0744722061686571 0.416666666666667
-0.349284061243237 -0.0593515581841592 0.416666666666667
-0.351528780606201 -0.0566179058869076 0.416666666666667
-0.356900480351785 -0.0394449439111896 0.416666666666667
-0.356053809230395 -0.0301014375900775 0.416666666666666
-0.353511052684651 -0.0234804966385386 0.416666666666667
-0.358354289805253 -0.0126232221097231 0.416666666666667
-0.356682821414115 0.00743158287464878 0.416666666666667
-0.366504549474077 0.0244675618672199 0.416666666666667
-0.362085777386716 0.0246292787981547 0.416666666666667
-0.365424988410817 0.040542844636901 0.416666666666667
-0.36597436742467 0.0545447184867686 0.416666666666667
-0.364914243833059 0.0639557450357551 0.416666666666667
-0.370636536661782 0.0713146459620253 0.416666666666667
-0.3700584245237 0.0906161430983359 0.416666666666667
-0.36801324059499 0.0935744116018494 0.416666666666667
-0.36899836653631 0.117977652523474 0.416666666666667
-0.372846826603211 0.129058711199576 0.416666666666667
-0.379737359023757 0.147801977255136 0.416666666666667
-0.379202507542315 0.161144735649683 0.416666666666667
-0.38390611370178 0.160081090629949 0.416666666666667
-0.38239632974525 0.177262928291856 0.416666666666667
-0.386124546758241 0.189021421674014 0.416666666666666
-0.388412084781823 0.194150441201742 0.416666666666666
-0.386580755313298 0.218966059116698 0.416666666666667
-0.386199896456828 0.231865871961385 0.416666666666667
-0.390928421538683 0.245700128382923 0.416666666666667
-0.387933838246526 0.263893696536513 0.416666666666667
-0.323934766300961 -0.256944444444445 0.380771287221292
-0.320649173163733 -0.256944444444445 0.387029999369023
-0.320947731089126 -0.270833333333333 0.4126756301113
-0.321850096778126 -0.270833333333333 0.415646814658734
-0.316173666889632 -0.269546300302194 0.416666666666667
-0.316890281021601 -0.247508080015583 0.416666666666667
-0.317792592963515 -0.240789470138434 0.416666666666667
-0.324665003681252 -0.235411891129533 0.416666666666667
-0.326673555236506 -0.22763999576376 0.416666666666667
-0.322536539144348 -0.208491798764723 0.416666666666667
-0.326508861759502 -0.198745409797851 0.416666666666667
-0.325289975996476 -0.188704891075991 0.416666666666667
-0.325217994106479 -0.186199677395316 0.416666666666666
-0.32667542006869 -0.163297745023117 0.416666666666667
-0.334468962365375 -0.156650379513442 0.416666666666667
-0.331037727253633 -0.151104305750621 0.416666666666667
-0.328874592065545 -0.135660291455692 0.416666666666667
-0.335713798314783 -0.122932129478204 0.416666666666667
-0.337609144260752 -0.119069586857497 0.416666666666667
-0.332997929766657 -0.111027998927595 0.416666666666666
-0.34111734951221 -0.100256130244975 0.416666666666667
-0.340570800693551 -0.0843316344136393 0.416666666666667
-0.345425878031246 -0.0786102446183065 0.416666666666667
-0.343012529531385 -0.0564834343920354 0.416666666666667
-0.34647611780668 -0.0445215176616617 0.416666666666667
-0.345479892349809 -0.0369808982145867 0.416666666666667
-0.350078073913449 -0.0305009215902964 0.416666666666667
-0.346410920366838 -0.0223797798638959 0.416666666666667
-0.344798052549639 -0.00968195639595543 0.416666666666667
-0.349231917110126 0.00172014227784733 0.416666666666666
-0.352646250371124 0.0166661337368949 0.416666666666667
-0.357078269773208 0.027410532671957 0.416666666666667
-0.350513231221882 0.0354966786438272 0.416666666666667
-0.353793249064805 0.0560066914139453 0.416666666666667
-0.352577842833799 0.0533865659959589 0.416666666666667
-0.361206238270807 0.081628755343946 0.416666666666667
-0.364023768084443 0.0828628679406607 0.416666666666667
-0.364465430889131 0.0988761830896635 0.416666666666667
-0.36220921500666 0.106726118467474 0.416666666666667
-0.362961348507425 0.126689899426264 0.416666666666666
-0.369166589105667 0.134818401336861 0.416666666666667
-0.372157112745285 0.159136663868227 0.416666666666667
-0.366088561611987 0.167539417503944 0.416666666666667
-0.365096263611745 0.176593979602623 0.416666666666667
-0.369979815948104 0.188911556046835 0.416666666666667
-0.372358680892404 0.206704186358333 0.416666666666667
-0.380227975504158 0.215611969175258 0.416666666666666
-0.378949931717929 0.227042657475165 0.416666666666667
-0.375548176971238 0.244796238345264 0.416666666666667
-0.376642774689075 0.253411570882337 0.416666666666667
-0.311365631522238 -0.256944444444444 0.379191087148194
-0.309445166130661 -0.256944444444445 0.386165911395237
-0.305860328995101 -0.270833333333333 0.406404068705405
-0.313835121559083 -0.270833333333333 0.416275150901505
-0.308585154450128 -0.26019306844828 0.416666666666667
-0.312561164977873 -0.254594254946309 0.416666666666667
-0.314393547648507 -0.244099674425884 0.416666666666667
-0.316494698616556 -0.236605206476247 0.416666666666667
-0.31444160076017 -0.223037243225603 0.416666666666667
-0.317076440443364 -0.205966360428972 0.416666666666667
-0.31581050009883 -0.20128752010884 0.416666666666667
-0.314632863997015 -0.197150679799304 0.416666666666666
-0.319375323768913 -0.183628496722446 0.416666666666667
-0.317224990164669 -0.169578345434766 0.416666666666666
-0.323096638168894 -0.169536295013813 0.416666666666666
-0.323550889481251 -0.155018928753713 0.416666666666667
-0.321618941847504 -0.140729654613328 0.416666666666666
-0.326592750054575 -0.122810486661943 0.416666666666667
-0.32616072770893 -0.112653626834038 0.416666666666667
-0.33224838853225 -0.105828763106904 0.416666666666667
-0.33038037894646 -0.0986080227789796 0.416666666666666
-0.333698428112028 -0.0941021997791755 0.416666666666667
-0.32867435602583 -0.0853569497368089 0.416666666666666
-0.336972756703476 -0.0651741541052176 0.416666666666666
-0.334159863582875 -0.0500754952533956 0.416666666666667
-0.331209093467907 -0.0405584343668468 0.416666666666667
-0.339671677082837 -0.0313438178088908 0.416666666666667
-0.334376125089214 -0.0285026922418647 0.416666666666667
-0.338816259694022 -0.00626888966088921 0.416666666666666
-0.34000397279819 0.00713675908033497 0.416666666666667
-0.34654632064722 0.0145418320226318 0.416666666666666
-0.339408147502852 0.0291711480213553 0.416666666666666
-0.346718877372011 0.0367226521024911 0.416666666666667
-0.348737082380771 0.0418368815268463 0.416666666666666
-0.351447364343445 0.0601486104499684 0.416666666666667
-0.347259877138847 0.076063461304613 0.416666666666666
-0.354127007094728 0.080646497675904 0.416666666666667
-0.350939621235766 0.0998753995983016 0.416666666666667
-0.357194891983364 0.117937634783331 0.416666666666666
-0.355504895134404 0.126066032665983 0.416666666666667
-0.349827986164328 0.131769919293558 0.416666666666667
-0.35499777021269 0.149447669870013 0.416666666666667
-0.358961224431305 0.16792445675601 0.416666666666667
-0.358499000650428 0.177351021514339 0.416666666666667
-0.366341814226711 0.197264310528458 0.416666666666667
-0.366355973051943 0.195728400276513 0.416666666666667
-0.362026410858205 0.207547967665163 0.416666666666667
-0.368991262537384 0.231211792965775 0.416666666666667
-0.371110164155966 0.241533340873979 0.416666666666667
-0.366677568483429 0.257556382202027 0.416666666666667
-0.299114240221988 -0.256944444444445 0.37813968863818
-0.304173965147243 -0.270833333333333 0.406245187547544
-0.298263745220514 -0.270833333333333 0.408858957537401
-0.304322297257867 -0.263631206211302 0.416666666666667
-0.299866229353746 -0.25552961853985 0.416666666666667
-0.300693466524818 -0.247457494862214 0.416666666666667
-0.30702378445424 -0.233666636049993 0.416666666666667
-0.30363716634223 -0.213877190653304 0.416666666666667
-0.30923129046974 -0.210352464399147 0.416666666666667
-0.306197123882401 -0.204688332435971 0.416666666666667
-0.312897226839344 -0.1845863548082 0.416666666666667
-0.308143332143669 -0.186555389376454 0.416666666666667
-0.310580433955211 -0.171452706203772 0.416666666666667
-0.31713603097004 -0.159862458674547 0.416666666666667
-0.3125538441498 -0.15215914664968 0.416666666666667
-0.314347155767065 -0.135252545455762 0.416666666666667
-0.317762844438618 -0.128855272619077 0.416666666666667
-0.319217144530993 -0.118222228641286 0.416666666666667
-0.322244546625461 -0.102831545360075 0.416666666666666
-0.319200632583107 -0.103890357901444 0.416666666666667
-0.320949588891913 -0.0925869859177661 0.416666666666666
-0.325679986669461 -0.0784221178395686 0.416666666666667
-0.326394033546141 -0.0736468134195608 0.416666666666667
-0.321907770788519 -0.048535338345978 0.416666666666666
-0.330573572248854 -0.0343050057112902 0.416666666666667
-0.325040824540645 -0.0378000962655639 0.416666666666667
-0.331959482914234 -0.0284894502380571 0.416666666666667
-0.32389004407388 -0.00863743760197143 0.416666666666667
-0.334605479528796 0.00710160847099195 0.416666666666667
-0.332559255579881 0.0129921459022023 0.416666666666667
-0.335726722733944 0.0316659828176683 0.416666666666667
-0.334017575058022 0.0342962501138841 0.416666666666667
-0.334491956192084 0.0498245327167441 0.416666666666667
-0.337064351245682 0.0728848846533835 0.416666666666666
-0.340094329051165 0.0750738444536115 0.416666666666666
-0.335010814391572 0.0862942143405861 0.416666666666667
-0.338972804688193 0.0995996340590834 0.416666666666667
-0.341162137812079 0.110750356121717 0.416666666666667
-0.343333577630686 0.117222110911754 0.416666666666667
-0.347653260483873 0.144132354299369 0.416666666666667
-0.343453232390328 0.146194480935621 0.416666666666667
-0.353073094433806 0.170952428342223 0.416666666666667
-0.349213038366789 0.176358917184941 0.416666666666667
-0.351577728840814 0.186125570280242 0.416666666666667
-0.357039802792806 0.198833964279883 0.416666666666667
-0.352786973623951 0.224663531568626 0.416666666666667
-0.357500892271453 0.229774778288055 0.416666666666667
-0.361425610591393 0.242419978800722 0.416666666666667
-0.357969272120965 0.25753981511709 0.416666666666667
-0.356371794692365 0.268841534215067 0.416666666666667
-0.291779445031933 -0.256944444444445 0.387991871225646
-0.291673830790092 -0.270833333333333 0.411393695244831
-0.295455650929872 -0.270833333333333 0.416503206235812
-0.290137914694072 -0.2638098431081 0.416666666666667
-0.297096300687893 -0.247062358727233 0.416666666666667
-0.298947770724859 -0.234469025631214 0.416666666666667
-0.298942266212823 -0.23363639663827 0.416666666666667
-0.300772134015919 -0.221055856910044 0.416666666666666
-0.29327966663641 -0.211322726707932 0.416666666666667
-0.301115812373543 -0.208103043615197 0.416666666666667
-0.301769353976287 -0.188346809900846 0.416666666666667
-0.303945276185715 -0.179253692349578 0.416666666666667
-0.297818428477081 -0.173633886614976 0.416666666666667
-0.304177840747353 -0.157083682077967 0.416666666666667
-0.300625765935865 -0.145275750519267 0.416666666666667
-0.307021356416637 -0.1348371238567 0.416666666666667
-0.30253234700674 -0.132867171801653 0.416666666666667
-0.310161815644301 -0.118160964807602 0.416666666666667
-0.308326281860347 -0.108416710064439 0.416666666666667
-0.306097774119752 -0.101311446958238 0.416666666666667
-0.306787331496626 -0.0896815912688428 0.416666666666667
-0.309068752414394 -0.0735520542464192 0.416666666666667
-0.310799611856486 -0.0633640840908029 0.416666666666667
-0.316314552612698 -0.0566594219713086 0.416666666666667
-0.319806008112401 -0.0447415087419778 0.416666666666667
-0.321613414375804 -0.0310597653305409 0.416666666666666
-0.319332542190688 -0.0192766677298814 0.416666666666667
-0.316238740650535 -0.00445959771787941 0.416666666666667
-0.325269762590364 0.0101425497939618 0.416666666666667
-0.325909859825942 0.0193045980416755 0.416666666666666
-0.321243043061473 0.0276970584303664 0.416666666666667
-0.327852107735144 0.0384466709585666 0.416666666666667
-0.322875356215177 0.0530164961889795 0.416666666666666
-0.33233374594433 0.0700365627545191 0.416666666666667
-0.332868533551443 0.0793047630913302 0.416666666666667
-0.325646521252398 0.0842960815606416 0.416666666666667
-0.331370738049967 0.108986467524458 0.416666666666667
-0.329708532822237 0.115046109718309 0.416666666666666
-0.337098991062897 0.129330545654078 0.416666666666667
-0.338267281898137 0.141558715049543 0.416666666666667
-0.341309161083561 0.156963472767253 0.416666666666667
-0.334789223278663 0.166231938270691 0.416666666666667
-0.334459444193946 0.179026357159108 0.416666666666667
-0.340496139295807 0.18947316489635 0.416666666666667
-0.340065320507549 0.193647824630837 0.416666666666666
-0.343867424412251 0.218635194566118 0.416666666666667
-0.344935391410238 0.22485019986656 0.416666666666667
-0.341297538329529 0.247492725127518 0.416666666666667
-0.343794651542558 0.254125708613589 0.416666666666667
-0.348643099759585 0.265672333596021 0.416666666666667
-0.281734449707161 -0.256944444444444 0.376358483196663
-0.283293563837395 -0.270833333333333 0.408141662541204
-0.285645587241561 -0.267291562406013 0.416666666666667
-0.28379064171119 -0.264305315594148 0.416666666666667
-0.280428561199824 -0.246198532585747 0.416666666666667
-0.287698213303606 -0.245616947915203 0.416666666666666
-0.283362854379842 -0.22807113350971 0.416666666666667
-0.284369332231256 -0.221781064990123 0.416666666666667
-0.286313052893956 -0.212713640717454 0.416666666666667
-0.288258538637288 -0.195089012860855 0.416666666666666
-0.293168157167182 -0.191863993125086 0.416666666666667
-0.28877252450067 -0.185708197182995 0.416666666666667
-0.291510552206944 -0.173371476163927 0.416666666666666
-0.294178183479991 -0.156364701699412 0.416666666666667
-0.299084726415069 -0.149550754975192 0.416666666666667
-0.292937929416641 -0.142782067065667 0.416666666666667
-0.297281162244926 -0.128621408683104 0.416666666666667
-0.297369994745917 -0.113510166773417 0.416666666666667
-0.301218624777626 -0.112950380176981 0.416666666666666
-0.302493058144023 -0.098210852762948 0.416666666666667
-0.304571798886368 -0.08531602872734 0.416666666666667
-0.301395737467748 -0.0760143058080368 0.416666666666666
-0.307723943527873 -0.0638207906450098 0.416666666666666
-0.30829528339665 -0.0536550391520214 0.416666666666667
-0.301044949417161 -0.0518913614363011 0.416666666666666
-0.303679979442901 -0.0268352688762753 0.416666666666667
-0.3033773920102 -0.0192498712073051 0.416666666666667
-0.307248931071734 -0.00309376180598254 0.416666666666667
-0.31282114718354 0.0102423187033228 0.416666666666667
-0.313346345117236 0.0208766951019452 0.416666666666667
-0.317126440197453 0.0291551343718086 0.416666666666667
-0.319382691403681 0.0374352675109748 0.416666666666667
-0.313339788328533 0.0507357259641663 0.416666666666667
-0.311883263475034 0.0648556658651549 0.416666666666667
-0.315494984734676 0.0758431268751462 0.416666666666667
-0.321358879753347 0.0852942781900548 0.416666666666666
-0.318592018941575 0.109281985221531 0.416666666666667
-0.325646656468676 0.114570324813148 0.416666666666667
-0.320741403743676 0.124088313882476 0.416666666666667
-0.326222331153512 0.142239868791296 0.416666666666667
-0.328626203846768 0.14183684412954 0.416666666666667
-0.326631896301364 0.164536327642177 0.416666666666667
-0.329877960006678 0.177507613567514 0.416666666666667
-0.334132380879285 0.18869674506672 0.416666666666667
-0.326540518969888 0.196113112456626 0.416666666666667
-0.335716120114594 0.206673866805212 0.416666666666667
-0.337569479991019 0.229046944936123 0.416666666666667
-0.332898553597812 0.238405359511321 0.416666666666667
-0.33482649427081 0.248351978192006 0.416666666666667
-0.335042822253807 0.263289035987755 0.416666666666667
-0.274023887472061 -0.256944444444444 0.381955486905544
-0.273453737974557 -0.270833333333333 0.413647595019005
-0.275324331227918 -0.268814638468097 0.416666666666667
-0.277551301880469 -0.262125665372318 0.416666666666667
-0.271226578400957 -0.255067104605472 0.416666666666667
-0.272382150390932 -0.241299920383167 0.416666666666667
-0.2734087094037 -0.232877006125902 0.416666666666667
-0.276650718064221 -0.223746731990635 0.416666666666667
-0.281489795245142 -0.203981990676965 0.416666666666667
-0.284246433463426 -0.200847679787529 0.416666666666667
-0.285294879520178 -0.188242664639851 0.416666666666667
-0.285404906593167 -0.17748092764587 0.416666666666667
-0.285803930300723 -0.167518127052443 0.416666666666666
-0.281780193015323 -0.165388032830838 0.416666666666667
-0.289071694267003 -0.147033347651003 0.416666666666667
-0.288580498112749 -0.134827340360701 0.416666666666667
-0.28426019251582 -0.128741234135233 0.416666666666667
-0.288872326959793 -0.115754258148628 0.416666666666667
-0.285406948216408 -0.105001489418829 0.416666666666667
-0.289382957682659 -0.0972649297754667 0.416666666666667
-0.294335576954889 -0.0837210963415099 0.416666666666667
-0.289350053908626 -0.072291409021919 0.416666666666666
-0.295376383453877 -0.0639613779356 0.416666666666667
-0.294925284222722 -0.0523998889836032 0.416666666666667
-0.296689922288239 -0.0403551889346165 0.416666666666667
-0.292074821385002 -0.0320727621326179 0.416666666666666
-0.301334939742644 -0.0188879467706316 0.416666666666667
-0.297974538623794 -0.00637950372523111 0.416666666666667
-0.3020638909274 -0.00265116684813596 0.416666666666667
-0.300913322437055 0.0191633416602698 0.416666666666667
-0.303588936534984 0.0361964964732299 0.416666666666667
-0.300618043784008 0.0305759538876618 0.416666666666666
-0.306830928280244 0.0481647666276163 0.416666666666667
-0.302337515917155 0.0639292750541255 0.416666666666667
-0.308786422491747 0.0747987156137777 0.416666666666667
-0.310364991831542 0.0846211053055664 0.416666666666667
-0.312948834524286 0.0960388163014203 0.416666666666667
-0.312413215867624 0.109834099450151 0.416666666666667
-0.311616328206533 0.136397544572836 0.416666666666667
-0.311279213613855 0.13864077710448 0.416666666666666
-0.318421060004454 0.146991463124683 0.416666666666667
-0.321365227540772 0.166426996500474 0.416666666666667
-0.313577743673295 0.171782921034067 0.416666666666666
-0.318853434049022 0.190746921318326 0.416666666666667
-0.322241171274971 0.206743168431202 0.416666666666667
-0.320685158919649 0.219395000928224 0.416666666666667
-0.31912818117825 0.226831336359818 0.416666666666667
-0.319759863983488 0.250128321017606 0.416666666666666
-0.330520817752035 0.261365986757391 0.416666666666667
-0.332375540658294 0.265720782147174 0.416666666666667
-0.26114151255837 -0.256944444444444 0.379647285391714
-0.259692451348964 -0.270833333333333 0.404958833000047
-0.259505548475134 -0.270833333333333 0.410879549670666
-0.266784420614618 -0.263489963871971 0.416666666666667
-0.26365760309466 -0.253440501930675 0.416666666666667
-0.262346137831259 -0.247579724120155 0.416666666666667
-0.269581487765763 -0.231529903750773 0.416666666666667
-0.264386079855812 -0.22040218190297 0.416666666666667
-0.269792442321391 -0.211298327145013 0.416666666666667
-0.268138258132797 -0.203284740737693 0.416666666666667
-0.270501349728522 -0.182986395280165 0.416666666666667
-0.272138418593496 -0.17990255106476 0.416666666666667
-0.274221369252535 -0.175447650514464 0.416666666666667
-0.278157748092052 -0.164394178795161 0.416666666666667
-0.271267790968044 -0.146200561267952 0.416666666666667
-0.27579488653534 -0.14593790097724 0.416666666666667
-0.277105716420705 -0.124584575423095 0.416666666666667
-0.279144812097309 -0.123872942854657 0.416666666666666
-0.277662132590362 -0.106789392015787 0.416666666666667
-0.279014537688213 -0.1059580436822 0.416666666666666
-0.27808708162613 -0.0836853120886483 0.416666666666666
-0.282144583525102 -0.077640737586923 0.416666666666667
-0.28449475023445 -0.0596213419959141 0.416666666666666
-0.281665743232406 -0.0548092960839138 0.416666666666667
-0.282721259752894 -0.0431834159335178 0.416666666666667
-0.289145447865586 -0.0233264763227668 0.416666666666667
-0.290728646170798 -0.0150411839671757 0.416666666666667
-0.284312275497484 -0.0118185809615369 0.416666666666667
-0.290147131763737 -0.000776795741586426 0.416666666666667
-0.295407951235707 0.0186767220015361 0.416666666666667
-0.296023322070038 0.0357654192453719 0.416666666666667
-0.28882376650434 0.04062822676707 0.416666666666666
-0.29374998821827 0.0586390504781719 0.416666666666667
-0.290484001286941 0.0525955189435848 0.416666666666667
-0.302175046086452 0.0689257931649374 0.416666666666667
-0.302619788884522 0.0951390156388156 0.416666666666667
-0.299898690792501 0.0937419373612296 0.416666666666667
-0.303762845536275 0.11585767296375 0.416666666666667
-0.302267566840677 0.125032929202889 0.416666666666667
-0.304282165899817 0.137951066127102 0.416666666666666
-0.307937745653123 0.151498674864231 0.416666666666667
-0.306509790787103 0.162194074649287 0.416666666666667
-0.302324697823664 0.176367259546732 0.416666666666667
-0.305662320231108 0.199207209622106 0.416666666666667
-0.304844831900458 0.206786261462322 0.416666666666667
-0.316026343272478 0.222430515098226 0.416666666666667
-0.310115385784377 0.22610119779055 0.416666666666667
-0.318705371193411 0.2444022174396 0.416666666666667
-0.315972522702474 0.258835427734119 0.416666666666667
-0.257248785523865 -0.256944444444444 0.380426469864754
-0.254826034061905 -0.256944444444445 0.385542424129853
-0.25549854533424 -0.270833333333334 0.410136959225928
-0.251837167949311 -0.270833333333334 0.412007198990527
-0.255578986489883 -0.257665762129061 0.416666666666667
-0.259354908959533 -0.2508788514721 0.416666666666666
-0.257374515551195 -0.239515724468631 0.416666666666667
-0.260327135713033 -0.236466091051288 0.416666666666667
-0.259498979053768 -0.222974392200405 0.416666666666667
-0.259983417316305 -0.213683561561179 0.416666666666667
-0.264455969766838 -0.193587995613018 0.416666666666667
-0.264828764734015 -0.189490247170483 0.416666666666667
-0.259729254667902 -0.183456221652835 0.416666666666666
-0.267979214678444 -0.175585455412354 0.416666666666667
-0.263784485755619 -0.159647775951911 0.416666666666667
-0.269613015012196 -0.148080700817229 0.416666666666667
-0.262139597729382 -0.140718152035715 0.416666666666667
-0.270913459226647 -0.134406783005625 0.416666666666667
-0.268539446953447 -0.119797665642594 0.416666666666667
-0.271963314066697 -0.102819025581204 0.416666666666667
-0.26599719383844 -0.105130004096742 0.416666666666667
-0.267624754929667 -0.0841946068388684 0.416666666666667
-0.272044300749602 -0.0679645900380859 0.416666666666667
-0.278732379229023 -0.0602228408628131 0.416666666666667
-0.279357966677788 -0.0544223388399112 0.416666666666666
-0.277728358171781 -0.042288214715381 0.416666666666667
-0.27650132342053 -0.0297406333257766 0.416666666666666
-0.275640561455429 -0.0178083872184894 0.416666666666667
-0.280919476556194 -0.00546034948756044 0.416666666666667
-0.282611857164664 0.0137740470859982 0.416666666666667
-0.283227861934063 0.00605150723988702 0.416666666666667
-0.286962071569258 0.0226303350466454 0.416666666666667
-0.287947980753287 0.0353715166523136 0.416666666666667
-0.285267057951457 0.0489318421044848 0.416666666666667
-0.287489694598061 0.0672140407076266 0.416666666666667
-0.283782112059569 0.0750958642989139 0.416666666666667
-0.284886825917159 0.0790754468474278 0.416666666666667
-0.29350757771517 0.0982337698721476 0.416666666666667
-0.295182568904125 0.108687101009701 0.416666666666667
-0.293114092711284 0.12113045316795 0.416666666666667
-0.290189539664404 0.132669910366591 0.416666666666667
-0.288155138418844 0.148123008570525 0.416666666666666
-0.289750126849426 0.162445695323906 0.416666666666667
-0.297206425883638 0.170315098957711 0.416666666666667
-0.293843902379908 0.186094985646012 0.416666666666667
-0.296453221792242 0.196969015809814 0.416666666666667
-0.304218100987277 0.210218550371919 0.416666666666667
-0.296959778756022 0.231012630001268 0.416666666666667
-0.298752517203615 0.240918072007057 0.416666666666667
-0.304098551626924 0.257986613724374 0.416666666666667
-0.305769337070818 0.264218023054559 0.416666666666666
-0.246270449632215 -0.256944444444444 0.386123279453862
-0.241755321139685 -0.270833333333333 0.40573529895085
-0.245982619561703 -0.270833333333333 0.415627627892923
-0.243292759628861 -0.261985218053046 0.416666666666667
-0.244900210802925 -0.25200809955888 0.416666666666667
-0.24793316517944 -0.246331690426311 0.416666666666666
-0.250517082352897 -0.235437944882745 0.416666666666667
-0.252018422433024 -0.226703196869597 0.416666666666666
-0.250402530925674 -0.212081616723613 0.416666666666666
-0.248580486968692 -0.196250981659725 0.416666666666667
-0.255812930396339 -0.186320051823044 0.416666666666666
-0.255691677305553 -0.181683882022926 0.416666666666667
-0.253041928820662 -0.168373053192098 0.416666666666667
-0.250887338632306 -0.160038294305324 0.416666666666667
-0.256061484590456 -0.144578247080036 0.416666666666667
-0.253550772433185 -0.147631390923951 0.416666666666667
-0.259841814989251 -0.126857246359451 0.416666666666667
-0.263567875246467 -0.119407891337027 0.416666666666667
-0.261492620056873 -0.105311828354654 0.416666666666667
-0.256348432345661 -0.100938340769519 0.416666666666667
-0.261272243082797 -0.0902426127743585 0.416666666666667
-0.259985285982088 -0.0719787254211757 0.416666666666667
-0.267964985621341 -0.0710523891180507 0.416666666666667
-0.266788138723576 -0.0568693863471976 0.416666666666667
-0.268924330442584 -0.0358122863507469 0.416666666666667
-0.263262191296325 -0.025642764684709 0.416666666666667
-0.268519081307995 -0.0159717815572915 0.416666666666667
-0.266541257104048 -0.00127620836472779 0.416666666666667
-0.268491542686125 0.0106093666854919 0.416666666666667
-0.267451249433075 0.0253546794404191 0.416666666666667
-0.272574657050415 0.0334908325338776 0.416666666666667
-0.273242698723645 0.0349273224023083 0.416666666666667
-0.270095963383754 0.0506401638781087 0.416666666666667
-0.279348395008238 0.0637904087433253 0.416666666666667
-0.280715433270991 0.0746299579295697 0.416666666666667
-0.280273848748849 0.0957469281346675 0.416666666666667
-0.28361068720336 0.0998202254219705 0.416666666666667
-0.283210712591204 0.118981805265811 0.416666666666667
-0.28309098377616 0.119545889232301 0.416666666666667
-0.286231160112055 0.136277310878669 0.416666666666667
-0.282793732258679 0.152195523873293 0.416666666666667
-0.288481804987035 0.153766066664717 0.416666666666667
-0.285940287609515 0.181660101689771 0.416666666666667
-0.287063098719285 0.187495082896725 0.416666666666667
-0.286329175434452 0.20183969472638 0.416666666666667
