ply
format ascii 1.0
element vertex 871
property float x
property float y
property float z
end_header
0.232040146135141 0.440516285446478 0.626380641003751
0.194967721698221 -0.220332781240251 0.212566661942737
0.191981365730025 -0.217346425272054 0.225081496863386
0.193578932170294 -0.218943991712323 0.228208754101886
0.192975182287329 -0.218340241829359 0.230951087212235
0.191360409696899 -0.216725469238928 0.243716849678483
0.196583736105624 -0.221948795647655 0.258729195629261
0.192796248973436 -0.218161308515466 0.273546055023627
0.19127316569127 -0.2166382252333 0.27449113655692
0.197423667651675 -0.222788727193705 0.283801127861988
0.193850650792299 -0.219215710334328 0.29367949931968
0.191363583541636 -0.216728643083666 0.29706019996608
0.191266514201157 -0.216631573743187 0.308367196396988
0.19778713437207 -0.223152193914099 0.323994247022377
0.194101958501038 -0.219467018043068 0.331122234423082
0.19270223146889 -0.21806729101092 0.344710444536087
0.192017966982357 -0.217383026524387 0.350408053462251
0.191038040260835 -0.216403099802866 0.360068052073518
0.192636207750504 -0.218001267292533 0.368870466308877
0.174810419200994 -0.47079777955159 0.613674018208388
0.180824977350642 -0.469186183552562 0.618810965964252
0.174678371829661 -0.465719492212097 0.627609537160785
0.174666235330517 -0.459989671608479 0.630378398589863
0.182022112024041 -0.456903062843392 0.630917195659933
0.1783300248064 -0.453317024328559 0.633126910511757
0.182262286239985 -0.435276977141565 0.63564637619895
0.18330716208464 -0.427900835692613 0.63564637619895
0.177119444149146 -0.412793139721489 0.63564637619895
0.183365013215072 -0.406874527022312 0.63564637619895
0.179189374635475 -0.407373095063198 0.63564637619895
0.179825536960971 -0.390873467701366 0.63564637619895
0.186009929899442 -0.383181237423563 0.63564637619895
0.18293013561965 -0.36874577345193 0.63564637619895
0.188430126156657 -0.36934123312485 0.63564637619895
0.181613840805621 -0.355028843685627 0.63564637619895
0.181882345596656 -0.350473585794973 0.63564637619895
0.18964383768326 -0.331772148192159 0.63564637619895
0.186159072001394 -0.319555127768921 0.63564637619895
0.186161891488425 -0.307282175533335 0.63564637619895
0.184495725083911 -0.298262273038233 0.63564637619895
0.191840444291626 -0.287115166365843 0.63564637619895
0.187403322140323 -0.273667356016724 0.63564637619895
0.186417273815722 -0.27430678850876 0.63564637619895
0.191980489705953 -0.254055998649077 0.63564637619895
0.196060527413167 -0.254769550140559 0.63564637619895
0.192686828426683 -0.246419653578566 0.63564637619895
0.193412276741482 -0.225381594929596 0.63564637619895
0.197656892377057 -0.226427485577336 0.63564637619895
0.193422525431191 -0.206714310030943 0.63564637619895
0.195368655239814 -0.192986611624684 0.63564637619895
0.199136265607709 -0.180483770103312 0.63564637619895
0.201984505910123 -0.172770811474442 0.63564637619895
0.202368578579355 -0.164980045300551 0.63564637619895
0.203644294611754 -0.159583892280162 0.63564637619895
0.200268667625359 -0.140447298312672 0.63564637619895
0.204898325153125 -0.131581675852562 0.63564637619895
0.206489072861957 -0.114618191153906 0.63564637619895
0.205682545363492 -0.112966963171773 0.63564637619895
0.207461449477209 -0.0877732606389702 0.63564637619895
0.201359110816227 -0.0867921704934404 0.63564637619895
0.200807353681751 -0.0734330538361047 0.63564637619895
0.201588238428202 -0.0518865347051276 0.63564637619895
0.210774957737229 -0.0423349353837885 0.63564637619895
0.205171629793235 -0.0318019419998386 0.63564637619895
0.21052607891324 -0.0232213547501127 0.63564637619895
0.205526656139322 -0.0050224423496605 0.63564637619895
0.208370960300293 0.000662281822195236 0.63564637619895
0.214672362018088 0.0271255156134738 0.63564637619895
0.215356679786923 0.0336025389444691 0.63564637619895
0.21693374483543 0.0493352980994421 0.63564637619895
0.213695228245933 0.0549749187712004 0.63564637619895
0.217952640999968 0.0631002872441909 0.63564637619895
0.211525861139361 0.0852401204884621 0.63564637619895
0.221037713509296 0.0913314281814486 0.63564637619895
0.222542849331633 0.116270461745036 0.63564637619895
0.217025256735492 0.124736797250757 0.63564637619895
0.215071678837772 0.130231867110661 0.63564637619895
0.224565963621028 0.151024523773465 0.63564637619895
0.22627914928304 0.163755222026732 0.63564637619895
0.22687291987632 0.180193557324668 0.63564637619895
0.225233669957805 0.190661900096297 0.63564637619895
0.2212168304809 0.211354441692502 0.63564637619895
0.22917181478387 0.222926467706555 0.63564637619895
0.223429086302517 0.234737695764134 0.63564637619895
0.225232111258399 0.250675803702503 0.63564637619895
0.233075117617997 0.257690525712359 0.63564637619895
0.231561832787411 0.292399937612641 0.63564637619895
0.225712447830498 0.300463817181391 0.63564637619895
0.232431985254575 0.317557040197652 0.63564637619895
0.235379059945548 0.335571784830384 0.63564637619895
0.233478897657206 0.345232458760928 0.63564637619895
0.233050377223781 0.357088331124939 0.63564637619895
0.241818314744536 0.374471811020432 0.63564637619895
0.241637688141296 0.402695989124583 0.63564637619895
0.239651881942162 0.398017192539296 0.63564637619895
0.201916363666745 -0.227281423208774 0.21293216430178
0.2035907811386 -0.22895584068063 0.226715890119403
0.203684086965062 -0.229049146507092 0.242497338059809
0.201027802991126 -0.226392862533156 0.245892941325091
0.199514468271266 -0.224879527813296 0.247176087527295
0.20009636545604 -0.22546142499807 0.25802845995588
0.201877764013284 -0.227242823555314 0.273668340983346
0.205601788685951 -0.230966848227981 0.289046079836738
0.207107671991075 -0.232472731533105 0.299227500063234
0.20714809838842 -0.23251315793045 0.31260165537028
0.199763015811394 -0.225128075353424 0.308608449850571
0.203303934524396 -0.228668994066425 0.320245374001955
0.206692099063366 -0.232057158605396 0.330296324843614
0.205509440256946 -0.230874499798975 0.336799025454481
0.20259512528546 -0.22796018482749 0.342090402242022
0.204000566409024 -0.229365625951053 0.353589938713585
0.201918451609364 -0.227283511151394 0.363343352271581
0.20377377719416 -0.22913883673619 0.376071287237663
0.204163087831335 -0.229528147373364 0.380475646077047
0.185240693914117 -0.468002995865375 0.616973558694584
0.189514228674176 -0.466172206355095 0.625470991868573
0.184376904507085 -0.459147459881393 0.629528502557268
0.18674713178078 -0.454149500987236 0.63163560136474
0.188968732950018 -0.444046003603521 0.635620081503933
0.188380673961492 -0.443827118162735 0.63564637619895
0.188421147138882 -0.435670783519269 0.63564637619895
0.193332565036405 -0.417755401031028 0.63564637619895
0.190852331574606 -0.412800328604481 0.63564637619895
0.194245864878465 -0.403428977565077 0.63564637619895
0.191945378443786 -0.395290768863293 0.63564637619895
0.188395004473426 -0.384618806258199 0.63564637619895
0.193255021336561 -0.375834361887228 0.63564637619895
0.189171081599816 -0.363988247516259 0.63564637619895
0.197906481142957 -0.350277869288331 0.63564637619895
0.191789030771491 -0.346801379744879 0.63564637619895
0.195264121002461 -0.331460222109905 0.63564637619895
0.195460809314087 -0.330706992890229 0.63564637619895
0.195647182714662 -0.310223632029157 0.63564637619895
0.194931794179647 -0.297743543765444 0.63564637619895
0.194658862512924 -0.286401427687948 0.63564637619895
0.198856862731247 -0.281375073098649 0.63564637619895
0.201053999323942 -0.278046858390767 0.63564637619895
0.197707066924001 -0.267322192702954 0.63564637619895
0.201277841078679 -0.245964154125228 0.63564637619895
0.199135209603188 -0.24362481715492 0.63564637619895
0.205453957283002 -0.222610222336715 0.63564637619895
0.202349137005229 -0.223050384617323 0.63564637619895
0.205673092992465 -0.21308291455746 0.63564637619895
0.207256698520799 -0.201006886202748 0.63564637619895
0.206054936976907 -0.18715911546532 0.63564637619895
0.209553212319291 -0.177863024692593 0.63564637619895
0.212493972963544 -0.159257819748602 0.63564637619895
0.212974341176869 -0.155488581512862 0.63564637619895
0.210939032021078 -0.137348721530953 0.63564637619895
0.213229506330524 -0.1229675644204 0.63564637619895
0.215285744865142 -0.119674358722891 0.63564637619895
0.215929597543247 -0.105502165203419 0.63564637619895
0.210956204270908 -0.0911840694754432 0.63564637619895
0.216205323226342 -0.0731555761902856 0.63564637619895
0.216168894118504 -0.06895791037758 0.63564637619895
0.212253692880112 -0.0592721392131272 0.63564637619895
0.213462906794953 -0.041414070528128 0.63564637619895
0.219325916033686 -0.0288355641538497 0.63564637619895
0.214986633190079 -0.0250377900390322 0.63564637619895
0.219672298577473 -0.0013830494049087 0.63564637619895
0.216349596799656 -0.00322713217922342 0.63564637619895
0.223994522167748 0.0154008406091676 0.63564637619895
0.217749600177513 0.0357054276120741 0.63564637619895
0.225611425815559 0.0412584906342021 0.63564637619895
0.222925252254823 0.0615995656637803 0.63564637619895
0.22533466873719 0.06997367341832 0.63564637619895
0.226883076369521 0.0823306864358408 0.63564637619895
0.225240522005642 0.0908783036509979 0.63564637619895
0.229266105143012 0.119055901456145 0.63564637619895
0.232905832959734 0.11787281293786 0.63564637619895
0.232126954282664 0.137403915619871 0.63564637619895
0.227234124638384 0.15426546617458 0.63564637619895
0.234187920596381 0.156339781545076 0.63564637619895
0.234263533324343 0.17345800889729 0.63564637619895
0.23360217072882 0.200461424279357 0.63564637619895
0.240011604138106 0.210484243892199 0.63564637619895
0.231529938433428 0.224530565105456 0.63564637619895
0.239933024551117 0.245582681330411 0.63564637619895
0.234726840415845 0.248276611894175 0.63564637619895
0.245628131808484 0.276054231839588 0.63564637619895
0.243285362639229 0.276735626543394 0.63564637619895
0.240956846684225 0.29873735308936 0.63564637619895
0.240793877439009 0.313839534999134 0.63564637619895
0.247216816144207 0.324641937362866 0.63564637619895
0.246029852316809 0.350922608376435 0.63564637619895
0.24094331233809 0.350562887339556 0.63564637619895
0.243740334876444 0.380887912858623 0.63564637619895
0.244885022059188 0.394700243533603 0.63564637619895
0.244410580173109 0.410933927538564 0.63564637619895
0.215296839283562 -0.240661898825592 0.230535232594863
0.215321249035865 -0.240686308577895 0.238001800353203
0.210983616567222 -0.236348676109252 0.246145363529346
0.213792497551307 -0.239157557093337 0.25350755616297
0.210474976029348 -0.235840035571378 0.266546403604916
0.213306977142259 -0.238672036684288 0.275154530347437
0.211485382930043 -0.236850442472072 0.28682052260512
0.213726013153853 -0.239091072695883 0.296044111250178
0.208902586232037 -0.234267645774066 0.302628532605381
0.207644460510808 -0.233009520052836 0.309446129904371
0.209510880536578 -0.234875940078608 0.322220950860648
0.212925257778189 -0.238290317320219 0.328895898875088
0.210893062791024 -0.236258122333053 0.33605619913059
0.208728485894597 -0.234093545436626 0.346925825322787
0.209651526322175 -0.235016585864205 0.35471202845972
0.210878426060514 -0.236243485602543 0.364969379359867
0.212381638305293 -0.237746697847323 0.370332976921739
0.211841048712369 -0.237206108254399 0.386918806001394
0.215477833410956 -0.240842892952985 0.393269142937196
0.19423149287157 -0.465210664495121 0.620351150626754
0.197857829951043 -0.459687573973566 0.626624808605906
0.194970673610381 -0.45841066383864 0.62789951599867
0.198448316743757 -0.453766397661353 0.629041131461059
0.199964762965945 -0.442627227107416 0.633485422243911
0.198295912454112 -0.443766218402561 0.633409437173727
0.193423854324228 -0.428254911558341 0.63564637619895
0.194342415892022 -0.42188216141231 0.63564637619895
0.196525029781037 -0.413217564987213 0.63564637619895
0.196121685272087 -0.404032610878022 0.63564637619895
0.197082411376656 -0.391397507976959 0.63564637619895
0.202720206433078 -0.376992064822746 0.63564637619895
0.200567888489909 -0.372217806152715 0.63564637619895
0.199875564727098 -0.371625603336157 0.63564637619895
0.200855867539161 -0.354292386613462 0.63564637619895
0.204291790240929 -0.341741526396537 0.63564637619895
0.204956079183174 -0.338965326619726 0.63564637619895
0.205898731151665 -0.324046453782723 0.63564637619895
0.203740906987882 -0.322074520176856 0.63564637619895
0.20967646945377 -0.30921383569022 0.63564637619895
0.209850446696834 -0.291418123592449 0.63564637619895
0.204438851205926 -0.283853219277849 0.63564637619895
0.205694505295251 -0.269721381545268 0.63564637619895
0.208555899838002 -0.26534944235342 0.63564637619895
0.215200770049501 -0.248686709395827 0.63564637619895
0.213509557676756 -0.234744802997265 0.63564637619895
0.214997597282441 -0.231172042562162 0.63564637619895
0.217542994560834 -0.219261150238328 0.63564637619895
0.21497871568557 -0.20858473323858 0.63564637619895
0.216262146270085 -0.194270798269481 0.63564637619895
0.220197014128337 -0.188206683247788 0.63564637619895
0.220951735050131 -0.174686236455922 0.63564637619895
0.219546485470594 -0.155221554755798 0.63564637619895
0.222020134991203 -0.151680461396879 0.63564637619895
0.219774187842881 -0.139456042122015 0.63564637619895
0.22424849804003 -0.13399570842628 0.63564637619895
0.218302759180849 -0.114545416742449 0.63564637619895
0.21807788469388 -0.102641732799121 0.63564637619895
0.225690671286081 -0.101596191497528 0.63564637619895
0.228176589737777 -0.0875964622821635 0.63564637619895
0.223810297865687 -0.0724999251624521 0.63564637619895
0.227127084646645 -0.0558868649320383 0.63564637619895
0.228859847534572 -0.0406956838236871 0.63564637619895
0.232661972533664 -0.0289739567534863 0.63564637619895
0.22666232646718 -0.0189565726799302 0.63564637619895
0.228268450513913 -0.00253503622065444 0.63564637619895
0.230700375660591 0.00935091245199962 0.63564637619895
0.233694476768389 0.0117540751833704 0.63564637619895
0.23590870351462 0.030337209548973 0.63564637619895
0.235882269763828 0.0458254603073189 0.63564637619895
0.23076857924542 0.0656085513505058 0.63564637619895
0.236611958960507 0.0694815902699192 0.63564637619895
0.237313520416482 0.0852339609071306 0.63564637619895
0.240789960462788 0.085867312959453 0.63564637619895
0.242989056248535 0.115249371860715 0.63564637619895
0.243474510520619 0.128829558188206 0.63564637619895
0.24251375146347 0.144818915827073 0.63564637619895
0.243007945074617 0.15095112621378 0.63564637619895
0.244278379186073 0.166335287389931 0.63564637619895
0.24894537707486 0.192114976624055 0.63564637619895
0.247757397869309 0.188398589849289 0.63564637619895
0.244296282673668 0.210368505180244 0.63564637619895
0.247800766554006 0.222416318192871 0.63564637619895
0.246059712839951 0.236641044480442 0.63564637619895
0.252233880819126 0.247576220165262 0.63564637619895
0.244889035433374 0.265819753794851 0.63564637619895
0.254362636249642 0.279654586230132 0.63564637619895
0.255316558768982 0.301407601684484 0.63564637619895
0.248694135770965 0.302847214265191 0.63564637619895
0.257898210712687 0.336057434888097 0.63564637619895
0.256995893300131 0.341800756354407 0.63564637619895
0.257368224833257 0.367596821518442 0.63564637619895
0.257906442646454 0.378360215721793 0.63564637619895
0.263601072461564 0.395921418871205 0.63564637619895
0.216502167305636 -0.241867226847666 0.235743197253113
0.21640605553603 -0.24177111507806 0.242831954401222
0.221745266719411 -0.247110326261441 0.256373342868928
0.2171889555747 -0.24255401511673 0.257951200932764
0.21726285183471 -0.24262791137674 0.270992413077636
0.220596431638617 -0.245961491180647 0.288135149565597
0.221606813519287 -0.246971873061317 0.294606670301971
0.218280832137759 -0.24364589167979 0.294551323695643
0.217738674041639 -0.24310373358367 0.311639461050372
0.222375718921579 -0.247740778463609 0.32410525660917
0.220586861428857 -0.245951920970887 0.324224280687759
0.221013312499463 -0.246378372041493 0.33466966477885
0.219931674121595 -0.245296733663625 0.343055000842275
0.217425226747509 -0.242790286289539 0.34997376405815
0.218446277139288 -0.243811336681317 0.35980027966685
0.218708827733709 -0.244073887275739 0.372826233399133
0.222897683040666 -0.248262742582696 0.382813026215487
0.222636196191046 -0.248001255733075 0.396438733994423
0.219815707046171 -0.245180766588201 0.399462254531127
0.22140958035563 -0.246774639897659 0.404831413134414
0.199619142208601 -0.462100103700087 0.619500875622727
0.200983671405786 -0.456930018295989 0.627037404876787
0.205867967959235 -0.447767945106528 0.629783624805127
0.205412987549514 -0.444423907823009 0.631345380526923
0.200881484452892 -0.435836108990521 0.63564637619895
0.206540266222278 -0.429886360993459 0.63564637619895
0.209130400985882 -0.421708196658194 0.63564637619895
0.204033579618452 -0.410072318022086 0.63564637619895
0.208210489203906 -0.401372586084814 0.63564637619895
0.208549058725958 -0.394143642466039 0.63564637619895
0.205786836279822 -0.382106720128421 0.63564637619895
0.206732171793013 -0.375286480738939 0.63564637619895
0.210735007698732 -0.360406044321042 0.63564637619895
0.208452384085291 -0.348874968091528 0.63564637619895
0.212285363999797 -0.350209181123895 0.63564637619895
0.214099480689513 -0.324769524171861 0.63564637619895
0.218353563407373 -0.32801886297032 0.63564637619895
0.21877942733771 -0.308044959009637 0.63564637619895
0.214683734227091 -0.301305613369068 0.63564637619895
0.213590645211856 -0.291847894853733 0.63564637619895
0.215407794008959 -0.285609631399951 0.63564637619895
0.22281887944871 -0.267942657165223 0.63564637619895
0.214570989106148 -0.261785327574096 0.63564637619895
0.216379279180597 -0.24776396394325 0.63564637619895
0.220735828631666 -0.241854705227836 0.63564637619895
0.222675481597603 -0.234717267901275 0.63564637619895
0.220439919871605 -0.225592071979876 0.63564637619895
0.222477925364286 -0.199946796334352 0.63564637619895
0.226829432238482 -0.198637222999027 0.63564637619895
0.225358273142809 -0.186406072801515 0.63564637619895
0.229755850382136 -0.172218153899716 0.63564637619895
0.231323034806536 -0.156251225180037 0.63564637619895
0.23031524664357 -0.159374605661097 0.63564637619895
0.232768949494869 -0.144402819555493 0.63564637619895
0.226532858395422 -0.131114800977003 0.63564637619895
0.22931195637121 -0.119279666048791 0.63564637619895
0.230890510547431 -0.111127564664452 0.63564637619895
0.231392108835597 -0.0967259205828869 0.63564637619895
0.237187876134176 -0.0734088747984199 0.63564637619895
0.234541441702406 -0.0783588217653992 0.63564637619895
0.238480815095315 -0.0583908986265015 0.63564637619895
0.234568343916447 -0.0413049686742494 0.63564637619895
0.242088631705615 -0.0353483265721738 0.63564637619895
0.24005005459503 -0.0205647220711587 0.63564637619895
0.237207519445858 -0.0120117651459693 0.63564637619895
0.237399500237481 0.00639305587783484 0.63564637619895
0.245865734283457 0.0150037282300448 0.63564637619895
0.241870570889408 0.0340201854143454 0.63564637619895
0.242517624438388 0.0419130831854477 0.63564637619895
0.24560529421527 0.0632996406923985 0.63564637619895
0.248058478812212 0.0680297886502027 0.63564637619895
0.244541586597555 0.0812206013280413 0.63564637619895
0.248001634886036 0.1000472381463 0.63564637619895
0.244670462110842 0.108042501588135 0.63564637619895
0.254495960256527 0.120109596112738 0.63564637619895
0.256235651310943 0.145733517843975 0.63564637619895
0.248702434105552 0.156978308752727 0.63564637619895
0.248935363985901 0.175010403541421 0.63564637619895
0.253038195418481 0.178332257035609 0.63564637619895
0.25826017474065 0.191718405373166 0.63564637619895
0.252303130896659 0.211990786187997 0.63564637619895
0.262958319144972 0.224668674514716 0.63564637619895
0.260530419143172 0.231171096859102 0.63564637619895
0.265305393770134 0.258486467825119 0.63564637619895
0.261621769137555 0.272029017221586 0.63564637619895
0.263064708270845 0.286270579379284 0.63564637619895
0.262076772800622 0.305507224766671 0.63564637619895
0.265279266076687 0.309282471978227 0.63564637619895
0.264204153423759 0.325686557472177 0.63564637619895
0.267068294461174 0.351874348732094 0.63564637619895
0.270189196290334 0.353952181144308 0.63564637619895
0.274652908499308 0.385982416332105 0.63564637619895
0.269419554185135 0.389356886092559 0.63564637619895
0.229066527943474 -0.254431587485504 0.241931451229009
0.22857748042599 -0.25394253996802 0.253006928582419
0.229738070897814 -0.255103130439844 0.26396980715707
0.227999595033944 -0.253364654575974 0.271635251660442
0.225410595674183 -0.250775655216213 0.271258979449306
0.232837854249738 -0.258202913791768 0.290691969310488
0.232947109229391 -0.258312168771421 0.305419762467542
0.224752872293426 -0.250117931835456 0.304405781206848
0.232191121532416 -0.257556181074446 0.321559332354363
0.22518327667632 -0.250548336218349 0.320561059207141
0.224577371611789 -0.249942431153819 0.33264044477942
0.226346650689157 -0.251711710231187 0.348760096858956
0.228830284528558 -0.254195344070587 0.363194336738216
0.226531682403396 -0.251896741945426 0.354574452859893
0.229476745074276 -0.254841804616306 0.37906358475303
0.232670328707032 -0.258035388249062 0.393114748218718
0.225461161746317 -0.250826221288348 0.387086138896266
0.227537773999301 -0.252902833541331 0.395545107252674
0.226085363784254 -0.251450423326283 0.405266092097737
0.227929474123309 -0.253294533665339 0.419328078695303
0.211258985232873 -0.455379837196699 0.621129090087495
0.211219489337797 -0.454023261183868 0.625737113144647
0.210484529615108 -0.453513657832096 0.626141517799564
0.21281795690087 -0.444136817515542 0.629618451938806
0.217993199870344 -0.431605902877534 0.633750686401022
0.211730320831667 -0.431691457968311 0.635279359719674
0.212487666738626 -0.423128184509168 0.63564637619895
0.215207320025009 -0.412033406278985 0.63564637619895
0.212064571943138 -0.404469263838548 0.63564637619895
0.219975716508471 -0.387150553117603 0.63564637619895
0.216655378860511 -0.379637791734232 0.63564637619895
0.221956853504031 -0.370473349316184 0.63564637619895
0.219499875855784 -0.360438966495681 0.63564637619895
0.218511377600364 -0.357446440057415 0.63564637619895
0.220305325743018 -0.341322568077897 0.63564637619895
0.222801395096097 -0.330188806842779 0.63564637619895
0.219931679868615 -0.31940111154593 0.63564637619895
0.223175506155513 -0.311797880187623 0.63564637619895
0.224821325466526 -0.308425738089582 0.63564637619895
0.220739442040653 -0.301922166746192 0.63564637619895
0.226674759169152 -0.287495910071424 0.63564637619895
0.227187634148396 -0.278058603173304 0.63564637619895
0.232023165091088 -0.259303829164956 0.63564637619895
0.231132359549514 -0.247983194219519 0.63564637619895
0.229086100883424 -0.247342635369336 0.63564637619895
0.233836614639277 -0.231003752624518 0.63564637619895
0.228674007711048 -0.214889704665927 0.63564637619895
0.235691265800265 -0.211075901788152 0.63564637619895
0.230014986750625 -0.196801388703268 0.63564637619895
0.235004339562996 -0.188478945444222 0.63564637619895
0.239545804242499 -0.173853304010877 0.63564637619895
0.239620166180154 -0.157816235856576 0.63564637619895
0.239223515771371 -0.14278818268416 0.63564637619895
0.238312887150611 -0.135103068471807 0.63564637619895
0.236035618525116 -0.123078244001378 0.63564637619895
0.238530647687458 -0.111993970444221 0.63564637619895
0.238346225977931 -0.111417289501365 0.63564637619895
0.246119671606526 -0.0999684260379044 0.63564637619895
0.241860603799128 -0.0826878188217495 0.63564637619895
0.239284242945509 -0.0723864341176312 0.63564637619895
0.241854036278398 -0.0516230821622646 0.63564637619895
0.248130141297162 -0.0430232834186817 0.63564637619895
0.251557597797392 -0.0344590890480977 0.63564637619895
0.249471364302996 -0.0265574886328259 0.63564637619895
0.252272059384147 -0.00359948059917579 0.63564637619895
0.246694345117662 0.0101851221798595 0.63564637619895
0.251834182407156 0.0166327575594001 0.63564637619895
0.250857742878918 0.0345346069812187 0.63564637619895
0.251395482102044 0.046021362351073 0.63564637619895
0.254414507136783 0.0513470731597471 0.63564637619895
0.251796933923303 0.0671566762331906 0.63564637619895
0.260360816404574 0.0876103297978811 0.63564637619895
0.257977391637246 0.101679886591808 0.63564637619895
0.26103288603348 0.107006747991365 0.63564637619895
0.26259666695493 0.128840477154024 0.63564637619895
0.258386965130161 0.133906499363161 0.63564637619895
0.266978938750244 0.161664394745011 0.63564637619895
0.260335180397769 0.171622077605442 0.63564637619895
0.261257772120217 0.181667167327356 0.63564637619895
0.262233572082074 0.193950003471514 0.63564637619895
0.270594672321025 0.214608217334216 0.63564637619895
0.268726829764592 0.221822698962046 0.63564637619895
0.27498100163185 0.231088137900343 0.63564637619895
0.275381635468159 0.262318637878161 0.63564637619895
0.274441005212781 0.259031123521894 0.63564637619895
0.273576131688634 0.28064912754467 0.63564637619895
0.276886908491257 0.306019217358633 0.63564637619895
0.274299357880112 0.310779200373614 0.63564637619895
0.282392685567982 0.326986197768385 0.63564637619895
0.276190103172253 0.335049979926159 0.63564637619895
0.280863466804544 0.355886728091626 0.63564637619895
0.27824701529605 0.387837786630439 0.63564637619895
0.286777621627471 0.405153915180595 0.628008627624812
0.23430874784844 -0.25967380739047 0.245952214503511
0.237484066235569 -0.262849125777598 0.265969031521728
0.240410899566954 -0.265775959108984 0.279820647409884
0.236196266618489 -0.261561326160519 0.282054059723003
0.237913013023602 -0.263278072565631 0.296509927502648
0.241392404421847 -0.266757463963876 0.298187585426161
0.233091524838278 -0.258456584380308 0.301203276528778
0.233511008471008 -0.258876068013037 0.317725490859137
0.233838805814509 -0.259203865356538 0.318444022496032
0.23404640946976 -0.259411469011789 0.331770173198852
0.239649843144046 -0.265014902686075 0.344359427517814
0.237501055260422 -0.262866114802451 0.3503359690486
0.236344609956018 -0.261709669498047 0.364576155566771
0.237265239044779 -0.262630298586808 0.371737502801761
0.23573458527666 -0.261099644818689 0.38088383350571
0.235519410449576 -0.260884469991606 0.386087145021794
0.233952585795587 -0.259317645337617 0.392597951943894
0.23889336738581 -0.264258426927839 0.41177240833964
0.233025806136713 -0.258390865678743 0.411879784380266
0.239075263852972 -0.264440323395002 0.430295339474227
0.221673110384425 -0.449367239237076 0.61140400532858
0.223243844891773 -0.448460375246433 0.610955253456555
0.222026576807266 -0.44794092908968 0.62566906833119
0.217927687040596 -0.44161710920858 0.629432085105853
0.224986066505799 -0.435300196167693 0.630402793823005
0.223401846279522 -0.431700028089251 0.632357767386486
0.225018394526719 -0.426450557965238 0.634226717566588
0.227203758086308 -0.414806294448428 0.63564637619895
0.224056443689645 -0.404279496686145 0.63564637619895
0.227564972284524 -0.387327027805419 0.63564637619895
0.22775896149418 -0.383238374550852 0.63564637619895
0.231129921567584 -0.371633029785603 0.63564637619895
0.231078127974472 -0.359128125352419 0.63564637619895
0.231110592872646 -0.347363127850537 0.63564637619895
0.230064574054381 -0.347424629870959 0.63564637619895
0.233838396925761 -0.332520783457482 0.63564637619895
0.234827615130885 -0.316861352099124 0.63564637619895
0.229279170440721 -0.307085638211875 0.63564637619895
0.236988261245003 -0.299510875701691 0.63564637619895
0.23263824702179 -0.296804366745124 0.63564637619895
0.234161667285182 -0.282509475889748 0.63564637619895
0.238027193110349 -0.269048482506186 0.63564637619895
0.238400243757153 -0.262935966564168 0.63564637619895
0.237432389496518 -0.251861371030144 0.63564637619895
0.239619951749698 -0.241055121578333 0.63564637619895
0.239163142463583 -0.232217801157194 0.63564637619895
0.238479497670241 -0.216639954380761 0.63564637619895
0.24631044910126 -0.206009033218955 0.63564637619895
0.243153582173756 -0.199111378267533 0.63564637619895
0.247107343693796 -0.183263545668686 0.63564637619895
0.240860260011255 -0.168780571595529 0.63564637619895
0.242720850367094 -0.165063006052292 0.63564637619895
0.242735342635357 -0.156242273173485 0.63564637619895
0.24640127704141 -0.142795399809427 0.63564637619895
0.249737394604328 -0.12745028669637 0.63564637619895
0.253349343287692 -0.115299808286844 0.63564637619895
0.255154868497986 -0.109254300543313 0.63564637619895
0.250567360978434 -0.0986031722574265 0.63564637619895
0.256261668768162 -0.0907290177532454 0.63564637619895
0.256753521446663 -0.0609262610866404 0.63564637619895
0.256004976655282 -0.0540875572159029 0.63564637619895
0.256776201903145 -0.0428957610951847 0.63564637619895
0.256823521975154 -0.038263827506744 0.63564637619895
0.260783754211968 -0.0144673331733183 0.63564637619895
0.263032508817578 0.000709873685078787 0.63564637619895
0.263960450750161 0.00678108907195306 0.63564637619895
0.257207054105587 0.0162479111671339 0.63564637619895
0.263217052044231 0.0374138369133175 0.63564637619895
0.261663750477132 0.0440732015973546 0.63564637619895
0.259965970357353 0.0532387514678785 0.63564637619895
0.264658280061032 0.0695094788063372 0.63564637619895
0.270298283789878 0.0813415844257958 0.63564637619895
0.263118367094896 0.0922932790501938 0.63564637619895
0.270928395469178 0.117395014133095 0.63564637619895
0.268358104163116 0.133353382088449 0.63564637619895
0.269686994272441 0.142800994206343 0.63564637619895
0.273061146204807 0.155294194500932 0.63564637619895
0.276545801832887 0.167253458619885 0.63564637619895
0.277872424353473 0.18601465677493 0.63564637619895
0.274398075803168 0.204095693104367 0.63564637619895
0.279570669776076 0.206925623750158 0.63564637619895
0.276333085674233 0.226794300788576 0.63564637619895
0.279912648277249 0.243879346699986 0.63564637619895
0.282310138050749 0.25554032642439 0.63564637619895
0.278311622245611 0.271580875793101 0.63564637619895
0.286609367534962 0.286160430962184 0.63564637619895
0.287994074952944 0.296836274670867 0.63564637619895
0.284863147581492 0.31729378426442 0.63564637619895
0.289557177485763 0.326153107789369 0.63564637619895
0.292048489528276 0.345247578640756 0.63564637619895
0.29541428449385 0.352018363340604 0.63564637619895
0.294499226115499 0.371663395179969 0.63564637619895
0.29574854888248 0.389555096434899 0.63252038246246
0.245362919305348 -0.270727978847378 0.259728079607384
0.241802659761379 -0.267167719303408 0.263112538896475
0.241798123553909 -0.267163183095938 0.273545573050909
0.245323042338599 -0.270688101880629 0.28321228604587
0.249815090327053 -0.275180149869083 0.306471332032262
0.249181406693757 -0.274546466235786 0.313953678889165
0.243737421239476 -0.269102480781506 0.314424829600094
0.249380549720237 -0.274745609262267 0.332545726804611
0.247711098106197 -0.273076157648225 0.33770163688444
0.247965870079407 -0.273330929621437 0.344288772939238
0.249339840264936 -0.274704899806965 0.353510351364944
0.245792843231504 -0.271157902773534 0.360810515240679
0.243452814735831 -0.268817874277861 0.366756826324409
0.243509524250643 -0.268874583792672 0.378624961380548
0.24451793582017 -0.2698829953622 0.384546827625607
0.241537124232869 -0.266902183774898 0.393168359611897
0.247070676163705 -0.272435735705735 0.413578290749889
0.246139073629148 -0.271504133171177 0.410907457397035
0.243297822008192 -0.268662881550222 0.424778372789078
0.245628719503718 -0.270993779045748 0.435226882035323
0.248300175786108 -0.273665235328138 0.440848280339162
0.231358570556939 -0.44377533619925 0.610371900164948
0.226651802964863 -0.44401008365128 0.626214867795794
0.229683643986509 -0.443878445919907 0.625513908350115
0.228303524303337 -0.432477719395873 0.630795597666614
0.227951095334276 -0.429311712355085 0.632254626171821
0.227856069791031 -0.424076893879595 0.634545125449619
0.231920746563935 -0.414279317915273 0.63564637619895
0.23790703910034 -0.398548742338676 0.63564637619895
0.234929883108921 -0.394513533739278 0.63564637619895
0.233323729731774 -0.3754538551652 0.63564637619895
0.24051942218069 -0.371828015083865 0.63564637619895
0.235611915592022 -0.363695354724544 0.63564637619895
0.23480919912048 -0.355340685344425 0.63564637619895
0.239360419561207 -0.34865535997651 0.63564637619895
0.237774604187535 -0.338768854013415 0.63564637619895
0.242323883865908 -0.326990105976659 0.63564637619895
0.2385231946269 -0.315893416578746 0.63564637619895
0.240268651743637 -0.308373380893857 0.63564637619895
0.24135958501973 -0.298240676719022 0.63564637619895
0.24149309928502 -0.283579976371876 0.63564637619895
0.248119594003644 -0.265039418827628 0.63564637619895
0.242706145588181 -0.253811930868523 0.63564637619895
0.246243205553706 -0.245789535903744 0.63564637619895
0.250810684908166 -0.245178508425812 0.63564637619895
0.251792890350816 -0.220656149234021 0.63564637619895
0.25215210864474 -0.219006941294083 0.63564637619895
0.248552436602782 -0.205681060519399 0.63564637619895
0.255542875450437 -0.201256817421118 0.63564637619895
0.254248256021342 -0.191009088891774 0.63564637619895
0.252141468271973 -0.180684015037002 0.63564637619895
0.258902040815306 -0.159947764840242 0.63564637619895
0.253358122172283 -0.155277149286646 0.63564637619895
0.260779238524627 -0.13917798536596 0.63564637619895
0.259746990199636 -0.125590179041389 0.63564637619895
0.261964669091107 -0.110458754546804 0.63564637619895
0.257953862747036 -0.104337795047404 0.63564637619895
0.262939733941056 -0.0966005294455288 0.63564637619895
0.266373809776745 -0.0808937315398465 0.63564637619895
0.260838565884019 -0.0662301716538658 0.63564637619895
0.263758426627789 -0.0526108652625765 0.63564637619895
0.268765271971101 -0.0494870383840347 0.63564637619895
0.263378759533449 -0.0384101600831562 0.63564637619895
0.270398639862586 -0.0173968486943366 0.63564637619895
0.269380603509117 -0.00427012101020226 0.63564637619895
0.266309067603083 0.0119632948168192 0.63564637619895
0.269992281948012 0.0223924234983541 0.63564637619895
0.27631832423951 0.0267175779275197 0.63564637619895
0.268673971584233 0.0463108000735269 0.63564637619895
0.275158272048439 0.0605461822378181 0.63564637619895
0.271846134367093 0.0691562430744612 0.63564637619895
0.279859020348965 0.0901874354997892 0.63564637619895
0.274581455422065 0.0896122454347335 0.63564637619895
0.283749961611086 0.106799441349137 0.63564637619895
0.279996448253465 0.133193010364788 0.63564637619895
0.28601281147571 0.138167018995658 0.63564637619895
0.283613453412568 0.148926005795998 0.63564637619895
0.286663974824495 0.162997764541243 0.63564637619895
0.287901019825059 0.176779955739817 0.63564637619895
0.289827177857706 0.188780398157703 0.63564637619895
0.285116250054958 0.208486709887561 0.63564637619895
0.292152291925401 0.222859943243968 0.63564637619895
0.293407546750825 0.234842256397351 0.63564637619895
0.2895839073733 0.245488062768165 0.63564637619895
0.296297138242876 0.270727678607783 0.63564637619895
0.299749317606894 0.294810115514257 0.63564637619895
0.297952667179158 0.302195538415746 0.63564637619895
0.297905581693585 0.31199719659831 0.63564637619895
0.295862985309385 0.336290608047277 0.63564637619895
0.299524479057557 0.341494443971927 0.63564637619895
0.304184019423261 0.350832572974347 0.63564637619895
0.304607241754509 0.387930803412038 0.63029065054277
0.252067477335182 -0.277432536877212 0.271596833482844
0.25113456552689 -0.276499625068919 0.268902098213395
0.258452682566637 -0.283817742108666 0.287732041484677
0.251682643919549 -0.277047703461578 0.290214313704181
0.252607382321131 -0.27797244186316 0.305938133052505
0.254609680659035 -0.279974740201066 0.315611316937434
0.255446864897227 -0.280811924439256 0.329328111484825
0.251115054509842 -0.276480114051872 0.33287018821119
0.252966303665364 -0.278331363207394 0.337767919331234
0.256011221544456 -0.281376281086485 0.352058415426724
0.255119720987903 -0.280484780529934 0.366422156031483
0.257988316978379 -0.283353376520409 0.370503042152127
0.252832830675235 -0.278197890217264 0.374326045824083
0.253075225249358 -0.278440284791388 0.38544494572539
0.255872979499407 -0.281238039041437 0.402518525099738
0.253034221851318 -0.278399281393348 0.405805319227304
0.256355284586353 -0.281720344128382 0.415066225040902
0.254938924181318 -0.280303983723347 0.420444667311113
0.252029447867375 -0.277394507409404 0.429649237611432
0.254106557140746 -0.279471616682776 0.446287480771419
0.250553690109864 -0.275918749651893 0.447957233732365
0.250632279205735 -0.275997338747765 0.451285199132237
0.240811079185181 -0.438317927798217 0.615279582019586
0.239898852507063 -0.43884460211639 0.625142271912321
0.238749508044348 -0.432703737365314 0.628086233079737
0.24222746472374 -0.423755445224735 0.631091468067002
0.240607510827471 -0.422651676338358 0.631974402488824
0.243391206779327 -0.412873517115599 0.635512545645439
0.2422868284173 -0.398700305493808 0.63564637619895
0.239872720031465 -0.387897367989111 0.63564637619895
0.239861014632561 -0.38653092331271 0.63564637619895
0.248357057883721 -0.368329250908148 0.63564637619895
0.248237237432594 -0.364758428948983 0.63564637619895
0.245061059290181 -0.358906836109481 0.63564637619895
0.250380239901477 -0.343279630842139 0.63564637619895
0.244859104964676 -0.333797992006482 0.63564637619895
0.253494158085472 -0.322765034309312 0.63564637619895
0.246675134391213 -0.314361247744586 0.63564637619895
0.251874282436302 -0.300951220309963 0.63564637619895
0.252578053524098 -0.288802334329882 0.63564637619895
0.256559164129208 -0.285425099534327 0.63564637619895
0.256881231275067 -0.275979982854179 0.63564637619895
0.253090631616263 -0.261069154345741 0.63564637619895
0.25821950778236 -0.246882528340856 0.63564637619895
0.252573740310806 -0.242842579086632 0.63564637619895
0.261158859512335 -0.225425251876312 0.63564637619895
0.258724955044339 -0.21444223938551 0.63564637619895
0.260116813205587 -0.202839942504235 0.63564637619895
0.263843647895669 -0.19693726238515 0.63564637619895
0.266359752558929 -0.186960904757039 0.63564637619895
0.264133946835795 -0.176309852759539 0.63564637619895
0.259797634292709 -0.168261051187107 0.63564637619895
0.264669777141409 -0.158225122597471 0.63564637619895
0.264054123838382 -0.139155595130081 0.63564637619895
0.272995191059702 -0.128244326730731 0.63564637619895
0.271125746663829 -0.119840784019874 0.63564637619895
0.267786880084855 -0.100850270052921 0.63564637619895
0.276354330449875 -0.0898331931968098 0.63564637619895
0.2762776163211 -0.0805717137296555 0.63564637619895
0.273390951514076 -0.0720765649554882 0.63564637619895
0.271445158217989 -0.058653721415177 0.63564637619895
0.272187016593592 -0.0407244355697699 0.63564637619895
0.276846071921156 -0.0332774084117563 0.63564637619895
0.275498438305941 -0.0259851770287194 0.63564637619895
0.277958389684681 0.000770561974190946 0.63564637619895
0.282115527036257 0.0128961943984337 0.63564637619895
0.286033450498277 0.0235971136584174 0.63564637619895
0.283017936534695 0.0377833163348019 0.63564637619895
0.282373571059832 0.0522309926002906 0.63564637619895
0.286600885646161 0.0537879838703149 0.63564637619895
0.283625750768854 0.0640314870742717 0.63564637619895
0.284953314978806 0.0864573745257282 0.63564637619895
0.291460393820486 0.0998114147969852 0.63564637619895
0.293156391412948 0.112638901363213 0.63564637619895
0.291154042362565 0.120981737188114 0.63564637619895
0.297601839423993 0.138241177280947 0.63564637619895
0.294815488555835 0.160866671830956 0.63564637619895
0.29677456118809 0.16674696702928 0.63564637619895
0.295454867806433 0.190339464718373 0.63564637619895
0.293944395614659 0.200818948872917 0.63564637619895
0.301411372353413 0.204296903016378 0.63564637619895
0.29951580061541 0.229304226101717 0.63564637619895
0.307485755577765 0.234577950636734 0.63564637619895
0.306277562884819 0.251287677744249 0.63564637619895
0.308121561685866 0.266143450866726 0.63564637619895
0.311909256258851 0.285692193929509 0.63564637619895
0.312679202985118 0.291033164537023 0.63564637619895
0.311076028687735 0.313653321313768 0.63564637619895
0.306946394572098 0.332166752971394 0.63564637619895
0.315128456797479 0.346218354405712 0.63564637619895
0.317591297083771 0.380129930577674 0.628458118797635
0.315196164598386 0.373187946488169 0.631759288021052
0.258621863679537 -0.283986923221566 0.277190895746371
0.263424264427212 -0.288789323969242 0.294187729148128
0.264592639238091 -0.28995769878012 0.294192069088222
0.259738623706021 -0.28510368324805 0.302306467223521
0.26432946718327 -0.289694526725299 0.32271202783161
0.263417831408027 -0.288782890950057 0.320832334527727
0.261751212756842 -0.287116272298872 0.334658743738834
0.26030477883253 -0.285669838374559 0.34509169179027
0.258428759616178 -0.283793819158208 0.350159675917103
0.26425639829551 -0.28962145783754 0.364261147564243
0.262628154781748 -0.287993214323778 0.370664597752973
0.263297097004478 -0.288662156546507 0.378483153129568
0.261909035965369 -0.287274095507399 0.383740200038098
0.265990341219751 -0.29135540076178 0.398300586571634
0.258832843435933 -0.284197902977962 0.403136524513825
0.259646816366427 -0.285011875908456 0.415587852343182
0.264234759180469 -0.289599818722498 0.42432105013324
0.261924040442779 -0.287289099984808 0.430227194919363
0.258679212012544 -0.284044271554573 0.434704737024499
0.2589357854526 -0.28430084499463 0.444273269210143
0.26099171397448 -0.28635677351651 0.458864715458056
0.258496281682011 -0.28386134122404 0.465343178215861
0.245275287210747 -0.435740516092938 0.61188678457203
0.245845852656782 -0.43541109997908 0.620357805321508
0.246053392919225 -0.425739834235371 0.62927572037103
0.250590752027763 -0.425386463142108 0.62829439476576
0.24664887515686 -0.420599223449294 0.631352799577478
0.247146011008786 -0.413034985115737 0.634503926893066
0.250901797839369 -0.39838151568839 0.63564637619895
0.252904573060218 -0.392306337281764 0.63564637619895
0.249832434974871 -0.376104789770503 0.63564637619895
0.252389344481749 -0.376232438784182 0.63564637619895
0.256780425816898 -0.360297100273409 0.63564637619895
0.256437513342401 -0.352068667670304 0.63564637619895
0.25615648367559 -0.346830856334192 0.63564637619895
0.254603956078818 -0.334056270575701 0.63564637619895
0.259873152260017 -0.328474833745823 0.63564637619895
0.25611684387455 -0.313936304445847 0.63564637619895
0.261219339448195 -0.294412273176484 0.63564637619895
0.265468723411841 -0.297135143685295 0.63564637619895
0.25838745308732 -0.283435646811064 0.63564637619895
0.264505335701797 -0.273544518921517 0.63564637619895
0.263360297058854 -0.259150620728322 0.63564637619895
0.261762003271973 -0.250399498927886 0.63564637619895
0.266403191222957 -0.240055671245885 0.63564637619895
0.26991844464054 -0.23127001023468 0.63564637619895
0.2695748537358 -0.214121258733245 0.63564637619895
0.266599911977712 -0.208404155779737 0.63564637619895
0.267617937018254 -0.194516239773188 0.63564637619895
0.274309923697543 -0.176683558144075 0.63564637619895
0.275849653882449 -0.178916322866456 0.63564637619895
0.272031467624997 -0.163991045437091 0.63564637619895
0.270569861461703 -0.152486440344729 0.63564637619895
0.280516269248647 -0.140822702647505 0.63564637619895
0.272552689439496 -0.133208207443748 0.63564637619895
0.277980033335167 -0.108147036572431 0.63564637619895
0.282553330325546 -0.107976764262483 0.63564637619895
0.281693810319211 -0.096561733524766 0.63564637619895
0.279012812436362 -0.0771869666445938 0.63564637619895
0.278988838975158 -0.064963884873955 0.63564637619895
0.283761690823923 -0.0584963725518645 0.63564637619895
0.282579144463942 -0.0507501231732395 0.63564637619895
0.285467762917407 -0.0347583417118766 0.63564637619895
0.29136335585932 -0.0223812008569834 0.63564637619895
0.292376525451604 -0.00814872582343158 0.63564637619895
0.289928650803826 0.00383342199814715 0.63564637619895
0.292529557393744 0.0206627255655632 0.63564637619895
0.290601549080123 0.0263090527894044 0.63564637619895
0.294073854691865 0.0390463867702691 0.63564637619895
0.297398575963341 0.0568080572748456 0.63564637619895
0.29914491169453 0.0779011452220071 0.63564637619895
0.294794315688806 0.0823845169405631 0.63564637619895
0.304127873404519 0.0942317189011654 0.63564637619895
0.295280819786009 0.107692231799925 0.63564637619895
0.297389968607026 0.11743384523198 0.63564637619895
0.30580845546072 0.133495700069042 0.63564637619895
0.301051856568117 0.151217391628165 0.63564637619895
0.306594542997182 0.173326628475938 0.63564637619895
0.303515316880179 0.178770885648101 0.63564637619895
0.304484708613521 0.195907174908925 0.63564637619895
0.308222224938418 0.205281678785467 0.63564637619895
0.307139679106043 0.230434461850481 0.63564637619895
0.310836746733811 0.234638500418696 0.63564637619895
0.316781033261327 0.262622587104141 0.63564637619895
0.320495705263947 0.273494810908198 0.63564637619895
0.313167332860676 0.290910926943693 0.63564637619895
0.322634711129622 0.29464644493476 0.63564637619895
0.315409901400765 0.323578423551671 0.63564637619895
0.320412536502764 0.328930413681107 0.63564637619895
0.320051717449841 0.352736940493584 0.63564637619895
0.269671525234866 -0.295036584776896 0.286841041991127
0.2725055499204 -0.29787060946243 0.300446905439749
0.269216066846582 -0.294581126388612 0.309347420043346
0.270752391204829 -0.296117450746858 0.310248025395389
0.272423832940056 -0.297788892482086 0.327661949673886
0.270711120217593 -0.296076179759623 0.335194204218746
0.273590530340167 -0.298955589882196 0.342724054267244
0.270131390803356 -0.295496450345386 0.350917154423637
0.270563194682695 -0.295928254224725 0.358043141190304
0.269414850704087 -0.294779910246116 0.367463461642152
0.269724191667474 -0.295089251209504 0.36887210979861
0.266259017729366 -0.291624077271396 0.388189057363028
0.273524285309042 -0.298889344851072 0.399860686362917
0.26705543110545 -0.292420490647479 0.402552862330297
0.268332653673449 -0.293697713215478 0.411314761869654
0.266341943903294 -0.291707003445323 0.421277066359457
0.270920022605533 -0.296285082147562 0.428988707769598
0.267679334961666 -0.293044394503696 0.440546454635449
0.26626608828335 -0.29163114782538 0.44781561675377
0.273254281766761 -0.29861934130879 0.465827502712667
0.271337946568124 -0.296703006110154 0.466374837012072
0.270074971975249 -0.295440031517278 0.471714627925644
0.25287898616943 -0.431350518452306 0.609776728776007
0.258920326409731 -0.427862549038301 0.612438122977711
0.257210717477911 -0.426260121127023 0.626261098398646
0.255766622505497 -0.419287741594608 0.629641251041698
0.254342940856069 -0.41176476653801 0.633254715209581
0.261811031506413 -0.409066967642807 0.632555873735768
0.260887606399367 -0.405353709157266 0.634394618102178
0.259161381777383 -0.392421467486445 0.63564637619895
0.258417951796516 -0.385026681733978 0.63564637619895
0.258661305879791 -0.378730219358029 0.63564637619895
0.267226383361306 -0.359296543840379 0.63564637619895
0.26098525771031 -0.352738990136533 0.63564637619895
0.267525959267988 -0.338645100262842 0.63564637619895
0.269034830969046 -0.329098308535794 0.63564637619895
