ply
format ascii 1.0
element vertex 846
property float x
property float y
property float z
end_header
-0.458509214884331 0.0274949347628186 0.416666666666667
-0.461797311463048 0.0170884287080785 0.416666666666667
-0.459977914714574 -0.00295178208858528 0.416666666666667
-0.461865059665161 -0.00901016417517515 0.416666666666667
-0.464302620473716 -0.0247307392595966 0.416666666666666
-0.462002913408684 -0.0377454103793454 0.416666666666667
-0.470049767640517 -0.0586071996091912 0.416666666666667
-0.466623343258775 -0.0644384150428069 0.416666666666667
-0.47109140872474 -0.0728371616584698 0.416666666666667
-0.474166186108984 -0.0927620517811822 0.416666666666667
-0.475823452590072 -0.104348556899437 0.416666666666667
-0.480724846019147 -0.106809395884328 0.416666666666667
-0.48077157235895 -0.119084460039361 0.416666666666667
-0.478322725489475 -0.135317270211653 0.416666666666667
-0.479179109029661 -0.148620922675695 0.416666666666666
-0.480629503087497 -0.16391472909499 0.416666666666667
-0.485188659434658 -0.174302755511545 0.416666666666666
-0.488630091917087 -0.18244899061014 0.416666666666667
-0.485859952623889 -0.194434731839847 0.416666666666667
-0.490000949815862 -0.21181432546724 0.416666666666667
-0.496787552334639 -0.230086609390609 0.416666666666667
-0.410555463359305 0.256944444444444 0.384640750838774
-0.406835606284603 0.270833333333334 0.411401213506475
-0.41263806380286 0.267821680304906 0.416666666666667
-0.408407332182738 0.258075524733272 0.416666666666666
-0.408907662496962 0.246091806982699 0.416666666666667
-0.413405957307557 0.247736095804071 0.416666666666667
-0.415212377896976 0.230605675852369 0.416666666666667
-0.418726356994225 0.22831004186953 0.416666666666667
-0.413998223978542 0.211650425465941 0.416666666666667
-0.414630819010354 0.206070675724904 0.416666666666666
-0.423965061075578 0.188582613663658 0.416666666666667
-0.426453348911924 0.180416721240624 0.416666666666667
-0.421070893651041 0.169280907840312 0.416666666666667
-0.425512793454677 0.156541164192896 0.416666666666667
-0.423000659257523 0.159582756025699 0.416666666666667
-0.425191454294119 0.142708939795908 0.416666666666667
-0.434891145169637 0.125673854498366 0.416666666666667
-0.433215093281391 0.120911219030736 0.416666666666667
-0.434997248351479 0.103108042696836 0.416666666666666
-0.437851777878372 0.100069755827712 0.416666666666667
-0.433461401370491 0.0877518344125238 0.416666666666667
-0.441750571736755 0.0782549031864102 0.416666666666667
-0.439704815901493 0.054243071097694 0.416666666666667
-0.446729985401798 0.0485753784008026 0.416666666666667
-0.438021211408037 0.0453477619312522 0.416666666666667
-0.44692961351397 0.0308758735795199 0.416666666666667
-0.44792231932274 0.0128544035796302 0.416666666666667
-0.449918812213094 0.00575582763221663 0.416666666666667
-0.444968160763298 -0.00108430036200266 0.416666666666667
-0.451820453340904 -0.0198870992555621 0.416666666666666
-0.456794147082169 -0.0231422203812626 0.416666666666667
-0.458628014520643 -0.0306179678248934 0.416666666666667
-0.463363195066615 -0.062047280961993 0.416666666666667
-0.455835720162737 -0.0663992735798369 0.416666666666667
-0.456224903978671 -0.0744645924028565 0.416666666666667
-0.462095856006013 -0.0857884804276123 0.416666666666667
-0.464249232386516 -0.102371861989615 0.416666666666667
-0.467236501448942 -0.108971052139009 0.416666666666667
-0.469187562714891 -0.130113584459484 0.416666666666667
-0.466522805314194 -0.13815298940774 0.416666666666667
-0.475752579945198 -0.15149262567007 0.416666666666667
-0.473253556801428 -0.163137755559909 0.416666666666667
-0.481614245980574 -0.178997960069072 0.416666666666667
-0.483529374265648 -0.197268860948244 0.416666666666667
-0.477457105254334 -0.193728602472415 0.416666666666667
-0.481592901169869 -0.216559121437454 0.416666666666667
-0.487858694152507 -0.221343859210356 0.416666666666667
-0.489584582016255 -0.243690232504042 0.416666666666667
-0.491207300877693 -0.259279336843242 0.416666666666667
-0.400882918956201 0.256944444444444 0.377873151899479
-0.405803643429249 0.256944444444444 0.384358344687727
-0.401363412135689 0.270833333333333 0.409209796902943
-0.398090644952714 0.268091409480418 0.416666666666666
-0.404029136039298 0.26747297302284 0.416666666666667
-0.398516423130158 0.252149702301349 0.416666666666667
-0.402904530421875 0.249917519959373 0.416666666666667
-0.406438524378969 0.233918381112186 0.416666666666667
-0.406853539196182 0.222366714425365 0.416666666666667
-0.404481214559475 0.220349822634606 0.416666666666667
-0.406398183349243 0.200923474682914 0.416666666666667
-0.415537048027707 0.185608366073369 0.416666666666667
-0.415501899748018 0.182069041353026 0.416666666666667
-0.415399631175399 0.166803368390211 0.416666666666667
-0.418439084622496 0.16287246823957 0.416666666666667
-0.418859685738401 0.148553760705072 0.416666666666666
-0.416125671189066 0.145305348225151 0.416666666666667
-0.422172541916807 0.136699024626321 0.416666666666667
-0.426200208001304 0.124449364589274 0.416666666666667
-0.427373007339826 0.103514559282177 0.416666666666667
-0.423231596802306 0.098075594178299 0.416666666666667
-0.42996531134574 0.0876267822289132 0.416666666666667
-0.431654454177821 0.0801211699395544 0.416666666666667
-0.427184885599204 0.0667886350032724 0.416666666666666
-0.432747459511784 0.0584170702710042 0.416666666666667
-0.432893815177969 0.0403101038852253 0.416666666666667
-0.434688699577272 0.0339267708924569 0.416666666666667
-0.432555327431833 0.0197639122522365 0.416666666666667
-0.437336281605817 0.00858684068239616 0.416666666666667
-0.437505622351196 -0.00192703469441077 0.416666666666667
-0.439531476271388 -0.015511644174636 0.416666666666667
-0.438868326207997 -0.0163834381080301 0.416666666666667
-0.441069370301803 -0.0368480459911671 0.416666666666667
-0.448005404961484 -0.0570937860167316 0.416666666666667
-0.44685760512764 -0.0574976022021719 0.416666666666667
-0.451001902431637 -0.0778823055028353 0.416666666666667
-0.452673012746501 -0.084183685719207 0.416666666666667
-0.452659396720578 -0.10639354145355 0.416666666666667
-0.452133031250688 -0.108514363973722 0.416666666666667
-0.453838114360191 -0.125611862918217 0.416666666666667
-0.45596119738569 -0.135917890476751 0.416666666666667
-0.457674540907993 -0.144379849802205 0.416666666666667
-0.465230787268049 -0.167737243951837 0.416666666666667
-0.467946996928537 -0.180920743162438 0.416666666666667
-0.469980238285695 -0.18458007468115 0.416666666666666
-0.464027321442965 -0.195343955420415 0.416666666666667
-0.472317466606675 -0.212288832646459 0.416666666666667
-0.474577189659283 -0.231402473451614 0.416666666666667
-0.479077482553298 -0.247400440717322 0.416666666666667
-0.477439138440793 -0.262756983917566 0.416666666666667
-0.480332215652481 -0.262196229313097 0.416666666666667
-0.389454464456811 0.256944444444444 0.375002655208229
-0.396228914936412 0.256944444444444 0.380043383397405
-0.394865902239275 0.270833333333334 0.40553918302754
-0.389636955484642 0.270833333333333 0.415059303500557
-0.390283650623317 0.257718033942713 0.416666666666667
-0.389940566905246 0.254765014691095 0.416666666666667
-0.391668540386815 0.238731960448408 0.416666666666667
-0.396623664899599 0.231121658277041 0.416666666666666
-0.40167202021233 0.225954714751614 0.416666666666667
-0.397834207456625 0.209266825556379 0.416666666666667
-0.403834712044475 0.206309086470514 0.416666666666667
-0.400213741080852 0.192924868819437 0.416666666666667
-0.400410847659706 0.183556045329594 0.416666666666667
-0.406217660524177 0.175430098230375 0.416666666666666
-0.407787782500448 0.152857421987962 0.416666666666666
-0.403942365144735 0.14999223167715 0.416666666666666
-0.413114977114669 0.148897098492959 0.416666666666667
-0.413434273093964 0.124440332377698 0.416666666666667
-0.408428732570245 0.124741450942895 0.416666666666667
-0.410129396652614 0.111107757796412 0.416666666666667
-0.41600627828916 0.105027357199811 0.416666666666667
-0.422707510194944 0.0784481013411746 0.416666666666667
-0.422540235201246 0.0803532365619496 0.416666666666667
-0.42486201116048 0.065672170656015 0.416666666666667
-0.421003329060432 0.045061149642663 0.416666666666667
-0.424302312796268 0.0393753751580919 0.416666666666667
-0.4210988760939 0.0309905870278868 0.416666666666667
-0.430074516595983 0.0234277276490509 0.416666666666667
-0.432621093721136 0.00478229442247895 0.416666666666667
-0.432741651371966 -0.00201191141669385 0.416666666666667
-0.430502979191942 -0.024401001151398 0.416666666666667
-0.436537707400245 -0.0231356800949631 0.416666666666667
-0.435680736723183 -0.037095153002098 0.416666666666667
-0.434395215127131 -0.0537499011790543 0.416666666666667
-0.439503362552569 -0.0601248719580273 0.416666666666667
-0.44597782323555 -0.0721015349283329 0.416666666666667
-0.437582379585011 -0.0842116740471705 0.416666666666667
-0.445108063249278 -0.106854604521469 0.416666666666667
-0.443187665414673 -0.106476496267377 0.416666666666667
-0.453483814594323 -0.123713467901603 0.416666666666667
-0.44738932044106 -0.128653651011405 0.416666666666667
-0.445437762027137 -0.140790058911479 0.416666666666667
-0.44887428486124 -0.168245508201736 0.416666666666667
-0.454802587486553 -0.174184366821452 0.416666666666667
-0.455360493826639 -0.190233526740537 0.416666666666667
-0.45358056251012 -0.198972418988363 0.416666666666667
-0.458605592489256 -0.22227366366883 0.416666666666667
-0.463647881886004 -0.227439336355216 0.416666666666667
-0.46181519911253 -0.244074806786478 0.416666666666666
-0.466976924690383 -0.255176257648122 0.416666666666667
-0.380753769035545 0.256944444444444 0.380576765556489
-0.386434122063879 0.256944444444444 0.383651826730072
-0.379515740715963 0.270833333333334 0.40464260351576
-0.384044141491968 0.270833333333333 0.415318216228152
-0.381750986645687 0.257172826940693 0.416666666666667
-0.382861901374428 0.249654619518097 0.416666666666667
-0.382932687975084 0.240055339861062 0.416666666666667
-0.382334770208631 0.238416001702406 0.416666666666667
-0.386200170082304 0.220399383306976 0.416666666666666
-0.387075984414358 0.212403887020696 0.416666666666666
-0.390755157501073 0.201383638126696 0.416666666666667
-0.388719392053337 0.1871592721174 0.416666666666667
-0.390539439022382 0.176852460654414 0.416666666666667
-0.39812554395062 0.177687829995399 0.416666666666666
-0.402034626191608 0.159659182572999 0.416666666666667
-0.400840085613915 0.150084905552775 0.416666666666666
-0.396170233112698 0.14594293169165 0.416666666666667
-0.397751502504114 0.123779915590962 0.416666666666667
-0.405093231216378 0.126988714561337 0.416666666666667
-0.403218991258734 0.107923680350101 0.416666666666667
-0.405895819427401 0.100710491400464 0.416666666666667
-0.40681510401402 0.0775535938704087 0.416666666666666
-0.411084031609837 0.0772567764592574 0.416666666666667
-0.410615500916062 0.0683720631531316 0.416666666666667
-0.409715116147273 0.0516396471090459 0.416666666666667
-0.409808781790369 0.0355979480580752 0.416666666666667
-0.414061422897653 0.0387490118327106 0.416666666666667
-0.415700984857411 0.0165832794378713 0.416666666666667
-0.421524234359031 -0.0021699081749293 0.416666666666667
-0.418169987744581 -0.00276062693913334 0.416666666666667
-0.419667122852726 -0.0157724001284868 0.416666666666667
-0.424632348416668 -0.021604439193298 0.416666666666667
-0.425635496570278 -0.0358397751549101 0.416666666666667
-0.432341721026698 -0.0534468123269149 0.416666666666667
-0.429506772809659 -0.0697443868490047 0.416666666666666
-0.434375181034846 -0.0808499594164815 0.416666666666667
-0.437323402658339 -0.0914021885169706 0.416666666666667
-0.430154612144914 -0.0973939105128084 0.416666666666667
-0.436537003904681 -0.10512581402901 0.416666666666667
-0.44057995853673 -0.117725767166835 0.416666666666667
-0.443129104203502 -0.135661157416059 0.416666666666667
-0.437096291491776 -0.146806303144962 0.416666666666667
-0.440901918871522 -0.166253592789513 0.416666666666667
-0.445777963978391 -0.173859462655553 0.416666666666667
-0.445679681284109 -0.192328877640907 0.416666666666667
-0.444524679178127 -0.19393563072558 0.416666666666667
-0.445228540639893 -0.212612297001188 0.416666666666667
-0.44904268748159 -0.227814526745552 0.416666666666667
-0.45691589981707 -0.239728799068964 0.416666666666666
-0.458630564800903 -0.251311381971831 0.416666666666667
-0.458096792312218 -0.270453015658529 0.416666666666667
-0.372546562520327 0.256944444444445 0.376724003782104
-0.371462954082807 0.256944444444444 0.383231815778009
-0.376732910158789 0.270833333333333 0.40685643238724
-0.374329458032501 0.270833333333333 0.413521965837353
-0.377825917541353 0.263517188431112 0.416666666666667
-0.373850378044402 0.254559671645063 0.416666666666667
-0.380964779021414 0.243090135058081 0.416666666666667
-0.376467055031391 0.236718664912803 0.416666666666667
-0.376681075422926 0.219174264401812 0.416666666666667
-0.379901796223194 0.210386927622028 0.416666666666666
-0.378926657776557 0.200022923808573 0.416666666666667
-0.388108971749184 0.190655823190367 0.416666666666667
-0.389249049537391 0.178661645922831 0.416666666666667
-0.389358581057469 0.168877812721784 0.416666666666667
-0.382855214608937 0.16353776676965 0.416666666666667
-0.390916893329022 0.143302406550373 0.416666666666667
-0.393612311479753 0.142241248482094 0.416666666666667
-0.393070156402328 0.132233145485747 0.416666666666667
-0.395128945482104 0.124372591126043 0.416666666666667
-0.396490452390788 0.102357413975323 0.416666666666667
-0.3991668859231 0.0919349641702014 0.416666666666667
-0.399495902347813 0.0900466667118849 0.416666666666667
-0.39890127917805 0.0731275062229736 0.416666666666667
-0.400781225805179 0.0718454490824472 0.416666666666667
-0.404822266663271 0.0568101818828198 0.416666666666667
-0.399800581218605 0.0358618611082235 0.416666666666667
-0.40120549778113 0.0352886148810343 0.416666666666667
-0.410732084029671 0.0208868438147306 0.416666666666667
-0.409944613817001 0.011057899877117 0.416666666666667
-0.415113955070808 -0.00472389015254026 0.416666666666667
-0.408968490836123 -0.0167041992148857 0.416666666666666
-0.413922384419236 -0.0294673831484458 0.416666666666667
-0.418290767864866 -0.0305796621741163 0.416666666666667
-0.413997611058751 -0.0418174751066317 0.416666666666667
-0.415063942936358 -0.0592956364332161 0.416666666666667
-0.420041936870239 -0.0773207590010188 0.416666666666667
-0.425632412154533 -0.0945768297135214 0.416666666666667
-0.42925840641604 -0.107158085070723 0.416666666666666
-0.42044298411008 -0.107844510398518 0.416666666666667
-0.423563396653578 -0.126470956680966 0.416666666666667
-0.425451408540166 -0.143308133795675 0.416666666666667
-0.425624081285378 -0.142845721410138 0.416666666666666
-0.432036840448214 -0.154187593499302 0.416666666666667
-0.433095186670962 -0.178983589401493 0.416666666666667
-0.437829152841174 -0.186482094233778 0.416666666666667
-0.44164758427329 -0.208063910328108 0.416666666666667
-0.43807997303856 -0.217234959588038 0.416666666666667
-0.437601238569976 -0.234750847558205 0.416666666666667
-0.446427361164275 -0.246914879159324 0.416666666666667
-0.440469646836461 -0.258080312439539 0.416666666666667
-0.441719739892355 -0.266536692482528 0.416666666666667
-0.367047147259293 0.256944444444444 0.38326760452602
-0.365486968940363 0.256944444444444 0.38385941739087
-0.363826597316412 0.270833333333333 0.408136203741915
-0.366545990371794 0.270833333333333 0.414210865246492
-0.363267920868232 0.262743033122644 0.416666666666666
-0.363770037152644 0.256058602702004 0.416666666666667
-0.367409584125153 0.239461897203377 0.416666666666667
-0.370495671683763 0.240476712881742 0.416666666666667
-0.368747141534028 0.226891616051174 0.416666666666667
-0.371575226449329 0.211579256605137 0.416666666666666
-0.371763031104301 0.201681029136915 0.416666666666667
-0.375854219589871 0.194711149806285 0.416666666666667
-0.379418196080938 0.180018801221719 0.416666666666667
-0.375214971131017 0.174277155944925 0.416666666666667
-0.375059841855264 0.158197123887726 0.416666666666666
-0.379694810489391 0.159995784989611 0.416666666666667
-0.38316893921891 0.141245190670082 0.416666666666667
-0.386667943232875 0.12534361064345 0.416666666666666
-0.386544285750337 0.117845564568069 0.416666666666667
-0.382032379803805 0.113559826856069 0.416666666666667
-0.391145811686637 0.100628394573324 0.416666666666667
-0.385423482023073 0.0859427413115338 0.416666666666667
-0.390129729042568 0.0797525552285153 0.416666666666667
-0.390153882148606 0.0644753772355379 0.416666666666667
-0.391830094349792 0.0536429398675256 0.416666666666666
-0.394170541853842 0.0388670829667641 0.416666666666666
-0.391458187849518 0.036647015880327 0.416666666666667
-0.391825297017499 0.0274972637032851 0.416666666666667
-0.400868556252041 0.0111125863096015 0.416666666666667
-0.396435522338259 0.00066371580936617 0.416666666666667
-0.396630583544056 -0.0106191161689165 0.416666666666667
-0.401595692827901 -0.0293760889727884 0.416666666666667
-0.409088696860479 -0.0362332905081879 0.416666666666667
-0.404680403656641 -0.0560771923824119 0.416666666666667
-0.413451970283278 -0.0689925449769873 0.416666666666667
-0.414659228489261 -0.0675247619795039 0.416666666666667
-0.4114011151898 -0.0877224211400225 0.416666666666667
-0.408190712854499 -0.0960444609627229 0.416666666666667
-0.412707251581563 -0.120900298779767 0.416666666666667
-0.415997203451567 -0.130847840475012 0.416666666666667
-0.413209743847478 -0.131035872020505 0.416666666666667
-0.42067325897041 -0.148019320485912 0.416666666666667
-0.417137227237123 -0.153225655659277 0.416666666666666
-0.421448542267042 -0.168518071139849 0.416666666666667
-0.428634021557331 -0.183688331815579 0.416666666666667
-0.424251425227829 -0.20256282285647 0.416666666666667
-0.430297470021103 -0.211654603265728 0.416666666666667
-0.434178970344642 -0.235762763134147 0.416666666666666
-0.428395319971534 -0.246852845610165 0.416666666666667
-0.432112916137715 -0.257595130618258 0.416666666666667
-0.437499554296508 -0.269807195799517 0.416666666666667
-0.354420251153556 0.256944444444444 0.377336624866055
-0.355663517513351 0.256944444444444 0.387268237225945
-0.353833395524136 0.270833333333333 0.402950576809982
-0.359478156517696 0.270833333333333 0.413592099001329
-0.354174425004663 0.257791655256448 0.416666666666667
-0.353511004671556 0.251655810016206 0.416666666666667
-0.355066005291868 0.250102835916563 0.416666666666667
-0.359113725979359 0.23058109354695 0.416666666666667
-0.363337760086864 0.223540254467782 0.416666666666667
-0.35804931465636 0.211809416952525 0.416666666666667
-0.360512789581563 0.193892687036042 0.416666666666667
-0.363895234941153 0.194769239924736 0.416666666666667
-0.365113122638644 0.187479573595152 0.416666666666667
-0.365349596989428 0.173605505501125 0.416666666666666
-0.365596426811683 0.1563123829082 0.416666666666667
-0.369444468123362 0.154291281318209 0.416666666666667
-0.368260089244247 0.13969253979058 0.416666666666667
-0.369384429867293 0.130746955673067 0.416666666666667
-0.375624996055064 0.119006289890095 0.416666666666667
-0.3801612505448 0.107661380375938 0.416666666666666
-0.372654895698355 0.097513771451867 0.416666666666666
-0.383073302205153 0.0861333731087174 0.416666666666667
-0.383650256680223 0.0768569732883811 0.416666666666667
-0.382326189474814 0.065106285148393 0.416666666666666
-0.386710832251446 0.0503751765320344 0.416666666666667
-0.381774939241394 0.0448676495673568 0.416666666666666
-0.387120453152086 0.0362852845941599 0.416666666666667
-0.388192281898657 0.0155746990389446 0.416666666666667
-0.38616396344551 0.00949490771129446 0.416666666666667
-0.388090374602903 -0.00228546949994848 0.416666666666666
-0.389739618661254 -0.0228935819496874 0.416666666666667
-0.390261850010234 -0.0226573222999972 0.416666666666667
-0.393301451858024 -0.0384781204139045 0.416666666666666
-0.39676599033007 -0.0552852496415548 0.416666666666667
-0.394758086664951 -0.0619339132327882 0.416666666666667
-0.402666121752394 -0.0723835820207986 0.416666666666666
-0.400386767180869 -0.0870171306605667 0.416666666666667
-0.405445887580648 -0.103840539045548 0.416666666666667
-0.407659047070658 -0.119770458914902 0.416666666666667
-0.401327475838467 -0.122210880210787 0.416666666666667
-0.409263231284469 -0.135509421671916 0.416666666666667
-0.406181283936884 -0.155829297258725 0.416666666666667
-0.409938184193083 -0.168759280975272 0.416666666666667
-0.418465716570076 -0.183241851206462 0.416666666666667
-0.419164506760057 -0.184666278008039 0.416666666666667
-0.418434539828686 -0.202332866891827 0.416666666666667
-0.417247164426699 -0.214764355364957 0.416666666666667
-0.419415673105124 -0.235436190015923 0.416666666666667
-0.420162305230721 -0.240037310474664 0.416666666666667
-0.423859846513404 -0.25928105817045 0.416666666666667
-0.427914254029326 -0.267500561921095 0.416666666666667
-0.350377447730447 0.256944444444444 0.377159912574682
-0.343521538548352 0.256944444444444 0.385765016821802
-0.344002502841784 0.270833333333333 0.413092572387656
-0.346040064537687 0.270833333333334 0.416137394490129
-0.343468015110758 0.261515124727292 0.416666666666667
-0.347466735853262 0.25963355506626 0.416666666666667
-0.352381254723118 0.240813939236201 0.416666666666667
-0.350584877008981 0.231453503111616 0.416666666666667
-0.355067166178121 0.221838408123227 0.416666666666667
-0.351523920106693 0.204671094883291 0.416666666666667
-0.356205235499804 0.201819135436151 0.416666666666667
-0.352668031817614 0.192393573224798 0.416666666666667
-0.361488654957215 0.178545513320814 0.416666666666667
-0.354577124773473 0.170908785307973 0.416666666666667
-0.360777620612624 0.151509434786407 0.416666666666667
-0.361198726175938 0.143739754253295 0.416666666666667
-0.363879862630633 0.14415439048051 0.416666666666667
-0.367638385068664 0.128677865578921 0.416666666666667
-0.367273957170323 0.11296436114971 0.416666666666667
-0.364317350183397 0.107584567064363 0.416666666666667
-0.372326521601865 0.0952531549748463 0.416666666666667
-0.368390986881208 0.0879870544858952 0.416666666666667
-0.369840166734849 0.0767383876844169 0.416666666666667
-0.373751058221562 0.0652198277176349 0.416666666666667
-0.377866471643507 0.0468854337874251 0.416666666666667
-0.37725937180426 0.0456862220106713 0.416666666666666
-0.376851234597061 0.0312342288301221 0.416666666666667
-0.380483581391159 0.0152632532355843 0.416666666666667
-0.380036236678601 -0.000638748323015184 0.416666666666667
-0.375793804044505 -0.00136670491808538 0.416666666666667
-0.380063338606938 -0.0163493810196039 0.416666666666667
-0.378028991478206 -0.0206007934589847 0.416666666666667
-0.382299196024148 -0.0415941990326639 0.416666666666667
-0.383903503876291 -0.0541497325668184 0.416666666666667
-0.386457083329414 -0.060364643479221 0.416666666666667
-0.3884390977566 -0.0679882373235404 0.416666666666667
-0.392330143500959 -0.0888412497551065 0.416666666666667
-0.388975825506421 -0.0933615837723678 0.416666666666667
-0.393337839162939 -0.106388565995993 0.416666666666667
-0.3971134716961 -0.130321059419032 0.416666666666667
-0.394895201018242 -0.143555629260019 0.416666666666666
-0.394452189052846 -0.141381830634586 0.416666666666666
-0.397381228265927 -0.160291052063613 0.416666666666667
-0.404996995305993 -0.183732513527018 0.416666666666667
-0.399689450773601 -0.19308040011173 0.416666666666667
-0.406258798129772 -0.207503700023897 0.416666666666667
-0.410900562199387 -0.217246153852038 0.416666666666667
-0.404259130255155 -0.231515294064069 0.416666666666667
-0.414804221812786 -0.241568142069788 0.416666666666667
-0.411236002129104 -0.249633950422814 0.416666666666667
-0.342725867138574 0.256944444444444 0.378154063333609
-0.335554884935219 0.270833333333333 0.41321602448495
-0.334659715392651 0.264531418593848 0.416666666666666
-0.334045241010682 0.256977553413824 0.416666666666666
-0.340424580009464 0.249903025998864 0.416666666666667
-0.342950252342817 0.243602241274449 0.416666666666667
-0.338706466894712 0.232137371148099 0.416666666666667
-0.344478760157949 0.220042825609228 0.416666666666667
-0.347899954707611 0.214846118488017 0.416666666666667
-0.347814884023111 0.205562206385754 0.416666666666667
-0.350006596394064 0.189544927987667 0.416666666666667
-0.350534511144297 0.180171064055584 0.416666666666667
-0.352143846736677 0.173338648377622 0.416666666666667
-0.345214754504618 0.1629355946523 0.416666666666667
-0.348694907800202 0.150072939695399 0.416666666666667
-0.356929624734692 0.137772254268622 0.416666666666667
-0.358432538344705 0.124189049941877 0.416666666666667
-0.359146893987386 0.121686344625644 0.416666666666667
-0.353079657098027 0.110021793608398 0.416666666666667
-0.36180838418623 0.0909442466883518 0.416666666666667
-0.354509918552563 0.0866232474859438 0.416666666666667
-0.362795116669001 0.0780942392643 0.416666666666667
-0.363088024930489 0.0622915389034791 0.416666666666667
-0.361757461115271 0.0464368536165882 0.416666666666666
-0.367585987357069 0.0403509185576615 0.416666666666666
-0.367684257307986 0.0339588641070578 0.416666666666667
-0.365667546579083 0.0143622768316556 0.416666666666667
-0.371575132459675 0.0014031321599582 0.416666666666667
-0.365225549295883 0.00301071090949813 0.416666666666667
-0.369286833822825 -0.0185673539531879 0.416666666666667
-0.378344450793448 -0.0255462215616978 0.416666666666667
-0.370829859422149 -0.0327947080167248 0.416666666666667
-0.381243916346667 -0.0621763163060395 0.416666666666667
-0.38220474262293 -0.057562406992536 0.416666666666667
-0.374615431359694 -0.0754757441761594 0.416666666666666
-0.379884438578565 -0.0841693483904573 0.416666666666667
-0.384645550289698 -0.0966094460260409 0.416666666666667
-0.382246226400786 -0.121025122304884 0.416666666666667
-0.384460119842184 -0.117601656887686 0.416666666666667
-0.383522814538364 -0.137322636908823 0.416666666666667
-0.391397367918053 -0.146022527142877 0.416666666666667
-0.393501097741715 -0.168197494388569 0.416666666666667
-0.397233036636324 -0.178157442445243 0.416666666666667
-0.397067942741946 -0.185842729620155 0.416666666666667
-0.3991900984305 -0.202119117795126 0.416666666666667
-0.393149959869515 -0.207673244587307 0.416666666666666
-0.393986044207524 -0.221494510480004 0.416666666666667
-0.400966123709627 -0.248979976653917 0.416666666666667
-0.406664600790811 -0.265463908357701 0.416666666666667
-0.402489759061874 -0.268872113558148 0.416666666666667
-0.332536373302237 0.256944444444444 0.375810844070518
-0.329667809873546 0.256944444444444 0.381833728254882
-0.331344358224437 0.270833333333333 0.404767854513861
-0.324669143357433 0.270833333333333 0.410852052726749
-0.330245374634916 0.263765971727981 0.416666666666666
-0.329797670079647 0.251110272177597 0.416666666666667
-0.329190430348757 0.24536657375269 0.416666666666667
-0.334384827843606 0.239218210351738 0.416666666666667
-0.337073296154781 0.224509915224803 0.416666666666667
-0.335494459754801 0.212394282071874 0.416666666666667
-0.335436770598311 0.206014427760276 0.416666666666667
-0.332593868620094 0.196053599026459 0.416666666666667
-0.340418526814663 0.18156063276116 0.416666666666667
-0.336129596556521 0.175549025523738 0.416666666666667
-0.342379677834302 0.160411387119124 0.416666666666666
-0.338955091614002 0.146394914215435 0.416666666666667
-0.342364489142701 0.139173021739319 0.416666666666667
-0.339991792813617 0.135389684210998 0.416666666666667
-0.3457979816653 0.115457539257984 0.416666666666667
-0.344211724977267 0.108474840134722 0.416666666666667
-0.347842679737634 0.0975326838562148 0.416666666666666
-0.354642844143353 0.080543652037004 0.416666666666667
-0.353390638872569 0.0727634747886251 0.416666666666666
-0.349742524197205 0.0687414168945714 0.416666666666667
-0.351574095193947 0.051945786380101 0.416666666666667
-0.351894725208433 0.0428752416535346 0.416666666666667
-0.353009567116944 0.0311605086797383 0.416666666666666
-0.359988393112402 0.0132945400426793 0.416666666666667
-0.357153922102459 0.0111533621847992 0.416666666666667
-0.363005268945913 0.00179593572324526 0.416666666666667
-0.365202888604777 -0.00914920969600691 0.416666666666667
-0.367311445304335 -0.0322718240994158 0.416666666666667
-0.363186658705329 -0.043003209862 0.416666666666667
-0.365571203016207 -0.0549932729712721 0.416666666666667
-0.368249151971119 -0.0563204234307893 0.416666666666667
-0.367637151770805 -0.0716285376506302 0.416666666666667
-0.366089576185862 -0.0909305661163792 0.416666666666667
-0.367703577571527 -0.100153476696195 0.416666666666667
-0.3719316022004 -0.112412681428313 0.416666666666667
-0.379771380167951 -0.128983128190462 0.416666666666667
-0.381100318536078 -0.139964536126014 0.416666666666667
-0.379333570659166 -0.152923892084773 0.416666666666667
-0.378278493859438 -0.171344114068937 0.416666666666667
-0.378023652725324 -0.178447082324071 0.416666666666666
-0.385937554346191 -0.183241730176551 0.416666666666667
-0.381850517930398 -0.205498307639563 0.416666666666667
-0.382720727208815 -0.215157639219378 0.416666666666667
-0.389499213325452 -0.231435444214361 0.416666666666666
-0.388341623002916 -0.247636724702111 0.416666666666667
-0.390492253146653 -0.265153372871602 0.416666666666666
-0.389677704857247 -0.263209794264691 0.416666666666666
-0.324171283894702 0.256944444444444 0.383412673855483
-0.31764844487244 0.270833333333333 0.4130263977257
-0.316667323909537 0.266635166166345 0.416666666666667
-0.32041872248709 0.258941263856683 0.416666666666666
-0.318005458120708 0.251924849766634 0.416666666666667
-0.318932552630119 0.245481968523295 0.416666666666667
-0.324895117420619 0.230330501034473 0.416666666666667
-0.322315819127072 0.224517093159952 0.416666666666667
-0.327274399477259 0.216255529723634 0.416666666666667
-0.330236952974861 0.197700980923561 0.416666666666667
-0.328771512208242 0.192546649499128 0.416666666666666
-0.324873133680199 0.188255716070671 0.416666666666667
-0.328200518998719 0.177192487138831 0.416666666666666
-0.333339139682877 0.167527278208199 0.416666666666667
-0.335449358041926 0.146816196283519 0.416666666666667
-0.330595260705878 0.13947269769612 0.416666666666667
-0.33212346883594 0.123512904906992 0.416666666666667
-0.339470847735766 0.115238794166369 0.416666666666667
-0.333720897519469 0.110445607796164 0.416666666666666
-0.337584451501119 0.0975019406103163 0.416666666666667
-0.342251489471686 0.0841752710343428 0.416666666666667
-0.343226733078529 0.0778323489485293 0.416666666666667
-0.338340364495022 0.06717278472422 0.416666666666667
-0.344014081764071 0.0480832659900456 0.416666666666666
-0.343433945466146 0.0499116168512356 0.416666666666667
-0.34829988762578 0.0344920981808317 0.416666666666667
-0.34526165008841 0.0256270091426405 0.416666666666667
-0.347031239688221 0.00119098701011554 0.416666666666667
-0.347060508734467 -0.000191343920940687 0.416666666666667
-0.350182504916066 -0.019386015958774 0.416666666666666
-0.349533059759059 -0.0267830223622397 0.416666666666667
-0.355206744115458 -0.0325233993961991 0.416666666666667
-0.351695746161359 -0.0597880310004573 0.416666666666667
-0.353135092169076 -0.0644660430095796 0.416666666666667
-0.358799245904762 -0.0706110236935101 0.416666666666667
-0.362478197449424 -0.0870389270224844 0.416666666666667
-0.36396194758101 -0.0970374474900226 0.416666666666667
-0.366017066483551 -0.116497854703507 0.416666666666666
-0.361385536716945 -0.132657092543388 0.416666666666667
-0.367970701810805 -0.137689635427713 0.416666666666667
-0.36362217743206 -0.149298017427612 0.416666666666667
-0.368571746107371 -0.162311375735252 0.416666666666667
-0.370435667373385 -0.176503421723336 0.416666666666667
-0.376896459597075 -0.188074607313208 0.416666666666667
-0.371524133416632 -0.202961209528701 0.416666666666667
-0.371874704295852 -0.209865995275011 0.416666666666667
-0.375090853125624 -0.226847344590281 0.416666666666667
-0.374355587755119 -0.234903189792833 0.416666666666666
-0.382505826911314 -0.247118518350263 0.416666666666666
-0.380287948144952 -0.270289241484721 0.416666666666667
-0.308259218029545 0.256944444444444 0.375045395735896
-0.312156616510614 0.256944444444444 0.385066281042316
-0.309820566340675 0.270833333333334 0.403043423930773
-0.310854176912513 0.270833333333334 0.412983887971985
-0.315469399637797 0.254674110602479 0.416666666666667
-0.311549870725504 0.25259097587879 0.416666666666667
-0.310697618740856 0.242312016404393 0.416666666666667
-0.311024398679986 0.233882808000891 0.416666666666667
-0.3156614316157 0.224141173853957 0.416666666666666
-0.319673993639156 0.207541914854805 0.416666666666667
-0.320963958973456 0.203512609864508 0.416666666666667
-0.314535818926199 0.196190540002152 0.416666666666667
-0.322357079352829 0.178504347319112 0.416666666666667
-0.323783234947302 0.173204283627049 0.416666666666666
-0.319111877433529 0.159173932434377 0.416666666666666
-0.325657491808124 0.150834183327571 0.416666666666667
-0.3226693451301 0.142908369346863 0.416666666666667
-0.328054059178423 0.133009029279896 0.416666666666667
-0.330262888992075 0.119604369869075 0.416666666666667
-0.327033785888037 0.112370361795249 0.416666666666667
-0.327520747188334 0.0930016238753677 0.416666666666667
-0.326247125010751 0.0888502988698088 0.416666666666667
-0.334148440185112 0.0715703396867138 0.416666666666667
-0.333421718468514 0.0590654703678501 0.416666666666667
-0.335946490440958 0.0607611390849446 0.416666666666666
-0.337737841701017 0.0355595007274813 0.416666666666667
-0.33761711888009 0.0337402300074545 0.416666666666667
-0.342367267069302 0.0173213087447934 0.416666666666667
-0.33901225943857 0.00789150467040541 0.416666666666666
-0.341789565638447 0.00120508869245481 0.416666666666667
-0.344673284560406 -0.0233481174106956 0.416666666666667
-0.33958228810309 -0.0250718486890509 0.416666666666666
-0.340699983776949 -0.0421226942115444 0.416666666666667
-0.347744649566632 -0.0504737339873431 0.416666666666667
-0.342376954133377 -0.0576829903748509 0.416666666666667
-0.34427351610435 -0.0724072186167292 0.416666666666666
-0.3539268073899 -0.0888070980828167 0.416666666666667
-0.346968363911481 -0.0959072592756565 0.416666666666667
-0.351016936142106 -0.118508305012505 0.416666666666667
-0.349014433735776 -0.123111898121061 0.416666666666667
-0.357776804131244 -0.137920461439107 0.416666666666667
-0.35535789833116 -0.141755334043823 0.416666666666667
-0.355391690478879 -0.157203094345354 0.416666666666667
-0.361474012199384 -0.178889098937203 0.416666666666667
-0.360736085090819 -0.191239153093411 0.416666666666667
-0.361445261732183 -0.194507396137071 0.416666666666667
-0.361665008403207 -0.215160704707007 0.416666666666667
-0.370164669476905 -0.224340556423929 0.416666666666667
-0.36759454395336 -0.252320277856255 0.416666666666667
-0.364701342707099 -0.266169363147605 0.416666666666667
-0.375287832125122 -0.264252709890825 0.416666666666667
-0.304845680647305 0.256944444444444 0.375444150327435
-0.299706713976254 0.256944444444444 0.381907216595304
-0.298348994126153 0.256944444444445 0.387526150562928
-0.303412400691296 0.270833333333333 0.414915073239942
-0.296900814995199 0.258095733000773 0.416666666666666
-0.306409190906443 0.255837092533726 0.416666666666667
-0.30541364079978 0.242860644731243 0.416666666666667
-0.304061339925166 0.231282227453033 0.416666666666667
-0.302840334079978 0.218749576026178 0.416666666666667
-0.307907686593178 0.211937597623929 0.416666666666666
-0.308558713781316 0.208089439712283 0.416666666666667
-0.31205646942665 0.193040813576734 0.416666666666667
-0.308678382616528 0.18045108473502 0.416666666666667
-0.311658031459647 0.173177435804409 0.416666666666667
-0.315481577874034 0.161137386582993 0.416666666666667
-0.313229199633994 0.15007779959643 0.416666666666667
-0.314405589301994 0.137925650807898 0.416666666666667
-0.314442951154625 0.128768365147052 0.416666666666667
-0.315262467564245 0.113686005332732 0.416666666666667
-0.318248556213326 0.101044794199346 0.416666666666667
-0.318248224082774 0.096529624762619 0.416666666666667
-0.319153367219675 0.0921410192111959 0.416666666666667
-0.326401899531082 0.0718781424173873 0.416666666666667
-0.320710340135253 0.0621974312259852 0.416666666666666
-0.323091406115886 0.0484080106848999 0.416666666666667
-0.32520925574758 0.0429734493926507 0.416666666666667
-0.327327398151565 0.0375277482560641 0.416666666666667
-0.330722670685049 0.022318373092143 0.416666666666667
-0.334431233365731 -0.000128181108160999 0.416666666666667
-0.32815807315141 -0.00402426420095661 0.416666666666666
-0.333063573591437 -0.0172587529132829 0.416666666666667
-0.335859819840251 -0.0269040569380032 0.416666666666667
-0.338249816967813 -0.0315293053289649 0.416666666666667
-0.333961854090358 -0.0483204637058329 0.416666666666667
-0.332498167532703 -0.0548204720488537 0.416666666666667
-0.339817189430865 -0.0776632867054998 0.416666666666667
-0.340760854261501 -0.0789629644121359 0.416666666666667
-0.337598592370445 -0.100819800938977 0.416666666666667
-0.346137004812193 -0.11304245287511 0.416666666666667
-0.342504845323239 -0.116648936049592 0.416666666666667
-0.340999061147596 -0.144561803067169 0.416666666666667
-0.347038613490418 -0.145434279371072 0.416666666666667
-0.344734890878405 -0.155007049639859 0.416666666666667
-0.354150265004962 -0.16976667485332 0.416666666666667
-0.346510838714826 -0.184943713421853 0.416666666666667
-0.354496040527975 -0.199846595759883 0.416666666666667
-0.351023992844094 -0.217419952171303 0.416666666666667
-0.352566597490087 -0.224153053611858 0.416666666666667
-0.361946185299824 -0.244207073623405 0.416666666666667
-0.356929370024123 -0.262294381555597 0.416666666666667
-0.364200739115008 -0.260172125086425 0.416666666666667
-0.291561187421907 0.270833333333333 0.405808477437919
-0.291480854779794 0.270833333333334 0.40581622587107
-0.293951263072602 0.270387093210558 0.416666666666666
-0.292785585226175 0.266830820552221 0.416666666666667
-0.297651720743538 0.245426525628951 0.416666666666666
-0.292828253330473 0.247899672856408 0.416666666666667
-0.294004103230436 0.227863024974292 0.416666666666666
-0.297690782323457 0.222227349058754 0.416666666666667
-0.298597233525278 0.204534962276417 0.416666666666667
-0.297541679182585 0.204807377752693 0.416666666666667
-0.299274495953669 0.191721313175252 0.416666666666667
-0.304733954939905 0.184884534078873 0.416666666666667
-0.300098626445176 0.170718143302406 0.416666666666667
-0.304228588698142 0.163597780484708 0.416666666666667
-0.304404583715639 0.146546908752441 0.416666666666667
-0.302568434082145 0.135349003930124 0.416666666666667
-0.308491023584366 0.126660247439835 0.416666666666667
-0.305590284345754 0.121288607586052 0.416666666666667
-0.304153792218264 0.100304103081292 0.416666666666667
-0.313079311395479 0.101504675662355 0.416666666666667
-0.315246881973284 0.0901482445597667 0.416666666666667
-0.31301614774577 0.0730725161969998 0.416666666666667
-0.3175233863808 0.0653637833080519 0.416666666666667
-0.315292370108876 0.0531748127475372 0.416666666666667
-0.311590176131176 0.0405092667077539 0.416666666666667
-0.320827400584294 0.0304703236500793 0.416666666666667
-0.315087603538454 0.0242444905553123 0.416666666666667
-0.315898464788451 0.0181641431157116 0.416666666666667
-0.321665731664652 -0.00919365554942896 0.416666666666667
-0.319811245855172 -0.0166926922151119 0.416666666666667
-0.325122143681249 -0.0292244393146051 0.416666666666667
-0.324612557282822 -0.0353540170664286 0.416666666666667
-0.322947114930131 -0.0482367876866027 0.416666666666667
-0.329318954278098 -0.0684347255782638 0.416666666666667
-0.326439468064383 -0.0732801526758655 0.416666666666666
-0.334080459391659 -0.0907679621010256 0.416666666666667
-0.330000319386654 -0.099010884200586 0.416666666666667
-0.334695063779534 -0.120003135981462 0.416666666666666
-0.334672947647696 -0.121798806916206 0.416666666666667
-0.336933314775474 -0.133854126831503 0.416666666666667
-0.340349775294432 -0.153330497658404 0.416666666666667
-0.339643833237586 -0.161510333482566 0.416666666666667
-0.337276346411912 -0.179603087262441 0.416666666666667
-0.34561410578541 -0.197856450163082 0.416666666666667
-0.33683401362759 -0.200752698885884 0.416666666666667
-0.344948755131189 -0.219650691091093 0.416666666666667
-0.34843975878844 -0.231525209663153 0.416666666666667
-0.347145453289622 -0.23583953030255 0.416666666666667
-0.349786243970253 -0.263542521032153 0.416666666666667
-0.279660585035002 0.256944444444445 0.382798208526438
-0.284925913825729 0.256944444444444 0.38624156542706
-0.277437904444267 0.270833333333333 0.40366325996133
-0.286576613133809 0.270833333333334 0.414167704843598
-0.286674751018283 0.265675756631145 0.416666666666667
-0.286268920932134 0.248902858954229 0.416666666666667
-0.290009796629364 0.23947350394458 0.416666666666667
-0.287787223748833 0.233732343165124 0.416666666666667
-0.290709453885902 0.22109682608174 0.416666666666667
-0.290202815741828 0.217076502376164 0.416666666666667
-0.288641691852603 0.199852831611354 0.416666666666667
-0.294612413606005 0.186272375249068 0.416666666666667
-0.291320971449797 0.18509411960522 0.416666666666667
-0.296678178724261 0.171060438543774 0.416666666666667
-0.295278429271278 0.164648666016709 0.416666666666667
-0.291983985788888 0.143943279449899 0.416666666666666
-0.290928886111562 0.142627404638297 0.416666666666667
-0.297200019775416 0.131429252965025 0.416666666666666
-0.299347351877954 0.120468389126627 0.416666666666666
-0.296217381303279 0.102827551526162 0.416666666666667
-0.297674689834217 0.0900345852474989 0.416666666666667
-0.30334680303155 0.085591897569617 0.416666666666667
-0.29912687691416 0.0750765654437297 0.416666666666667
-0.301533392701072 0.0599258317942098 0.416666666666667
-0.299889314509735 0.0600805032477268 0.416666666666667
-0.30149904158728 0.0361418590876625 0.416666666666667
-0.308985895967288 0.0272847488106218 0.416666666666667
-0.312092478832634 0.0135492993028468 0.416666666666667
-0.304903438189142 0.00788309323133874 0.416666666666666
-0.306118496265826 0.00195745439457344 0.416666666666667
-0.312946395350149 -0.0144982587153313 0.416666666666667
-0.311809937413352 -0.0231716282758887 0.416666666666667
-0.31048417942602 -0.0346764213230172 0.416666666666667
-0.31710892381772 -0.0550349063911338 0.416666666666667
-0.319520760508962 -0.0686712269660544 0.416666666666666
-0.31491601744289 -0.0716919972179356 0.416666666666667
-0.318928250611078 -0.087760940370515 0.416666666666667
-0.321429419731424 -0.102042860769277 0.416666666666667
-0.317605335090351 -0.121138390093465 0.416666666666667
-0.327280559053054 -0.120173582541899 0.416666666666667
-0.325901209249855 -0.138151088447868 0.416666666666667
-0.327487380528471 -0.148173563293001 0.416666666666667
-0.330667562149484 -0.160750104412044 0.416666666666667
-0.331437106457235 -0.167635648678317 0.416666666666667
-0.324095604759939 -0.186348290762666 0.416666666666667
-0.329244377844043 -0.204025743729762 0.416666666666667
-0.334442315765737 -0.214306724867967 0.416666666666667
-0.338172239062202 -0.234589689443272 0.416666666666667
-0.339813289844064 -0.241773755009512 0.416666666666666
-0.3417792362289 -0.259641150217063 0.416666666666667
-0.342364896635346 -0.267712963363903 0.416666666666667
-0.27563200634371 0.256944444444444 0.385289960836275
-0.272401390364536 0.270833333333333 0.412254226406128
-0.273512932924752 0.270833333333334 0.40952708172011
-0.275570426710149 0.258060583561287 0.416666666666667
-0.272816904385567 0.253198583751225 0.416666666666666
-0.275450707481228 0.235652378982408 0.416666666666667
-0.279329624793181 0.228796046844913 0.416666666666667
-0.275291468403159 0.216533437722267 0.416666666666667
-0.282300011315169 0.216014266462497 0.416666666666667
-0.284441813082694 0.198920955753381 0.416666666666667
-0.278357234386959 0.198339325410393 0.416666666666667
-0.284721539331235 0.173187637607552 0.416666666666667
-0.287003303071277 0.176957672369272 0.416666666666666
-0.279742778518166 0.164567872916988 0.416666666666667
-0.288851218970423 0.148126156500344 0.416666666666666
-0.281952006883322 0.142002558216775 0.416666666666667
-0.283638232271366 0.128675361056629 0.416666666666667
-0.28788898335428 0.121890407280664 0.416666666666667
-0.289084146809358 0.111581654118668 0.416666666666667
-0.289988803854688 0.0982478469034657 0.416666666666667
-0.292905263824912 0.0926380891776083 0.416666666666667
-0.289315089250007 0.0762593835698788 0.416666666666667
-0.29342308746027 0.0662168561774451 0.416666666666667
-0.299378315527373 0.051055373069765 0.416666666666667
-0.29500519926634 0.0487237973209836 0.416666666666667
-0.292369494291798 0.0325681889004666 0.416666666666667
-0.298667065731064 0.0193208305372397 0.416666666666667
-0.296495125474697 0.0152406747249428 0.416666666666667
-0.305044677833752 -0.00723426929591279 0.416666666666666
-0.302287765353916 -0.0159128128385305 0.416666666666667
-0.300256158284733 -0.0244377249247183 0.416666666666667
-0.302165852561522 -0.0369402618100421 0.416666666666667
-0.309845007595369 -0.0530907895271099 0.416666666666667
-0.306990006007061 -0.0562399552213618 0.416666666666667
-0.305557152275703 -0.0786404826444301 0.416666666666667
-0.311495441328147 -0.0873616706085617 0.416666666666667
-0.30874672490457 -0.100300360599631 0.416666666666667
-0.308219230146679 -0.103321785028911 0.416666666666667
-0.310391402825566 -0.115381735521696 0.416666666666667
-0.314200611371282 -0.14503303725168 0.416666666666667
-0.312564580484199 -0.151967249067962 0.416666666666667
-0.312768021348755 -0.164537136322547 0.416666666666667
-0.320578311862599 -0.17631879712211 0.416666666666667
-0.32014036352713 -0.19482366784605 0.416666666666667
-0.324045106374849 -0.198561450979829 0.416666666666667
-0.325451310178576 -0.216185587185096 0.416666666666667
-0.326188963807873 -0.235023566611364 0.416666666666667
-0.329665837144442 -0.243993810492148 0.416666666666667
-0.322927303155122 -0.265745550469566 0.416666666666667
-0.267282122125915 0.256944444444444 0.379067811317261
-0.267217495567772 0.270833333333333 0.414777395433799
-0.259775492622892 0.267457814650121 0.416666666666667
-0.268562389538336 0.259343389055945 0.416666666666667
-0.266789603135685 0.248127885436487 0.416666666666667
-0.265334786031863 0.245442189881415 0.416666666666667
-0.271455396146442 0.225824769751049 0.416666666666667
-0.265938088912248 0.215808828396355 0.416666666666667
-0.273714679819612 0.215053903186488 0.416666666666667
-0.266356134697561 0.204460089695827 0.416666666666666
-0.270756892126906 0.18411426115555 0.416666666666666
-0.276148731436613 0.182907757787307 0.416666666666667
-0.277193613579502 0.174818237150275 0.416666666666667
-0.275125789391475 0.160032828405089 0.416666666666667
-0.280107749744573 0.152960347207806 0.416666666666667
-0.275271871827957 0.137366606653055 0.416666666666667
-0.282150862511609 0.129565762555362 0.416666666666666
-0.277126535074951 0.121599213750184 0.416666666666666
-0.281950082925118 0.115323565836761 0.416666666666666
