ply
format ascii 1.0
element vertex 842
property float x
property float y
property float z
end_header
-0.334538974054776 -0.0489810768169018 0.363843295173311
-0.33868734804819 -0.0339359375989795 0.363843295173311
-0.348736003354214 -0.0295919161335158 0.363843295173311
-0.355917634780593 -0.0239979425128076 0.363843295173311
-0.375531581363683 -0.0142133988407404 0.363843295173311
-0.385327887605323 -0.0020739906462518 0.363843295173311
-0.388047421203304 0.00235731215548422 0.363843295173311
-0.40477331431043 0.0122225089538114 0.363843295173311
-0.407282032147671 0.0171012551649428 0.363843295173311
-0.430120680340743 0.031625416370264 0.363843295173311
-0.434895560380921 0.0395542277337267 0.363843295173311
-0.437743314448309 0.0445943248476751 0.363843295173311
-0.459258062547931 0.0577340270186862 0.363843295173311
-0.464685902714198 0.0716587871952211 0.363843295173311
-0.477353816104164 0.0741098432823093 0.363843295173311
-0.272882471379978 -0.114650949711777 0.00189945862906202
-0.272882471379978 -0.108199916940944 0.00617709667174118
-0.272882471379978 -0.105369806507668 0.0187797615422838
-0.272882471379978 -0.110414801652493 0.0264936634775662
-0.272882471379978 -0.110591233861736 0.0419364684901388
-0.272882471379978 -0.111604194360637 0.0413717623965641
-0.272882471379978 -0.112505172581708 0.0709476267389147
-0.272882471379978 -0.1124837231808 0.0741669428761161
-0.272882471379978 -0.106615095336275 0.0794892032333685
-0.272882471379978 -0.104436175789084 0.0825849625890074
-0.272882471379978 -0.104380948789069 0.0951044745838784
-0.272882471379978 -0.106169474743277 0.113649406904774
-0.272882471379978 -0.105953255766076 0.117638083977631
-0.272882471379978 -0.102094192873037 0.130306132453486
-0.272882471379978 -0.105793510125128 0.144742702904982
-0.272882471379978 -0.114874784699238 0.152048972151326
-0.272882471379978 -0.107669949584019 0.156350776777178
-0.272882471379978 -0.11310706670259 0.172115552823553
-0.272882471379978 -0.110576343631404 0.17769861291273
-0.272882471379978 -0.113085878884129 0.193422302271925
-0.138841282771899 -0.218305977103983 0.361963114164956
-0.144790356240023 -0.214321772890999 0.363843295173311
-0.152721655461426 -0.208403957509117 0.363843295173311
-0.161099322522242 -0.195784962764877 0.363843295173311
-0.173502590491662 -0.19157124694019 0.363843295173311
-0.172283011569024 -0.194078579856352 0.363843295173311
-0.192191821318586 -0.17224336957066 0.363843295173311
-0.201004275966089 -0.176086725975717 0.363843295173311
-0.208329378253462 -0.164956804610034 0.363843295173311
-0.209694726051281 -0.157389705165269 0.363843295173311
-0.224929244565926 -0.15418538931537 0.363843295173311
-0.231954005512171 -0.146335597742626 0.363843295173311
-0.236627903864558 -0.141832420171942 0.363843295173311
-0.247173527668161 -0.125389491043562 0.363843295173311
-0.257761798949453 -0.11751834478923 0.363843295173311
-0.277352124293769 -0.104993157876269 0.363843295173311
-0.279662945869559 -0.10333416377225 0.363843295173311
-0.291534061971702 -0.0926364901668517 0.363843295173311
-0.305623902641246 -0.087884508642457 0.363843295173311
-0.305328389693263 -0.0774044826895186 0.363843295173311
-0.32444609616296 -0.0706865621723499 0.363843295173311
-0.336076888070068 -0.0623836503200869 0.363843295173311
-0.340797481689978 -0.0514605818239981 0.363843295173311
-0.343553251687698 -0.0486367527170618 0.363843295173311
-0.351037433069213 -0.038302934133537 0.363843295173311
-0.372423234314562 -0.0301786233917621 0.363843295173311
-0.380051385288203 -0.0158661529593853 0.363843295173311
-0.390686087154315 -0.015676602494324 0.363843295173311
-0.399727273257726 0.00588493239683821 0.363843295173311
-0.409780375886476 0.00730673671333883 0.363843295173311
-0.416581693371076 0.00955139543006662 0.363843295173311
-0.436040780015203 0.0216742046058148 0.363843295173311
-0.437384301376058 0.0372155896014028 0.363843295173311
-0.451253447785148 0.0414440142114785 0.363843295173311
-0.464700704850608 0.0481620768339439 0.363843295173311
-0.478435539648659 0.0695639479374691 0.363843295173311
-0.272882471379978 -0.124045335571087 0.0217011135804991
-0.272882471379978 -0.129456846081961 0.0319237141123012
-0.272882471379978 -0.126315623954418 0.0396575653822403
-0.272882471379978 -0.130200493587085 0.054601039200453
-0.272882471379978 -0.118137337981322 0.0609035975714254
-0.272882471379978 -0.124221843272659 0.0715527311072692
-0.272882471379978 -0.119963779730498 0.0791507168202257
-0.272882471379978 -0.118620865066621 0.082775332228148
-0.272882471379978 -0.12403476223195 0.0990386312985133
-0.272882471379978 -0.124815123038394 0.109594561461936
-0.272882471379978 -0.113826052562054 0.120310795475629
-0.272882471379978 -0.124558390931542 0.142436248653113
-0.272882471379978 -0.119589536156598 0.142873848409037
-0.272882471379978 -0.126003704366042 0.154764835475027
-0.272882471379978 -0.113526756469403 0.156725263839073
-0.272882471379978 -0.119607395893678 0.175961637128368
-0.272882471379978 -0.12342506911256 0.183512609693789
-0.272882471379978 -0.123396276430257 0.190759055374506
-0.272882471379978 -0.12146625890595 0.206785010987736
-0.272882471379978 -0.125306788650048 0.212194382920342
-0.157190171049317 -0.218305977103983 0.362874733647837
-0.161845343783292 -0.212522257193357 0.363843295173311
-0.1709282301094 -0.211302550321179 0.363843295173311
-0.17418910941452 -0.198234350311579 0.363843295173311
-0.187889593622162 -0.194094238261388 0.363843295173311
-0.198335110909279 -0.18686800985116 0.363843295173311
-0.204672648862246 -0.182709951663293 0.363843295173311
-0.213757884009107 -0.169527699610634 0.363843295173311
-0.221083611016903 -0.1686819819113 0.363843295173311
-0.239333145854901 -0.154369399714389 0.363843295173311
-0.237054261638507 -0.149606151284663 0.363843295173311
-0.253491990346453 -0.147999550783378 0.363843295173311
-0.257546745719817 -0.127401869142273 0.363843295173311
-0.268974303743433 -0.118160772732526 0.363843295173311
-0.281500313314591 -0.119854540313502 0.363843295173311
-0.289777269728726 -0.105989160980843 0.363843295173311
-0.298432890047035 -0.108252242867902 0.363843295173311
-0.302837188979771 -0.0927187650915219 0.363843295173311
-0.311778718861963 -0.0847797816426894 0.363843295173311
-0.32577930952618 -0.0737674334877742 0.363843295173311
-0.332539341640587 -0.0736998577002391 0.363843295173311
-0.3499450429924 -0.0552123332436786 0.363843295173311
-0.357704499413957 -0.0464716780008733 0.363843295173311
-0.364922332396248 -0.0440225213596431 0.363843295173311
-0.374158637662899 -0.0372386970271219 0.363843295173311
-0.379530860727669 -0.0303707244815659 0.363843295173311
-0.401211314210092 -0.0164904647959952 0.363843295173311
-0.407234569333544 -0.00751594540566589 0.363843295173311
-0.420369733835853 -0.00940230601890637 0.363843295173311
-0.436384270151497 0.0131844870550062 0.363843295173311
-0.43581794753051 0.0158190722738747 0.363843295173311
-0.445435891497721 0.0231889974125305 0.363843295173311
-0.467565851328072 0.0424485785193701 0.363843295173311
-0.475798951745389 0.0511015348926092 0.363843295173311
-0.478294152637488 0.0523627404062625 0.363843295173311
-0.492936551041644 0.0572255374530194 0.363843295173311
-0.272882471379978 -0.136906201358696 0.00488599433237373
-0.272882471379978 -0.13327911952278 0.00354929010275056
-0.272882471379978 -0.139478601662276 0.0166975260100769
-0.272882471379978 -0.139988634592461 0.0306078134704197
-0.272882471379978 -0.143178498694317 0.0436800417398146
-0.272882471379978 -0.132434056141112 0.044784524201612
-0.272882471379978 -0.132952642857333 0.0522256384218856
-0.272882471379978 -0.142159147297313 0.0741067940941098
-0.272882471379978 -0.136940383026158 0.0848295392479201
-0.272882471379978 -0.139409597057349 0.0819501684471043
-0.272882471379978 -0.135236790936633 0.0973453152877441
-0.272882471379978 -0.136976125952282 0.10916973885083
-0.272882471379978 -0.137650483418837 0.125023087804649
-0.272882471379978 -0.130194804588442 0.124260204314611
-0.272882471379978 -0.132663194727678 0.136482081889443
-0.272882471379978 -0.141447970435627 0.158756685492998
-0.272882471379978 -0.139855353613625 0.160328648559313
-0.272882471379978 -0.142918551391207 0.171315535977277
-0.272882471379978 -0.140220834428808 0.182940680490756
-0.272882471379978 -0.134493769267396 0.190770928769433
-0.272882471379978 -0.13207030385417 0.20162700009796
-0.272882471379978 -0.136945602887399 0.216966247666537
-0.272882471379978 -0.135091651970696 0.22730438563622
-0.272882471379978 -0.138227427439654 0.236615774271964
-0.172611134461791 -0.218305977103983 0.362778847142072
-0.173809705383739 -0.218305977103983 0.360404616130462
-0.186031483236951 -0.209706567063367 0.363843295173311
-0.185414862232395 -0.205039643887389 0.363843295173311
-0.200038144491187 -0.197243648927094 0.363843295173311
-0.211558416954723 -0.193082441677722 0.363843295173311
-0.22060504734145 -0.176305086195171 0.363843295173311
-0.227423782864845 -0.175568722068782 0.363843295173311
-0.237673507251809 -0.165785674289544 0.363843295173311
-0.253945979829985 -0.148952569390012 0.363843295173311
-0.26096147777601 -0.146570229968102 0.363843295173311
-0.269154064586083 -0.136941214554068 0.363843295173311
-0.279379138401563 -0.132768578578608 0.363843295173311
-0.280153800769177 -0.12340189500869 0.363843295173311
-0.290503010533858 -0.116396743230058 0.363843295173311
-0.298744096568224 -0.109471466969802 0.363843295173311
-0.314313942967448 -0.105490290687458 0.363843295173311
-0.324075171857494 -0.0942268476947051 0.363843295173311
-0.332343518628546 -0.089737167817955 0.363843295173311
-0.342704110279162 -0.0757499598630414 0.363843295173311
-0.351836709839195 -0.0772322850438823 0.363843295173311
-0.363879657141268 -0.0634099760426543 0.363843295173311
-0.373200109826736 -0.0469631674742409 0.363843295173311
-0.392205649493047 -0.0436761078169811 0.363843295173311
-0.399380205410259 -0.0318118454078644 0.363843295173311
-0.400219104273257 -0.0311661155182785 0.363843295173311
-0.423563580627784 -0.0102428087538984 0.363843295173311
-0.4334950633394 -0.00703620326404311 0.363843295173311
-0.435034012383311 0.00550113396123681 0.363843295173311
-0.445780142062726 0.00865419257085997 0.363843295173311
-0.455510721573055 0.0154206511823241 0.363843295173311
-0.467826829589201 0.0174607492576275 0.363843295173311
-0.479976486434563 0.0326401924239792 0.363843295173311
-0.497075971651118 0.0447013818197646 0.363843295173311
-0.272882471379978 -0.140265079801199 8.10119127082113e-005
-0.272882471379978 -0.151903349894474 0.00989049140956619
-0.272882471379978 -0.151460146975705 0.024972380158749
-0.272882471379978 -0.149582934986278 0.0346137960496575
-0.272882471379978 -0.145293747684765 0.0421038778360902
-0.272882471379978 -0.14145389086781 0.049825287615358
-0.272882471379978 -0.143750505730269 0.0689151223585149
-0.272882471379978 -0.154062749161336 0.0801164418584295
-0.272882471379978 -0.151214405676444 0.0892474644976691
-0.272882471379978 -0.151335955392858 0.0938177000294346
-0.272882471379978 -0.148701350875036 0.115177663225028
-0.272882471379978 -0.153792317061977 0.119618542226754
-0.272882471379978 -0.141045098519432 0.120741493174519
-0.272882471379978 -0.149034223332018 0.145182799560251
-0.272882471379978 -0.149489879826753 0.143449489210684
-0.272882471379978 -0.150694680195137 0.153062573922973
-0.272882471379978 -0.148614818526904 0.165242923268455
-0.272882471379978 -0.145154197339669 0.17751282467867
-0.272882471379978 -0.152065282462121 0.189770991687397
-0.272882471379978 -0.148251304628984 0.205912010057085
-0.272882471379978 -0.14743377809933 0.211937900116416
-0.272882471379978 -0.151310857208947 0.220599881423509
-0.272882471379978 -0.151685481173266 0.234142013518925
-0.272882471379978 -0.141799810506692 0.231561415062312
-0.272882471379978 -0.152585633540786 0.256600847853947
-0.192513640873909 -0.218305977103983 0.354936510802278
-0.200281266811996 -0.213804484409386 0.363843295173311
-0.201117378002318 -0.201110677771121 0.363843295173311
-0.20653393767242 -0.203561569771713 0.363843295173311
-0.219176709148672 -0.198842469971249 0.363843295173311
-0.228939290458395 -0.187139737120809 0.363843295173311
-0.238503276349612 -0.173145357738274 0.363843295173311
-0.245382448670519 -0.169187478199327 0.363843295173311
-0.254449276741877 -0.163705347211226 0.363843295173311
-0.256933254185794 -0.155346664342911 0.363843295173311
-0.268977646033472 -0.150187017352625 0.363843295173311
-0.285446923263382 -0.139688679886962 0.363843295173311
-0.292491003091268 -0.133966508813524 0.363843295173311
-0.304547682896582 -0.125457177503203 0.363843295173311
-0.320140715394499 -0.115304725717084 0.363843295173311
-0.32154511919206 -0.111588685261397 0.363843295173311
-0.331171493873573 -0.0993908966760194 0.363843295173311
-0.343631053922285 -0.0915836730745157 0.363843295173311
-0.352770332995996 -0.0850604255722311 0.363843295173311
-0.367294965487017 -0.0779221544480019 0.363843295173311
-0.372505148562536 -0.0665498061643739 0.363843295173311
-0.378318821929098 -0.061831336233855 0.363843295173311
-0.395463385960256 -0.0484922086168075 0.363843295173311
-0.395909362173525 -0.0487170225249448 0.363843295173311
-0.410778403390813 -0.0331583024128684 0.363843295173311
-0.420967624974352 -0.0244364497421523 0.363843295173311
-0.425421024433044 -0.024445199836543 0.363843295173311
-0.445099775599752 -0.00210538916195012 0.363843295173311
-0.450187895326535 -0.000644489290122129 0.363843295173311
-0.463125961375924 0.00867679336186572 0.363843295173311
-0.469609450729771 0.0169168231734056 0.363843295173311
-0.481907277706976 0.0218070562172193 0.363843295173311
-0.272882471379978 -0.165537672984003 0.00262605695586773
-0.272882471379978 -0.170629166469017 0.0233286916162525
-0.272882471379978 -0.15872408519639 0.0202117349372619
-0.272882471379978 -0.16212346489655 0.0259976900867613
-0.273760212261252 -0.16330397060246 0.0355250106490881
-0.273253633216476 -0.16330397060246 0.0602942907037436
-0.272882471379978 -0.161821948349646 0.0604020693867988
-0.273984100818821 -0.16330397060246 0.0781186265271551
-0.27556214213539 -0.16330397060246 0.0792314328029278
-0.272882471379978 -0.156251550137947 0.0878908713179128
-0.272882471379978 -0.159389584871892 0.109817712073754
-0.277421186386956 -0.16330397060246 0.111645640458616
-0.273121041625333 -0.16330397060246 0.132715385223792
-0.272882471379978 -0.15515359732128 0.128041356635176
-0.272882471379978 -0.159658972118563 0.143061412063147
-0.279755367694741 -0.16330397060246 0.1492322850023
-0.274475341756694 -0.16330397060246 0.170090973973869
-0.272882471379978 -0.162572238084437 0.174944089227575
-0.27643956227799 -0.16330397060246 0.189432698110491
-0.272882471379978 -0.158034379199983 0.195158361857385
-0.272882471379978 -0.154717501610798 0.200289615151777
-0.272882471379978 -0.1590223359666 0.213060866875328
-0.280105635623397 -0.16330397060246 0.224636519952496
-0.272882471379978 -0.160413435751688 0.239289331246975
-0.280957056501759 -0.16330397060246 0.241786798367837
-0.272882471379978 -0.160561950708771 0.256936264541495
-0.198286412924962 -0.218305977103983 0.351787864269714
-0.202703506126658 -0.218305977103983 0.354327627571136
-0.212789157246652 -0.21145648684842 0.363843295173311
-0.210836806937329 -0.211132730336986 0.363843295173311
-0.224925917803926 -0.206375075952677 0.363843295173311
-0.240475179980884 -0.190657418404966 0.363843295173311
-0.248008288971529 -0.1847889515706 0.363843295173311
-0.251965643811299 -0.179887359988112 0.363843295173311
-0.25840742968496 -0.17606141696553 0.363843295173311
-0.269960295900918 -0.167659786093678 0.363843295173311
-0.291446596208225 -0.152836835910468 0.363843295173311
-0.290339278949518 -0.149246781965096 0.363843295173311
-0.300350997638698 -0.144593598360013 0.363843295173311
-0.301565475975386 -0.138469512555677 0.363843295173311
-0.320219574976746 -0.129036531336083 0.363843295173311
-0.325077230021569 -0.118778715342841 0.363843295173311
-0.342040470648067 -0.106738250617078 0.363843295173311
-0.350042068675858 -0.103204676363736 0.363843295173311
-0.365804886768059 -0.0931261793154633 0.363843295173311
-0.367466464424317 -0.0846140652543745 0.363843295173311
-0.384221116215072 -0.0736258882778817 0.363843295173311
-0.384753824466193 -0.0686089624919464 0.363843295173311
-0.393852863360598 -0.0575985684171974 0.363843295173311
-0.412636152429911 -0.0439442769057052 0.363843295173311
-0.420324574217349 -0.0351669075092875 0.363843295173311
-0.435307240971895 -0.0365161609518314 0.363843295173311
-0.441019552963542 -0.019448574097001 0.363843295173311
-0.450422391801856 -0.0154651867171718 0.363843295173311
-0.457935242985647 -0.0125091288175058 0.363843295173311
-0.479017740465521 0.00650301889204454 0.363843295173311
-0.486185157754196 0.014175980506415 0.363843295173311
-0.497462249135502 0.0232818192704564 0.363843295173311
-0.497844975655625 0.0254885079966321 0.363843295173311
-0.272882471379978 -0.177559137625573 0.00993370909735366
-0.272882471379978 -0.17563167232851 0.009828042151488
-0.272882471379978 -0.179768264810615 0.0221220500711777
-0.279329992031928 -0.169877812453911 0.0246581863370589
-0.281749054352383 -0.16330397060246 0.0416024021367041
-0.278036772935913 -0.16330397060246 0.114377363397211
-0.278718262544509 -0.16330397060246 0.126872802844597
-0.284604032286738 -0.16330397060246 0.143989042715516
-0.281715892237594 -0.16330397060246 0.190488175655558
-0.280449050182858 -0.16330397060246 0.242093372287253
-0.282036410739544 -0.16330397060246 0.261787113574973
-0.221312284544009 -0.216781956447054 0.363843295173311
-0.230718503154849 -0.202664860264302 0.363843295173311
-0.244965491922873 -0.200526206077302 0.363843295173311
-0.251483180450277 -0.188530745595095 0.363843295173311
-0.259991203338141 -0.183503896747889 0.363843295173311
-0.273080912600385 -0.177136396342073 0.363843295173311
-0.286387312056059 -0.17321672773051 0.363843295173311
-0.297780099735587 -0.160404057060411 0.363843295173311
-0.294523704122679 -0.155386499099962 0.363843295173311
-0.307260452272869 -0.145734456377202 0.363843295173311
-0.317766137630504 -0.136964947036622 0.363843295173311
-0.321899441635876 -0.13243365832995 0.363843295173311
-0.333568106349482 -0.118450410096413 0.363843295173311
-0.350453226576313 -0.114880169319543 0.363843295173311
-0.359885640401562 -0.101304300737097 0.363843295173311
-0.373675239421645 -0.09723436477311 0.363843295173311
-0.380805020167288 -0.0853801895155975 0.363843295173311
-0.383661144494213 -0.0886903882574761 0.363843295173311
-0.398872766096688 -0.0699619749721089 0.363843295173311
-0.399791789726477 -0.0707245568109912 0.363843295173311
-0.420838249106511 -0.0543499053492578 0.363843295173311
-0.424679209429068 -0.0475911187173679 0.363843295173311
-0.438390322547934 -0.0453948160640914 0.363843295173311
-0.447030586226502 -0.0288479805973309 0.363843295173311
-0.457128515096833 -0.0249799134979573 0.363843295173311
-0.470934180796168 -0.0144248433496887 0.363843295173311
-0.485283240710003 -0.00928101270793334 0.363843295173311
-0.48826535723307 -0.00450480958135338 0.363843295173311
-0.498920337427086 0.0095146464463295 0.363843295173311
-0.272882471379978 -0.185993424457024 0.00568256208406581
-0.277914114392381 -0.187560190280681 0.010223984147105
-0.274340079404334 -0.187560190280681 0.0158885599438491
-0.284768755452902 -0.187027376392982 0.0246581863370589
-0.226641545458482 -0.218305977103983 0.357513941712559
-0.232703587006272 -0.217429585485128 0.363843295173311
-0.239881767659628 -0.212954656805512 0.363843295173311
-0.249877031473114 -0.208592985565146 0.363843295173311
-0.259072402398722 -0.198484688846405 0.363843295173311
-0.271275191500557 -0.192292278926354 0.363843295173311
-0.27374268941083 -0.183052473319649 0.363843295173311
-0.282133893155156 -0.177104334594579 0.363843295173311
-0.293106698171997 -0.17424541516341 0.363843295173311
-0.306310470785691 -0.167684941454264 0.363843295173311
-0.315396113351237 -0.160075858019533 0.363843295173311
-0.326388537616056 -0.143900757710747 0.363843295173311
-0.340559550269446 -0.135675915986851 0.363843295173311
-0.337206421782767 -0.130879518381609 0.363843295173311
-0.352806944072289 -0.128728737540852 0.363843295173311
-0.361302079618423 -0.118476028484315 0.363843295173311
-0.379716937033457 -0.10892532744678 0.363843295173311
-0.388566026929332 -0.100464217045444 0.363843295173311
-0.391833250858789 -0.0923265435308088 0.363843295173311
-0.403847197940828 -0.080920810614235 0.363843295173311
-0.412480881764574 -0.0740128250511356 0.363843295173311
-0.422191586363263 -0.0730482492131235 0.363843295173311
-0.433684758718254 -0.0517972902112692 0.363843295173311
-0.448281728683761 -0.0488388794460752 0.363843295173311
-0.45606906124788 -0.0429447777540833 0.363843295173311
-0.465117121708319 -0.0296703076115139 0.363843295173311
-0.482726004127736 -0.0210754492182884 0.363843295173311
-0.49260729187368 -0.0104790690508802 0.363843295173311
-0.498469997916506 -0.0123426901046201 0.363843295173311
-0.258484102321513 -0.218305977103983 0.355317250185789
-0.256217638830063 -0.218305977103983 0.360029225555689
-0.2697989363402 -0.20459761742068 0.363843295173311
-0.279138499860631 -0.198781853168256 0.363843295173311
-0.288016285567182 -0.188683457505906 0.363843295173311
-0.302978944446539 -0.181211269365112 0.363843295173311
-0.298697844477736 -0.180740950510578 0.363843295173311
-0.311182445112948 -0.171359799657673 0.363843295173311
-0.326282200004084 -0.162307013891777 0.363843295173311
-0.329329099179601 -0.149625721245959 0.363843295173311
-0.343741381562856 -0.149316764178233 0.363843295173311
-0.353907460809803 -0.132709675423937 0.363843295173311
-0.35552621945077 -0.138401894333648 0.363843295173311
-0.370520868105526 -0.12565013230904 0.363843295173311
-0.379379174335663 -0.111313529725642 0.363843295173311
-0.394713967332999 -0.104015190088063 0.363843295173311
-0.40479827633916 -0.0964180723624854 0.363843295173311
-0.408972833407131 -0.0943561614187209 0.363843295173311
-0.424686154024364 -0.0795784522279629 0.363843295173311
-0.436881147856995 -0.0665679045894504 0.363843295173311
-0.448538623186154 -0.0647270673119023 0.363843295173311
-0.450459187823703 -0.0581626273358586 0.363843295173311
-0.463247664293191 -0.0553360547543085 0.363843295173311
-0.479205447668592 -0.0381858064691689 0.363843295173311
-0.485551045966995 -0.0243516116235552 0.363843295173311
-0.499628575592327 -0.0260856705954674 0.363843295173311
-0.26792079605193 -0.215907493405382 0.363843295173311
-0.275573315927904 -0.214553329870684 0.363843295173311
-0.289473051494068 -0.208566200831227 0.363843295173311
-0.29225218219849 -0.20040195864535 0.363843295173311
-0.300039967260088 -0.194214596364433 0.363843295173311
-0.315013341431939 -0.183540531643359 0.363843295173311
-0.317453916903255 -0.179743787880742 0.363843295173311
-0.339627800067269 -0.163459421183519 0.363843295173311
-0.341239610229295 -0.15305201137813 0.363843295173311
-0.347663799276925 -0.152572591056652 0.363843295173311
-0.34997081297039 -0.148413581287898 0.363843295173311
-0.372400820377372 -0.133996815421457 0.363843295173311
-0.374265147521296 -0.136492670298589 0.363843295173311
-0.392365736627785 -0.117814428445593 0.363843295173311
-0.393005179399979 -0.113349438175714 0.363843295173311
-0.400531480850597 -0.112579041309456 0.363843295173311
-0.422799553672392 -0.0935816083240452 0.363843295173311
-0.436042564409124 -0.0835299949005458 0.363843295173311
-0.439475917456199 -0.0821913229094904 0.363843295173311
-0.447445411860153 -0.0671535581210317 0.363843295173311
-0.464112611773482 -0.0595377437735818 0.363843295173311
-0.472101275425775 -0.0622089416104193 0.363843295173311
-0.488270112144391 -0.0429377943323525 0.363843295173311
-0.491401202301346 -0.040183421760824 0.363843295173311
-0.283853754886898 -0.218305977103983 0.353563353836823
-0.280881960879111 -0.218305977103983 0.359578784055815
-0.295004716829637 -0.207979492466771 0.363843295173311
-0.296149511804164 -0.207375923606286 0.363843295173311
-0.307784034636545 -0.202506999512897 0.363843295173311
-0.318594344675959 -0.195501459455562 0.363843295173311
-0.331720806890987 -0.187297928566384 0.363843295173311
-0.330265092376323 -0.177403314703118 0.363843295173311
-0.34255758335361 -0.173873989822598 0.363843295173311
-0.353781283084129 -0.161412087313642 0.363843295173311
-0.374856302832088 -0.152959207649749 0.363843295173311
-0.379096553739859 -0.146056817508955 0.363843295173311
-0.388335958072984 -0.136822973550606 0.363843295173311
-0.398749991825628 -0.126986974424129 0.363843295173311
-0.408668795127376 -0.11863923665198 0.363843295173311
-0.420332801759237 -0.113174100156743 0.363843295173311
-0.432150867536915 -0.103874050247722 0.363843295173311
-0.441468376597463 -0.0912333130640684 0.363843295173311
-0.456769756424955 -0.0854007661402995 0.363843295173311
-0.4600688748799 -0.0803047790772021 0.363843295173311
-0.467414791256801 -0.0742358153496795 0.363843295173311
-0.482514569613618 -0.061273910099374 0.363843295173311
-0.483777944642141 -0.0566882322531974 0.363843295173311
-0.312977879952347 -0.213374587759776 0.352269172138272
-0.312191883402759 -0.213513180158212 0.355985863395337
-0.323548069574876 -0.208542874647573 0.363843295173311
-0.33421284641026 -0.200206781196616 0.363843295173311
-0.336089788112585 -0.197011076164051 0.363843295173311
-0.351088076722704 -0.18158299619844 0.363843295173311
-0.351509941307838 -0.178704860400682 0.363843295173311
-0.363856824034272 -0.168961522404972 0.363843295173311
-0.379196132109693 -0.157956610731939 0.363843295173311
-0.382813951306795 -0.153300743268715 0.363843295173311
-0.391935824589104 -0.153904842144376 0.363843295173311
-0.400202155789783 -0.136813989440715 0.363843295173311
-0.411903509178644 -0.131167688603637 0.363843295173311
-0.418637661022469 -0.124704367083746 0.363843295173311
-0.440650273083202 -0.111022952726115 0.363843295173311
-0.43747671599233 -0.110080576609981 0.363843295173311
-0.455773555070464 -0.0928187044587834 0.363843295173311
-0.468317046652895 -0.0922556710020973 0.363843295173311
-0.474115528947726 -0.0779220977052926 0.363843295173311
-0.480584519663952 -0.0747542933229202 0.363843295173311
-0.334391200117146 -0.209598841668173 0.357626155878046
-0.3387458927232 -0.200592972735892 0.363843295173311
-0.345822899956166 -0.197653140053883 0.363843295173311
-0.354030595590429 -0.196363660491205 0.363843295173311
-0.360583595704032 -0.187831350100381 0.363843295173311
-0.370887293638487 -0.178704629568472 0.363843295173311
-0.376679105009301 -0.171600934398654 0.363843295173311
-0.38565723806086 -0.166362807464721 0.363843295173311
-0.403812850604099 -0.153970594426824 0.363843295173311
-0.408850363449774 -0.143171167288798 0.363843295173311
-0.42357356663824 -0.143620286936007 0.363843295173311
-0.423085375587125 -0.135056622275343 0.363843295173311
-0.436783056047453 -0.126107954361869 0.363843295173311
-0.458903431228664 -0.113124219185241 0.363843295173311
-0.462802533550194 -0.0984573105121252 0.363843295173311
-0.47342358484178 -0.0931978227778536 0.363843295173311
-0.354579093510567 -0.206039171379247 0.355727487473107
-0.361347763296099 -0.193558180851834 0.363843295173311
-0.365057256494483 -0.195241945133721 0.363843295173311
-0.377617273378366 -0.17869779660518 0.363843295173311
-0.389050448420455 -0.175231897776588 0.363843295173311
-0.396178733783209 -0.170991356845915 0.363843295173311
-0.409140856919535 -0.153507363781767 0.363843295173311
-0.419408557914282 -0.147838586077617 0.363843295173311
-0.427208126384499 -0.148019817340083 0.363843295173311
-0.445384328650893 -0.137356561703827 0.363843295173311
-0.451625103047741 -0.125594332119139 0.363843295173311
-0.458670283058546 -0.11930126876377 0.363843295173311
-0.469022056679407 -0.113595621561266 0.363843295173311
-0.38943583105282 -0.187958451510459 0.352557109574748
-0.382105789477888 -0.189746225245405 0.363843295173311
-0.399596490361971 -0.182092192123176 0.362777386463639
-0.407679823807047 -0.170145747120988 0.363843295173311
-0.410414278591782 -0.165394020668389 0.363843295173311
-0.420169299171751 -0.167278874746327 0.363843295173311
-0.431892063159575 -0.150217488262491 0.363843295173311
-0.455401760888275 -0.130941211449691 0.363843295173311
0.324770301255054 -0.209622454713827 0.363843295173311
0.320197627570317 -0.211215773496597 0.363843295173311
0.30236022813401 -0.212024064946678 0.363843295173311
0.292891705728774 -0.211965732877468 0.363843295173311
0.27354487690745 -0.214712354290172 0.363843295173311
0.257954681104513 -0.217261700763765 0.363843295173311
0.259618693500047 -0.216413825058085 0.363843295173311
0.251206649450514 -0.217227164881358 0.363843295173311
0.369519078552094 -0.197620007949682 0.363843295173311
0.362519387472779 -0.199505965000053 0.363843295173311
0.353924980650325 -0.202762496097117 0.363843295173311
0.348375872640077 -0.206898383453097 0.363843295173311
0.335129848710765 -0.200394753824647 0.363843295173311
0.328405829197661 -0.20178463105481 0.363843295173311
0.320373816287394 -0.208372307274215 0.363843295173311
0.301875545156678 -0.206357716883024 0.363843295173311
0.295568927391362 -0.210170388868579 0.363843295173311
0.290108647612494 -0.207610046280429 0.363843295173311
0.285969580965396 -0.210630063378277 0.363843295173311
0.26654251441914 -0.2108738703548 0.363843295173311
0.258868545211811 -0.206748143989158 0.363843295173311
0.257008112609146 -0.207432232498942 0.363843295173311
0.240916094600498 -0.212806753735466 0.363843295173311
0.239368462564626 -0.208740350085749 0.363843295173311
0.228782204178363 -0.209211777029379 0.363843295173311
0.219824399864337 -0.216065562630341 0.363843295173311
0.203225817073275 -0.217169694082504 0.363843295173311
0.18716439857502 -0.214561506640889 0.363843295173311
0.188638421457203 -0.21551571445928 0.363843295173311
0.166747549348323 -0.214003890460479 0.363843295173311
0.157756223231155 -0.215258179336372 0.363843295173311
0.375516556976699 -0.194451322846795 0.363843295173311
0.364767817013031 -0.191928267108879 0.363843295173311
0.348274314269951 -0.192857999625733 0.363843295173311
0.34513747278932 -0.194749922252167 0.363843295173311
0.337350482740413 -0.197649505252725 0.363843295173311
0.325323631950288 -0.192196559259577 0.363843295173311
0.325479244347797 -0.195931483487028 0.363843295173311
0.302755486596936 -0.197400504355875 0.363843295173311
0.306354627265149 -0.201583725452693 0.363843295173311
0.294077139538776 -0.202721934982844 0.363843295173311
0.282858012023881 -0.196062954079256 0.363843295173311
0.272586062197637 -0.195858192425599 0.363843295173311
0.268068827657473 -0.199912974612926 0.363843295173311
0.251654815920925 -0.201762268746409 0.363843295173311
0.250985795635871 -0.197930692147729 0.363843295173311
0.227633233223077 -0.198637943900876 0.363843295173311
0.229864085065942 -0.201226017727328 0.363843295173311
0.210852020450823 -0.208455275424205 0.363843295173311
0.197832303286666 -0.202766742530675 0.363843295173311
0.192655822638061 -0.203844808942594 0.363843295173311
0.184499412492723 -0.203790719712371 0.363843295173311
0.173208055372125 -0.208702555728938 0.363843295173311
0.160045739421877 -0.212759900104701 0.363843295173311
0.159778854064983 -0.212184457658168 0.363843295173311
0.149016660395872 -0.208395359399873 0.363843295173311
0.129883005508444 -0.206030592338599 0.363843295173311
0.127337342586254 -0.20625281179519 0.363843295173311
0.108959875796607 -0.214235138940414 0.363843295173311
0.111722514318889 -0.216150103049111 0.363843295173311
0.0924326298688709 -0.210232655279479 0.363843295173311
0.0853444777697099 -0.216787839541341 0.363843295173311
0.0711276130810453 -0.211767035845424 0.363843295173311
0.0584582516880916 -0.216055255240358 0.363843295173311
0.0391967747868071 -0.215562517171865 0.363843295173311
0.0170624236392873 -0.213736944959565 0.363843295173311
-0.0251456368386922 -0.218214869845254 0.363843295173311
0.371363715702645 -0.183803927624165 0.363843295173311
0.364003913963656 -0.180298084199538 0.363843295173311
0.358812561031029 -0.188050998697739 0.363843295173311
0.344784073160284 -0.186775809479923 0.363843295173311
0.344366012400453 -0.183489316937431 0.363843295173311
0.33410491190205 -0.186002192043359 0.363843295173311
0.323641959593144 -0.189834431836187 0.363843295173311
0.308777553957344 -0.18920464781989 0.363843295173311
0.308238033129236 -0.189464677451166 0.363843295173311
0.297860947703295 -0.189986208533522 0.363843295173311
0.277775476207028 -0.191775690225022 0.363843295173311
0.272862852763906 -0.190651520249263 0.363843295173311
0.260387521328884 -0.190931754714995 0.363843295173311
0.252801541140702 -0.194694207639605 0.363843295173311
0.249800579783305 -0.197257113961788 0.363843295173311
0.227192955116733 -0.195173047430318 0.363843295173311
0.218532986571852 -0.197987804175308 0.363843295173311
0.212843821861017 -0.199165438097791 0.363843295173311
0.203489022026654 -0.191166272019916 0.363843295173311
0.19509758083432 -0.192984536701451 0.363843295173311
0.181870644599121 -0.200167676863793 0.363843295173311
0.16715036627091 -0.200784840426289 0.363843295173311
0.169780682678884 -0.19663346177487 0.363843295173311
0.153985778722695 -0.198935091264562 0.363843295173311
0.151584412551788 -0.197056052881959 0.363843295173311
0.125970669796025 -0.200239483343752 0.363843295173311
0.122211843038992 -0.201975218123141 0.363843295173311
0.108514766858587 -0.202375167201694 0.363843295173311
0.0994914410963301 -0.198635091947864 0.363843295173311
0.0894213693720818 -0.199017867189497 0.363843295173311
0.0844591160227205 -0.204430803048815 0.363843295173311
0.0702641516918881 -0.202166160039171 0.363843295173311
0.0647290656370649 -0.203442553033652 0.363843295173311
0.0407988983083911 -0.204670185422895 0.363843295173311
0.0356419793791107 -0.211709135601166 0.363843295173311
0.0252576862848544 -0.205941180596444 0.363843295173311
0.0165974248795354 -0.212360352731184 0.363843295173311
0.0129052940849694 -0.209052316976949 0.363843295173311
-0.00697873747708413 -0.211187124929957 0.363843295173311
-0.0169060511987242 -0.210941788768094 0.363843295173311
-0.0261255211096128 -0.211702451073304 0.363843295173311
-0.0423431029265601 -0.21366675697085 0.363843295173311
-0.0568282412814564 -0.21560840489115 0.363843295173311
-0.0749375669190486 -0.211435669565542 0.363843295173311
-0.0973800517113361 -0.212126634219399 0.363843295173311
0.376846888414311 -0.17600320750785 0.363843295173311
0.364413678632512 -0.178222832526793 0.363843295173311
0.352079605100093 -0.177522746762395 0.363843295173311
0.349176042051738 -0.175959316639835 0.363843295173311
0.335648676745703 -0.178498055251946 0.363843295173311
0.328730184078287 -0.174907824935221 0.363843295173311
0.319296926191625 -0.175022921501009 0.363843295173311
0.31351639801274 -0.175086339636969 0.363843295173311
0.307891932222017 -0.177478397376052 0.363843295173311
0.293793336843177 -0.177346457292242 0.363843295173311
0.284931747515412 -0.184175860713234 0.363843295173311
0.270155662289256 -0.179345624795897 0.363843295173311
0.258853417621414 -0.181192817907138 0.363843295173311
0.250977206295469 -0.180034937392955 0.363843295173311
0.239750182635391 -0.186392264981577 0.363843295173311
0.242716698864508 -0.180069255141429 0.363843295173311
0.224680323482238 -0.185404432979287 0.363843295173311
0.216693566437133 -0.188796580017636 0.363843295173311
0.206834472298112 -0.187781074472789 0.363843295173311
0.193102600786824 -0.191113993349304 0.363843295173311
0.182013530981573 -0.190873682762418 0.363843295173311
0.180326903642513 -0.18421768037104 0.363843295173311
0.158551456589688 -0.191153664097413 0.363843295173311
0.152466182148335 -0.187293694427068 0.363843295173311
0.142943789141026 -0.193316113585913 0.363843295173311
0.136394510177884 -0.189095886759675 0.363843295173311
0.131112742942481 -0.196010981488737 0.363843295173311
0.110733413719625 -0.194490829026715 0.363843295173311
0.110445236017471 -0.191851460534853 0.363843295173311
0.0931056243931111 -0.196393558023809 0.363843295173311
0.0845671019141334 -0.191088051413706 0.363843295173311
0.0763052682866501 -0.194800023772049 0.363843295173311
0.063801983778316 -0.191394726440759 0.363843295173311
0.0541867226137912 -0.196167097206987 0.363843295173311
0.0373882443618603 -0.194094607074401 0.363843295173311
0.0260135358027257 -0.195552436933625 0.363843295173311
0.0188365271330671 -0.197128389107936 0.363843295173311
-0.00263933548876936 -0.204895779247107 0.363843295173311
-0.00470853802270204 -0.19888831399062 0.363843295173311
-0.016847540916816 -0.204845038647496 0.363843295173311
-0.0297678768741382 -0.205964179822762 0.363843295173311
-0.0452434562826416 -0.199734105115713 0.363843295173311
-0.0562271590073544 -0.20317453028855 0.363843295173311
-0.0610795918280557 -0.208263220618535 0.363843295173311
-0.0777172025337435 -0.202239887452293 0.363843295173311
-0.0975306032837316 -0.203034090279944 0.363843295173311
-0.103841268533819 -0.205168277968629 0.363843295173311
-0.118031048220237 -0.212721322901426 0.363843295173311
-0.123349277817787 -0.207451890342563 0.363843295173311
-0.136211500550068 -0.212561487518311 0.363843295173311
-0.150473896013447 -0.208674593103892 0.363843295173311
-0.16776748009124 -0.21572267183079 0.363843295173311
-0.180485738576197 -0.215392554674552 0.363843295173311
-0.194109974288883 -0.212088876331526 0.363843295173311
-0.202369566075665 -0.209928243285368 0.363843295173311
-0.210049970458436 -0.217567498345396 0.363843295173311
-0.236647898179949 -0.214059254531349 0.363843295173311
-0.274073285558194 -0.214216544861707 0.363843295173311
-0.27673925607429 -0.215580706760683 0.363843295173311
0.376159148450832 -0.168963388474031 0.363843295173311
0.359495187254561 -0.163018645668927 0.363843295173311
0.35270263322509 -0.164322485917581 0.363843295173311
0.345948004434765 -0.164670753634139 0.363843295173311
0.336743438345014 -0.171345412623692 0.363843295173311
0.327299763143679 -0.167255239231953 0.363843295173311
0.320075814050566 -0.173180094598161 0.363843295173311
0.315420885578604 -0.168676743182894 0.363843295173311
0.30083452319262 -0.167077912462293 0.363843295173311
0.290530544751539 -0.172351925333528 0.363843295173311
0.27442882537922 -0.16921443192283 0.363843295173311
0.273484817574301 -0.172777927846809 0.363843295173311
0.265964532793922 -0.173158494530711 0.363843295173311
0.252706835245467 -0.177134295110444 0.363843295173311
0.252585413974696 -0.172055989207203 0.363843295173311
0.235839962319283 -0.176429524331073 0.363843295173311
0.217550256861874 -0.17409484111813 0.363843295173311
0.212954864021402 -0.173202252015973 0.363843295173311
0.201682621259986 -0.179054775412128 0.363843295173311
0.191993918919288 -0.174085405573877 0.363843295173311
0.191008717709534 -0.17929359751751 0.363843295173311
0.176214344609198 -0.176584008599007 0.363843295173311
0.163398094767603 -0.175255955781416 0.363843295173311
0.155254295335962 -0.175829267214588 0.363843295173311
0.14786691412499 -0.180341838164195 0.363843295173311
0.131609552515792 -0.179929093717651 0.363843295173311
0.125130376515791 -0.182514372080918 0.363843295173311
0.113192019809991 -0.18320859582139 0.363843295173311
0.10437028462594 -0.187795551802365 0.363843295173311
0.0970801220211918 -0.184834514225431 0.363843295173311
0.0855771058560851 -0.18738188905809 0.363843295173311
0.0760141116622744 -0.187708399535422 0.363843295173311
0.0576254379917133 -0.188884390270002 0.363843295173311
0.0489389954618092 -0.191468724250553 0.363843295173311
0.0391856674774338 -0.191114153514489 0.363843295173311
0.0213372862096629 -0.188159698611541 0.363843295173311
0.0105094302033231 -0.191187687304628 0.363843295173311
0.0139826724293283 -0.194058333131396 0.363843295173311
-0.00257461600871628 -0.190160013681277 0.363843295173311
-0.0202464832357027 -0.19316162350726 0.363843295173311
-0.0258546114745093 -0.194048571494929 0.363843295173311
-0.044033222190057 -0.188870290830693 0.363843295173311
-0.0544001620803828 -0.190489157185332 0.363843295173311
-0.0600846085286625 -0.19442569657827 0.363843295173311
-0.0829989350784893 -0.191755472281919 0.363843295173311
-0.0956142028188032 -0.191268944961405 0.363843295173311
-0.10664298159208 -0.19694497047345 0.363843295173311
-0.114130934387185 -0.198539722234115 0.363843295173311
-0.127676027872167 -0.192724436068639 0.363843295173311
-0.13464599031094 -0.196050414002017 0.363843295173311
-0.148625861117641 -0.195863596201247 0.363843295173311
-0.171238556731279 -0.202148320888986 0.363843295173311
-0.17086691108161 -0.202091803070666 0.363843295173311
-0.189336829638177 -0.197071866385385 0.363843295173311
-0.200985764474336 -0.206060485509682 0.363843295173311
-0.217641665857399 -0.208252206060151 0.363843295173311
-0.229262414421198 -0.205601694545799 0.363843295173311
-0.232600305569436 -0.204688016547124 0.363843295173311
-0.254756317053176 -0.205624825438062 0.363843295173311
-0.267216541562711 -0.204837825554713 0.363843295173311
-0.289885944710769 -0.21022269947186 0.363843295173311
-0.301465909625387 -0.209709668645576 0.363843295173311
-0.315063065122899 -0.207416746619709 0.363843295173311
-0.331114806860565 -0.206077495176132 0.363843295173311
0.378436865010512 -0.157149545831579 0.363843295173311
0.362906202906389 -0.160630270963019 0.363843295173311
0.3528191788622 -0.156274455742723 0.363843295173311
0.340213971890094 -0.163336331226263 0.363843295173311
0.344363714971328 -0.15773186007056 0.363843295173311
0.323673437044065 -0.164751409454146 0.363843295173311
0.322196467185501 -0.160347506702941 0.363843295173311
0.315138601485777 -0.158583941437825 0.363843295173311
0.302672736762561 -0.165509395251056 0.363843295173311
0.28997890557742 -0.16148323990621 0.363843295173311
0.282263720491878 -0.15863348605562 0.363843295173311
0.276260574412458 -0.159543844917839 0.363843295173311
0.265782220603372 -0.164931045430793 0.363843295173311
0.255406485676449 -0.165994989718677 0.363843295173311
0.245936445741913 -0.163530577107434 0.363843295173311
0.22991259297779 -0.161625716343634 0.363843295173311
0.232731357439509 -0.167127886227247 0.363843295173311
0.212817809718583 -0.168153538414956 0.363843295173311
0.199996767056038 -0.170285586584325 0.363843295173311
0.199561969426003 -0.171254766847195 0.363843295173311
0.185987174853759 -0.169670135718145 0.363843295173311
0.170544563032074 -0.168309888493618 0.363843295173311
0.160502998215088 -0.167997811909336 0.363843295173311
0.159905507380547 -0.170553114584097 0.363843295173311
0.143539463345541 -0.175521375227916 0.363843295173311
0.128241287037314 -0.175915442331018 0.363843295173311
0.124655365464007 -0.172327772636439 0.363843295173311
0.107331504726589 -0.174578939703829 0.363843295173311
0.100200088288449 -0.176255704635289 0.363843295173311
0.0898816456387289 -0.174869789934544 0.363843295173311
0.0858830133300936 -0.174686810902626 0.363843295173311
0.0725397397520191 -0.173815135994043 0.363843295173311
0.0597665340963865 -0.173610655538725 0.363843295173311
0.0466366423826244 -0.172133328990989 0.363843295173311
0.0382325760416724 -0.173585922713823 0.363843295173311
0.0246740469907139 -0.180427559389578 0.363843295173311
0.0133808809542401 -0.176611083212947 0.363843295173311
0.00163018584125786 -0.176390768402198 0.363843295173311
-0.00139530190072774 -0.180490405248969 0.363843295173311
-0.0168341293603931 -0.183997799436298 0.363843295173311
-0.0333050381502533 -0.184467811190466 0.363843295173311
-0.0431249087485056 -0.182663772072693 0.363843295173311
-0.0445417621286675 -0.185472206916761 0.363843295173311
-0.0642381116251132 -0.18591598648745 0.363843295173311
-0.0762629168651113 -0.189098544517208 0.363843295173311
-0.0890204306315863 -0.18014719328397 0.363843295173311
-0.107094055387902 -0.184601944744798 0.363843295173311
-0.111091935618973 -0.188882285928881 0.363843295173311
-0.124940833088554 -0.184126173243697 0.363843295173311
-0.13905712754882 -0.189042629692682 0.363843295173311
-0.148718313809274 -0.194402550844396 0.363843295173311
-0.161879618405851 -0.188254987638313 0.363843295173311
-0.178386882283205 -0.193082195270844 0.363843295173311
-0.191943226646634 -0.190712833175589 0.363843295173311
-0.193659814406863 -0.192364688878836 0.363843295173311
-0.219333241351899 -0.198165624084938 0.363843295173311
-0.235363002248103 -0.192464439554954 0.363843295173311
-0.236078398507622 -0.188786317426026 0.363843295173311
-0.25536024263423 -0.197796866991513 0.363843295173311
-0.270187239953165 -0.192401224820187 0.363843295173311
-0.2779978531698 -0.196340121914273 0.363843295173311
-0.29756267288978 -0.195552034345687 0.363843295173311
-0.318199849418079 -0.198273053086444 0.363843295173311
-0.318882548194839 -0.203692431544088 0.363843295173311
-0.329610947105541 -0.194754329780043 0.363843295173311
-0.34377887269439 -0.198716839544834 0.363843295173311
0.373327910155093 -0.146364547551145 0.363843295173311
0.356397350474637 -0.146326792039747 0.363843295173311
0.355663624726897 -0.151517863347445 0.363843295173311
0.349999962194179 -0.151176994862913 0.363843295173311
0.341518015282244 -0.153795657122921 0.363843295173311
0.326886554138286 -0.149038920580854 0.363843295173311
0.323070787872035 -0.155065315398887 0.363843295173311
0.310993384999441 -0.149074468698185 0.363843295173311
0.297658398673792 -0.148629213195684 0.363843295173311
0.292089867665151 -0.156093665075672 0.363843295173311
0.284240923564936 -0.149750716553367 0.363843295173311
0.268129029748041 -0.154226316542473 0.363843295173311
0.261932721561719 -0.156120094624376 0.363843295173311
0.254887495559237 -0.155112923479861 0.363843295173311
0.238562416417502 -0.152854359830108 0.363843295173311
0.234086553198924 -0.157287978370491 0.363843295173311
0.227568726999315 -0.157651185718108 0.363843295173311
0.221432292032316 -0.158860815710752 0.363843295173311
0.206215998360621 -0.155879056796984 0.363843295173311
0.19086623886911 -0.158313663642972 0.363843295173311
0.187021126066127 -0.158773051455451 0.363843295173311
0.171128620614096 -0.160911821343239 0.363843295173311
0.173087186891136 -0.155584380849103 0.363843295173311
0.156666434718178 -0.160185510112675 0.363843295173311
0.151485528956898 -0.166093330814971 0.363843295173311
0.131275827953681 -0.161030121653085 0.363843295173311
0.121183752091639 -0.161632822636573 0.363843295173311
0.108020140413746 -0.167050239452668 0.363843295173311
0.111580048091664 -0.166025438631952 0.363843295173311
0.0881815187703582 -0.168455973229433 0.363843295173311
0.0841649642986106 -0.164871005879583 0.363843295173311
0.072756516939192 -0.168338228943265 0.363843295173311
0.0648742040844795 -0.16276882029455 0.363843295173311
0.0480712695665326 -0.163979521436087 0.363843295173311
0.0366971675531413 -0.166754907178052 0.363843295173311
0.0287512179168384 -0.167026228133384 0.363843295173311
0.0187998280529583 -0.172890922231451 0.363843295173311
