ply
format ascii 1.0
element vertex 848
property float x
property float y
property float z
end_header
0.272882471379978 -0.142795019565406 0.0292912185669387
0.272882471379978 -0.130157257031597 0.036990246352585
0.272882471379978 -0.1363774341477 0.0394780917688477
0.272882471379978 -0.13530566588842 0.055633735259122
0.272882471379978 -0.142693582508842 0.0730359065919897
0.272882471379978 -0.13979178728559 0.0761540839322133
0.272882471379978 -0.135485324364399 0.0852822602921947
0.272882471379978 -0.141171186049566 0.101305886907521
0.272882471379978 -0.129502860620637 0.100591342634543
0.272882471379978 -0.132242503581885 0.112668417789809
0.272882471379978 -0.132078582693612 0.127865426937708
0.272882471379978 -0.140061998932308 0.134503097548765
0.272882471379978 -0.141190031634095 0.153729585416079
0.272882471379978 -0.136162666420855 0.163453402011463
0.272882471379978 -0.133433085663817 0.166681341236925
0.272882471379978 -0.130585161714743 0.174624933611597
0.272882471379978 -0.133745730950404 0.190859794752288
0.272882471379978 -0.137529579020057 0.205913834596592
0.272882471379978 -0.144993701690757 0.217316210647559
0.272882471379978 -0.141546776711858 0.22582807153658
0.272882471379978 -0.138313228953635 0.239880212520292
0.173596863129952 -0.217194786491748 0.363843295173311
0.176222768162361 -0.218305977103983 0.360287773125877
0.180725975485273 -0.20789681645252 0.363843295173311
0.201430451746866 -0.200375298479285 0.363843295173311
0.2000911123553 -0.196703709320021 0.363843295173311
0.211410069985398 -0.189824032284547 0.363843295173311
0.22496777535412 -0.174504427343302 0.363843295173311
0.232694798437128 -0.170957408613929 0.363843295173311
0.23550342903869 -0.170969401546517 0.363843295173311
0.257389903491393 -0.149307924639217 0.363843295173311
0.253640796070189 -0.148324919214738 0.363843295173311
0.26796951920179 -0.133964101591703 0.363843295173311
0.278741003924867 -0.132168897291683 0.363843295173311
0.286482052135899 -0.124243974645492 0.363843295173311
0.289847583144609 -0.117683911745039 0.363843295173311
0.305011561906131 -0.10117495668462 0.363843295173311
0.31013562157859 -0.107283132835424 0.363843295173311
0.32586200339674 -0.094492447983866 0.363843295173311
0.333119810708955 -0.0894837692678327 0.363843295173311
0.343381764637626 -0.0761280529769352 0.363843295173311
0.354945974980783 -0.067394348761256 0.363843295173311
0.36030822379347 -0.0629179442525358 0.363843295173311
0.378078734687422 -0.0526164807199753 0.363843295173311
0.387327323942283 -0.037150257921321 0.363843295173311
0.403117329838208 -0.034319236136408 0.363843295173311
0.412330620787528 -0.0288589449188658 0.363843295173311
0.409742840465034 -0.0241214434878344 0.363843295173311
0.425830405105288 -0.0103637087017043 0.363843295173311
0.438306259545439 0.000941085307703342 0.363843295173311
0.447221459319432 0.00622711006461402 0.363843295173311
0.462720506610196 0.0221750303763396 0.363843295173311
0.477250382333587 0.0345547561324962 0.363843295173311
0.484621408140592 0.0390234241653318 0.363843295173311
0.487893363011328 0.0488519663490702 0.363843295173311
0.272882471379978 -0.119764848418651 2.0180820432872e-005
0.272882471379978 -0.124791896646154 0.0225281062072788
0.272882471379978 -0.124336541260601 0.0324703334368421
0.272882471379978 -0.123231472942925 0.0494870029079001
0.272882471379978 -0.120167746601499 0.0519401728841119
0.272882471379978 -0.119511636147866 0.0650693780818326
0.272882471379978 -0.122017042495696 0.0709889793827701
0.272882471379978 -0.121080337909503 0.0723058024190403
0.272882471379978 -0.12537699989692 0.10051679006707
0.272882471379978 -0.120251102395305 0.0922725012375354
0.272882471379978 -0.126069733883537 0.108231534389697
0.272882471379978 -0.114235229403078 0.11605123940267
0.272882471379978 -0.122864772043668 0.129381724415515
0.272882471379978 -0.11549005403248 0.132678971801746
0.272882471379978 -0.120050039442037 0.145218607004603
0.272882471379978 -0.120451469873084 0.15227214522008
0.272882471379978 -0.123657538218235 0.172177535609081
0.272882471379978 -0.123986745855473 0.18480039535749
0.272882471379978 -0.126981369311286 0.201567218476171
0.272882471379978 -0.117489711820402 0.197319712878636
0.272882471379978 -0.123268113933053 0.205303995083819
0.157226874078286 -0.218305977103983 0.362504382519998
0.158355425790512 -0.218305977103983 0.361848709271584
0.168607878864088 -0.210067081918426 0.363843295173311
0.181237468103151 -0.20033149146656 0.363843295173311
0.194209650505665 -0.193602816118256 0.363843295173311
0.197200996472897 -0.182606801148395 0.363843295173311
0.200251713950049 -0.179113045293575 0.363843295173311
0.217593207903146 -0.174733467380656 0.363843295173311
0.230943799581701 -0.158848994731092 0.363843295173311
0.236776375997446 -0.158537903184126 0.363843295173311
0.242399821650101 -0.14230831587434 0.363843295173311
0.242745332334622 -0.139726414446923 0.363843295173311
0.260771711264098 -0.128823873354781 0.363843295173311
0.270086304274638 -0.131172702268474 0.363843295173311
0.27469700798832 -0.12416625892572 0.363843295173311
0.286333193126806 -0.10767047332015 0.363843295173311
0.300153983887083 -0.0934879505671215 0.363843295173311
0.301082582304097 -0.100197468133671 0.363843295173311
0.3205661766676 -0.0897879861918746 0.363843295173311
0.32280857516315 -0.0766855699192557 0.363843295173311
0.328987747028172 -0.0731945883885099 0.363843295173311
0.344285512364124 -0.0639105565438089 0.363843295173311
0.3520278123522 -0.0600073523747906 0.363843295173311
0.367144117842674 -0.0396909459673633 0.363843295173311
0.374323987982165 -0.0383079902025198 0.363843295173311
0.390495878938104 -0.0259474389389097 0.363843295173311
0.402963409631578 -0.0169256841000821 0.363843295173311
0.409121673379798 -0.0100960234423806 0.363843295173311
0.415560780585339 -0.0033731585834057 0.363843295173311
0.439359399162033 0.0136096551546524 0.363843295173311
0.437490962672737 0.0188764755207037 0.363843295173311
0.449820394685007 0.0272843671813009 0.363843295173311
0.4706748026597 0.0411929526696423 0.363843295173311
0.468352289168118 0.0408340096720269 0.363843295173311
0.482783748226743 0.0539558223440674 0.363843295173311
0.272882471379978 -0.10768031046344 0.0154633004371926
0.272882471379978 -0.102733025393429 0.0139602686105253
0.272882471379978 -0.111726406570672 0.0318950906571568
0.272882471379978 -0.102821413033965 0.0330115610835241
0.272882471379978 -0.109366031672897 0.0406562597590021
0.272882471379978 -0.110532553562197 0.0558199771436458
0.272882471379978 -0.108493821618665 0.0686576816766653
0.272882471379978 -0.111922270609635 0.0743998598796586
0.272882471379978 -0.104087354653978 0.0886151390730014
0.272882471379978 -0.110435400156622 0.0922984346469927
0.272882471379978 -0.111401842756421 0.113114007632871
0.272882471379978 -0.115037666277077 0.122868966269024
0.272882471379978 -0.105498805867197 0.133314213149848
0.272882471379978 -0.102283047826755 0.145603951180177
0.272882471379978 -0.113140618630347 0.156606103723313
0.272882471379978 -0.101178448159771 0.160903029864026
0.272882471379978 -0.105288343350598 0.175216587660762
0.272882471379978 -0.10518938489346 0.178399795492484
0.272882471379978 -0.114796327189889 0.193159700028549
0.132302933374802 -0.218305977103983 0.361219790864428
0.148549230177414 -0.211314428779868 0.363843295173311
0.148572654928175 -0.214461981871831 0.363843295173311
0.170372893649756 -0.198238426995842 0.363843295173311
0.178477463343726 -0.193483675130853 0.363843295173311
0.178339925283409 -0.190545845233097 0.363843295173311
0.195096659007513 -0.18051583730663 0.363843295173311
0.195644897797878 -0.171463471703972 0.363843295173311
0.207894664511354 -0.164465292594064 0.363843295173311
0.209396992793436 -0.16117781496667 0.363843295173311
0.216925268560952 -0.150994626995134 0.363843295173311
0.236216488187733 -0.142938000389396 0.363843295173311
0.241734852071124 -0.136653352651623 0.363843295173311
0.249250139738131 -0.13299526655447 0.363843295173311
0.264062744170797 -0.114293108625291 0.363843295173311
0.264811675579582 -0.11567829954351 0.363843295173311
0.27467934165839 -0.10237500049708 0.363843295173311
0.288885461119293 -0.0988895091919436 0.363843295173311
0.292933446566741 -0.0850567127201784 0.363843295173311
0.313391097426021 -0.0790224735849111 0.363843295173311
0.318481753263386 -0.0718683045205226 0.363843295173311
0.329096824828071 -0.0631700111451095 0.363843295173311
0.338350396681431 -0.0512366898555995 0.363843295173311
0.350808441121907 -0.0460946736945123 0.363843295173311
0.363367198126635 -0.0340810452127861 0.363843295173311
0.369406740814625 -0.027174647202634 0.363843295173311
0.386695831999483 -0.014137914666712 0.363843295173311
0.382751769882888 -0.00971103103906895 0.363843295173311
0.405379917825006 0.00292232449645366 0.363843295173311
0.40761438833054 -0.00104606050463332 0.363843295173311
0.425145553657873 0.0160392098147743 0.363843295173311
0.423481202645459 0.0158223245973693 0.363843295173311
0.446120483066823 0.0321173434554302 0.363843295173311
0.458691171494438 0.0436643806383952 0.363843295173311
0.467959341315038 0.057866474810716 0.363843295173311
0.484300398288976 0.0695442776359338 0.363843295173311
0.482285750983465 0.0627048127131752 0.363843295173311
0.272882471379978 -0.0912810095408667 0.00616063002472503
0.272882471379978 -0.0930536821916551 0.0140872035244023
0.272882471379978 -0.0924514346075529 0.0223983426711325
0.272882471379978 -0.0954208866636399 0.0406331729142175
0.272882471379978 -0.0939294677248514 0.0476732052750424
0.272882471379978 -0.0989922782839692 0.0672259795035661
0.272882471379978 -0.0962028169785814 0.0690069922223756
0.272882471379978 -0.0925520243139939 0.0860794342447675
0.272882471379978 -0.0909408198163853 0.0974982837278017
0.272882471379978 -0.0959072971059359 0.110117456760988
0.272882471379978 -0.0958857727547835 0.119037614012631
0.272882471379978 -0.0920596048663173 0.123159883372213
0.272882471379978 -0.101436380050597 0.140550815555777
0.272882471379978 -0.0970957140635863 0.147509761370447
0.272882471379978 -0.0979910292299053 0.1602132823269
0.272882471379978 -0.0976760181612016 0.168188328131669
0.272882471379978 -0.0922344722318516 0.173660341787386
0.128501087488704 -0.218305977103983 0.361484104514193
0.132030658636376 -0.211025341154656 0.363843295173311
0.13103145453962 -0.2136886565272 0.363843295173311
0.148821844766877 -0.199478496656631 0.363843295173311
0.15405141612642 -0.201007456938167 0.363843295173311
0.169322449480426 -0.184295514198244 0.363843295173311
0.175642338654913 -0.181562621095966 0.363843295173311
0.188864841911228 -0.167249195754741 0.363843295173311
0.183432508352844 -0.169203166829685 0.363843295173311
0.198491063692429 -0.152430283822632 0.363843295173311
0.210173221789462 -0.147704501638808 0.363843295173311
0.213124882393742 -0.1399559318958 0.363843295173311
0.225050867063531 -0.132659825154402 0.363843295173311
0.24087001838985 -0.12993445414726 0.363843295173311
0.245772656415413 -0.115489583031093 0.363843295173311
0.26346425003174 -0.111847181242497 0.363843295173311
0.270714067324582 -0.0979940778414277 0.363843295173311
0.270291507696687 -0.0979987228498954 0.363843295173311
0.284213749894929 -0.0882570679422681 0.363843295173311
0.294869907818894 -0.0743274712095042 0.363843295173311
0.295793707917317 -0.0701035028751951 0.363843295173311
0.305315292387794 -0.062227409880165 0.363843295173311
0.320298126833127 -0.0541154402631054 0.363843295173311
0.330127933599083 -0.0401854480056605 0.363843295173311
0.337093057490702 -0.0425367833534971 0.363843295173311
0.349912190219397 -0.0274472614515603 0.363843295173311
0.360208361647545 -0.0150563043508306 0.363843295173311
0.367131964973524 -0.013334455934692 0.363843295173311
0.382312182456388 -0.00455221272111957 0.363843295173311
0.396142005751146 0.00140327931540455 0.363843295173311
0.406726772592333 0.0190556353165855 0.363843295173311
0.41167517511232 0.0229125501267291 0.363843295173311
0.428334515090674 0.0330058208347887 0.363843295173311
0.434242123996104 0.0354735996663062 0.363843295173311
0.447357325954984 0.0521320388329506 0.363843295173311
0.463229707388699 0.0610960655941971 0.363843295173311
0.472053827996389 0.0706490162228948 0.363843295173311
0.473297168209711 0.071560412818395 0.363843295173311
0.272882471379978 -0.0890762912672287 0.000939244662894768
0.272882471379978 -0.0774124422114132 0.00466779172596221
0.272882471379978 -0.0753513720676799 0.00169664762454534
0.272882471379978 -0.0828847052323994 0.0297025302000247
0.272882471379978 -0.0739250375114434 0.0278837526477261
0.272882471379978 -0.0827242167024039 0.0402462991753778
0.272882471379978 -0.0865046536188322 0.0532685337844882
0.272882471379978 -0.0840342368447356 0.0621175201777252
0.272882471379978 -0.0819838980084244 0.0762417220222376
0.272882471379978 -0.0868265923470906 0.0854794874349698
0.272882471379978 -0.0846148759946266 0.096637690280676
0.272882471379978 -0.083831421546727 0.108201362396471
0.272882471379978 -0.0793445655811717 0.118002479787606
0.272882471379978 -0.0781050054045282 0.129552921025704
0.272882471379978 -0.0829438602282346 0.133836137464289
0.272882471379978 -0.082935445465379 0.146729484704285
0.272882471379978 -0.0801376822265341 0.147695887903738
0.116457541686557 -0.218305977103983 0.356300130688351
0.115966970217001 -0.218305977103983 0.361230095784253
0.118365956545402 -0.215064520781716 0.363843295173311
0.133048848031277 -0.202838853154039 0.363843295173311
0.140100920550363 -0.198198731081493 0.363843295173311
0.151302307044993 -0.186330175397337 0.363843295173311
0.164767574378414 -0.172123494172162 0.363843295173311
0.164911305054625 -0.170534905222355 0.363843295173311
0.1745765938217 -0.161934776490409 0.363843295173311
0.18030758980257 -0.161622160520472 0.363843295173311
0.199821137563535 -0.152142456671253 0.363843295173311
0.203142995097349 -0.147358128527478 0.363843295173311
0.214172952669412 -0.132450178722803 0.363843295173311
0.222432494001638 -0.126760065143716 0.363843295173311
0.226384042450397 -0.121653155218725 0.363843295173311
0.233753303764348 -0.112256722772311 0.363843295173311
0.248691076437232 -0.105869298228779 0.363843295173311
0.251569608560223 -0.0986865925557432 0.363843295173311
0.267253447747209 -0.0914939595827523 0.363843295173311
0.274610375655204 -0.0827999388664701 0.363843295173311
0.28624006418361 -0.0730130074921826 0.363843295173311
0.293881653961682 -0.0646684300482794 0.363843295173311
0.308349814978826 -0.0589000162394607 0.363843295173311
0.317254993520109 -0.0475260689227942 0.363843295173311
0.325231600306414 -0.0379190850991898 0.363843295173311
0.333822728300903 -0.0303689261208097 0.363843295173311
0.336844123547083 -0.0210813315693091 0.363843295173311
0.358740427083728 -0.0173433919691498 0.363843295173311
0.366458728059828 -0.00561715548756385 0.363843295173311
0.371683011138662 -0.00143933563600079 0.363843295173311
0.384161097787082 0.0152970597267928 0.363843295173311
0.391279685087333 0.0199131604924555 0.363843295173311
0.40251632185308 0.0300642609259061 0.363843295173311
0.415413234723385 0.040931989327958 0.363843295173311
0.426856869063048 0.0508189426487326 0.363843295173311
0.441667888716116 0.0591963979445548 0.363843295173311
0.445208823479149 0.0645030972194497 0.363843295173311
0.457285861180255 0.0717206178785074 0.363843295173311
0.469844910625619 0.0831024567254155 0.363843295173311
0.474474499308809 0.0911779347738558 0.363843295173311
0.272882471379978 -0.0779030189681333 0.0145458572581587
0.272882471379978 -0.0700704463294108 0.0247430971824273
0.272882471379978 -0.0722666633531046 0.0307291371426041
0.272882471379978 -0.0731701676754687 0.0483474560778676
0.272882471379978 -0.0703853932040919 0.0506751586739219
0.272882471379978 -0.0660403114127139 0.0689470106758814
0.272882471379978 -0.0645456877336784 0.0754169364587418
0.272882471379978 -0.0651501747970357 0.0836791800768464
0.272882471379978 -0.0640282996593306 0.0925857731051187
0.272882471379978 -0.0706984653515777 0.110239170912457
0.272882471379978 -0.0698860457525842 0.125994183728849
0.272882471379978 -0.0666933942822585 0.126705989274305
0.272882471379978 -0.0701546853456629 0.139362139827402
0.272882471379978 -0.0746346919493389 0.150877879166353
0.102882937032208 -0.214763154226853 0.363843295173311
0.10427300085921 -0.205602137245162 0.363843295173311
0.111421411770091 -0.207991957150757 0.363843295173311
0.119386588406336 -0.193631686133283 0.363843295173311
0.132585823880922 -0.183062306068961 0.363843295173311
0.144806988565973 -0.171792747584003 0.363843295173311
0.149241757570202 -0.170370928343412 0.363843295173311
0.154455605017232 -0.166639818247948 0.363843295173311
0.163148751578713 -0.163146469166092 0.363843295173311
0.182089043937752 -0.146111109823035 0.363843295173311
0.187051597011903 -0.137460534322734 0.363843295173311
0.192045968499062 -0.136859051696942 0.363843295173311
0.200077653884008 -0.131218692640507 0.363843295173311
0.204892948013395 -0.126707175879775 0.363843295173311
0.214992914765765 -0.114858059761802 0.363843295173311
0.22718949022276 -0.112170370158538 0.363843295173311
0.237984678452579 -0.0987911798084968 0.363843295173311
0.245319585714443 -0.0926057529825292 0.363843295173311
0.259136947934919 -0.0767286891898225 0.363843295173311
0.265115986615878 -0.0779057442528787 0.363843295173311
0.279632881341571 -0.0592795704888083 0.363843295173311
0.29003224067433 -0.0579604669051953 0.363843295173311
0.300481747646253 -0.0436503582688467 0.363843295173311
0.308389877508291 -0.0437875570624012 0.363843295173311
0.318087984571882 -0.0256946240747445 0.363843295173311
0.329208690145072 -0.0171006813118474 0.363843295173311
0.337329559084509 -0.0123376638825093 0.363843295173311
0.348798086789645 -0.00132636618776278 0.363843295173311
0.351156696729232 -0.00369596379642216 0.363843295173311
0.368195460789603 0.0103391051392941 0.363843295173311
0.379541834978574 0.0168287425299832 0.363843295173311
0.386210285442483 0.0286685214069685 0.363843295173311
0.398721238566455 0.0397563499285033 0.363843295173311
0.412546546789654 0.0429515069217682 0.363843295173311
0.422350854167135 0.0586651699423175 0.363843295173311
0.437204587302834 0.0634390895623475 0.363843295173311
0.441446123603268 0.0818056544075877 0.363843295173311
0.455686189097262 0.0834135274943394 0.363843295173311
0.461938106429056 0.0876858203067435 0.363843295173311
0.476343436188287 0.102349538373426 0.363843295173311
0.272882471379978 -0.0536082026561301 0.00926924988537804
0.272882471379978 -0.0526811079439223 0.00752989109201126
0.272882471379978 -0.0572559844412951 0.0222048073957497
0.272882471379978 -0.060341712569289 0.0366350520894603
0.272882471379978 -0.0481060133121052 0.0372601359753576
0.272882471379978 -0.0514521491317418 0.0511273138664386
0.272882471379978 -0.0556885070750756 0.0692058502351474
0.272882471379978 -0.0492193807325545 0.0761808909269657
0.272882471379978 -0.0482656572673194 0.0871432769585892
0.272882471379978 -0.0549226859561434 0.0938935514196391
0.272882471379978 -0.0571689081069573 0.110035494447666
0.272882471379978 -0.0508162316076295 0.11653533439007
0.0857508997636642 -0.218305977103983 0.353785594490543
0.0846127296680992 -0.217043493927575 0.363843295173311
0.0861183682005956 -0.20952272714918 0.363843295173311
0.108504335821345 -0.201792303575622 0.363843295173311
0.114705271579932 -0.196039498109201 0.363843295173311
0.121822197583776 -0.193073517008093 0.363843295173311
0.125580247934489 -0.181873953054572 0.363843295173311
0.132821796234102 -0.172736494834172 0.363843295173311
0.140814410690448 -0.169673975628363 0.363843295173311
0.153947804745374 -0.157651810053698 0.363843295173311
0.159294411578077 -0.156259979194476 0.363843295173311
0.174296107070294 -0.143180574957019 0.363843295173311
0.178937840038001 -0.13799922976395 0.363843295173311
0.189090990971823 -0.125803217809927 0.363843295173311
0.198182881101106 -0.118886206728078 0.363843295173311
0.202367473584772 -0.110547716293392 0.363843295173311
0.214253737780174 -0.11339481930352 0.363843295173311
0.226461170162914 -0.0936311195577472 0.363843295173311
0.227983862926156 -0.0900885198570436 0.363843295173311
0.237475883941112 -0.0883127673902179 0.363843295173311
0.253619613495049 -0.071615804103459 0.363843295173311
0.263179558927139 -0.0667373407467454 0.363843295173311
0.270171628360139 -0.0555308079271895 0.363843295173311
0.280431189534167 -0.0445082750167529 0.363843295173311
0.283024871607716 -0.0413038163444293 0.363843295173311
0.291940600988573 -0.0296864652682582 0.363843295173311
0.309646347943578 -0.0305787433047276 0.363843295173311
0.316650703278695 -0.0118060106874281 0.363843295173311
0.319054273544034 -0.00592695591681576 0.363843295173311
0.342254768902361 0.00743999608183725 0.363843295173311
0.345602218991667 0.00398535276744119 0.363843295173311
0.361073183134157 0.0153214113042606 0.363843295173311
0.367629157122468 0.0287343579322104 0.363843295173311
0.374972097906745 0.0362370555436339 0.363843295173311
0.39035897637096 0.0494220233935945 0.363843295173311
0.399504132305292 0.0552816564756331 0.363843295173311
0.416742859736073 0.0604474331053388 0.363843295173311
0.423796734837005 0.0775121235773393 0.363843295173311
0.431110812431365 0.0782578352457142 0.363843295173311
0.44624579491088 0.092611721053512 0.363843295173311
0.456307422858934 0.104340195719437 0.363843295173311
0.465952834311844 0.114600449518575 0.363843295173311
0.272882471379978 -0.0329765771274582 0.00479560567478964
0.272882471379978 -0.0483581677549291 0.0217137881807952
0.272882471379978 -0.0458913512354451 0.0265964044355724
0.272882471379978 -0.0354934282578822 0.0362024753989631
0.272882471379978 -0.0329456841872276 0.0383085092312859
0.272882471379978 -0.0474160194492426 0.0573921880446076
0.272882471379978 -0.0398265136487742 0.0766362248532086
0.272882471379978 -0.0406742720721215 0.077709564246397
0.272882471379978 -0.0384772671640172 0.0908277012254308
0.272882471379978 -0.0327905846506358 0.0894451130887249
0.0617095791196819 -0.218305977103983 0.362736864816066
0.0701615319868776 -0.218193364883486 0.363843295173311
0.0744243664960161 -0.205967705797131 0.363843295173311
0.089671593378071 -0.203335124610383 0.363843295173311
0.0929839182287991 -0.194925587753141 0.363843295173311
0.104828685325357 -0.183700054885202 0.363843295173311
0.119093975250328 -0.177514427315673 0.363843295173311
0.122202393962386 -0.170851135109433 0.363843295173311
0.132979218674803 -0.165887781851435 0.363843295173311
0.133921281865604 -0.15777432072512 0.363843295173311
0.144243456668538 -0.153002404437089 0.363843295173311
0.159390104490956 -0.142500219827181 0.363843295173311
0.155000999269286 -0.136013711163406 0.363843295173311
0.167848352204354 -0.127281289755406 0.363843295173311
0.17479204208609 -0.118232305263307 0.363843295173311
0.185272834666916 -0.110533606061643 0.363843295173311
0.193477020061721 -0.110406588701128 0.363843295173311
0.207379379270723 -0.0959382096659085 0.363843295173311
0.22321083173705 -0.0913444702563211 0.363843295173311
0.224560758439685 -0.0848334281494434 0.363843295173311
0.232409263688628 -0.0776584504113981 0.363843295173311
0.242447790060767 -0.0695285504717281 0.363843295173311
0.254247357279456 -0.0610130489782364 0.363843295173311
0.271932199736909 -0.0485736669056253 0.363843295173311
0.26936948551499 -0.0442344873416337 0.363843295173311
0.286760719215623 -0.0336610885195639 0.363843295173311
0.289153245849269 -0.0292728951623996 0.363843295173311
0.305643740973308 -0.00824128753786613 0.363843295173311
0.308345858859004 -0.00705872876197671 0.363843295173311
0.321987962641234 0.00321548081057025 0.363843295173311
0.331027772905079 0.0167748713503943 0.363843295173311
0.337450668111572 0.0182732585422762 0.363843295173311
0.346157868456136 0.025331578575967 0.363843295173311
0.354795865721583 0.0316726054560964 0.363843295173311
0.37381632612065 0.0431583162936199 0.363843295173311
0.377637627803819 0.0561992615538503 0.363843295173311
0.39846349629738 0.0634120018517537 0.363843295173311
0.400803859681435 0.0662251464836087 0.363843295173311
0.416314860536609 0.0810115571603242 0.363843295173311
0.415512075838929 0.0885007442208286 0.363843295173311
0.434864151113279 0.107002687984589 0.363843295173311
0.450159452181435 0.10978323347728 0.363843295173311
0.272882471379978 -0.0326542287590063 0.00924528475910446
0.272882471379978 -0.0205651444054667 0.0199597472322617
0.272882471379978 -0.0307327569843642 0.0277463749837214
0.272882471379978 -0.0341807950120735 0.0382562606964274
0.272882471379978 -0.0297018621150455 0.0484142942939187
0.272882471379978 -0.0282484590572949 0.0543337486007541
0.272882471379978 -0.023863610103407 0.0694203128416826
0.272882471379978 -0.0287284067193967 0.0749018015114471
0.0534704269157731 -0.218305977103983 0.357606810414278
0.0525864081451203 -0.218305977103983 0.359235657374168
0.0610371661667648 -0.208960233502117 0.363843295173311
0.0691401595745466 -0.20154317530787 0.363843295173311
0.0863286125579839 -0.196064789168673 0.363843295173311
0.0867686970533198 -0.196202422027891 0.363843295173311
0.0962704855572391 -0.182446205884318 0.363843295173311
0.0998731287163613 -0.174072401703818 0.363843295173311
0.115181700090487 -0.162399724633383 0.363843295173311
0.127962013160983 -0.154434248515431 0.363843295173311
0.126889933502115 -0.151817219703705 0.363843295173311
0.128994644861221 -0.151598364781165 0.363843295173311
0.145241862131902 -0.13736134511377 0.363843295173311
0.151318513974739 -0.126321451487218 0.363843295173311
0.165007151744016 -0.11837088857325 0.363843295173311
0.173214408863412 -0.115166074284859 0.363843295173311
0.187006959728356 -0.109687977114692 0.363843295173311
0.19288971949758 -0.0970871734184941 0.363843295173311
0.205110908375721 -0.0876741183660899 0.363843295173311
0.214896341462971 -0.0752147447672794 0.363843295173311
0.22158092997738 -0.0742160554305992 0.363843295173311
0.230445810692895 -0.070045550678673 0.363843295173311
0.240657688395885 -0.0544645588194319 0.363843295173311
0.245343090976884 -0.053411809078294 0.363843295173311
0.251514422865708 -0.0425439504794715 0.363843295173311
0.26573417108099 -0.0294648853403724 0.363843295173311
0.278177981483011 -0.0270007080963482 0.363843295173311
0.27620948593557 -0.0210153975288817 0.363843295173311
0.291154656860005 -0.0148771945614416 0.363843295173311
0.298744422086162 0.00349566119099443 0.363843295173311
0.312701723546911 0.0076229346413945 0.363843295173311
0.326821558149394 0.013374739806007 0.363843295173311
0.340238900776546 0.0347677538963141 0.363843295173311
0.342936422291477 0.0420729569139347 0.363843295173311
0.353539695777705 0.0355061133381826 0.363843295173311
0.356287281002106 0.0523897819190541 0.363843295173311
0.366073310379661 0.0610794823475179 0.363843295173311
0.38482089484106 0.0769514785785333 0.363843295173311
0.389455455587544 0.0747578676643103 0.363843295173311
0.410455738547871 0.0972305886708311 0.363843295173311
0.419524262302015 0.102226997424539 0.363843295173311
0.42683850115318 0.110469132080388 0.363843295173311
0.436686211579869 0.113885637369366 0.363843295173311
0.450485605105782 0.1314745247149 0.363843295173311
0.272882471379978 -0.0190434795100935 0.000608519139077935
0.272882471379978 -0.00851394149022516 0.0024549788441911
0.272882471379978 -0.00429540066455734 0.0154405512991763
0.272882471379978 -0.00568459394957194 0.0278839941716551
0.272882471379978 -0.00580502800889255 0.0347773190930619
0.272882471379978 -0.0123818312111916 0.046320228468576
0.272882471379978 -0.0163418477331636 0.0599473813813661
0.0394617130343549 -0.218305977103983 0.35318535752538
0.0429537514230434 -0.213565415542595 0.363843295173311
0.0475968663495796 -0.20680606270135 0.363843295173311
0.0640995398955197 -0.204553255548819 0.363843295173311
0.0675816881563658 -0.198122801316705 0.363843295173311
0.0727975773405477 -0.189718121525444 0.363843295173311
0.0786769803512217 -0.180648456975312 0.363843295173311
0.0869840540176961 -0.17703077651864 0.363843295173311
0.0995036395256511 -0.16846903465856 0.363843295173311
0.106308054917651 -0.167248861095503 0.363843295173311
0.110227651948054 -0.154901594022621 0.363843295173311
0.126854361375501 -0.143386170593057 0.363843295173311
0.128060783699604 -0.137034385881788 0.363843295173311
0.135269190759099 -0.129603151397265 0.363843295173311
0.151343934832934 -0.12491085334884 0.363843295173311
0.150428762404841 -0.115992352078784 0.363843295173311
0.166934876637013 -0.109626349903746 0.363843295173311
0.179323381275374 -0.0944159360756191 0.363843295173311
0.175584854954552 -0.0962304287709104 0.363843295173311
0.188697597017318 -0.0822261038191017 0.363843295173311
0.197668969632999 -0.0728734150532628 0.363843295173311
0.211675322331666 -0.062675366448632 0.363843295173311
0.220683607785929 -0.0587600268022808 0.363843295173311
0.222408945746309 -0.0510245364835433 0.363843295173311
0.234360803732643 -0.0470144918144412 0.363843295173311
0.250236993130178 -0.0412719550168672 0.363843295173311
0.261535594799965 -0.0254408004247024 0.363843295173311
0.26869960764941 -0.0223169811312829 0.363843295173311
0.273240311890795 -0.00672511521000235 0.363843295173311
0.281545050461609 0.00130821678868068 0.363843295173311
0.298564404064549 0.00198413892748652 0.363843295173311
0.300234618185808 0.0144632941115087 0.363843295173311
0.321250487302894 0.0237822548387533 0.363843295173311
0.325545232591993 0.0393906457154713 0.363843295173311
0.330905232101854 0.0367728666023806 0.363843295173311
0.35464570290378 0.0536481976150654 0.363843295173311
0.360520017874429 0.0692589432248358 0.363843295173311
0.362468330607765 0.0708368868511495 0.363843295173311
0.375993715499422 0.0726992314861015 0.363843295173311
0.394835063507706 0.0889802313811518 0.363843295173311
0.398724040128083 0.101525074906421 0.363843295173311
0.408192614188912 0.111929331503378 0.363843295173311
0.41906783706086 0.122999952616417 0.363843295173311
0.433351033075681 0.12116567159824 0.363843295173311
0.439071679346558 0.139276494628107 0.363843295173311
0.272882471379978 0.00621755971216295 0.00743913754690143
0.272882471379978 0.00279138384664081 0.0143395168177034
0.272882471379978 0.000381344897709355 0.0249163307131223
0.272882471379978 0.00964331835341151 0.0299766328320345
0.0241525663342691 -0.218305977103983 0.355097777606593
0.0257190380719043 -0.217944921217182 0.363843295173311
0.0400814903049669 -0.212235518635839 0.363843295173311
0.0375417942408934 -0.208189613074197 0.363843295173311
0.0493041751421714 -0.193736692083363 0.363843295173311
0.0566915306703076 -0.191219169769703 0.363843295173311
0.0636171678315703 -0.177747336613396 0.363843295173311
0.0685540423689438 -0.173596354041587 0.363843295173311
0.0837375232189725 -0.167053455954339 0.363843295173311
0.0868750782176577 -0.155387806177887 0.363843295173311
0.101371395417629 -0.152006147745132 0.363843295173311
0.113105157522486 -0.144998873518972 0.363843295173311
0.115678503279089 -0.13691846477541 0.363843295173311
0.128335609236877 -0.127118982834517 0.363843295173311
0.12969750473097 -0.126508234765003 0.363843295173311
0.140446190981883 -0.115097026492206 0.363843295173311
0.145094293847728 -0.112044010403999 0.363843295173311
0.159835757680117 -0.105115635944259 0.363843295173311
0.166564797749137 -0.0948081717823318 0.363843295173311
0.176107415564114 -0.0902626618687289 0.363843295173311
0.178335676655501 -0.0751424066626695 0.363843295173311
0.193630486593536 -0.065929255433433 0.363843295173311
0.208450454754485 -0.0600462688509593 0.363843295173311
0.213403870768165 -0.0537005602518112 0.363843295173311
0.226703234919511 -0.0455087018203287 0.363843295173311
0.233778982644747 -0.0326957487583407 0.363843295173311
0.237426282643791 -0.0245425329339788 0.363843295173311
0.253420140929247 -0.0208771723300457 0.363843295173311
0.260171350600789 -0.0108195573922968 0.363843295173311
0.271049894558274 -0.00573916666027557 0.363843295173311
0.279775563541042 0.00512758917285544 0.363843295173311
0.283872796603508 0.0160107695100604 0.363843295173311
0.302265436132215 0.0276368606297564 0.363843295173311
0.307530748742614 0.036813414879636 0.363843295173311
0.31569630600896 0.0438973045344513 0.363843295173311
0.331591248201529 0.0589279432773268 0.363843295173311
0.338930421375634 0.0554145480115064 0.363843295173311
0.347202438825647 0.066525825163797 0.363843295173311
0.361845469749734 0.0807617925521857 0.363843295173311
0.367446977999513 0.0935111958901154 0.363843295173311
0.378732473108142 0.0945274420435293 0.363843295173311
0.387378648232617 0.110962424855052 0.363843295173311
0.404458467752385 0.11210006215289 0.363843295173311
0.410385920202938 0.122163728584136 0.363843295173311
0.417715921233946 0.135302128071288 0.363843295173311
0.434834833255452 0.141815215920888 0.363843295173311
0.272882471379978 0.0198619207205101 0.00363891322302882
0.272882471379978 0.0138353806087672 0.0179481054971708
0.0101682068467449 -0.218305977103983 0.355081339359112
0.016125625746832 -0.216453592197182 0.363843295173311
0.0223983196767096 -0.202038078580132 0.363843295173311
0.0310261292499271 -0.199070442024855 0.363843295173311
0.0359620084172021 -0.193073431749364 0.363843295173311
0.0397096885410854 -0.191733346214146 0.363843295173311
0.0470263507534926 -0.179790334344448 0.363843295173311
0.0570455309030272 -0.173249570957212 0.363843295173311
0.0680027013230271 -0.168839129787614 0.363843295173311
0.0719847499297819 -0.164020286546603 0.363843295173311
0.0850524129609481 -0.147949599988071 0.363843295173311
0.089308366630371 -0.143246537019368 0.363843295173311
0.100250699656866 -0.139009687006005 0.363843295173311
0.112254150761187 -0.129202901522371 0.363843295173311
0.117655422910772 -0.125342704581346 0.363843295173311
0.130148254749554 -0.111482444218466 0.363843295173311
0.135018011101312 -0.109402357630982 0.363843295173311
0.1391000041297 -0.0977976124286436 0.363843295173311
0.159590382778744 -0.0925929165421909 0.363843295173311
0.162059389099591 -0.0829866942324644 0.363843295173311
0.173337654420586 -0.0712003477333155 0.363843295173311
0.176625410650311 -0.0676176439023224 0.363843295173311
0.181312210196873 -0.0640600392059449 0.363843295173311
0.188469966715185 -0.0547951444761434 0.363843295173311
0.209092006338377 -0.0380615825746893 0.363843295173311
0.220985150712277 -0.0363241378375508 0.363843295173311
0.226217282554214 -0.0244993797322501 0.363843295173311
0.232994272287308 -0.0195885608644904 0.363843295173311
0.239951857219026 -0.0162720287277728 0.363843295173311
0.250882606687565 -0.0112748260967152 0.363843295173311
0.256289357686275 -0.00181248308086982 0.363843295173311
0.27481946804464 0.0179207326672353 0.363843295173311
0.27903943904783 0.0190839284495597 0.363843295173311
0.284763524181552 0.0306823989213722 0.363843295173311
0.29911799800182 0.0488170805075178 0.363843295173311
0.310038284677861 0.052446242136681 0.363843295173311
0.311069206785285 0.0496304822986712 0.363843295173311
0.337701936765537 0.0643938499141697 0.363843295173311
0.336119155559822 0.0670145059619335 0.363843295173311
0.342853904019465 0.0796027407833622 0.363843295173311
0.363448318187096 0.0943832983136431 0.363843295173311
0.366015923880324 0.0980828032390807 0.363843295173311
0.381509885758767 0.113006892622758 0.363843295173311
0.392555844161918 0.119536871285062 0.363843295173311
0.395539119768418 0.123462491866429 0.363843295173311
0.417304731145127 0.148318540963284 0.363843295173311
0.435411139982491 0.153471243569945 0.363843295173311
0.434522021234187 0.154665388855784 0.363843295173311
-0.00916831201735595 -0.218305977103983 0.353038449230216
-0.00718403108525801 -0.218041084252547 0.363843295173311
-0.000632423939770819 -0.21250721906254 0.363843295173311
0.00358059545158627 -0.209021624303661 0.363843295173311
0.0109936339273869 -0.207431556017076 0.363843295173311
0.0273841925447167 -0.197647948617336 0.363843295173311
0.029137973426599 -0.190567227451778 0.363843295173311
0.0333356229596875 -0.18532434614542 0.363843295173311
0.0378988603686265 -0.175500355050912 0.363843295173311
0.0502460105547086 -0.161661774210625 0.363843295173311
0.0619933378980338 -0.153517106974888 0.363843295173311
0.0643881199437278 -0.154256919336089 0.363843295173311
0.0831059464199142 -0.141841908436764 0.363843295173311
0.0815914717497217 -0.139302990712743 0.363843295173311
0.0940222440482657 -0.134614619566079 0.363843295173311
0.0995032853970807 -0.126067511100729 0.363843295173311
0.110304432599317 -0.109682676703883 0.363843295173311
0.113011796480004 -0.109251900926791 0.363843295173311
0.118600280489327 -0.10698721400348 0.363843295173311
0.13269958810367 -0.0943381360624064 0.363843295173311
0.137580506888773 -0.0852217926612283 0.363843295173311
0.145584362365978 -0.0782362889623906 0.363843295173311
0.159728252615346 -0.0715794620054185 0.363843295173311
0.166126722339295 -0.0616753361965609 0.363843295173311
0.182875818756291 -0.057540018063493 0.363843295173311
0.182552883544609 -0.0427410486458971 0.363843295173311
0.203427444708639 -0.0336138036155463 0.363843295173311
0.214146491515139 -0.0201884213944089 0.363843295173311
0.21311605140475 -0.0245478489362742 0.363843295173311
0.228740981579953 -0.0122276719947537 0.363843295173311
0.235251958191164 0.000147243287020154 0.363843295173311
0.248583986065338 0.00920621218246711 0.363843295173311
0.25265622164692 0.0176531648393193 0.363843295173311
0.257726720538942 0.0187776724810331 0.363843295173311
0.271190493909478 0.0341660410942839 0.363843295173311
0.281198868450801 0.038461092651208 0.363843295173311
0.293819227534921 0.0524651351626773 0.363843295173311
0.303440696651645 0.0540003549701198 0.363843295173311
0.304033171441988 0.0620848257869818 0.363843295173311
0.317323047670283 0.0734499122793301 0.363843295173311
0.325540815305624 0.0858495727391474 0.363843295173311
0.34047856687782 0.09378921112324 0.363843295173311
0.358777577817725 0.101893953105054 0.363843295173311
0.370767803052857 0.117322724661395 0.363843295173311
0.376612206841927 0.12150181292814 0.363843295173311
0.392911002416248 0.137610697373517 0.363843295173311
0.396512044502601 0.146557091062494 0.363843295173311
0.414740942098372 0.155455991619033 0.363843295173311
0.42150057640117 0.165305931418442 0.363843295173311
-0.0222358372909903 -0.218305977103983 0.354318306543813
-0.0139342807734334 -0.212858929650792 0.363843295173311
-0.0129887080338221 -0.212446958892718 0.363843295173311
-0.000286974992159725 -0.203759042491425 0.363843295173311
0.0121011358885556 -0.195620518605124 0.363843295173311
0.0169639750381304 -0.189207972846861 0.363843295173311
0.0297156573174974 -0.177990339639528 0.363843295173311
0.029876019238826 -0.179026344537393 0.363843295173311
0.0385725907216481 -0.171713060911647 0.363843295173311
0.0447624095633761 -0.162617843037737 0.363843295173311
0.0559695039282697 -0.157792295661492 0.363843295173311
0.0644494310644661 -0.144299879245358 0.363843295173311
0.0696246573227824 -0.141177048158862 0.363843295173311
0.0790602142575179 -0.131659056621864 0.363843295173311
0.0810350446174921 -0.121412667356868 0.363843295173311
0.10085348368387 -0.114875225649022 0.363843295173311
0.104564557052579 -0.104804621979514 0.363843295173311
0.112536903232716 -0.101982172773219 0.363843295173311
0.122862782231008 -0.0878805166760066 0.363843295173311
0.127339889571423 -0.0820689033852819 0.363843295173311
0.139674896041616 -0.0758141575195895 0.363843295173311
0.144239242965036 -0.0689604942498465 0.363843295173311
0.160625452719947 -0.0563967826212616 0.363843295173311
0.15586606185684 -0.0533427091430316 0.363843295173311
0.174700807958706 -0.0480622927861886 0.363843295173311
0.18113276707765 -0.0367534127264583 0.363843295173311
0.191319563536517 -0.029142897277905 0.363843295173311
0.204450233058303 -0.020103042519388 0.363843295173311
0.203915143331422 -0.0199079995037141 0.363843295173311
0.226795926877595 -0.00664341576676081 0.363843295173311
0.229941791114273 0.00471366631288316 0.363843295173311
0.237004262546366 0.00981595892017963 0.363843295173311
0.251677043216136 0.0271070065918617 0.363843295173311
0.24975843145999 0.030311648056396 0.363843295173311
0.266106072339144 0.0443913690494784 0.363843295173311
0.280404780507732 0.049686435493362 0.363843295173311
0.278766756307343 0.0491692169863105 0.363843295173311
0.291237462248913 0.0620286566429852 0.363843295173311
0.309381869904545 0.0780737094083136 0.363843295173311
0.314945991087526 0.0838075710496757 0.363843295173311
0.325064301663239 0.0950232848007098 0.363843295173311
0.334976738848121 0.103198738122473 0.363843295173311
0.349057935561471 0.118516979822354 0.363843295173311
0.355054521209828 0.122822487221829 0.363843295173311
0.365614059550365 0.134834154394533 0.363843295173311
0.372308453839262 0.138027162016762 0.363843295173311
0.389053249368976 0.146493319999771 0.363843295173311
0.397400073087445 0.154754682039131 0.363843295173311
0.41000684041703 0.174187467881779 0.363843295173311
-0.025257581002393 -0.218305977103983 0.352402490349927
-0.0339048339950388 -0.218305977103983 0.363411293893694
-0.0241347959954074 -0.207699876220587 0.363843295173311
-0.0110887364651377 -0.2025835041427 0.363843295173311
-0.00585688346655287 -0.200260995695364 0.363843295173311
-0.00721370521197692 -0.192509628777793 0.363843295173311
0.00741578591152742 -0.181124214049556 0.363843295173311
0.0155314639017621 -0.179220013269921 0.363843295173311
0.0255426875215193 -0.16987431482762 0.363843295173311
0.030510025408042 -0.155778415791677 0.363843295173311
0.0406044109405227 -0.1534790125744 0.363843295173311
0.0481002533535979 -0.147483478319972 0.363843295173311
0.0519528225674239 -0.144952847451234 0.363843295173311
0.0619584943548981 -0.128065362826454 0.363843295173311
0.0792940126283165 -0.1191943657197 0.363843295173311
0.0833627432336132 -0.114361703495915 0.363843295173311
0.0858335442216161 -0.114765373169374 0.363843295173311
0.0944083405382998 -0.0974704520364851 0.363843295173311
0.112181630288528 -0.0860301296905822 0.363843295173311
0.11394574540319 -0.0792702953629254 0.363843295173311
0.113671885233458 -0.0829689088578408 0.363843295173311
0.127693518206003 -0.0681267509781744 0.363843295173311
0.137412536111634 -0.0634705987484897 0.363843295173311
0.155018729526813 -0.0541617458707444 0.363843295173311
0.153262310503143 -0.0485103527036067 0.363843295173311
0.169872406185497 -0.0352492833679261 0.363843295173311
0.174710391166347 -0.0347639047302762 0.363843295173311
0.17584680703571 -0.0288681737406345 0.363843295173311
0.194740650017022 -0.0211979925834968 0.363843295173311
0.205160076265138 -0.00310961673113516 0.363843295173311
0.216039655720174 0.00207361305590094 0.363843295173311
0.22483263242705 0.0155220549212991 0.363843295173311
0.221687738700849 0.0206246369631241 0.363843295173311
0.234475686199967 0.0230267998479561 0.363843295173311
0.247762923351223 0.0362817362918246 0.363843295173311
0.258950071137049 0.0466002911958953 0.363843295173311
0.261654861207121 0.0483074542915456 0.363843295173311
0.281761235963288 0.0635547885848498 0.363843295173311
0.284673858212653 0.0698832426645945 0.363843295173311
0.290350662796416 0.0758642983641724 0.363843295173311
0.305037527793885 0.0903834573973322 0.363843295173311
0.324030271034822 0.104161103168118 0.363843295173311
0.321746597092251 0.109521638446509 0.363843295173311
0.337505175688518 0.120153807260911 0.363843295173311
0.349973436898645 0.12431068822938 0.363843295173311
0.365061710276111 0.138495624990854 0.363843295173311
0.36377655339336 0.140628027081225 0.363843295173311
0.378254403524623 0.155898802305991 0.363843295173311
0.394177205873639 0.169034976598385 0.363843295173311
0.395534620220146 0.172411172929632 0.363843295173311
-0.0465506928023077 -0.218305977103983 0.353613694655525
-0.0459890533551774 -0.218305977103983 0.363305712249961
-0.0513602363781964 -0.21784364335733 0.363843295173311
-0.0360616452877063 -0.211818461000048 0.363843295173311
-0.0308799511567807 -0.199775766632531 0.363843295173311
-0.0270480977800373 -0.20318776764541 0.363843295173311
-0.0148683386680237 -0.191130318995107 0.363843295173311
-0.00669600126504969 -0.186132681969331 0.363843295173311
-0.0021022041330399 -0.180801215573594 0.363843295173311
0.0140899277278252 -0.167258842028408 0.363843295173311
0.0182573113120241 -0.160927500239393 0.363843295173311
0.0245852159476627 -0.152422282211784 0.363843295173311
0.0390409333923533 -0.148101038362834 0.363843295173311
0.0471323417714212 -0.14070422001914 0.363843295173311
0.0416434121477423 -0.133457182145914 0.363843295173311
0.0529577830901143 -0.121735929967482 0.363843295173311
0.0614002036880583 -0.116624412033623 0.363843295173311
0.0759772978942973 -0.112277016665015 0.363843295173311
0.0755601213650944 -0.104769751805148 0.363843295173311
0.0879363798012895 -0.0999003489789849 0.363843295173311
0.0956090394059429 -0.0879968568997028 0.363843295173311
0.107065577410019 -0.0788627281859043 0.363843295173311
0.117016810600254 -0.0724993388841617 0.363843295173311
0.130537195852172 -0.0628020673670596 0.363843295173311
0.138642831735599 -0.0555000720494172 0.363843295173311
0.137127435112882 -0.0486186223045367 0.363843295173311
0.151156639675333 -0.0335778043652296 0.363843295173311
0.160850354843506 -0.030414780464218 0.363843295173311
0.169044718941994 -0.0198328620343368 0.363843295173311
0.176190011295719 -0.0178448990438146 0.363843295173311
0.1794325822711 -0.00423468607075205 0.363843295173311
0.195940541695353 0.00188108037608943 0.363843295173311
0.205641529115942 0.0153264964767246 0.363843295173311
0.21065146597385 0.0131784023383924 0.363843295173311
0.221036291648202 0.0264845753010859 0.363843295173311
0.23129475947063 0.0368133619407833 0.363843295173311
0.247875052628047 0.0475118500645914 0.363843295173311
0.249636589816939 0.0530176471898555 0.363843295173311
0.251499069463194 0.0570963861376037 0.363843295173311
0.271831324202826 0.0688206564054939 0.363843295173311
0.280869446626171 0.0843283541911787 0.363843295173311
0.290344753570881 0.092734651323679 0.363843295173311
0.305462106376062 0.0967208467320068 0.363843295173311
0.316610370807506 0.115127207174363 0.363843295173311
0.328580200563359 0.120960455320711 0.363843295173311
0.334089637515478 0.13032183368002 0.363843295173311
0.337078638935831 0.129102430429086 0.363843295173311
0.343029763991456 0.139043777186754 0.363843295173311
0.362453938811638 0.155988763864175 0.363843295173311
0.375151405941035 0.163017950637336 0.363843295173311
0.376246809947478 0.169396957341837 0.363843295173311
-0.0675572171586552 -0.218305977103983 0.357265203698184
-0.0556467880733509 -0.218305977103983 0.361423853648657
-0.049671391182132 -0.204391030585928 0.363843295173311
-0.0427442834591298 -0.208693908791844 0.363843295173311
-0.0358239210023302 -0.194988894318338 0.363843295173311
-0.0260231699509459 -0.187282598705719 0.363843295173311
