ply
format ascii 1.0
element vertex 1015
property float x
property float y
property float z
end_header
-0.497310943413139 0.128704955773937 0.259408955968077
-0.414710965483728 0.180430894945994 0.254225776430091
-0.418343747203191 0.180171370753954 0.255484839299727
-0.433040786748846 0.166745962444365 0.2625
-0.441719196548685 0.165408158208942 0.2625
-0.450250977834738 0.156854947799488 0.2625
-0.454470688925434 0.147402619604941 0.2625
-0.460790325754185 0.14234720622649 0.2625
-0.484615941490481 0.13285712285523 0.2625
-0.48468806164654 0.129877835108554 0.2625
-0.49896900153865 0.116184134505394 0.258745732717873
-0.394659586118595 0.181863355916922 0.252071741480026
-0.395965152018047 0.181770086912237 0.250897438509083
-0.40577675906565 0.176127965949147 0.26079413335423
-0.406094934314329 0.168137575555805 0.2625
-0.423099527204455 0.161836770701692 0.2625
-0.431108078653383 0.15118299893302 0.2625
-0.437860503808318 0.144416799602564 0.2625
-0.45389998906333 0.147247185161323 0.2625
-0.459960665748578 0.136020672023626 0.2625
-0.475895452284621 0.123223214402816 0.2625
-0.485557719369114 0.114196301909046 0.2625
-0.488172042499341 0.107725630452449 0.2625
-0.385047953372949 0.177574741069503 0.260811106246467
-0.388609888773572 0.175993184532073 0.261472023063388
-0.39316460140812 0.16794450904226 0.2625
-0.409498795600492 0.16212156933016 0.2625
-0.417363368057811 0.158352874337775 0.2625
-0.428806607598574 0.151304217824751 0.2625
-0.438033827981535 0.137154450828505 0.2625
-0.442088288288485 0.128115351831483 0.2625
-0.455019390036267 0.12606271462753 0.2625
-0.458229903218635 0.119397313642801 0.2625
-0.482790751289023 0.107685606659949 0.2625
-0.490463319380915 0.0956228910849559 0.262148005580967
-0.497858878054958 0.0847213935835099 0.259189782111349
-0.36004233933094 0.181221780439255 0.259884468473312
-0.377466787046507 0.17098320929969 0.2625
-0.37698051087736 0.169158403543697 0.2625
-0.382793501107506 0.167759180739957 0.2625
-0.393924834607989 0.159596007835486 0.2625
-0.411529199155668 0.142840790711001 0.2625
-0.419132726344647 0.14237019726241 0.2625
-0.426201738250262 0.134558657032212 0.2625
-0.437119296345735 0.129296280305647 0.2625
-0.44013130263302 0.115298181966073 0.2625
-0.456949993956059 0.104374881598213 0.2625
-0.458735176427752 0.107376760727313 0.2625
-0.479061227031065 0.0967803529823107 0.2625
-0.491062414079307 0.0842412864032938 0.26190836770161
-0.34465511277077 0.185435651624774 0.25669273852632
-0.349867593512914 0.185063274488574 0.257385452325345
-0.356872144462619 0.177468927710988 0.261866247399383
-0.363230227579539 0.169837886932202 0.2625
-0.376089380455873 0.156774768797467 0.2625
-0.388762848229646 0.151925361968818 0.2625
-0.397636362319288 0.142022887036693 0.2625
-0.400209806844424 0.137971086430055 0.2625
-0.414732941226174 0.126328739290754 0.2625
-0.422815600456249 0.124772608483913 0.2625
-0.431676246320997 0.113743692331087 0.2625
-0.446408381375663 0.104667855206928 0.2625
-0.445076427834321 0.10575427459825 0.2625
-0.461845187127453 0.0937287742573241 0.2625
-0.464624024183605 0.0849272701612161 0.2625
-0.472379294095506 0.0857228386607601 0.2625
-0.497534506406883 0.0644058578901838 0.25931953077058
-0.321474249470495 0.187091681434264 0.255369943918987
-0.323902038724554 0.179563242852037 0.261996256794125
-0.332024833794414 0.173105894717516 0.2625
-0.34606163735181 0.175022033501911 0.2625
-0.354333061035667 0.162604027538372 0.2625
-0.36592394909774 0.150880373225972 0.2625
-0.367953054015772 0.146314527650173 0.2625
-0.379868841175104 0.147296637732225 0.2625
-0.389149226761082 0.134428303751571 0.2625
-0.400759080959828 0.124292891932257 0.2625
-0.408801250556486 0.11529925723123 0.2625
-0.42406569524922 0.111188187041245 0.2625
-0.426228431434643 0.100890679393553 0.2625
-0.444825558752307 0.0897026111272565 0.2625
-0.453210278191627 0.0863461732150693 0.2625
-0.468763020890632 0.0715530286358364 0.2625
-0.474495698414114 0.0635212064641456 0.2625
-0.484656077752904 0.0578658954215071 0.2625
-0.499883284214994 0.0512314617119056 0.258380019647335
-0.3026768762903 0.188434556801902 0.250257819373359
-0.308383379184875 0.183780102050799 0.260448309716012
-0.32310024094655 0.182225225380295 0.260699067427716
-0.328900231725938 0.175866284546173 0.2625
-0.34409003017799 0.163938580341976 0.2625
-0.347811536678245 0.153657947319467 0.2625
-0.359932393394409 0.143465942957848 0.2625
-0.367504574391358 0.141475046526754 0.2625
-0.369999816464829 0.138359933831366 0.2625
-0.380433424739612 0.126346126868035 0.2625
-0.395317011107232 0.123681853948258 0.2625
-0.40559557685891 0.105878827677706 0.2625
-0.410042826314365 0.0997702856799122 0.2625
-0.430308997464256 0.0896478568385749 0.2625
-0.442106200421973 0.0783031029571618 0.2625
-0.440425737261024 0.0792866065451324 0.2625
-0.459225044478856 0.0740106511050888 0.2625
-0.464052122209714 0.0557025316740449 0.2625
-0.475424535586775 0.0590345296658965 0.2625
-0.481602133566949 0.0502939460771281 0.2625
-0.279228590877394 0.190109691119473 0.253265774959255
-0.286298140365533 0.185547364835814 0.260353933332799
-0.286013136872184 0.185998543063976 0.260139378249035
-0.305351024140041 0.180435189641755 0.262222022827843
-0.319825185032339 0.163943267326382 0.2625
-0.318699903393681 0.168198442794205 0.2625
-0.329946828086215 0.158226266111824 0.2625
-0.344908326698666 0.150666416637452 0.2625
-0.347804810828286 0.138775643727627 0.2625
-0.357611050628413 0.128869062699104 0.2625
-0.366597522439843 0.124140491204493 0.2625
-0.372672413882259 0.125119572206921 0.2625
-0.382402721637283 0.115297064503435 0.2625
-0.399544178495885 0.0972738045228592 0.2625
-0.403364090680029 0.0957596342273153 0.2625
-0.411471519730352 0.0947395730722876 0.2625
-0.428360788824692 0.079319004238592 0.2625
-0.43264769886272 0.0726223842165504 0.2625
-0.449253949979154 0.0644392870412281 0.2625
-0.457384649433128 0.0552983029507116 0.2625
-0.470534015920013 0.0435787663116496 0.2625
-0.472885978610895 0.0408395562576682 0.2625
-0.49178973055314 0.0242495891766536 0.261617441112077
-0.270670200243962 0.186678076819701 0.260346831890824
-0.2827651260545 0.178537516866202 0.2625
-0.279241727951219 0.183333035904863 0.261707763902295
-0.295663635955213 0.17316633317736 0.2625
-0.298936545309124 0.162795070055944 0.2625
-0.30532088045951 0.161717864919353 0.2625
-0.325218333792234 0.152944132821603 0.2625
-0.338640294539655 0.136595450401536 0.2625
-0.343007025800913 0.137224886224722 0.2625
-0.345515731237484 0.125401694251836 0.2625
-0.367022346328594 0.113862017151009 0.2625
-0.365481065374018 0.112347624059685 0.2625
-0.380622585040862 0.10502527661123 0.2625
-0.379318273832183 0.0951622532685134 0.2625
-0.398423640804957 0.0914510588907962 0.2625
-0.40387422658354 0.0821337267196489 0.2625
-0.421593152850982 0.0718253400581172 0.2625
-0.434827090919997 0.0644095993639928 0.2625
-0.433501559167997 0.0553076298935336 0.2625
-0.447547899237943 0.047430059806731 0.2625
-0.46736681209786 0.0387420965642594 0.2625
-0.46204547453183 0.0363276901724538 0.2625
-0.484537793327951 0.0135553702026853 0.2625
-0.499005741887304 0.00696259190647038 0.258731036578411
-0.25612076086531 0.191760503465715 0.257061451580858
-0.248525868450088 0.190917288734117 0.259023482152077
-0.260894568427161 0.181235395372313 0.2625
-0.272760180693745 0.183584538481206 0.261813112723408
-0.271123576451435 0.173739121945935 0.2625
-0.282015569689326 0.166453585184792 0.2625
-0.296970967000165 0.161419156842419 0.2625
-0.305781292921555 0.154998865174664 0.2625
-0.322356216363268 0.140655718048752 0.2625
-0.332289499790008 0.129015648076181 0.2625
-0.329109879614135 0.125571245245145 0.2625
-0.345848231725632 0.11717964238159 0.2625
-0.35281874995015 0.118919175878475 0.2625
-0.35586763985563 0.104848600568719 0.2625
-0.368970008840066 0.0968370788268076 0.2625
-0.371621014203087 0.0954904803484535 0.2625
-0.38830693571724 0.0772865661979626 0.2625
-0.401024994027941 0.073278201221627 0.2625
-0.405529349090158 0.0647597719238671 0.2625
-0.426421383629955 0.0506084902079819 0.2625
-0.427475681096309 0.0460225329359707 0.2625
-0.441308514203569 0.0387509487151818 0.2625
-0.456144807090329 0.0304203940107568 0.2625
-0.46728180084753 0.0267605254815733 0.2625
-0.473831947559684 0.0100542677496516 0.2625
-0.478324732481074 0.0101410178298142 0.2625
-0.488496766348893 -0.00410759396756273 0.2625
-0.237014405172727 0.193125452396554 0.253606174108834
-0.239660066942257 0.191436683452321 0.259080243238983
-0.251364087955078 0.178777281212659 0.2625
-0.253678456832319 0.17285712319637 0.2625
-0.259233817033064 0.172737991176924 0.2625
-0.262412027176521 0.162568328249171 0.2625
-0.286324671872334 0.152518559362388 0.2625
-0.283912225688991 0.145271915261659 0.2625
-0.292291939050004 0.140816227608076 0.2625
-0.310505890285076 0.133904360527373 0.2625
-0.322632320210443 0.124559917858259 0.2625
-0.319187457360973 0.121870891998256 0.2625
-0.33333109450297 0.108019010441508 0.2625
-0.348457304929405 0.104931179497175 0.2625
-0.347550141928363 0.101454178990324 0.2625
-0.373762091582657 0.0834735885836024 0.2625
-0.372516433796885 0.0805387884046504 0.2625
-0.378961642845232 0.0682896460219052 0.2625
-0.389175987300568 0.06090361181265 0.2625
-0.410261042996009 0.0527843568169183 0.2625
-0.40762703963627 0.0517101280438073 0.2625
-0.428774593944304 0.0390973310331291 0.2625
-0.431947473642492 0.0350475361613316 0.2625
-0.447002878443452 0.0261111079257064 0.2625
-0.450581492123705 0.0180952003788961 0.2625
-0.4715323361727 0.0061334674562169 0.2625
-0.472608687350698 0.00432664776845761 0.2625
-0.48845305026473 -0.0142259025030176 0.2625
-0.494164746482464 -0.0157111657442803 0.260667434740347
-0.213459502798547 0.192517628365674 0.259474081490026
-0.219947507274754 0.191133182009622 0.259932729609862
-0.22634447753308 0.183755611915734 0.2625
-0.234274477857184 0.178643830412805 0.2625
-0.243179825374657 0.173032781396931 0.2625
-0.253949387880316 0.167147017318657 0.2625
-0.265350873074616 0.15628581618422 0.2625
-0.274494382144294 0.148253240669355 0.2625
-0.279455931242883 0.147273921418946 0.2625
-0.299790125271575 0.129335310518425 0.2625
-0.296426878246088 0.130652082781647 0.2625
-0.310014499668694 0.125261606235147 0.2625
-0.314319374096718 0.114011595437717 0.2625
-0.336002114696454 0.105275972970756 0.2625
-0.342483815253974 0.0948788040166717 0.2625
-0.348056105530682 0.0899975012458601 0.2625
-0.352572044417533 0.0835912333279153 0.2625
-0.35866478014947 0.0754786986644872 0.2625
-0.378814839975682 0.0669548218283915 0.2625
-0.380475947351988 0.0617006386141489 0.2625
-0.395585125351947 0.0492694369138636 0.2625
-0.40639036507442 0.0366333745922315 0.2625
-0.415155316898049 0.0357276741362896 0.2625
-0.428952770490683 0.0187464335675406 0.2625
-0.442492942449848 0.0168621103477776 0.2625
-0.446718624423774 0.0054670058708321 0.2625
-0.450712947623364 0.000752757557485081 0.2625
-0.469457289097232 -0.00556351071312976 0.2625
-0.478158132017921 -0.017731431584798 0.2625
-0.482676731468543 -0.0292013292060925 0.2625
-0.497380842169573 -0.0408116131774407 0.259380996465504
-0.193187894901002 0.196256397371112 0.253888240376761
-0.204092852854673 0.195477352380053 0.256806776990884
-0.204290332229609 0.193533913478542 0.259294175413647
-0.207959982353072 0.190484852264913 0.260682104044968
-0.222776084796294 0.183317503225385 0.2625
-0.227394373557954 0.17281233664869 0.2625
-0.238104379030173 0.15660262571578 0.2625
-0.246168230664591 0.15624869384526 0.2625
-0.257943234492104 0.146253386081144 0.2625
-0.268793965546088 0.14348577097082 0.2625
-0.270401116703113 0.137779198700107 0.2625
-0.285468036578887 0.123533867313848 0.2625
-0.291541642307659 0.119374185978221 0.2625
-0.302456898678766 0.112790305722992 0.2625
-0.31433127493444 0.104280839559651 0.2625
-0.324113901613996 0.0895881405440814 0.2625
-0.330052360370341 0.0897106110985967 0.2625
-0.338387135317285 0.0792299196570287 0.2625
-0.344043740109748 0.0729264464492079 0.2625
-0.358903139370615 0.0698054469475779 0.2625
-0.367617558423997 0.0620690639058626 0.2625
-0.383670437471708 0.0485493425265092 0.2625
-0.387950654576859 0.0398698419297198 0.2625
-0.393516370530291 0.03841585014628 0.2625
-0.41154782050775 0.0286380793338709 0.2625
-0.421469687943491 0.0129421178591728 0.2625
-0.431951449780681 0.00776948478946107 0.2625
-0.435625037111708 0.00298214829154215 0.2625
-0.43994420996112 -0.000841556092156341 0.2625
-0.45741206263976 -0.0179796562072966 0.2625
-0.474088909696062 -0.02258402246157 0.2625
-0.483531575050413 -0.0392166888492806 0.2625
-0.491729358128611 -0.0424551484977348 0.261641590081888
-0.188787810408769 0.193322611849111 0.259950959085518
-0.193980303781549 0.189895376815381 0.261473045180105
-0.199601201390524 0.18272292163536 0.2625
-0.202510961098189 0.180705048016599 0.2625
-0.208216221205003 0.176857777045271 0.2625
-0.226121333865855 0.165332108418926 0.2625
-0.236952942383459 0.153195393634981 0.2625
-0.242066006347505 0.152269655397282 0.2625
-0.242664703348202 0.144211547251527 0.2625
-0.253376714195574 0.139855433803395 0.2625
-0.272908470011216 0.120424836066175 0.2625
-0.272009391404908 0.123954665668495 0.2625
-0.284847351712156 0.105765130456533 0.2625
-0.288675442361704 0.101938520653704 0.2625
-0.305566912185556 0.0946956392657921 0.2625
-0.315256007210802 0.0851771835259166 0.2625
-0.325363741722582 0.0735102890798069 0.2625
-0.331259968479088 0.0770260571205345 0.2625
-0.335105631437121 0.0706054854641606 0.2625
-0.356376327631471 0.0528050912123898 0.2625
-0.361313418313337 0.0534266694434389 0.2625
-0.371887560909259 0.0436995455754497 0.2625
-0.378781408815031 0.0380593184087792 0.2625
-0.390964158113728 0.0213640158635955 0.2625
-0.402172995039753 0.0163903580873888 0.2625
-0.409691655106443 0.00310428224783059 0.2625
-0.417875648218213 -0.00153876302962583 0.2625
-0.428472566859086 -0.00344036561463484 0.2625
-0.437528764456559 -0.0174333719079594 0.2625
-0.450212121356972 -0.0234294862821316 0.2625
-0.458768339957 -0.0373793568534373 0.2625
-0.475374328578007 -0.0397440711071047 0.2625
-0.47845284104933 -0.0443085581757573 0.2625
-0.248515723843652 0.125 0.0171204577067779
-0.245373529385398 0.125 0.0765497838651707
-0.244804784306401 0.125 0.11133398877261
-0.161050509980382 0.198552276810037 0.250114727245502
-0.165753880812056 0.198216270242833 0.250873408266695
-0.16943171980543 0.197953527180651 0.25808274395534
-0.173412545986153 0.193984704672489 0.26016824879417
-0.179652126275115 0.18679753658017 0.2625
-0.192722102024341 0.17398384858979 0.2625
-0.190177720669859 0.179496170349413 0.2625
-0.209566607241927 0.163134430575754 0.2625
-0.217691814287371 0.152771209003095 0.2625
-0.230164824684172 0.150552652336832 0.2625
-0.232514080427887 0.143871811086374 0.2625
-0.240265294788395 0.134185252935708 0.2625
-0.248112710190611 0.131360145689219 0.2625
-0.260705790247398 0.118503267532449 0.2625
-0.274620008663888 0.10514694301219 0.2625
-0.277831816033432 0.105341425487523 0.2625
-0.28109179863374 0.0975127912200093 0.2625
-0.300095848727346 0.0901857485559625 0.2625
-0.307878176218545 0.0779128637194976 0.2625
-0.317318174283395 0.0701535776441416 0.2625
-0.329580334464986 0.0585161868071276 0.2625
-0.336406298533222 0.0646526151592424 0.2625
-0.347993379701852 0.0440058750601666 0.2625
-0.35438822145978 0.0433572569417593 0.2625
-0.355477293275303 0.0370127392052435 0.2625
-0.373388407438048 0.0292451222221981 0.2625
-0.384063489753369 0.0141485537086925 0.2625
-0.392077269808264 0.00964493993530133 0.2625
-0.407023188565495 -0.000772722909269005 0.2625
-0.414014272627705 -0.00231125202711417 0.2625
-0.422024598637786 -0.01411993806291 0.2625
-0.433536912204991 -0.0258275512420123 0.2625
-0.444201289565986 -0.0350836131259125 0.2625
-0.452497987629472 -0.0456934908725729 0.2625
-0.463661145725914 -0.0604825585218801 0.2625
-0.476207933022863 -0.0620518774742328 0.2625
-0.487769496638981 -0.0717130467727942 0.2625
-0.49889783236821 -0.0890253538160646 0.258774200386049
-0.24201749179573 0.125 0.0183931069100694
-0.234374999999999 0.124197881890744 0.0244178334893306
-0.243523357165454 0.125 0.028594043816877
-0.249168832902544 0.125 0.0351347310180989
-0.234374999999999 0.121011625992004 0.059029301414959
-0.234374999999999 0.121443853657992 0.0630521300019633
-0.237614875165452 0.125 0.0669960925312689
-0.24690698782409 0.125 0.0752532571353968
-0.241232170057863 0.125 0.0950339158527778
-0.241503395992747 0.125 0.10249581804182
-0.234374999999999 0.119295779119454 0.11062950851329
-0.240672541317689 0.125 0.126806248260986
-0.239581115775096 0.125 0.130132340288169
-0.239186003177563 0.125 0.141081598130815
-0.15304132563443 0.194649530287896 0.260561924571692
-0.162373768465425 0.195726915154265 0.259693335860691
-0.165982397461262 0.187117416720664 0.2625
-0.170510776113301 0.181327051096229 0.2625
-0.184136913680746 0.167217949246876 0.2625
-0.19078994912683 0.169745211871781 0.2625
-0.199205378009635 0.161018202892121 0.2625
-0.212365330881683 0.149686133394529 0.2625
-0.219825897517918 0.140899437818381 0.2625
-0.229235772494286 0.129526032813587 0.2625
-0.23504807473935 0.122395551000004 0.2625
-0.24622980606423 0.113670364666374 0.2625
-0.251353471139421 0.115792199535876 0.2625
-0.261269319516174 0.100092258776389 0.2625
-0.275963878118474 0.0928727408315696 0.2625
-0.284543700665221 0.0862035653181895 0.2625
-0.282042101292991 0.0840529685288088 0.2625
-0.30157655930976 0.0752979919852562 0.2625
-0.303645712012491 0.0624833424346738 0.2625
-0.323818472138628 0.051900854751088 0.2625
-0.332167562597071 0.0464463532748291 0.2625
-0.341113402269572 0.0361802497237717 0.2625
-0.346996785417385 0.0372943203221648 0.2625
-0.350244409547839 0.0273026197229385 0.2625
-0.371121531585868 0.0214043518228079 0.2625
-0.369938193112219 0.00398518159865879 0.2625
-0.388490230354805 0.000955424850413127 0.2625
-0.393046411643792 -0.00311879915167932 0.2625
-0.404690901547742 -0.0164971650297565 0.2625
-0.406562774380892 -0.0199149350012737 0.2625
-0.421272462833752 -0.0333824807263915 0.2625
-0.428800383065548 -0.0333841814328149 0.2625
-0.448388799117592 -0.0461650579096529 0.2625
-0.455172688657997 -0.0613722117069918 0.2625
-0.474632899867878 -0.0756024952360412 0.2625
-0.476806424758764 -0.0780666330565615 0.2625
-0.498222294566307 -0.0888456935708235 0.25904441550681
-0.234374999999999 0.112831970792751 0.00472135874927962
-0.234374999999999 0.110212691451131 0.00337442979448592
-0.234374999999999 0.115963697556934 0.0114895799507143
-0.234374999999999 0.11642211294313 0.0225724631392306
-0.234374999999999 0.11860966687241 0.0464971327877199
-0.234374999999999 0.105860758271026 0.039995437295165
-0.234374999999999 0.115480127714648 0.0644407783321744
-0.234374999999999 0.112050894756909 0.0700739109672204
-0.234374999999999 0.106376177051283 0.0706275542349616
-0.234374999999999 0.112909827503213 0.0900289559154464
-0.234374999999999 0.115416962398668 0.1034739840583
-0.234374999999999 0.114484152459355 0.115294569697791
-0.234374999999999 0.115495290333026 0.114055321345578
-0.234374999999999 0.119224123175735 0.133060641389567
-0.136734767375075 0.195264844245766 0.26070091121045
-0.14827791097658 0.193553672087298 0.261277155606183
-0.151962759629304 0.178332404386143 0.2625
-0.161517269771121 0.177952610883955 0.2625
-0.169769457321236 0.174217867524682 0.2625
-0.182626280471606 0.16186198955882 0.2625
-0.182331969837026 0.163563466915472 0.2625
-0.199995922543281 0.142802370074034 0.2625
-0.195338351232511 0.147938743284126 0.2625
-0.204785662459053 0.141655713671323 0.2625
-0.225107299775817 0.126310957524989 0.2625
-0.223079673664746 0.120163075763562 0.2625
-0.2378340024698 0.108794904874336 0.2625
-0.241144344444296 0.102184387409027 0.2625
-0.248446105354379 0.10548023835524 0.2625
-0.262824086041151 0.0914224982159277 0.2625
-0.266889628215426 0.0795589407726225 0.2625
-0.281652919481153 0.0760363302117489 0.2625
-0.284020845272901 0.0726024718198586 0.2625
-0.304186084214638 0.0519649060063816 0.2625
-0.310384156513747 0.0424190950385308 0.2625
-0.326005563794235 0.0448275550685815 0.2625
-0.325504630651903 0.0369073502624607 0.2625
-0.338695932103528 0.0329617246211049 0.2625
-0.348065569265536 0.0248022930265246 0.2625
-0.355043823076261 0.0117551411272878 0.2625
-0.369547212525261 0.00416244195300551 0.2625
-0.377134509038385 -0.00630537958129605 0.2625
-0.382971164688458 -0.010879027567547 0.2625
-0.390580695123161 -0.0156005733485705 0.2625
-0.409794125002701 -0.0337690487577723 0.2625
-0.420722036567245 -0.047741324973923 0.2625
-0.434720886424785 -0.0599049531916256 0.2625
-0.439996837799677 -0.0664078922659112 0.2625
-0.447981911428135 -0.0678221156660424 0.2625
-0.460473880461197 -0.0788432519275234 0.2625
-0.467146459573527 -0.0781857093900722 0.2625
-0.481450971273667 -0.102510154128285 0.2625
-0.234374999999999 0.103634252507457 0.0047567775956594
-0.234374999999999 0.102138001578971 0.00832221900530736
-0.234374999999999 0.103494898692468 0.0167292643241074
-0.234374999999999 0.101102985141972 0.0293451026858136
-0.234374999999999 0.105734888772902 0.0395199501925836
-0.234374999999999 0.107985180515846 0.0569196889534709
-0.234374999999999 0.0967677512751633 0.0626682779641831
-0.234374999999999 0.105453076454463 0.0698283842734825
-0.234374999999999 0.093766543497406 0.0826986569127016
-0.234374999999999 0.106346645793649 0.0921636452798889
-0.234374999999999 0.104378486992629 0.102996024353201
-0.121572592179875 0.2 0.253593777021333
-0.126822433596073 0.192788696200399 0.261938985233133
-0.130355377068576 0.186955767207398 0.2625
-0.135987792142037 0.183609784439411 0.2625
-0.14134730134086 0.18189004605194 0.2625
-0.145406806532105 0.175288409463985 0.2625
-0.161069847243909 0.165685756880237 0.2625
-0.172909997881684 0.15894022159985 0.2625
-0.185207048698514 0.150214246432916 0.2625
-0.193132876462174 0.136998270548793 0.2625
-0.194537102812262 0.134427020995641 0.2625
-0.205727886555235 0.124933531816625 0.2625
-0.205204725597775 0.124548323762432 0.2625
-0.222313518038888 0.11134859527061 0.2625
-0.234483943588218 0.108087476735012 0.2625
-0.237571745569982 0.100522702477702 0.2625
-0.255158822137133 0.0846604285811032 0.2625
-0.258936942888241 0.088672443694879 0.2625
-0.259975580951032 0.0764284973436587 0.2625
-0.275978603126813 0.0624518565592819 0.2625
-0.279436171273839 0.0662851122851185 0.2625
-0.295355945124715 0.0554620226563331 0.2625
-0.299940030731123 0.0472916473938211 0.2625
-0.30413420319671 0.0429952715414691 0.2625
-0.320706776632102 0.0279786500141667 0.2625
-0.334254118559442 0.0215731125135651 0.2625
-0.34293307935519 0.00930153368547415 0.2625
-0.346063628008699 -0.00446922867104842 0.2625
-0.356704017353742 0.00139359549095044 0.2625
-0.366573802799084 -0.0132663829338114 0.2625
-0.375885101200493 -0.024867049714347 0.2625
-0.3992637639665 -0.032504051345444 0.2625
-0.399384393458261 -0.036392693554736 0.2625
-0.41292126222359 -0.0541134099218867 0.2625
-0.425532586716833 -0.0628961395983226 0.2625
-0.422506936829088 -0.0601230040123758 0.2625
-0.444656148482015 -0.070767270544181 0.2625
-0.447431223692584 -0.0874785728951647 0.2625
-0.457200341592627 -0.0885679285754114 0.2625
-0.466543336618313 -0.104284533092053 0.2625
-0.477404658691511 -0.11027403452984 0.2625
-0.49906771515136 -0.124879642557531 0.258706247272789
-0.234374999999999 0.0907705241003095 0.00537916391440045
-0.234374999999999 0.0878749199604921 0.0231158005438043
-0.234374999999999 0.0790182425262884 0.0250136090461619
-0.234374999999999 0.0808684400345084 0.0385951160406488
-0.234374999999999 0.0903500441753025 0.0531136564409309
-0.234374999999999 0.0970492856113265 0.0655361166415186
-0.234374999999999 0.0860760553501528 0.0685804966226078
-0.098734853426031 0.2 0.251417637226498
-0.108662481380243 0.2 0.254509948988627
-0.105657566257836 0.198964782154818 0.258850942255924
-0.114436901618513 0.195033082789162 0.260816791938752
-0.124019222806211 0.183808294079767 0.2625
-0.13429477155231 0.180230309697517 0.2625
-0.134762836488982 0.168424837765855 0.2625
-0.144710845529131 0.157448743844474 0.2625
-0.150730157568477 0.157805960634408 0.2625
-0.165102919443643 0.149184600802484 0.2625
-0.167469687064882 0.149422981131782 0.2625
-0.173483115881432 0.137327324205057 0.2625
-0.192524821088015 0.128218172805917 0.2625
-0.198882614302876 0.126244856798217 0.2625
-0.209658742017896 0.110315431847734 0.2625
-0.213122508245804 0.101154207034941 0.2625
-0.220973327798265 0.105762188021293 0.2625
-0.237673677085638 0.0858420955385766 0.2625
-0.242048427887935 0.0845079251277432 0.2625
-0.241255340231177 0.078961622262411 0.2625
-0.252774370366791 0.0706359405264141 0.2625
-0.266129250333191 0.0625115540570215 0.2625
-0.280460261361607 0.05342645144088 0.2625
-0.281573997063117 0.0473535534610099 0.2625
-0.295504348560982 0.0324135175070548 0.2625
-0.306962717835078 0.0309912575495463 0.2625
-0.312864302483614 0.0237019902453133 0.2625
-0.329903561267056 0.0102558344829324 0.2625
-0.324755702691511 0.00304608957570339 0.2625
-0.344649995072942 -0.00538623372104829 0.2625
-0.348681541957212 -0.0170166867100312 0.2625
-0.362062745815866 -0.0204159991801964 0.2625
-0.37525259760527 -0.0305963645941063 0.2625
-0.385213053420187 -0.0413405025907689 0.2625
-0.388087453596262 -0.048534208195145 0.2625
-0.40293073854797 -0.0521231534980218 0.2625
-0.414092296682353 -0.0688232832575235 0.2625
-0.420068388254723 -0.070918753801172 0.2625
-0.432788090454145 -0.0765605001025876 0.2625
-0.451865734772885 -0.0912548294138021 0.2625
-0.450418092586847 -0.0959196306643639 0.2625
-0.467326103810852 -0.104596840908429 0.2625
-0.473065852247956 -0.125002492554784 0.2625
-0.484846528075824 -0.132197055268868 0.2625
-0.234374999999999 0.0827842622443875 0.00843180416028323
-0.234374999999999 0.070011534859492 0.009889608189674
-0.234374999999999 0.0770039670866422 0.0210327167672967
-0.234374999999999 0.0713671053541004 0.0288444034369278
-0.234374999999999 0.0806170257602155 0.0505964355696065
-0.234374999999999 0.081444048987972 0.0566495254443984
-0.234374999999999 0.0805008346015735 0.0697062853526788
-0.0899535727567189 0.2 0.255112016579388
-0.092244256701525 0.196903972790731 0.259881346937968
-0.106761355704128 0.191880245630116 0.262393210518274
-0.109032839773487 0.185048959558811 0.2625
-0.11248974630023 0.180276439974999 0.2625
-0.123881204392462 0.167117940642205 0.2625
-0.125605497613691 0.160534133395772 0.2625
-0.137630799958773 0.158346503958669 0.2625
-0.151514434819763 0.145461778912151 0.2625
-0.163433456852828 0.142058777414699 0.2625
-0.15731464366652 0.134222986446464 0.2625
-0.169214194087224 0.127246766223414 0.2625
-0.175954070232087 0.126654262438932 0.2625
-0.190411529997886 0.115057797664624 0.2625
-0.201003577124246 0.0989233179993153 0.2625
-0.20864037180906 0.0992172329071805 0.2625
-0.212918913909531 0.0897227159266688 0.2625
-0.21866525088834 0.0846451888370241 0.2625
-0.227965024787696 0.0720419831568382 0.2625
-0.237235819969226 0.0680159432801011 0.2625
-0.257361755297602 0.0525074486459842 0.2625
-0.266471965394451 0.047299806321793 0.2625
-0.27324799363323 0.0430881763765786 0.2625
-0.280916503798201 0.0357828073561993 0.2625
-0.29638422404806 0.0224244643794424 0.2625
-0.2877575077846 0.0227330824978218 0.2625
-0.298537577404618 0.0114633198214708 0.2625
-0.312771546698979 0.00976557093832499 0.2625
-0.325826230057952 0.00268785830753284 0.2625
-0.327285004734955 -0.0110571582427407 0.2625
-0.346046855183827 -0.021058074139855 0.2625
-0.348726981041208 -0.0297083289544328 0.2625
-0.365195429899114 -0.0347240734427516 0.2625
-0.370069823852551 -0.0485025079903788 0.2625
-0.386911815717405 -0.062978091894749 0.2625
-0.397865922965169 -0.07075550873696 0.2625
-0.403222655008037 -0.0762381181392808 0.2625
-0.421020875486805 -0.0850027012123525 0.2625
-0.415328990317381 -0.089734286786371 0.2625
-0.435072318568165 -0.10413962263451 0.2625
-0.451352541958313 -0.11332592326385 0.2625
-0.460830023996469 -0.121209963489372 0.2625
-0.466097274817496 -0.131625218581 0.2625
-0.475887978428504 -0.139705378038366 0.2625
-0.497177240311006 -0.154325040153812 0.25946243720893
-0.234374999999999 0.0530405114384914 0.00513577676177306
-0.234374999999999 0.0688791809429382 0.0240324890480224
-0.234374999999999 0.0590997014770553 0.0285791556970883
-0.234374999999999 0.0534619045986765 0.0346035876216334
-0.0766857623363328 0.2 0.251635641652898
-0.0769273690732281 0.197118048962673 0.259774308851996
-0.0787658805388078 0.195357885449907 0.26065439060838
-0.0903324094640204 0.183060087876285 0.2625
-0.100265975146694 0.175738525404032 0.2625
-0.10198465792155 0.176466317670503 0.2625
-0.113604550794932 0.167774225548429 0.2625
-0.125744847123863 0.153946913282345 0.2625
-0.124949524059743 0.149122925908865 0.2625
-0.139726892845835 0.137827591229868 0.2625
-0.14913042639571 0.140455713995491 0.2625
-0.158418304456613 0.125562216468941 0.2625
-0.171692220323937 0.118049293624712 0.2625
-0.172218641844676 0.111276741683812 0.2625
-0.183269513514642 0.10187488064124 0.2625
-0.195852495362608 0.0962367205227552 0.2625
-0.193813179821792 0.0959440119718722 0.2625
-0.214031961746886 0.0858073620315737 0.2625
-0.212504671686045 0.0819195608237499 0.2625
-0.221973767675339 0.0702139437797886 0.2625
-0.233981270500861 0.0592446996644224 0.2625
-0.247370079549911 0.0513347713448587 0.2625
-0.254688371839941 0.0398587397826822 0.2625
-0.263650448877454 0.0411272464099621 0.2625
-0.275871696486499 0.0263250553552456 0.2625
-0.276667159839524 0.0257076691345319 0.2625
-0.284377234062034 0.021251768114267 0.2625
-0.300035516583601 0.00295884736574982 0.2625
-0.30510799364239 -0.00356899794253287 0.2625
-0.316851063293356 -0.0143823986367859 0.2625
-0.327500081761985 -0.0268958124523788 0.2625
-0.335481185549785 -0.03391689600987 0.2625
-0.346580592704113 -0.0334223286249479 0.2625
-0.359880842576861 -0.053793048149819 0.2625
-0.363423939975934 -0.0562672053897251 0.2625
-0.375528539892983 -0.060870788105649 0.2625
-0.383180828496767 -0.075764486912677 0.2625
-0.397196361273265 -0.0874739788416488 0.2625
-0.400185339850733 -0.0828825707637176 0.2625
-0.418371652143911 -0.097928961321857 0.2625
-0.433294673182055 -0.112756555410591 0.2625
-0.433263660035856 -0.112978900419366 0.2625
-0.453501940551971 -0.128527773634928 0.2625
-0.461508168817768 -0.131486518895474 0.2625
-0.474184264787266 -0.151003965517594 0.2625
-0.48131958322805 -0.157961700433422 0.2625
-0.234374999999999 0.0463298732408406 0.000132567948112694
-0.234374999999999 0.0446597265491739 0.00789153294140259
-0.234374999999999 0.0436958072909109 0.0172625475731664
-0.0614871887291181 0.2 0.250097842703845
-0.0558820081047548 0.195577830780077 0.260544417943294
-0.0690714444838773 0.187938471576155 0.2625
-0.0821077492705082 0.184093354825505 0.2625
-0.0836278552004952 0.185850011850623 0.2625
-0.0946641091937811 0.164816406243436 0.2625
-0.0994731376595458 0.169405939515505 0.2625
-0.109546461488152 0.154126161040163 0.2625
-0.115401123705299 0.145513567059172 0.2625
-0.126172023130003 0.139573548876934 0.2625
-0.128890751970482 0.132498724900252 0.2625
-0.134700797004297 0.134809095305887 0.2625
-0.151784818029798 0.118820743568815 0.2625
-0.158433964173984 0.111610133107882 0.2625
-0.169925580064094 0.109206859713838 0.2625
-0.166019248540383 0.102083467499369 0.2625
-0.181550071284814 0.0892889205184392 0.2625
-0.190890949057643 0.0920418818916669 0.2625
-0.204845860492308 0.0808536353774397 0.2625
-0.211244314004281 0.0759703163018987 0.2625
-0.222641305886071 0.0543023314819681 0.2625
-0.230263121064676 0.0499277454627658 0.2625
-0.239076199497859 0.0430583852422511 0.2625
-0.247918010614638 0.0368367109329747 0.2625
-0.256781417779444 0.0216674707506125 0.2625
-0.266728582159834 0.0215317283820846 0.2625
-0.269598333827285 0.00572613353354618 0.2625
-0.284330606217823 0.0026331728541221 0.2625
-0.289721656378483 0.000177268712049106 0.2625
-0.293198386759267 -0.00523816902515441 0.2625
-0.311484982591306 -0.0200992260139643 0.2625
-0.32076162151298 -0.0283271816489352 0.2625
-0.327138505252243 -0.0341578716669338 0.2625
-0.337688037651706 -0.0423767817644352 0.2625
-0.344090142794686 -0.0521113391197044 0.2625
-0.364613691364878 -0.0660028332986396 0.2625
-0.368951728111518 -0.0750763239638214 0.2625
-0.374948619544801 -0.0750298590003516 0.2625
-0.388204560155232 -0.095596185242008 0.2625
-0.396682694708249 -0.0937908283893877 0.2625
-0.416379094610038 -0.114379442163047 0.2625
-0.42341171922031 -0.12383829561496 0.2625
-0.431300642459783 -0.125871552209663 0.2625
-0.442243945237728 -0.14497481132443 0.2625
-0.449695329475116 -0.140061681643919 0.2625
-0.462988924334344 -0.154450121655151 0.2625
-0.472814399468504 -0.165199766983785 0.2625
-0.234374999999999 0.0394155950732665 0.0115882867585526
-0.0387594245996294 0.2 0.255766348159673
-0.0479206886020029 0.19345958546816 0.261603540599253
-0.0545306905776128 0.193236615260645 0.261715025703011
-0.0625378560069439 0.185425860852229 0.2625
-0.0695516813055594 0.174171430141783 0.2625
-0.0721985590458835 0.179034126872978 0.2625
-0.0916626909477133 0.158518665732952 0.2625
-0.091377694761683 0.157826243941145 0.2625
-0.0975548884164383 0.150095663707931 0.2625
-0.107462587881959 0.147971681801379 0.2625
-0.119327018054167 0.134901513660924 0.2625
-0.121081685082028 0.126275640846359 0.2625
-0.134265113328586 0.115862974804231 0.2625
-0.147391159428737 0.108092734812398 0.2625
-0.150904700275115 0.104967423467386 0.2625
-0.166177574685109 0.0927480251458354 0.2625
-0.168373430610875 0.0916127198882922 0.2625
-0.174935240605595 0.0799864165085835 0.2625
-0.18728524805151 0.0730432181318753 0.2625
-0.19647601899102 0.0691376035908555 0.2625
-0.207637217613678 0.0607680040391527 0.2625
-0.215244360024482 0.0502585396248407 0.2625
-0.222153001085024 0.0424140870573873 0.2625
-0.227966644847209 0.0375092881971176 0.2625
-0.238559670354828 0.0296617088974863 0.2625
-0.245540910356643 0.0266625375076416 0.2625
-0.253193702627886 0.0117562636094415 0.2625
-0.266720593468672 0.00200880401540247 0.2625
-0.279608008207764 -0.00101444985753935 0.2625
-0.290190140590471 -0.00827940286277412 0.2625
-0.289401105370558 -0.0221711288257363 0.2625
-0.302113101356931 -0.021627594376975 0.2625
-0.313000836643712 -0.0283113437963352 0.2625
-0.32758722366809 -0.0425760328075304 0.2625
-0.328439647843425 -0.0505579744707727 0.2625
-0.337718887692007 -0.0614378105441026 0.2625
-0.353686822939164 -0.0741488979963574 0.2625
-0.359420744093775 -0.0807946558343745 0.2625
-0.375078747866592 -0.0893793659524757 0.2625
-0.373950770248434 -0.0967497848150118 0.2625
-0.397696886668908 -0.109644383759641 0.2625
-0.40220574853595 -0.117346502427496 0.2625
-0.41765887953834 -0.131374958445023 0.2625
-0.428329883308894 -0.138442178927398 0.2625
-0.435830977203039 -0.150197839992067 0.2625
-0.436149121424446 -0.150955971701725 0.2625
-0.459353522141776 -0.169842358326037 0.262018316614211
-0.476144787716035 -0.173598837637012 0.259550118597012
-0.0273123046717563 0.2 0.250080287202465
-0.0401759259270497 0.195501054918115 0.260582805874276
-0.0442319528155095 0.194947532276405 0.26085956719513
-0.0438987313993452 0.188009938725722 0.2625
-0.0550530398983213 0.18199329830331 0.2625
-0.0575608962228471 0.171421076464902 0.2625
-0.0756057171864226 0.166471546408545 0.2625
-0.0780702710208209 0.160446718424629 0.2625
-0.0884573821299369 0.148983835435913 0.2625
-0.0954736277222279 0.142673656666002 0.2625
-0.0986417846542715 0.133228548454496 0.2625
-0.109104829972079 0.131430609065217 0.2625
-0.111405224628629 0.122281541872767 0.2625
-0.119210039087304 0.121213150470141 0.2625
-0.13849299535848 0.105152239865762 0.2625
-0.139012247411797 0.103797710100546 0.2625
-0.149504348741995 0.0895880314008445 0.2625
-0.160272632437453 0.0843778381532408 0.2625
-0.168538344831542 0.0733977001837721 0.2625
-0.181441378808301 0.0661123063252708 0.2625
-0.185839207934373 0.0627411992250102 0.2625
-0.190756124194725 0.0494842436628799 0.2625
-0.197832986882582 0.0503971883671228 0.2625
-0.212683709874929 0.0378833382948107 0.2625
-0.22571130639627 0.0291377593714063 0.2625
-0.227535722100072 0.0266438153993231 0.2625
-0.238731927233355 0.00725773079191002 0.2625
-0.243737881109557 0.0109129116579364 0.2625
-0.254449393220145 -0.0010119790647068 0.2625
-0.257678474432209 -0.0092458586587652 0.2625
-0.27403956592614 -0.0213823265470553 0.2625
-0.2786589414946 -0.0226752940159387 0.2625
-0.299893157893273 -0.0424237057352065 0.2625
-0.298888283114454 -0.0393802560621666 0.2625
-0.317496151289257 -0.0495088579360016 0.2625
-0.317956584390756 -0.0629409466716364 0.2625
-0.333539314572919 -0.0668305810934689 0.2625
-0.332949084036044 -0.0707358298206217 0.2625
-0.352888687077876 -0.0850281616959384 0.2625
-0.367573640163832 -0.0991542975270369 0.2625
-0.37486332693878 -0.106468519582229 0.2625
-0.389444204028597 -0.115343451553463 0.2625
-0.389503675915422 -0.120820466156962 0.2625
-0.406240259720921 -0.136749102199058 0.2625
-0.415649837125146 -0.139384376513402 0.2625
-0.426416194223525 -0.156229385789138 0.2625
-0.437634619756971 -0.163544519126608 0.2625
-0.449878151696608 -0.172687402138521 0.260938549369044
-0.0175177216344666 0.199812070758047 0.258427297954309
-0.0284232186525108 0.19298567249919 0.261840497083738
-0.0304585409251631 0.191703666106008 0.262481500280329
-0.0356420961259235 0.179111760146296 0.2625
-0.0465929724995659 0.172336641638694 0.2625
-0.0596300331320416 0.168776054575466 0.2625
-0.0612139116204973 0.158278373489027 0.2625
-0.0675134579580322 0.159060624403144 0.2625
-0.0754942556357019 0.147194388429829 0.2625
-0.0841920398206059 0.139594115821228 0.2625
-0.0942972451112236 0.126223928100487 0.2625
-0.104021977023006 0.122918633085815 0.2625
-0.110584340650961 0.115589600720535 0.2625
-0.118836391652197 0.108205585794778 0.2625
-0.119916184827348 0.102954684888445 0.2625
-0.131725259180041 0.0980441975255157 0.2625
-0.144049470322336 0.0895172394651568 0.2625
-0.150138577147982 0.0781223079096938 0.2625
-0.159230313385055 0.0705804121751158 0.2625
-0.170203479996405 0.0609938223738108 0.2625
-0.178941971958583 0.0546006662514255 0.2625
-0.18471749788223 0.0425937602720617 0.2625
-0.197946507629295 0.0406756582123564 0.2625
-0.2055587731068 0.0293212869955109 0.2625
-0.211820714695135 0.0194706029009221 0.2625
-0.224777609516583 0.0188472222368854 0.2625
-0.223149549655931 0.0150202124088206 0.2625
-0.232468356392344 -0.000119913363501745 0.2625
-0.248511438878494 -0.0100164316199367 0.2625
-0.262665018420306 -0.0157039721447106 0.2625
-0.269633373047351 -0.0253598782662077 0.2625
-0.273985592896772 -0.0380473122642832 0.2625
-0.288614504778627 -0.0370185298608486 0.2625
-0.299461892667479 -0.050419264098495 0.2625
-0.305941739790157 -0.0558858670546851 0.2625
-0.318045787437096 -0.0748612775658904 0.2625
-0.32242773263261 -0.0798682114815251 0.2625
-0.335259730576573 -0.0832697298543798 0.2625
-0.343812399610736 -0.0999957818803543 0.2625
-0.346524111446211 -0.103840748451712 0.2625
-0.359382800161936 -0.105919200218266 0.2625
-0.378224036948563 -0.124347032583262 0.2625
-0.379577182398342 -0.12805606380827 0.2625
-0.396240986937311 -0.137900045107252 0.2625
-0.411373699950258 -0.156882349132196 0.2625
-0.417092374793271 -0.160985098896048 0.2625
-0.431855273752799 -0.171360382636383 0.262240650600822
-0.439445188604248 -0.178112993814221 0.258607691605569
-0.00500940807430552 0.2 0.253364775344326
-0.00482757565455448 0.198831218182466 0.258917724242099
-0.0111734893339595 0.192965199892502 0.261850733387082
-0.022369470694002 0.187231153472176 0.2625
-0.0277708361607259 0.180901329630695 0.2625
-0.0356684806017235 0.176053681989008 0.2625
-0.0354126754655283 0.161444194434923 0.2625
-0.0462775207732954 0.159010858227165 0.2625
-0.0563644033462386 0.158764062002342 0.2625
-0.0635009152887194 0.148018738414281 0.2625
-0.068980065404976 0.135681928635499 0.2625
-0.0782581033498072 0.12918640182092 0.2625
-0.0877570866448452 0.123181764042131 0.2625
-0.0984237216974326 0.110216361891142 0.2625
-0.0987861501069769 0.114007314798243 0.2625
-0.114893866372017 0.0981297583904247 0.2625
-0.119756303162788 0.0924725919926081 0.2625
-0.132284243577573 0.0825597570908628 0.2625
-0.137446303229603 0.078677250449443 0.2625
-0.142172079461311 0.0745547713869164 0.2625
-0.155953687993558 0.0618614525716283 0.2625
-0.165421130362325 0.0576184727622938 0.2625
-0.168833182036111 0.0420596613847464 0.2625
-0.174768367920666 0.041022289453148 0.2625
-0.189522234249658 0.0360483176100815 0.2625
-0.187950365563441 0.0296220543318581 0.2625
-0.207671772192288 0.00816288514496228 0.2625
-0.218006776715396 0.00665387663901462 0.2625
-0.221898597536435 -0.00702574213633731 0.2625
-0.227722779586049 -0.00799062541917983 0.2625
-0.24161896643421 -0.0151834782915302 0.2625
-0.253715944528231 -0.0257798101371881 0.2625
-0.261425900254896 -0.0390603770092735 0.2625
-0.266689190880219 -0.0410790188454632 0.2625
-0.27405900527662 -0.0538822334314987 0.2625
-0.290349682305968 -0.0585947813746686 0.2625
-0.29598690052369 -0.0704901411284151 0.2625
-0.300661251369548 -0.0753499052936103 0.2625
-0.321161469285373 -0.0855431157234512 0.2625
-0.32433027413564 -0.092087398681729 0.2625
-0.341530157425244 -0.110848641232384 0.2625
-0.347355712530778 -0.105859137663535 0.2625
-0.353548289036062 -0.114832971616135 0.2625
-0.366011661431276 -0.132304784443626 0.2625
-0.373840957256223 -0.145716179103286 0.2625
-0.3771308488704 -0.144331101323141 0.2625
-0.394062387691193 -0.157152211515928 0.2625
-0.401979244909951 -0.164174036595614 0.2625
0.0108256483069926 0.2 0.255706520448824
0.00748180296141671 0.198588143529975 0.259039261568346
0.00989160440943564 0.193496371534446 0.261585147566111
-0.00648631604942427 0.189221403056731 0.2625
-0.00566885769178066 0.178192063474135 0.2625
-0.01591538095196 0.174932571772549 0.2625
-0.0300461722564425 0.16344298461542 0.2625
-0.0387850197294086 0.150528327773616 0.2625
-0.0362724372995848 0.149661159985185 0.2625
-0.0431436920790419 0.149590960653701 0.2625
-0.0563360197015421 0.137309350951678 0.2625
-0.0689740494060704 0.128331224171333 0.2625
-0.0667507414286066 0.121537715372849 0.2625
-0.0821504091932453 0.107377498216361 0.2625
-0.0944183309823105 0.101237642192692 0.2625
-0.0996246506116956 0.100294719203504 0.2625
-0.107869671658073 0.0948943405665137 0.2625
-0.116975635851035 0.0904914130527311 0.2625
-0.112530926178262 0.085903747286858 0.2625
-0.127658278840644 0.066799749727837 0.2625
-0.147065726398896 0.0636007865759215 0.2625
-0.144497082925156 0.0519865358847368 0.2625
-0.157217994521688 0.0502771121937654 0.2625
-0.162358619864256 0.0431425455329383 0.2625
-0.178509343370515 0.0266724502014152 0.2625
-0.18282847403002 0.022037543537519 0.2625
-0.19114813974376 0.0220955799879513 0.2625
-0.199453683225502 0.0101803410656644 0.2625
-0.210073589838641 0.00425700383607322 0.2625
-0.215644796602072 -0.00112758735077853 0.2625
-0.225537427371847 -0.0158899442643138 0.2625
-0.232677310290838 -0.022894384615484 0.2625
-0.240491557369584 -0.0327208325995349 0.2625
-0.251112502854964 -0.0423139344476473 0.2625
-0.26287206299369 -0.0505272065832122 0.2625
-0.265607208639 -0.0532584670675387 0.2625
-0.277603618774527 -0.0712772399877926 0.2625
-0.288188230885086 -0.0720615731554461 0.2625
-0.30445059755626 -0.0823290238133979 0.2625
-0.311824112575668 -0.0905888684091912 0.2625
-0.311490883528905 -0.0991710997973396 0.2625
-0.329211839606392 -0.111550692716525 0.2625
-0.335101056883961 -0.119081525859229 0.2625
-0.352461317900928 -0.124840768974954 0.2625
-0.360279988551892 -0.134209337670499 0.2625
-0.362847725402575 -0.146424206886159 0.2625
-0.380013564659959 -0.162054212121839 0.2625
-0.382049334267313 -0.164202013158882 0.2625
-0.407286597129902 -0.173740206657095 0.261929563755801
0.0261697651098138 0.2 0.251925327544127
0.0219130288701734 0.196647063926897 0.260009801369885
0.0156770036673768 0.193101378018452 0.261782644324108
0.0112920375668922 0.187853559275238 0.2625
0.00285450387190487 0.176378933341145 0.2625
-0.00524586871567987 0.175085304470916 0.2625
-0.0135267005588204 0.16353155291643 0.2625
-0.0187243525445844 0.155087162054514 0.2625
-0.0305807352825039 0.148467156588165 0.2625
-0.0377152921437834 0.14904389873185 0.2625
-0.0503779150786013 0.134187773508779 0.2625
-0.0511679038153677 0.13219218481628 0.2625
-0.054442724390735 0.123900457958351 0.2625
-0.066303725267201 0.115506608800092 0.2625
-0.0749283695305976 0.115416064551948 0.2625
-0.0848022366741426 0.100995775825708 0.2625
-0.0877800966593011 0.0948373714869894 0.2625
-0.0951247968009132 0.0863901199585699 0.2625
-0.109083632949758 0.0769032604210069 0.2625
-0.114668108429907 0.0776334249581887 0.2625
-0.126850906922835 0.0633234271809614 0.2625
-0.135734316197229 0.0536269345926618 0.2625
-0.141885094007086 0.0422252120153955 0.2625
-0.147156821376768 0.0404485564517648 0.2625
-0.158985751194021 0.0342656250130563 0.2625
-0.157538153881423 0.031399270572397 0.2625
-0.17536570367745 0.0149570651063675 0.2625
-0.18459945900287 0.014180057651642 0.2625
-0.18567289261734 0.00968668115353975 0.2625
-0.195837571299358 -0.00204409867911538 0.2625
-0.207083913784718 -0.0170393275796391 0.2625
-0.214353466807021 -0.0242183312469366 0.2625
-0.220751195443278 -0.0276614672753501 0.2625
-0.23734777657352 -0.0390417190594501 0.2625
-0.242951614288624 -0.0428046296889468 0.2625
-0.2590907377572 -0.0553018751298013 0.2625
-0.260959756618201 -0.0630064122503807 0.2625
-0.275640392502664 -0.0763105510893895 0.2625
-0.289817438940015 -0.0886430757780309 0.2625
-0.296211174303118 -0.087591827341135 0.2625
-0.302685554711382 -0.102197202972296 0.2625
-0.312013273482096 -0.115306750345986 0.2625
-0.320149245265998 -0.124453227186792 0.2625
-0.327938020149608 -0.127024192692915 0.2625
-0.339455574850296 -0.139473297047854 0.2625
-0.358543017491697 -0.150183016616207 0.2625
-0.36726465372257 -0.153602770840893 0.2625
-0.365461719386486 -0.165565835077925 0.2625
-0.385289373384977 -0.171813991863707 0.2625
0.037701694796153 0.196129330328456 0.260268668169105
0.0340313187220781 0.188455373787215 0.2625
0.0243266667000848 0.189334085650001 0.2625
0.0164961163171347 0.171915496589504 0.2625
0.0121185228047297 0.172835499202481 0.2625
-0.00139368347180404 0.158242249022549 0.2625
-0.011092376723932 0.153868096098841 0.2625
-0.0182775645231204 0.15321957837318 0.2625
-0.0241396173608533 0.143288004479963 0.2625
-0.0305828529741935 0.138164044564989 0.2625
-0.0342356126180607 0.128578544007494 0.2625
-0.0412700008387075 0.123025307875933 0.2625
-0.0535129307828011 0.111441469268528 0.2625
-0.0629853001584749 0.109422043109245 0.2625
-0.0651243887860059 0.102330554110154 0.2625
-0.0737084482633297 0.0974024125412646 0.2625
-0.0797843744693131 0.0918364433422841 0.2625
-0.0928848217357169 0.0772016382305498 0.2625
