ply
format ascii 1.0
element vertex 862
property float x
property float y
property float z
end_header
-0.40436310945377 0.097685992315776 0.63564637619895
-0.405010408970203 0.088696002741113 0.63564637619895
-0.407486115832455 0.0713951750527662 0.63564637619895
-0.410381549204951 0.0577101851034258 0.63564637619895
-0.410081558199714 0.0384186683109137 0.63564637619895
-0.419191090300498 0.0342714274034574 0.63564637619895
-0.413988272452702 0.0242531782513897 0.63564637619895
-0.423387849743217 0.0118143013617913 0.63564637619895
-0.419032043731358 -0.000422579100869419 0.63564637619895
-0.427825598323009 -0.0199169398680331 0.63564637619895
-0.428425102763172 -0.0361287011885758 0.63564637619895
-0.423708167762219 -0.0405742142950595 0.63564637619895
-0.429223539600934 -0.0501509978949766 0.63564637619895
-0.427410289658642 -0.0695203605251664 0.63564637619895
-0.434307593240646 -0.0812644478743196 0.63564637619895
-0.435876955750677 -0.102721229753205 0.63564637619895
-0.440284603956919 -0.10959418918971 0.63564637619895
-0.441544258208695 -0.129760733573973 0.63564637619895
-0.444738782998189 -0.143889965547631 0.63564637619895
-0.446137363521277 -0.153574979406946 0.63564637619895
-0.446983731684856 -0.15857214613623 0.63564637619895
-0.446649409272064 -0.179734891306051 0.63564637619895
-0.447011352027146 -0.207771185032193 0.629635434950423
-0.360472231730976 0.346634549455572 0.611870762447196
-0.360506878404138 0.346599902782409 0.616441285044251
-0.360393516476954 0.343838102363322 0.62615634792227
-0.360809526614146 0.337222467369861 0.62834824631061
-0.368558525468597 0.322093889722588 0.630957321413963
-0.362467645707136 0.321803006603286 0.63321361531842
-0.369369972594345 0.313918731838876 0.633560786319789
-0.365879279752064 0.300220257342132 0.63564637619895
-0.371671663955941 0.290283376320674 0.63564637619895
-0.375273894376217 0.285190510773106 0.63564637619895
-0.376539567556077 0.273805061892976 0.63564637619895
-0.375580057863389 0.259629698992927 0.63564637619895
-0.371550548180233 0.25929028675923 0.63564637619895
-0.376285865038236 0.243633870414418 0.63564637619895
-0.378200566168433 0.229125638002506 0.63564637619895
-0.38084076298 0.216305543058692 0.63564637619895
-0.384279578522938 0.207911942634723 0.63564637619895
-0.387078762483812 0.201006505556316 0.63564637619895
-0.383185941227347 0.182856388571925 0.63564637619895
-0.383989534782103 0.175004621002465 0.63564637619895
-0.390726119731569 0.163733302892471 0.63564637619895
-0.387524041625778 0.150662308224402 0.63564637619895
-0.393821662173794 0.145558016167775 0.63564637619895
-0.391944221951995 0.127600074288965 0.63564637619895
-0.393869932238439 0.116742514367694 0.63564637619895
-0.394441342008151 0.104441305101768 0.63564637619895
-0.393213812827146 0.089578041253239 0.63564637619895
-0.396539910159586 0.0808762965163566 0.63564637619895
-0.4041414439896 0.0679344312316008 0.63564637619895
-0.396924066664124 0.0608716610137447 0.63564637619895
-0.403081803838885 0.03820562492615 0.63564637619895
-0.404368130687567 0.0355668535356799 0.63564637619895
-0.41048051747356 0.0170234615534336 0.63564637619895
-0.408767919771041 0.0094506179065239 0.63564637619895
-0.405867974077553 -0.00254524394354035 0.63564637619895
-0.414319159775735 -0.0264286252116339 0.63564637619895
-0.41399220594646 -0.0334289637054311 0.63564637619895
-0.413788070034546 -0.0459142671954974 0.63564637619895
-0.419085571412653 -0.0584407506564852 0.63564637619895
-0.417863764184966 -0.079645307841305 0.63564637619895
-0.420932378958918 -0.0782285796347342 0.63564637619895
-0.417918487296351 -0.0963021668776337 0.63564637619895
-0.423467165466328 -0.111770842523779 0.63564637619895
-0.430711724815331 -0.121445543922726 0.63564637619895
-0.428306374650037 -0.134693529567911 0.63564637619895
-0.427281022756957 -0.14593602061878 0.63564637619895
-0.429894023636632 -0.162544967169337 0.63564637619895
-0.440719340995589 -0.184521381715925 0.63564637619895
-0.435285261055326 -0.190848861783866 0.63564637619895
-0.442254280270475 -0.205915703229893 0.63215917789545
-0.348011143075208 0.35909563811134 0.612672952730144
-0.351481290777907 0.355625490408641 0.623242651277895
-0.35364289978674 0.353463881399808 0.625088605184275
-0.354298249567158 0.34223508587369 0.628878102119887
-0.35922331554832 0.332503008920657 0.630577637147611
-0.358772648475099 0.325704300017408 0.633140678603776
-0.356163075480137 0.326817309164017 0.633669793826601
-0.357251736210743 0.314342708841677 0.63564637619895
-0.355376658360761 0.299894775589968 0.63564637619895
-0.362359465186153 0.291059458112524 0.63564637619895
-0.360541940790221 0.284043966579624 0.63564637619895
-0.36092124287725 0.272820866408203 0.63564637619895
-0.366569685140399 0.261347401520086 0.63564637619895
-0.371339799926288 0.252705920576727 0.63564637619895
-0.368104589170232 0.23644390927437 0.63564637619895
-0.366024931713441 0.228192934220125 0.63564637619895
-0.367774013257305 0.223778942719865 0.63564637619895
-0.37748110395506 0.202662678311404 0.63564637619895
-0.377991749647509 0.190799594691557 0.63564637619895
-0.378534311292393 0.184988041965055 0.63564637619895
-0.375123022587044 0.173549427172604 0.63564637619895
-0.380588083994731 0.161014433318606 0.63564637619895
-0.379152816571636 0.15563026262954 0.63564637619895
-0.378354649055952 0.134580269109149 0.63564637619895
-0.379454190680989 0.118869967238041 0.63564637619895
-0.384415191593661 0.115649733764296 0.63564637619895
-0.382676148385936 0.106922935643988 0.63564637619895
-0.38926249971369 0.0978422411419446 0.63564637619895
-0.390798842765786 0.0797942603232862 0.63564637619895
-0.394066195798305 0.0706317689818196 0.63564637619895
-0.39494714251976 0.0558337761964864 0.63564637619895
-0.393721578420395 0.0513372851906684 0.63564637619895
-0.393920721848521 0.0228073737980713 0.63564637619895
-0.396067470628279 0.0224266455064009 0.63564637619895
-0.403247576565763 0.009304198125783 0.63564637619895
-0.403629250068062 0.00230506852701134 0.63564637619895
-0.400962699434516 -0.0173559822668692 0.63564637619895
-0.398834838840813 -0.0256835266715553 0.63564637619895
-0.411228354981865 -0.0457687535685379 0.63564637619895
-0.407242653421714 -0.0491990206103091 0.63564637619895
-0.407705708113651 -0.0727674576248113 0.63564637619895
-0.411352145010096 -0.0785584809990603 0.63564637619895
-0.409495764969978 -0.0969543352552213 0.63564637619895
-0.414218880794203 -0.112616107473294 0.63564637619895
-0.414865674535618 -0.126168774831907 0.63564637619895
-0.42409348703232 -0.145310358842991 0.63564637619895
-0.418275690013444 -0.150222399564235 0.63564637619895
-0.425290397808963 -0.16287354291288 0.63564637619895
-0.427902464004801 -0.174088356628861 0.63564637619895
-0.429860213673668 -0.200659808691241 0.63564637619895
-0.429198426671941 -0.201603628507905 0.63564637619895
-0.426083580254539 -0.239650391025027 0.630727624452055
-0.347095248360382 0.360011532826166 0.612682348308882
-0.347121166217557 0.358206586161141 0.625768806193218
-0.344855873594538 0.352764762784271 0.628493683186674
-0.342769375019386 0.350913817153884 0.629885779935815
-0.346100856169825 0.335062227384062 0.634312306788794
-0.343332031797182 0.331083313571654 0.63564637619895
-0.350220923787995 0.329936851865512 0.634667736805563
-0.349598027723607 0.310090405155518 0.63564637619895
-0.353039629042738 0.305197072345172 0.63564637619895
-0.352682758103577 0.296040939202232 0.63564637619895
-0.350629590095781 0.286006059388028 0.63564637619895
-0.35780037877839 0.272354508551988 0.63564637619895
-0.357224816681894 0.259628736337817 0.63564637619895
-0.361042887210966 0.257212991601549 0.63564637619895
-0.36099991066958 0.243992832310882 0.63564637619895
-0.357533858921609 0.224959068316549 0.63564637619895
-0.358736306781472 0.227283942227741 0.63564637619895
-0.361168000825658 0.208001201938324 0.63564637619895
-0.3625532599938 0.196841987765141 0.63564637619895
-0.361085223822736 0.186029970212066 0.63564637619895
-0.370180843391675 0.181972154466722 0.63564637619895
-0.36540473606245 0.162317618318357 0.63564637619895
-0.373286385910049 0.158887795469201 0.63564637619895
-0.373241630470477 0.144799766800962 0.63564637619895
-0.374515169736378 0.134091980989632 0.63564637619895
-0.378901701636036 0.116171365767864 0.63564637619895
-0.379281577200837 0.100610540870747 0.63564637619895
-0.378483435416867 0.0919818629312512 0.63564637619895
-0.382607918422196 0.0865910722056578 0.63564637619895
-0.377626088414845 0.0721585165848008 0.63564637619895
-0.381636802302692 0.0611614516394155 0.63564637619895
-0.379570651497508 0.0407993124652593 0.63564637619895
-0.389420949536662 0.0314454572475035 0.63564637619895
-0.387225210346027 0.0249904613222788 0.63564637619895
-0.389813410816737 0.015323478384537 0.63564637619895
-0.393185138934413 -0.010056571757038 0.63564637619895
-0.388538633405734 -0.0139262611046529 0.63564637619895
-0.389770086994003 -0.0304639402272477 0.63564637619895
-0.393594056813165 -0.0398278898405751 0.63564637619895
-0.400882374330247 -0.0572521451330931 0.63564637619895
-0.397340304326505 -0.0657365551660848 0.63564637619895
-0.399721757262775 -0.0870058942946344 0.63564637619895
-0.403900098122095 -0.102547087745325 0.63564637619895
-0.407647949689968 -0.104806454745678 0.63564637619895
-0.408966861501881 -0.12569953860216 0.63564637619895
-0.40568912262492 -0.135028532153361 0.63564637619895
-0.406800578899599 -0.16301744745046 0.63564637619895
-0.408719364972736 -0.16454649550031 0.63564637619895
-0.41072178751968 -0.18274500502055 0.63564637619895
-0.419271568724214 -0.20058924549792 0.63564637619895
-0.417616971958736 -0.216624404327034 0.63564637619895
-0.415828639558352 -0.224134649675549 0.63564637619895
-0.421710173407734 -0.237278744609075 0.633214276771252
-0.330731261962374 0.376375519224175 0.612908575317307
-0.331261579377971 0.375845201808577 0.616747045296087
-0.330936502871219 0.374413180498324 0.625761052417046
-0.331147548086186 0.364555449780459 0.629171670784583
-0.33605847808723 0.357845902426529 0.629807578048076
-0.333531505153596 0.353370117295262 0.632283426905425
-0.334654094573028 0.342438575005353 0.63564637619895
-0.340403578589699 0.331139606479342 0.63564637619895
-0.343520490497772 0.317000845587936 0.63564637619895
-0.345144129903916 0.309665477713661 0.63564637619895
-0.339394163926537 0.298792109528857 0.63564637619895
-0.342271968664329 0.286460577940126 0.63564637619895
-0.342043476646407 0.281539072514916 0.63564637619895
-0.34371797770572 0.268323530679607 0.63564637619895
-0.342087174575239 0.265773424527148 0.63564637619895
-0.34784756582226 0.254902918802498 0.63564637619895
-0.350297642481815 0.243556516190149 0.63564637619895
-0.351701711174272 0.231501458035932 0.63564637619895
-0.353983813136783 0.22210997204176 0.63564637619895
-0.354692811118156 0.213728947975636 0.63564637619895
-0.35305961985478 0.201409834313529 0.63564637619895
-0.358408623165351 0.187070258459457 0.63564637619895
-0.36226948805401 0.177850973458783 0.63564637619895
-0.363464001474977 0.160878669076466 0.63564637619895
-0.36407818223334 0.144928425481908 0.63564637619895
-0.361405467108181 0.131255146644156 0.63564637619895
-0.358622499141528 0.135554779141993 0.63564637619895
-0.364958623109383 0.115768684215901 0.63564637619895
-0.362927648687129 0.110622228156057 0.63564637619895
-0.369701440663001 0.0896787595282273 0.63564637619895
-0.365687217013828 0.0793094964206301 0.63564637619895
-0.376157873501727 0.0656605502460475 0.63564637619895
-0.368537469897813 0.0564651037439362 0.63564637619895
-0.37787105939599 0.0418965130609366 0.63564637619895
-0.376063437968282 0.0225870040361257 0.63564637619895
-0.377182213366392 0.0115454479497438 0.63564637619895
-0.384313273504502 0.00289719411293827 0.63564637619895
-0.376253198520894 -0.00409253215352041 0.63564637619895
-0.384418944764214 -0.0206791658663271 0.63564637619895
-0.380129182201422 -0.0233110200553516 0.63564637619895
-0.385166371197007 -0.0381270571406043 0.63564637619895
-0.382440557926035 -0.0576952093085656 0.63564637619895
-0.383796277057813 -0.0661541101408439 0.63564637619895
-0.393436147981039 -0.0902244899028486 0.63564637619895
-0.390383867262137 -0.0910385589198927 0.63564637619895
-0.397342308286659 -0.120205301541773 0.63564637619895
-0.396844803637946 -0.115828114559729 0.63564637619895
-0.39309980211004 -0.130224961543882 0.63564637619895
-0.398114724254854 -0.158825509557176 0.63564637619895
-0.404898623394626 -0.165762563685528 0.63564637619895
-0.403817961912296 -0.177723685731143 0.63564637619895
-0.408227426334687 -0.198339470774246 0.63564637619895
-0.412701419465567 -0.215961667648304 0.63564637619895
-0.407137618165769 -0.229293752504299 0.63564637619895
-0.406240174447634 -0.245886219141151 0.63564637619895
-0.412231473067603 -0.269291834699597 0.629315401893328
-0.319553467076802 0.387553314109745 0.618717720296482
-0.323988756427644 0.383118024758904 0.623284416629844
-0.325784149100019 0.377889241039832 0.626353711572032
-0.327340510621988 0.373111699705192 0.627492570616513
-0.322190343960292 0.370222213192196 0.630335017255619
-0.325943980903849 0.361666748839896 0.632032719617024
-0.329353255023974 0.350659637051992 0.634718960885645
-0.326525827413981 0.341731117187466 0.63564637619895
-0.32689413435452 0.337445254070183 0.63564637619895
-0.32602170524398 0.327717453044068 0.63564637619895
-0.336146295943078 0.313623114400988 0.63564637619895
-0.329648569422703 0.301500203325707 0.63564637619895
-0.328786546337258 0.29842339680794 0.63564637619895
-0.33139996715117 0.283367584832572 0.63564637619895
-0.335976778839388 0.275980673058774 0.63564637619895
-0.333874841282088 0.259985983478445 0.63564637619895
-0.337068609505944 0.250378580670032 0.63564637619895
-0.338859415952253 0.239850861253624 0.63564637619895
-0.339743585804752 0.22636746413027 0.63564637619895
-0.344051087644421 0.221903702777942 0.63564637619895
-0.347488250786155 0.214960609866209 0.63564637619895
-0.342447897828822 0.196976676767344 0.63564637619895
-0.341726607820498 0.193532374940228 0.63564637619895
-0.34763434142307 0.171694068905454 0.63564637619895
-0.346886193145281 0.161878758046702 0.63564637619895
-0.34798002762277 0.154430714371617 0.63564637619895
-0.354402782592656 0.130236547044768 0.63564637619895
-0.351075689875461 0.123680131986787 0.63564637619895
-0.358672288578412 0.117564333605534 0.63564637619895
-0.361532719287224 0.0989895930288512 0.63564637619895
-0.363323234883838 0.089422100031221 0.63564637619895
-0.361331037224656 0.0837864181352387 0.63564637619895
-0.361585871537721 0.077902691709871 0.63564637619895
-0.361345068850233 0.0550299036502607 0.63564637619895
-0.361411064508856 0.0392699123425875 0.63564637619895
-0.364497021041024 0.0226233515313061 0.63564637619895
-0.36469413688928 0.0129219504547228 0.63564637619895
-0.366397822162785 -0.0010584341374408 0.63564637619895
-0.371831977054086 -0.00378072421518379 0.63564637619895
-0.37619927524906 -0.0227139869300069 0.63564637619895
-0.375027800472622 -0.0313302179857574 0.63564637619895
-0.370384698002097 -0.0390040315460295 0.63564637619895
-0.378762649823405 -0.0607452803748646 0.63564637619895
-0.375712051246545 -0.0802639684273166 0.63564637619895
-0.381315590516087 -0.0796018475401966 0.63564637619895
-0.386154819741036 -0.0909134904142403 0.63564637619895
-0.383678385496484 -0.11872400555962 0.63564637619895
-0.380974501880446 -0.135384151088302 0.63564637619895
-0.381884916739454 -0.131824550647912 0.63564637619895
-0.388320600905708 -0.147981878115802 0.63564637619895
-0.392802372074815 -0.161304375748071 0.63564637619895
-0.389074006457597 -0.183863514920253 0.63564637619895
-0.393751151579513 -0.193027452058114 0.63564637619895
-0.391408156997647 -0.210828569248922 0.63564637619895
-0.39492966362553 -0.222876440713215 0.63564637619895
-0.401039740262676 -0.233335760235755 0.63564637619895
-0.405457289279007 -0.252990523566228 0.63564637619895
-0.400961519436619 -0.273461526210164 0.633153012087639
-0.313518164201631 0.393588616984917 0.614175726768691
-0.31409377283451 0.393013008352039 0.621289541279174
-0.308327487726233 0.391135304280935 0.627842382818268
-0.314099087508266 0.383284094781858 0.62857763588484
-0.315122600847656 0.372558101606276 0.632007980528089
-0.316716723586138 0.371668500673011 0.631758894455107
-0.314739682669026 0.359010382994234 0.63564637619895
-0.318782982452634 0.354427674800485 0.63564637619895
-0.32130087203232 0.341838840182047 0.63564637619895
-0.323855717930119 0.334812045503615 0.63564637619895
-0.31877936063525 0.329947569594575 0.63564637619895
-0.32650420675181 0.315500479962102 0.63564637619895
-0.325979342967874 0.299982056769127 0.63564637619895
-0.328187525159909 0.288014534870808 0.63564637619895
-0.322454351819234 0.286631707314972 0.63564637619895
-0.327104939611977 0.270553626983448 0.63564637619895
-0.329921246100461 0.261372110580817 0.63564637619895
-0.325734374010879 0.245717869981073 0.63564637619895
-0.327274673732116 0.242541538278491 0.63564637619895
-0.329651392281045 0.234235154434776 0.63564637619895
-0.3346810911738 0.223168405226844 0.63564637619895
-0.334664982553953 0.205571641703254 0.63564637619895
-0.338246018248753 0.199669404277056 0.63564637619895
-0.335831696163448 0.182715737843812 0.63564637619895
-0.337973163964159 0.170606643313204 0.63564637619895
-0.338653279119292 0.164168780580708 0.63564637619895
-0.345686759971641 0.149464128627017 0.63564637619895
-0.339465331600575 0.145515403356175 0.63564637619895
-0.3499258553838 0.120333011058353 0.63564637619895
-0.349442697158878 0.112237365628811 0.63564637619895
-0.346987666164177 0.0988340959473359 0.63564637619895
-0.352231227495102 0.0925614362873686 0.63564637619895
-0.345488877445896 0.0818055383157552 0.63564637619895
-0.352316039439891 0.0750134261665011 0.63564637619895
-0.352630511411694 0.050432905986085 0.63564637619895
-0.358110225136705 0.0475311673778538 0.63564637619895
-0.356077858342567 0.0361243583689706 0.63564637619895
-0.358594474351413 0.0238781153867724 0.63564637619895
-0.359757466602724 0.00753460171726568 0.63564637619895
-0.358794239010069 0.00308126874137068 0.63564637619895
-0.364835976849675 -0.0211950144091955 0.63564637619895
-0.362577129386517 -0.030976539762311 0.63564637619895
-0.368229987784294 -0.0437773792804951 0.63564637619895
-0.361543563819593 -0.0507944672728564 0.63564637619895
-0.371959560954663 -0.0750416397733737 0.63564637619895
-0.374296596035066 -0.0825654106248656 0.63564637619895
-0.36962535352747 -0.10134493591937 0.63564637619895
-0.37106295545878 -0.101176542060138 0.63564637619895
-0.36908849350537 -0.113712308669912 0.63564637619895
-0.379593187305076 -0.141580473200541 0.63564637619895
-0.376548421365852 -0.161670624530073 0.63564637619895
-0.377640266324695 -0.164111673156597 0.63564637619895
-0.379410002604214 -0.189225253511819 0.63564637619895
-0.384186286532044 -0.200299253176003 0.63564637619895
-0.383271963830114 -0.209701859680624 0.63564637619895
-0.391224905325011 -0.219345158299237 0.63564637619895
-0.392724439981935 -0.238064262905291 0.63564637619895
-0.390350828599234 -0.247869737894559 0.63564637619895
-0.394760277570703 -0.269583687913261 0.63564637619895
-0.396782234436433 -0.30446171683367 0.627212647921671
-0.306354940478641 0.40047616183671 0.614821727113351
-0.30570071176297 0.400853880961814 0.624136531523781
-0.306182179517457 0.390142240714215 0.628951964800437
-0.303333394934562 0.382465242997355 0.632673390821161
-0.307234598023168 0.376530941957744 0.633392199495148
-0.303801945285857 0.367021946336401 0.63564637619895
-0.307601304229912 0.365574709324455 0.63564637619895
-0.311024292987835 0.353729511834034 0.63564637619895
-0.310696857669382 0.34142609096642 0.63564637619895
-0.311019780169545 0.33772039592806 0.63564637619895
-0.313105658105626 0.325882743404266 0.63564637619895
-0.316939907801059 0.314961546343135 0.63564637619895
-0.313891198405209 0.307531217485163 0.63564637619895
-0.320008499906221 0.291628061978338 0.63564637619895
-0.316564863284936 0.290575637194163 0.63564637619895
-0.31797190450412 0.274159093806829 0.63564637619895
-0.318407599819313 0.260428000159498 0.63564637619895
-0.323705868539419 0.250395557171425 0.63564637619895
-0.319785395357827 0.236253003886403 0.63564637619895
-0.325873118190382 0.222334285456506 0.63564637619895
-0.324778939850022 0.221692309481717 0.63564637619895
-0.326453218655665 0.210763155361166 0.63564637619895
-0.329628601087524 0.197902215479222 0.63564637619895
-0.326723286319319 0.193225307645302 0.63564637619895
-0.326855356353366 0.17084694137518 0.63564637619895
-0.328781780111225 0.164467472290497 0.63564637619895
-0.332216157946528 0.156796616455937 0.63564637619895
-0.329455761148685 0.13757594336986 0.63564637619895
-0.337762577537464 0.132134130417177 0.63564637619895
-0.335173207757173 0.115916105155715 0.63564637619895
-0.332689117627404 0.105008486123148 0.63564637619895
-0.335123374717636 0.0981243596178936 0.63564637619895
-0.343957881199339 0.0747247480264395 0.63564637619895
-0.337680781428619 0.0647396619826502 0.63564637619895
-0.346759556258195 0.0629121292739243 0.63564637619895
-0.342824745148797 0.0410872170929578 0.63564637619895
-0.348710152764305 0.0382551789775728 0.63564637619895
-0.351102957910048 0.0133466480028202 0.63564637619895
-0.353346764307311 0.00921773843693713 0.63564637619895
-0.353464011512126 -0.001456449610438 0.63564637619895
-0.355107491992117 -0.0249589378484939 0.63564637619895
-0.349284330731441 -0.0363585756148607 0.63564637619895
-0.351556954546611 -0.0376298738253334 0.63564637619895
-0.359120900230687 -0.05791820961445 0.63564637619895
-0.356486157638175 -0.0706451651525182 0.63564637619895
-0.355527822645927 -0.0933607819474093 0.63564637619895
-0.357409910078107 -0.100982139297079 0.63564637619895
-0.363414673759771 -0.112463542342997 0.63564637619895
-0.365177231285725 -0.125710829443223 0.63564637619895
-0.367758280125154 -0.135110526036776 0.63564637619895
-0.366451461096124 -0.160453925503044 0.63564637619895
-0.375099206184234 -0.170793613501842 0.63564637619895
-0.373051249820362 -0.176442158224683 0.63564637619895
-0.374257684575005 -0.200201535802785 0.63564637619895
-0.375019333552866 -0.214720583346231 0.63564637619895
-0.374381497752214 -0.229941775264405 0.63564637619895
-0.372860065104514 -0.227354078939199 0.63564637619895
-0.383834449880707 -0.252112290325502 0.63564637619895
-0.380214104159882 -0.26173799625017 0.63564637619895
-0.387765340998304 -0.278969573522149 0.63564637619895
-0.387983672889722 -0.293319366282415 0.633808124467591
-0.293820008349922 0.4077132082755 0.618513949559555
-0.294619762057663 0.407251470257049 0.624777681559628
-0.29608288274191 0.402082029662704 0.627012477794208
-0.295340375830916 0.394187706353095 0.630616446787861
-0.292261330686697 0.386095407638443 0.634890276204866
-0.294848755229474 0.379313809715998 0.63564637619895
-0.298262841465819 0.379647281442569 0.635462402054477
-0.300601004507906 0.366023199388815 0.63564637619895
-0.297550911597153 0.359448405274301 0.63564637619895
-0.297998747690878 0.338867404847143 0.63564637619895
-0.304040647183632 0.33902906545143 0.63564637619895
-0.302916282499575 0.320458400961118 0.63564637619895
-0.304859705677695 0.31768826727619 0.63564637619895
-0.303545858563006 0.307726842558009 0.63564637619895
-0.303554510335814 0.298373141412355 0.63564637619895
-0.307614431017222 0.282406713138062 0.63564637619895
-0.313049034830796 0.269087828021373 0.63564637619895
-0.311212284707851 0.257937935990955 0.63564637619895
-0.308672350277311 0.247754916101581 0.63564637619895
-0.310772127622998 0.240233512931152 0.63564637619895
-0.311292444393813 0.235833077168712 0.63564637619895
-0.319604664422766 0.216695507344547 0.63564637619895
-0.312644022210875 0.205078765672118 0.63564637619895
-0.313393823737436 0.196872132833432 0.63564637619895
-0.321128630799997 0.180515918139059 0.63564637619895
-0.324665819562522 0.18009809961558 0.63564637619895
-0.324489648526035 0.162172149419382 0.63564637619895
-0.327838480095638 0.148110320357417 0.63564637619895
-0.327350699367959 0.136566684343855 0.63564637619895
-0.329888665034565 0.130398519987584 0.63564637619895
-0.325691292202362 0.119764784081445 0.63564637619895
-0.326844028728065 0.105528410056841 0.63564637619895
-0.32960730365019 0.0944980882593906 0.63564637619895
-0.329977373911205 0.0840306450968954 0.63564637619895
-0.330244080895065 0.0674549112290936 0.63564637619895
-0.330757246990174 0.0472912366239902 0.63564637619895
-0.334402335298474 0.0409345259141543 0.63564637619895
-0.336458286440127 0.0274193185349639 0.63564637619895
-0.337498817134027 0.0176397058030413 0.63564637619895
-0.343553874371992 0.00784539627079394 0.63564637619895
-0.340470996239903 0.00332420264292507 0.63564637619895
-0.339956339399347 -0.0220686217737571 0.63564637619895
-0.347157497107503 -0.0214083774452831 0.63564637619895
-0.347959135811029 -0.0433856155144353 0.63564637619895
-0.341624647435816 -0.0605580535472083 0.63564637619895
-0.344214556355507 -0.0690100501505998 0.63564637619895
-0.346400541872697 -0.0861750954757786 0.63564637619895
-0.350621043942308 -0.0977113346998868 0.63564637619895
-0.35707142403973 -0.112017268906097 0.63564637619895
-0.354823847619186 -0.131946924990031 0.63564637619895
-0.356151222708513 -0.140904337975234 0.63564637619895
-0.354223464685364 -0.143375425346086 0.63564637619895
-0.363269645749983 -0.166729958026016 0.63564637619895
-0.359349267080182 -0.172543066168945 0.63564637619895
-0.360116891099712 -0.2011000890264 0.63564637619895
-0.36877498840147 -0.211350025247143 0.63564637619895
-0.361897416367471 -0.220488687844893 0.63564637619895
-0.363906045748883 -0.250902723056286 0.63564637619895
-0.367473692040034 -0.258282457634204 0.63564637619895
-0.372192381306224 -0.268959458313613 0.63564637619895
-0.376644251213357 -0.290504536798442 0.63564637619895
-0.375202512435536 -0.295180099418057 0.63564637619895
-0.299907816195295 0.279309503431041 0.284116895811755
-0.29535154432007 0.283865775306266 0.28718349534494
-0.294542553876429 0.284674765749907 0.299037922124431
-0.301553661283004 0.277663658343332 0.339065717023012
-0.300389499561832 0.278827820064504 0.353806225933439
-0.299181192664575 0.280036126961761 0.366135667967416
-0.294336857989002 0.284880461637333 0.378761988273933
-0.295526105026871 0.283691214599464 0.389721037940049
-0.294231948188605 0.284985371437731 0.392055796317277
-0.301322775317988 0.277894544308348 0.399973051279544
-0.302017571755337 0.277199747870999 0.416697755395032
-0.299841119937009 0.279376199689327 0.425885671256616
-0.299716424034652 0.279500895591683 0.430862658442071
-0.301129832742321 0.278087486884015 0.438409057371697
-0.297862503945507 0.281354815680829 0.465691756557903
-0.300340838711171 0.278876480915165 0.464838818022026
-0.294827591512209 0.284389728114126 0.481235894032242
-0.301680135583417 0.277537184042918 0.480381068449319
-0.286966231274697 0.411670238314846 0.619257678299999
-0.286095781383967 0.407345271769045 0.627230202448514
-0.289087635309971 0.402537433347479 0.628564094072196
-0.285947691233791 0.396462237684437 0.63197971697982
-0.284411595066032 0.388474691029003 0.63564637619895
-0.284687276423573 0.381717084230135 0.63564637619895
-0.292445052900825 0.36768597102412 0.63564637619895
-0.285662582752211 0.366553423021107 0.63564637619895
-0.287144727223377 0.348408858553407 0.63564637619895
-0.29545372537219 0.344860526079834 0.63564637619895
-0.293463699909099 0.325793221495481 0.63564637619895
-0.298515969184676 0.322017334430195 0.63564637619895
-0.30013839980954 0.311148905492992 0.63564637619895
-0.300996368047183 0.307324577541587 0.63564637619895
-0.301382299552573 0.295119200902503 0.63564637619895
-0.294716395823411 0.281359015958961 0.63564637619895
-0.299565872343868 0.263110861672442 0.63564637619895
-0.304502759980601 0.252080746535154 0.63564637619895
-0.298783255756959 0.249449501390876 0.63564637619895
-0.306693884451943 0.240239750351245 0.63564637619895
-0.305029985297155 0.227699231904586 0.63564637619895
-0.309707854162302 0.222529864375354 0.63564637619895
-0.311763303768543 0.201483047970762 0.63564637619895
-0.308300001524925 0.202648126710781 0.63564637619895
-0.310035224111429 0.18508468037574 0.63564637619895
-0.31276544082929 0.167726878146177 0.63564637619895
-0.315757384650041 0.160580855083795 0.63564637619895
-0.310674772619425 0.14978771688674 0.63564637619895
-0.317029986187187 0.142787604084776 0.63564637619895
-0.320549054742397 0.125942524058546 0.63564637619895
-0.321518803136617 0.112929095747367 0.63564637619895
-0.318452500725045 0.108573725226068 0.63564637619895
-0.320776429895337 0.0920614592845518 0.63564637619895
-0.322144392109867 0.0821591136441251 0.63564637619895
-0.319817346882748 0.073163379132416 0.63564637619895
-0.320420146571705 0.0508998473789004 0.63564637619895
-0.327602397657647 0.0401995616221398 0.63564637619895
-0.327401194712037 0.0345254138632194 0.63564637619895
-0.327351530018717 0.0214291091226382 0.63564637619895
-0.331843602544429 0.00866879129009356 0.63564637619895
-0.328169604244343 -0.00616332962884824 0.63564637619895
-0.335858263228328 -0.0161415523994382 0.63564637619895
-0.336226807441971 -0.0345145412193519 0.63564637619895
-0.329840692623675 -0.0428388376806293 0.63564637619895
-0.333966088066759 -0.0560079210671359 0.63564637619895
-0.337060120839919 -0.0780272859344481 0.63564637619895
-0.334879898763757 -0.081231402314793 0.63564637619895
-0.335901624631712 -0.0959107177035377 0.63564637619895
-0.344874266963819 -0.113650911159242 0.63564637619895
-0.345848590895931 -0.122613188589513 0.63564637619895
-0.339575667640692 -0.133089161479008 0.63564637619895
-0.349962420891607 -0.157833118623228 0.63564637619895
-0.346277795669942 -0.17474214548146 0.63564637619895
-0.34875131328226 -0.187133391462271 0.63564637619895
-0.35035182359531 -0.196938204731334 0.63564637619895
-0.34833192929253 -0.216067783571801 0.63564637619895
-0.350483797322151 -0.228356052063773 0.63564637619895
-0.356954803444499 -0.245121906191485 0.63564637619895
-0.36071967276134 -0.261207025472829 0.63564637619895
-0.36300995129445 -0.266652839453815 0.63564637619895
-0.359078951307796 -0.279497637730948 0.63564637619895
-0.364994081443501 -0.302267330504056 0.63564637619895
-0.369557772487864 -0.321070154512738 0.630965979296774
-0.287985939448478 0.291231380177858 0.285786426351574
-0.286995212844692 0.292222106781644 0.294074334848946
-0.292537022229438 0.286680297396898 0.294985588037372
-0.290597097040464 0.288620222585872 0.310358122127678
-0.29184115956332 0.287376160063015 0.309334242812581
-0.28683144790308 0.292385871723256 0.33034344403851
-0.288348718960595 0.290868600665741 0.337585025561978
-0.288221057544692 0.290996262081643 0.340946647951687
-0.294167909356115 0.28504941027022 0.344020754192989
-0.288644664746595 0.290572654879741 0.365373362959632
-0.288446905155877 0.290770414470459 0.373235633474905
-0.29352690420794 0.285690415418396 0.372623166019796
-0.293046636700723 0.286170682925612 0.3872211675665
-0.287493321841663 0.291723997784673 0.401275329498971
-0.284246849479628 0.294970470146708 0.413271980478303
-0.285433871106144 0.293783448520192 0.418926380920887
-0.288934982878355 0.290282336747981 0.430409288545272
-0.290338743394043 0.288878576232294 0.432957273198714
-0.286535259400251 0.292682060226085 0.440087079780276
-0.287392305037305 0.291825014589031 0.452822865554726
-0.292428927168099 0.286788392458237 0.463639135580507
-0.289278133153333 0.289939186473003 0.466929056033293
-0.293942702354728 0.285274617271608 0.475003241162856
-0.28653376221157 0.292683557414766 0.490141148436915
-0.270848668582846 0.420975717473667 0.617577293540184
-0.274725431115143 0.418737467582061 0.623095078502855
-0.27171865278776 0.413102574595665 0.628331499344999
-0.27241866644624 0.40926209948043 0.629819470436578
-0.273619440167345 0.395848609534897 0.635327488529421
-0.274055887403196 0.389313924326388 0.63564637619895
-0.282613738428493 0.387521220788047 0.63564637619895
-0.276657251936766 0.3701048855735 0.63564637619895
-0.284711823934404 0.365000850061475 0.63564637619895
-0.278917812279734 0.355793502529612 0.63564637619895
-0.282433233552438 0.33778544902949 0.63564637619895
-0.285814212414099 0.329618175442552 0.63564637619895
-0.289014976346698 0.324267751011578 0.63564637619895
-0.286448697309368 0.31531247460918 0.63564637619895
-0.290511011123765 0.307638361055417 0.63564637619895
-0.288983479774726 0.286701452371488 0.63564637619895
-0.285456533398364 0.278900966960619 0.63564637619895
-0.293644043572018 0.271109760248413 0.63564637619895
-0.29405931052435 0.257229023448137 0.63564637619895
-0.296545581258228 0.26062174623822 0.63564637619895
-0.293367563158531 0.232916594875543 0.63564637619895
-0.295571203572781 0.227102571890038 0.63564637619895
-0.301531423705506 0.210134826300974 0.63564637619895
-0.297981172210627 0.214029858929962 0.63564637619895
-0.302247560718507 0.189852274395262 0.63564637619895
-0.299759235708986 0.186257029690549 0.63564637619895
-0.304253109079339 0.174563844165533 0.63564637619895
-0.302332783092037 0.165246466886716 0.63564637619895
-0.307785568214709 0.152893452911564 0.63564637619895
-0.302571667619404 0.139813284520286 0.63564637619895
-0.306651502695925 0.131082726360652 0.63564637619895
-0.304092184993453 0.118963239156766 0.63564637619895
-0.307692615402315 0.111557597757303 0.63564637619895
-0.309207862377734 0.101298361470768 0.63564637619895
-0.313985716934187 0.082942802569495 0.63564637619895
-0.313982777176239 0.0656525512433392 0.63564637619895
-0.315466424250297 0.0582568684160506 0.63564637619895
-0.312844482397347 0.0481694176962603 0.63564637619895
-0.319713192739246 0.0261429760665117 0.63564637619895
-0.315639060685565 0.0237496897145201 0.63564637619895
-0.314778221839805 0.00798653873762433 0.63564637619895
-0.323103062419621 -0.00851970459449764 0.63564637619895
-0.318035105558887 -0.016875482707981 0.63564637619895
-0.320385341397095 -0.0279086818043413 0.63564637619895
-0.329197018066634 -0.0464407619846323 0.63564637619895
-0.323881249748977 -0.0589373050383407 0.63564637619895
-0.32614069966727 -0.0710616004830494 0.63564637619895
-0.327880511263453 -0.0775319408276948 0.63564637619895
-0.328849381833762 -0.0968649913562234 0.63564637619895
-0.326634477322981 -0.101177982009409 0.63564637619895
-0.337313135503314 -0.130571542813631 0.63564637619895
-0.335252883729571 -0.135318389191153 0.63564637619895
-0.332551457485794 -0.154067561227425 0.63564637619895
-0.333603665357936 -0.16159210174556 0.63564637619895
-0.343299064193561 -0.19035304144747 0.63564637619895
-0.336428596559137 -0.200885830880837 0.63564637619895
-0.339905526624797 -0.210246144729483 0.63564637619895
-0.345178621986396 -0.223557285512243 0.63564637619895
-0.350911496281568 -0.240797423441268 0.63564637619895
-0.34310112086619 -0.243004486392208 0.63564637619895
-0.347677609601681 -0.279987288179033 0.63564637619895
-0.350622720076808 -0.282493309456766 0.63564637619895
-0.348114998167301 -0.292219104812815 0.63564637619895
-0.358512853150852 -0.315409467119963 0.63564637619895
-0.277219457755052 0.301997861871284 0.287914888838591
-0.281535434025821 0.297681885600515 0.296589090547483
-0.283537394700005 0.295679924926332 0.303783871201096
-0.281042944337297 0.298174375289039 0.319643050689035
-0.275667582708891 0.301032642250921 0.327267686558242
-0.278491856611568 0.300725463014768 0.334404949386967
-0.276625982239467 0.301991041781496 0.340646091074428
-0.283795865429595 0.295421454196742 0.345066446657913
-0.27889958493532 0.300317734691016 0.364642133412838
-0.274933759188021 0.300298818730051 0.378156993422146
-0.277148725477411 0.302068594148924 0.383548852457984
-0.276907765102262 0.302309554524074 0.39684232518321
-0.277589113348961 0.301628206277375 0.401625902131462
-0.280943166605445 0.29827415302089 0.404332527708334
-0.275523505834393 0.300888565376422 0.416916930203615
-0.282645505213288 0.296571814413048 0.423384767088962
-0.275353017243127 0.300718076785157 0.437597805888781
-0.279534509659729 0.299682809966606 0.444376896490536
-0.282785089732697 0.296432229893639 0.447606431866186
-0.27518701051181 0.300552070053839 0.460003048401698
-0.276638716503025 0.302003776045055 0.473915493162141
-0.280560879780915 0.29865643984542 0.471881053021553
-0.274959207355062 0.300324266897092 0.485882445820648
-0.268863508759363 0.422121850032139 0.609862908673548
-0.270978848093043 0.420900558298412 0.617570156119907
-0.269759066555312 0.416462564666611 0.627366477524161
-0.270273318426741 0.414306728910629 0.628171418821837
-0.269663103273167 0.409144325982569 0.630559358650365
-0.269593465283566 0.400156015110228 0.634468820924045
-0.272612783895218 0.39236900862679 0.63564637619895
-0.270082847330208 0.380163950782289 0.63564637619895
-0.273724244896516 0.375336405274928 0.63564637619895
-0.270700295343903 0.36294812197001 0.63564637619895
-0.277371160918979 0.357459012825435 0.63564637619895
-0.275521901329499 0.349595636409078 0.63564637619895
-0.278125642076899 0.337065651237053 0.63564637619895
-0.277794168402583 0.330308458964785 0.63564637619895
-0.275559892889691 0.306976038060449 0.63564637619895
-0.275421112554535 0.307026386965812 0.63564637619895
-0.283262822495311 0.286892230700176 0.63564637619895
-0.281304159550687 0.27960328761595 0.63564637619895
-0.285485487691307 0.270845198930966 0.63564637619895
-0.285775965431098 0.264482600948568 0.63564637619895
-0.282611681732947 0.250615342670656 0.63564637619895
-0.280913685733914 0.235216083338435 0.63564637619895
-0.285187708025241 0.226921171739411 0.63564637619895
-0.283944733809681 0.22349156335725 0.63564637619895
-0.284186747016005 0.212185136402579 0.63564637619895
-0.287262157274804 0.199509847589303 0.63564637619895
-0.288359033456069 0.187885308017759 0.63564637619895
-0.287152540079055 0.173247188032579 0.63564637619895
-0.290666864879603 0.161937311686056 0.63564637619895
-0.299060413435423 0.147496811405568 0.63564637619895
-0.29409879756832 0.139618152286286 0.63564637619895
-0.3018135049814 0.121708965003977 0.63564637619895
-0.298737470245105 0.122982806319569 0.63564637619895
-0.299561464115057 0.10651798377613 0.63564637619895
-0.29884763423069 0.0888937405230196 0.63564637619895
-0.298748317029335 0.0877058914290467 0.63564637619895
-0.305316381344819 0.0689858882133463 0.63564637619895
-0.301160313223122 0.0617291066401568 0.63564637619895
-0.309330239743845 0.0479214507098792 0.63564637619895
-0.309345469111824 0.0417782909983287 0.63564637619895
-0.308700446272217 0.0157938214452946 0.63564637619895
-0.306260123983185 -0.0036021472153723 0.63564637619895
-0.309925485872197 -0.010944445457652 0.63564637619895
-0.309079349060349 -0.0109936076681502 0.63564637619895
-0.315128891736355 -0.0323843741532501 0.63564637619895
-0.311176039712613 -0.0381887931735585 0.63564637619895
-0.31300627928645 -0.0554768558518119 0.63564637619895
-0.312582366903855 -0.0709875547609078 0.63564637619895
-0.320525292637777 -0.0922227343112855 0.63564637619895
-0.322197773329606 -0.102262022852743 0.63564637619895
-0.324837570316436 -0.111120337350554 0.63564637619895
-0.326109124202167 -0.13492031012188 0.63564637619895
-0.320499110478278 -0.140197718763453 0.63564637619895
-0.331011667982818 -0.157144699945558 0.63564637619895
-0.329307319271288 -0.165652499382004 0.63564637619895
-0.329437578996812 -0.176250793841161 0.63564637619895
-0.327363812110991 -0.193343297369759 0.63564637619895
-0.336793711873259 -0.21127089862533 0.63564637619895
-0.33529101777553 -0.234161194155632 0.63564637619895
-0.340076034493391 -0.242030428773772 0.63564637619895
-0.333201661895828 -0.261583546900545 0.63564637619895
-0.339362610183988 -0.270534974271426 0.63564637619895
-0.337786815851262 -0.289556842297299 0.63564637619895
-0.335312030955804 -0.299876139831693 0.63564637619895
-0.347290333599649 -0.320019973389386 0.63564637619895
-0.350717286414431 -0.34242837276255 0.630075826549209
-0.272707021420268 0.298072080962298 0.295950290524555
-0.267400415500558 0.292765475042587 0.295815158499501
-0.269003936328595 0.294368995870624 0.302877330927096
-0.270414355163737 0.295779414705767 0.309161297494247
-0.27289361817737 0.298258677719399 0.317722303274083
-0.272603360676123 0.297968420218153 0.332699835513672
-0.272644688061411 0.298009747603441 0.336406029690474
-0.268923493174068 0.294288552716097 0.351825553934946
-0.274034746617446 0.299399806159474 0.35930117061066
-0.274158202782052 0.299523262324081 0.368268160770645
-0.270585950524379 0.295951010066409 0.374386820939822
-0.271367029877297 0.296732089419326 0.390793146160059
-0.26711391517431 0.29247897471634 0.395517332538493
-0.267557136833394 0.292922196375423 0.400740448068753
-0.269788966312233 0.295154025854263 0.418037645389769
-0.269585037251106 0.294950096793135 0.421499254255697
-0.271500749773834 0.296865809315863 0.435830441700112
-0.270445673429742 0.295810732971771 0.442103709914756
-0.274100821054612 0.299465880596642 0.45288892263608
-0.269392087411349 0.294757146953379 0.460240993855396
-0.272265853500102 0.297630913042131 0.466443066530046
-0.269574726153495 0.294939785695524 0.47777800505701
-0.254033249320654 0.43068410431123 0.610359574146301
-0.261612739673878 0.426308083515476 0.616772030271442
-0.258887234346215 0.425455351656313 0.626190444584483
-0.261670549656261 0.420122357693142 0.627803869882139
-0.254543727743494 0.415853047273469 0.631434241000369
-0.258816504198266 0.410014045110253 0.632894408989724
-0.26417981024923 0.396377550710954 0.63564637619895
-0.263896138730768 0.394529329909322 0.63564637619895
-0.261865911234833 0.38607637534819 0.63564637619895
-0.265234745393365 0.374294836340644 0.63564637619895
-0.266182106473425 0.363625617562649 0.63564637619895
-0.265534956902394 0.352398871113171 0.63564637619895
-0.261114604014897 0.34916817262926 0.63564637619895
-0.270536676619409 0.328680050234491 0.63564637619895
-0.26484546909564 0.323979690147434 0.63564637619895
-0.263958621349647 0.3205100607805 0.63564637619895
-0.265089834624245 0.307557652304536 0.63564637619895
-0.272357272591361 0.284684989220395 0.63564637619895
-0.276124008261137 0.279591752502594 0.63564637619895
-0.269587349619106 0.267121421894652 0.63564637619895
-0.274764085488368 0.257327789690264 0.63564637619895
-0.274026804246284 0.253446593571477 0.63564637619895
-0.279512534593146 0.238561183501838 0.63564637619895
-0.273795953939471 0.23105775973388 0.63564637619895
-0.280060001307627 0.220710241050725 0.63564637619895
-0.283220389340655 0.20155053812148 0.63564637619895
-0.277326905842702 0.194725908897819 0.63564637619895
-0.283104122986638 0.180255651083877 0.63564637619895
-0.279655173263784 0.170822040133666 0.63564637619895
-0.280108892256598 0.163006328431054 0.63564637619895
-0.285664485697239 0.151675395016132 0.63564637619895
-0.283053303950225 0.132873249724828 0.63564637619895
-0.290908968439561 0.129348037596627 0.63564637619895
-0.288823385419509 0.108926549004563 0.63564637619895
-0.29143448928576 0.105709788939922 0.63564637619895
-0.294934456280481 0.102941492391571 0.63564637619895
-0.28903372927406 0.0866238404284807 0.63564637619895
-0.295539354474464 0.0696302888698061 0.63564637619895
-0.298557319836602 0.0573293992121426 0.63564637619895
-0.29119852988449 0.0462952403360873 0.63564637619895
-0.296145489407991 0.0296420029798781 0.63564637619895
-0.29926415480575 0.0268874487034337 0.63564637619895
-0.295810588036331 0.00775319263817081 0.63564637619895
-0.303895807904225 -0.00144846645058326 0.63564637619895
-0.303369478789376 -0.0111317551763453 0.63564637619895
-0.301172231969274 -0.0389299139389696 0.63564637619895
-0.299611513627545 -0.0427892131199094 0.63564637619895
-0.303140256450832 -0.0596946168078041 0.63564637619895
-0.306196978917414 -0.0639431868259183 0.63564637619895
-0.304435914046058 -0.0881256332170623 0.63564637619895
-0.30804425387393 -0.101695799799131 0.63564637619895
-0.309172158007887 -0.118376409282401 0.63564637619895
-0.307378446516579 -0.129589443339126 0.63564637619895
-0.311206085282296 -0.142718920335826 0.63564637619895
-0.313963211495496 -0.152198592210538 0.63564637619895
-0.319601708985325 -0.168005110558198 0.63564637619895
-0.315727734202483 -0.175923781939799 0.63564637619895
-0.317064005560058 -0.20044767077789 0.63564637619895
-0.316433408742106 -0.215567312992168 0.63564637619895
-0.32705354302075 -0.222328125881305 0.63564637619895
-0.321665495798849 -0.231924998804339 0.63564637619895
-0.328719551587189 -0.247430804122621 0.63564637619895
-0.328012478821496 -0.272112580023958 0.63564637619895
-0.333704037232838 -0.284686775959334 0.63564637619895
-0.327195520728182 -0.29334921493169 0.63564637619895
-0.32881854890266 -0.315191949658601 0.63564637619895
-0.336690213601612 -0.322411568008968 0.63564637619895
-0.337422196099046 -0.35799212941914 0.629273731872151
-0.258755930899141 0.28412099044117 0.275252498262807
-0.264971600401274 0.290336659943303 0.28906478628137
-0.266176833583127 0.291541893125156 0.301599590103509
-0.258610538365964 0.283975597907993 0.305009963716438
-0.265524737037491 0.29088979657952 0.31459127395621
-0.263306281243835 0.288671340785865 0.320446183135156
-0.262486911523425 0.287851971065454 0.329323060712264
-0.2649326222716 0.29029768181363 0.344506080453565
-0.262223477949177 0.287588537491207 0.346709938085845
-0.261326214194792 0.286691273736821 0.363058748881953
-0.25813254723561 0.283497606777639 0.362680914569644
-0.260804173112527 0.286169232654556 0.382066743401797
-0.26314831728559 0.28851337682762 0.389565527823119
-0.258549241562403 0.283914301104433 0.394256089226458
-0.261460227252962 0.286825286794992 0.407233804117371
-0.265300893117065 0.290665952659094 0.422750410579839
-0.260039375685045 0.285404435227075 0.422942217662606
-0.264834142574593 0.290199202116623 0.439929675809275
-0.258932927164132 0.284297986706161 0.435612541716002
-0.262031985541669 0.287397045083699 0.453133632197042
-0.261089745939451 0.28645480548148 0.458789810216643
-0.258743597520219 0.284108657062248 0.464511657320641
-0.265129752873527 0.290494812415556 0.476850948492436
-0.249004887803318 0.433587230186846 0.61836078658136
-0.24433905937265 0.432462127180943 0.626793465526401
-0.250195054865459 0.424728990966038 0.628678012859715
-0.247172787044478 0.416618846350594 0.63294537544763
-0.247557395010208 0.411093916602729 0.635241588214087
-0.253182732437647 0.407067722187494 0.635578647179311
-0.25317127366472 0.390528893415074 0.63564637619895
-0.253487411846882 0.384889625255369 0.63564637619895
-0.250950646341617 0.368822482210867 0.63564637619895
-0.258459731149536 0.363965447081346 0.63564637619895
-0.25666095887445 0.355383564414984 0.63564637619895
-0.258095887910388 0.34317733214741 0.63564637619895
-0.258274908911078 0.34029619232241 0.63564637619895
-0.260845724276888 0.318802329162816 0.63564637619895
-0.257866605969453 0.312107887414635 0.63564637619895
-0.259425862805251 0.302714050738586 0.63564637619895
