ply
format ascii 1.0
element vertex 849
property float x
property float y
property float z
end_header
0.238256576823846 -0.156250000000001 0.126323550174153
0.234374999999999 -0.151696895291307 0.135152377730185
0.234655411321115 -0.156250000000001 0.149824520196459
0.237170424343675 -0.156250000000001 0.16128194139092
0.234374999999999 -0.156085507552058 0.173573164446109
0.114321998427571 -0.250000000000001 0.322163668560443
0.119472523076737 -0.250000000000001 0.319662238259487
0.133729280140403 -0.244008015424484 0.325912658954426
0.13648891721795 -0.239331779061308 0.328125000000001
0.138328476799549 -0.229152284123286 0.328125000000001
0.150889409549278 -0.224055581987948 0.328125000000001
0.157528505328622 -0.220102061665578 0.328125000000001
0.15820296270838 -0.214269725547221 0.328125000000001
0.17685992592841 -0.20530522780889 0.328125000000001
0.180550153042923 -0.200758886486118 0.328125000000001
0.193272754024161 -0.1859257474325 0.328125000000001
0.207623554164182 -0.185277970825061 0.328125000000001
0.207808926686612 -0.174008344718858 0.328125000000001
0.213239247759958 -0.169556842324186 0.328125000000001
0.224915679398094 -0.155828671673026 0.328125000000001
0.229009114303423 -0.155256842715428 0.328125000000001
0.241032081993634 -0.146710798957768 0.328125000000001
0.252288538378801 -0.131897642860282 0.328125000000001
0.268128157376994 -0.127181147537985 0.328125000000001
0.269981958143454 -0.130689954289178 0.328125000000001
0.288216489366866 -0.113443399687952 0.328125000000001
0.296886455756592 -0.0992344445606225 0.328125000000001
0.298196230299033 -0.0943643965432528 0.328125000000001
0.306286194251115 -0.0952628910952947 0.328125000000001
0.325999475911866 -0.0823276445502709 0.328125000000001
0.32820056438774 -0.0775258786658244 0.328125000000001
0.339478417569641 -0.0684164292376936 0.328125000000001
0.346210682359819 -0.0655704383095632 0.328125000000001
0.358327164766083 -0.0528340096864389 0.328125000000001
0.377562137001156 -0.0359936747681562 0.328125000000001
0.385139651418264 -0.0305080041679611 0.328125000000001
0.391732461444839 -0.0239821565656288 0.328125000000001
0.398483534275766 -0.00943081708806718 0.328125000000001
0.413027013563686 -0.00216621286994583 0.328125000000001
0.425952471211921 0.00191185232472284 0.328125000000001
0.434527303675058 0.00401932870359069 0.328125000000001
0.437186475760062 0.0163407468699193 0.328125000000001
0.45457551814105 0.0288041362067192 0.328125000000001
0.459608847986674 0.0333641102335756 0.328125000000001
0.474123306187961 0.0483500491603768 0.328125000000001
0.479491276761275 0.0539229299239822 0.328125000000001
0.234374999999999 -0.144083342636826 0.00320997500216141
0.234374999999999 -0.147270850472292 0.0115804071043145
0.234374999999999 -0.147763271922088 0.0238325621656462
0.234374999999999 -0.136443256162652 0.0258910353733153
0.234374999999999 -0.148571816528533 0.0403964844624899
0.234374999999999 -0.136615242250898 0.0428035959915418
0.234374999999999 -0.134984943618765 0.0511252762225616
0.234374999999999 -0.137171899639353 0.0658720677937874
0.234374999999999 -0.141460337007004 0.0756558093182488
0.234374999999999 -0.136374043137371 0.0812876323417819
0.234374999999999 -0.134662894088801 0.0902256934574656
0.234374999999999 -0.14243790465147 0.0985419646141243
0.234374999999999 -0.132529751484055 0.112080342575426
0.234374999999999 -0.140409470157259 0.130067603755334
0.234374999999999 -0.148416450032641 0.143501257657734
0.234374999999999 -0.13551884007858 0.142969502206702
0.0995624822066206 -0.250000000000001 0.319193210728141
0.110748494366803 -0.250000000000001 0.320301773943403
0.107631769951168 -0.244307426065226 0.325762953634055
0.118277841952167 -0.235619729696196 0.328125000000001
0.127551152446454 -0.224541868358798 0.328125000000001
0.139303086625103 -0.221938500948925 0.328125000000001
0.137325296404433 -0.21596123002724 0.328125000000001
0.150358737476696 -0.207037465397507 0.328125000000001
0.155600633512859 -0.200946528592563 0.328125000000001
0.175614721302002 -0.199272578289755 0.328125000000001
0.174021130239278 -0.197074397173625 0.328125000000001
0.183128173151154 -0.187216844267504 0.328125000000001
0.191034733098996 -0.177084054705126 0.328125000000001
0.195052806885194 -0.173370664784266 0.328125000000001
0.207231256044045 -0.165272314704549 0.328125000000001
0.226223601014711 -0.154009448691234 0.328125000000001
0.222423546969929 -0.153507251359964 0.328125000000001
0.239039991098886 -0.134261478530872 0.328125000000001
0.253284997993125 -0.130501563224167 0.328125000000001
0.261271711108777 -0.12218527351569 0.328125000000001
0.270025110707231 -0.114579089267766 0.328125000000001
0.273591609624225 -0.106162397112615 0.328125000000001
0.285153567145092 -0.100747824471623 0.328125000000001
0.287124983123316 -0.0965941672322695 0.328125000000001
0.306655519612122 -0.0860742130335715 0.328125000000001
0.313707506843262 -0.0753677740369367 0.328125000000001
0.321747463477685 -0.0707573975964755 0.328125000000001
0.330868063731793 -0.0579005841094538 0.328125000000001
0.340609470895164 -0.0454974092951287 0.328125000000001
0.3575733389338 -0.0425400126146716 0.328125000000001
0.361650307871814 -0.038002530318328 0.328125000000001
0.377195559148304 -0.0236347500313089 0.328125000000001
0.381496823873538 -0.0138053856476657 0.328125000000001
0.389640136804028 -0.00668264960457183 0.328125000000001
0.404392402265327 -0.00361374107298985 0.328125000000001
0.416825441809303 0.0144626690483423 0.328125000000001
0.424156780776652 0.0227185554562096 0.328125000000001
0.425858740612467 0.0252153009360515 0.328125000000001
0.448246063390204 0.0401994973289527 0.328125000000001
0.457001524268129 0.0466551415988679 0.328125000000001
0.466659722450344 0.0601292488043591 0.328125000000001
0.480230171463389 0.063300914080815 0.328125000000001
0.494849503717215 0.0762655302528747 0.32549191480806
0.234374999999999 -0.132531318786069 0.00921269773504289
0.234374999999999 -0.121624094928906 0.00944718148074193
0.234374999999999 -0.12028922943719 0.0189436678949023
0.234374999999999 -0.133167362713697 0.0426202093134823
0.234374999999999 -0.135399555302025 0.0484940593437264
0.234374999999999 -0.126583988976852 0.0675201134500609
0.234374999999999 -0.126666315396206 0.0656877844191283
0.234374999999999 -0.129950357369573 0.0845605885893942
0.234374999999999 -0.136210439575554 0.0902826325481933
0.234374999999999 -0.133630428198558 0.0975770940632926
0.234374999999999 -0.126825377962342 0.114031672546756
0.234374999999999 -0.135749341191228 0.120653713120042
0.234374999999999 -0.131348948699651 0.136260333091917
0.0934838653259598 -0.250000000000001 0.317962844997968
0.0920061344155333 -0.249183532613356 0.32332490035999
0.0927377409765392 -0.246251780526778 0.324790776403278
0.104182173934493 -0.23963702037544 0.328098156478948
0.107284535628711 -0.235440775137429 0.328125000000001
0.11392708993991 -0.226277489258673 0.328125000000001
0.125440891278603 -0.215971066973508 0.328125000000001
0.131868872738536 -0.213960736884018 0.328125000000001
0.147310916424867 -0.197423650053369 0.328125000000001
0.147950353216533 -0.20192057501499 0.328125000000001
0.160678234697255 -0.188906909370676 0.328125000000001
0.169078523525384 -0.177286561530721 0.328125000000001
0.178958944074577 -0.173173966812137 0.328125000000001
0.183908711075791 -0.162349751316884 0.328125000000001
0.19573652527835 -0.167013817470107 0.328125000000001
0.213486929872522 -0.149288119651073 0.328125000000001
0.209399929240005 -0.149622707807483 0.328125000000001
0.222512207652603 -0.133335258561164 0.328125000000001
0.231661775331473 -0.133660072457972 0.328125000000001
0.237942448681584 -0.126014479200086 0.328125000000001
0.251160624984388 -0.11590687521779 0.328125000000001
0.254302053617807 -0.113413984410648 0.328125000000001
0.272791863938 -0.100775708290804 0.328125000000001
0.275062169130974 -0.094111187379526 0.328125000000001
0.283849086461519 -0.0855854989672755 0.328125000000001
0.30130824253359 -0.0695094075502551 0.328125000000001
0.308668358631253 -0.0744737961532069 0.328125000000001
0.317699521087102 -0.0614573934756205 0.328125000000001
0.329002195569966 -0.0439974102776956 0.328125000000001
0.329573714691847 -0.0408329808659083 0.328125000000001
0.345716374644457 -0.0290559841269518 0.328125000000001
0.356128270489479 -0.0215907942588313 0.328125000000001
0.358387899420797 -0.0155181867700716 0.328125000000001
0.368067019837039 -0.00999291576002707 0.328125000000001
0.376160910756894 0.000677700390255278 0.328125000000001
0.391761811882974 0.00491715958461024 0.328125000000001
0.403935386693332 0.0144537124069354 0.328125000000001
0.414107498399185 0.0286334887116935 0.328125000000001
0.425975021586576 0.0342120703887283 0.328125000000001
0.439363554219497 0.0453252774482468 0.328125000000001
0.448103443166176 0.0552912724626308 0.328125000000001
0.457513190369862 0.0630914634598716 0.328125000000001
0.463608154586038 0.0685543983023813 0.328125000000001
0.475303087941469 0.0855718876940452 0.328125000000001
0.49346716505094 0.0867961450095507 0.326183084141198
0.234374999999999 -0.113876636305351 0.00873617968132659
0.234374999999999 -0.109729212029099 0.0172611121944631
0.234374999999999 -0.107485909534858 0.0230283789170401
0.234374999999999 -0.116552632597606 0.0450707637794336
0.234374999999999 -0.115134312965206 0.048699755338083
0.234374999999999 -0.108036814383859 0.0542720843380992
0.234374999999999 -0.118269139669968 0.0650761477584529
0.234374999999999 -0.111858469719362 0.078828181224058
0.234374999999999 -0.116610095147375 0.0818871156590329
0.234374999999999 -0.120305226685188 0.100415146916752
0.234374999999999 -0.116094460391308 0.112511033495605
0.234374999999999 -0.1202617895105 0.123971438602701
0.0821320518428341 -0.24977402059473 0.323029656369302
0.0797240954415094 -0.247058824866922 0.324387254233207
0.0883803955560754 -0.232460961772627 0.328125000000001
0.0911636915354053 -0.235728996426419 0.328125000000001
0.104382629492863 -0.226143965637087 0.328125000000001
0.111900896140373 -0.218320175949669 0.328125000000001
0.120587222788783 -0.212062084250879 0.328125000000001
0.129869871057756 -0.204179646968011 0.328125000000001
0.134899143754751 -0.195181767569121 0.328125000000001
0.148260334218104 -0.193364298938474 0.328125000000001
0.158602987639555 -0.183138072447055 0.328125000000001
0.15838184186354 -0.180035292365987 0.328125000000001
0.172393964253048 -0.168389906003225 0.328125000000001
0.184218525986515 -0.154878209482486 0.328125000000001
0.185814475642369 -0.159171857378036 0.328125000000001
0.203884636245457 -0.139288156795456 0.328125000000001
0.208264365274447 -0.131439181970805 0.328125000000001
0.212354504617483 -0.128381353823715 0.328125000000001
0.218321966526701 -0.120536823210051 0.328125000000001
0.235575660598828 -0.112094783929094 0.328125000000001
0.242378771910689 -0.107226936503097 0.328125000000001
0.254178322930813 -0.101638353071556 0.328125000000001
0.264122806268399 -0.097487298370738 0.328125000000001
0.266651407020552 -0.0927649487959025 0.328125000000001
0.277591654718921 -0.0725197405719013 0.328125000000001
0.286906309398844 -0.0622345351567157 0.328125000000001
0.300425143759501 -0.0579510844105396 0.328125000000001
0.317502944742949 -0.0458283881141308 0.328125000000001
0.316395955865587 -0.0412222061317728 0.328125000000001
0.335394699825771 -0.0274262030563483 0.328125000000001
0.32836241151323 -0.0310564311612121 0.328125000000001
0.343952690286954 -0.0225201847631815 0.328125000000001
0.362956318672127 -0.00449697490017855 0.328125000000001
0.36072858974984 -0.0100473200213556 0.328125000000001
0.369405168789132 0.000187912481368144 0.328125000000001
0.388244743295821 0.0141253345253543 0.328125000000001
0.398248029135672 0.0296167632718483 0.328125000000001
0.407646979322567 0.0417614081042923 0.328125000000001
0.416578863387322 0.0377572549561876 0.328125000000001
0.420791735737676 0.0510179333895073 0.328125000000001
0.429279981523439 0.0616203039742905 0.328125000000001
0.448955523674299 0.0748032036145103 0.328125000000001
0.467829723695978 0.0843015055314306 0.328125000000001
0.471583095699714 0.0868703701458289 0.328125000000001
0.47886464304184 0.0909839645665705 0.328125000000001
0.483975337877466 0.10042492121254 0.328125000000001
0.234374999999999 -0.0994323462779731 0.0100657827045326
0.234374999999999 -0.0994900115686025 0.0179283890009501
0.234374999999999 -0.104772353260558 0.0277581184860292
0.234374999999999 -0.0986681713613542 0.0447040060415485
0.234374999999999 -0.0916272289474713 0.0412787156717432
0.234374999999999 -0.105903503617671 0.0605259337321261
0.234374999999999 -0.10832893348377 0.0719058847082007
0.234374999999999 -0.0983035534114538 0.0801169656583456
0.234374999999999 -0.0997884840131138 0.0924198471123672
0.0595856941607715 -0.250000000000001 0.313388611080624
0.0623483013065769 -0.248234159787227 0.323799586773055
0.0639730572227648 -0.243420472467098 0.326206430433118
0.0786166568284699 -0.24245082575476 0.326691253789288
0.0840999273143809 -0.237726772096383 0.328125000000001
0.0901276158836845 -0.227263741253762 0.328125000000001
0.102197638011834 -0.222686990686343 0.328125000000001
0.105214417960243 -0.205363757035272 0.328125000000001
0.112649381110984 -0.198933812188926 0.328125000000001
0.123334631798281 -0.19463966454666 0.328125000000001
0.126674336147655 -0.184961579027736 0.328125000000001
0.131257160101278 -0.189822871739239 0.328125000000001
0.154720123001136 -0.174911458624975 0.328125000000001
0.15344277909613 -0.163007640956092 0.328125000000001
0.162411317306721 -0.166854819284957 0.328125000000001
0.17743250093518 -0.146141108241485 0.328125000000001
0.176152694507777 -0.144016685081581 0.328125000000001
0.188012985433545 -0.14123546027058 0.328125000000001
0.200717757553896 -0.129150048415496 0.328125000000001
0.204786970354884 -0.123373409108645 0.328125000000001
0.209748511861936 -0.117551008414994 0.328125000000001
0.233796064838229 -0.104312958918782 0.328125000000001
0.232229059352212 -0.0999571974148097 0.328125000000001
0.243598396205574 -0.0924109929102948 0.328125000000001
0.255003591006806 -0.0773331096275722 0.328125000000001
0.262181810612998 -0.0741175687543895 0.328125000000001
0.269276038670334 -0.0672786659860694 0.328125000000001
0.284112776954433 -0.063317902061047 0.328125000000001
0.292101782359517 -0.0575796085333482 0.328125000000001
0.305109174561696 -0.0438344730606164 0.328125000000001
0.306085833306782 -0.0423140890603934 0.328125000000001
0.318569901768279 -0.0225259482313615 0.328125000000001
0.334463008802312 -0.0179480846252727 0.328125000000001
0.338714044805312 -0.0142558061082741 0.328125000000001
0.339104696792659 -0.0114373938683124 0.328125000000001
0.355354405997219 -0.00230645936337715 0.328125000000001
0.377956520089949 0.0143933695292219 0.328125000000001
0.379506215045282 0.0235523060660699 0.328125000000001
0.38930130975616 0.0309621285270667 0.328125000000001
0.394137024115288 0.0382821619669706 0.328125000000001
0.420887230446911 0.057079107817157 0.328125000000001
0.423331057188432 0.0547444748714941 0.328125000000001
0.432935744704729 0.0703978288455505 0.328125000000001
0.443721594383176 0.0788643492673205 0.328125000000001
0.454698973113287 0.085226314503504 0.328125000000001
0.462889009105017 0.0909170659211297 0.328125000000001
0.485633788318718 0.106430372389672 0.328125000000001
0.487925966666124 0.118478428492348 0.328125000000001
0.48829202663848 0.123352771665544 0.328125000000001
0.234374999999999 -0.095399117345514 0.00149901648787972
0.234374999999999 -0.0859558972221508 0.0148557596822918
0.234374999999999 -0.0893732487684917 0.021974282820691
0.234374999999999 -0.0851475572727315 0.0270588854978763
0.234374999999999 -0.0859812141825234 0.0326285648202679
0.234374999999999 -0.0910525827624692 0.0492888784296434
0.234374999999999 -0.0900371537591054 0.0582542902421758
0.234374999999999 -0.0909991798238472 0.0688197046173296
0.0469210637125519 -0.250000000000001 0.313715003772395
0.0470654494737938 -0.248297749740668 0.323767791796334
0.0581133242066888 -0.244369685525772 0.325731823903782
0.0552574047092482 -0.239848329924766 0.327992501704284
0.0626134106042394 -0.237933416805961 0.328125000000001
0.0695419371371994 -0.229358186662757 0.328125000000001
0.079899519700263 -0.223884144850881 0.328125000000001
0.0935235828129376 -0.210417582427489 0.328125000000001
0.0978900999443457 -0.208000572171795 0.328125000000001
0.100516328834704 -0.200966481467419 0.328125000000001
0.119970153554785 -0.193231482727758 0.328125000000001
0.123907719642181 -0.181384674758913 0.328125000000001
0.126743252312079 -0.1741102460908 0.328125000000001
0.140114263059458 -0.173903389485107 0.328125000000001
0.14701113563691 -0.157190987618806 0.328125000000001
0.154626812372461 -0.155302422469651 0.328125000000001
0.16754393205334 -0.144814337496591 0.328125000000001
0.171026385305981 -0.134754699274498 0.328125000000001
0.176146371128181 -0.136330895174438 0.328125000000001
0.19252971822819 -0.118528246307644 0.328125000000001
0.197175366552091 -0.121964555890101 0.328125000000001
0.21553988531113 -0.107588548747438 0.328125000000001
0.222329771041179 -0.103680197175044 0.328125000000001
0.233273152718852 -0.0921766319329667 0.328125000000001
0.23021289949759 -0.0879752304241614 0.328125000000001
0.243757862704151 -0.0746099568969711 0.328125000000001
0.263607628558643 -0.062028422153987 0.328125000000001
0.269081364953082 -0.0600632669451505 0.328125000000001
0.270277411204615 -0.0579467622340822 0.328125000000001
0.276597124626563 -0.0506710462239875 0.328125000000001
0.293711565699712 -0.0382206062601588 0.328125000000001
0.308074889721261 -0.0235024141086023 0.328125000000001
0.311754017563826 -0.0223905625189248 0.328125000000001
0.328619232424078 -0.00595053855237902 0.328125000000001
0.331393942331418 0.00362592317006702 0.328125000000001
0.343877626500874 0.0135415547034864 0.328125000000001
0.35801167422079 0.0217590922149149 0.328125000000001
0.354694983493826 0.0171851005412546 0.328125000000001
0.377869679177731 0.0351429899603833 0.328125000000001
0.38634357987218 0.0468631762327664 0.328125000000001
0.389617002675214 0.0460696194625358 0.328125000000001
0.410671175803311 0.0617351305207866 0.328125000000001
0.413123785215672 0.068900375899744 0.328125000000001
0.420321395240059 0.074430761104779 0.328125000000001
0.443094536916557 0.0853650330391273 0.328125000000001
0.43842293270859 0.0920447295931727 0.328125000000001
0.455433152815102 0.104377553864826 0.328125000000001
0.469109792036813 0.121058478743942 0.328125000000001
0.476335086544131 0.124124113517472 0.328125000000001
0.49460544222273 0.138533829857276 0.325613945555303
0.234374999999999 -0.0713794714531015 0.00880899555062819
0.234374999999999 -0.0783244054448348 0.0249052805963561
0.234374999999999 -0.0718990840009228 0.0327541929829376
0.234374999999999 -0.0744853933196585 0.0433926104303821
0.234374999999999 -0.0768659094916504 0.0536291371888823
0.0322446590132674 -0.250000000000001 0.314167365701735
0.0316364711893844 -0.250000000000001 0.322463693524039
0.0392528529416592 -0.244783033561552 0.325525149885891
0.0483404919309285 -0.234145272453888 0.328125000000001
0.047520446107999 -0.234235160825436 0.328125000000001
0.0646431875655036 -0.227420609804193 0.328125000000001
0.0651130685575839 -0.21759844107685 0.328125000000001
0.0765964091675705 -0.211460398067576 0.328125000000001
0.0798449557704217 -0.208621577546205 0.328125000000001
0.0951105487409196 -0.193919565682329 0.328125000000001
0.092995562846488 -0.198830942576752 0.328125000000001
0.113990382747926 -0.17537937132522 0.328125000000001
0.122989475218347 -0.173921680985707 0.328125000000001
0.124052893368292 -0.177347403179428 0.328125000000001
0.12864284092228 -0.166544848653767 0.328125000000001
0.142146395178254 -0.154170530890168 0.328125000000001
0.14537547781714 -0.150448281969253 0.328125000000001
0.15985540967365 -0.134204810551262 0.328125000000001
0.168181487217381 -0.127076838738693 0.328125000000001
0.175695062788693 -0.119048534742144 0.328125000000001
0.191710116397419 -0.112969867252131 0.328125000000001
0.200359119128932 -0.106696599020382 0.328125000000001
0.205627895262902 -0.102623747711046 0.328125000000001
0.206042932703565 -0.0940173136195422 0.328125000000001
0.218192750208223 -0.0836604781602466 0.328125000000001
0.23180090776621 -0.0773060039448016 0.328125000000001
0.229474137360706 -0.069495554211414 0.328125000000001
0.248704273345893 -0.0597134476597859 0.328125000000001
0.251170376669664 -0.056310195106449 0.328125000000001
0.266227382489509 -0.0397366979396862 0.328125000000001
0.283456105825147 -0.0313631780223413 0.328125000000001
0.281555568789321 -0.0281755865751042 0.328125000000001
0.293276397039546 -0.0213165290725402 0.328125000000001
0.30279333016452 -0.0180036183868519 0.328125000000001
0.320718297254446 -0.00652343421054445 0.328125000000001
0.321607418892106 0.00473305075789167 0.328125000000001
0.332177812897852 0.00746418116462965 0.328125000000001
0.341363957371141 0.0145216605064285 0.328125000000001
0.353630229176105 0.0287887431535162 0.328125000000001
0.369980452032536 0.0450857048909984 0.328125000000001
0.373726647821267 0.0494395801249836 0.328125000000001
0.378915092382577 0.0573436348643341 0.328125000000001
0.399000789838999 0.0700638898267008 0.328125000000001
0.400727967867316 0.0681902390587639 0.328125000000001
0.410771302917443 0.0783218345782108 0.328125000000001
0.430465852410014 0.0919927045040202 0.328125000000001
0.442409632316852 0.0997881954128675 0.328125000000001
0.448619382593236 0.116723129860672 0.328125000000001
0.465482794997533 0.127019397133002 0.328125000000001
0.463151346721772 0.121621505700914 0.328125000000001
0.471595689582065 0.131028954951843 0.328125000000001
0.49616908584152 0.156209644103146 0.324832123745908
0.234374999999999 -0.0625973758228155 0.0171673350494425
0.234374999999999 -0.0643183136011673 0.0258548202181952
0.234374999999999 -0.0577954242482983 0.0311623818453905
0.234374999999999 -0.0648244378301174 0.0460085129414079
0.0150816104187913 -0.244868606153996 0.32548236358967
0.0260016126589475 -0.243501829937546 0.326165751697895
0.0284942846219786 -0.237587559314837 0.328125000000001
0.0346340847479665 -0.236998490751983 0.328125000000001
0.0473156947329251 -0.221932160523446 0.328125000000001
0.051072221574616 -0.213825674590122 0.328125000000001
0.062369576581206 -0.208020285842515 0.328125000000001
0.0707294867657923 -0.200075278430297 0.328125000000001
0.0810102496539045 -0.1979272316371 0.328125000000001
0.0864439303692915 -0.187948193725066 0.328125000000001
0.0946894167520622 -0.187514058500152 0.328125000000001
0.0953503789429556 -0.17808696775173 0.328125000000001
0.111152320006008 -0.169779014201891 0.328125000000001
0.122522032384148 -0.155975881779253 0.328125000000001
0.12952288810036 -0.152904434744594 0.328125000000001
0.131454041899535 -0.150926617907484 0.328125000000001
0.146904109747906 -0.138206746618355 0.328125000000001
0.149883219879803 -0.134311444154016 0.328125000000001
0.163156235393628 -0.125701613892874 0.328125000000001
0.168844368164137 -0.12114423382965 0.328125000000001
0.179719343060467 -0.104113162458837 0.328125000000001
0.191829058772346 -0.0991026113612173 0.328125000000001
0.198877255867891 -0.0873002095867091 0.328125000000001
0.211941602615973 -0.0786498949110627 0.328125000000001
0.218373557128266 -0.0770570617821893 0.328125000000001
0.217577475864208 -0.0761976188768957 0.328125000000001
0.235293504542498 -0.0647201183918814 0.328125000000001
0.241239299180419 -0.0545807863807997 0.328125000000001
0.247278814173423 -0.0418908952043118 0.328125000000001
0.259061197033718 -0.0367762483243014 0.328125000000001
0.266655918373735 -0.028164833833276 0.328125000000001
0.273270517917304 -0.0210838633570034 0.328125000000001
0.289596231183746 -0.0121355058819486 0.328125000000001
0.299869993075242 -0.000506039745858983 0.328125000000001
0.305961945479157 0.00540146227491699 0.328125000000001
0.315137256803647 0.00355816900658821 0.328125000000001
0.330056337755929 0.0189189218343253 0.328125000000001
0.336403168965602 0.0304043539106074 0.328125000000001
0.345845562799515 0.0392629388482185 0.328125000000001
0.358331349276862 0.0458396057533193 0.328125000000001
0.35671119872413 0.0559944895304834 0.328125000000001
0.378680398067128 0.0622798180160793 0.328125000000001
0.393843993244896 0.0726795264654137 0.328125000000001
0.40099096866713 0.0839575633179509 0.328125000000001
0.408196355589268 0.0838313078074269 0.328125000000001
0.422275268893857 0.104123570271182 0.328125000000001
0.429510628911098 0.117076784105581 0.328125000000001
0.439306361843296 0.123930115494294 0.328125000000001
0.453281764116791 0.124829920155206 0.328125000000001
0.456009242246628 0.143538293787636 0.328125000000001
0.468615393476842 0.149423174315585 0.328125000000001
0.488499831085505 0.158469452181343 0.328125000000001
0.234374999999999 -0.049315578971103 0.00083365488711233
0.234374999999999 -0.0479703300663857 0.00463978834085075
0.234374999999999 -0.0374502033090176 0.00298211922939197
0.000379185759029919 -0.250000000000001 0.317120502622431
0.00938797119811378 -0.250000000000001 0.31732808807014
0.0146886057732222 -0.24461452430669 0.325609404513323
0.0206763138474128 -0.240851458533061 0.327490937400137
0.0258293905656866 -0.228643486336216 0.328125000000001
0.0283109270733155 -0.223161747531662 0.328125000000001
0.0368702436991806 -0.222909230875649 0.328125000000001
0.0544444668054286 -0.210164162426935 0.328125000000001
0.0527693616647118 -0.205360461059997 0.328125000000001
0.0668616058979088 -0.193292189461581 0.328125000000001
0.0697741045403905 -0.195639750956811 0.328125000000001
0.0759932289432474 -0.186114192628622 0.328125000000001
0.0920564704311944 -0.172109878901864 0.328125000000001
0.0992961089482144 -0.169291798233307 0.328125000000001
0.104200562045768 -0.157660511734799 0.328125000000001
0.1091022992523 -0.149643619597276 0.328125000000001
0.119269321217605 -0.147439953171284 0.328125000000001
0.126571104234313 -0.142831259984678 0.328125000000001
0.139910875748394 -0.135835495876028 0.328125000000001
0.148235024496145 -0.124352043131227 0.328125000000001
0.157552393827372 -0.11302909159366 0.328125000000001
0.157626888876662 -0.111088418858604 0.328125000000001
0.174135747691259 -0.105248916807247 0.328125000000001
0.179732030944362 -0.0989879014262565 0.328125000000001
0.194883374131229 -0.0834322139441908 0.328125000000001
0.193087507187104 -0.0772487063751927 0.328125000000001
0.209065444746196 -0.0707504340750505 0.328125000000001
0.220702362499952 -0.058053716497022 0.328125000000001
0.22000269173944 -0.0567122404320544 0.328125000000001
0.231147546265102 -0.0419596581106964 0.328125000000001
0.246302279148092 -0.0439327578934156 0.328125000000001
0.247301179530389 -0.0329422191573871 0.328125000000001
0.261129460586981 -0.0190671392513803 0.328125000000001
0.261351571579309 -0.0161917611638813 0.328125000000001
0.275996162997119 -0.0103929079618128 0.328125000000001
0.295150250628552 -0.000322900619123546 0.328125000000001
0.302351178886386 0.0146670718639216 0.328125000000001
0.312277607279676 0.0147613903002286 0.328125000000001
0.318150995229735 0.0313569117989265 0.328125000000001
0.323069664236814 0.0416471370954965 0.328125000000001
0.340041255305712 0.0450655405848539 0.328125000000001
0.35213834437015 0.0574619850233152 0.328125000000001
0.362429143750292 0.0717695917830507 0.328125000000001
0.374885028794927 0.0777305279627051 0.328125000000001
0.378983784854405 0.0810309969695989 0.328125000000001
0.384145095499843 0.0839200212886866 0.328125000000001
0.397238450540036 0.101373241154305 0.328125000000001
0.409437456474114 0.107605216295338 0.328125000000001
0.419262044275205 0.124738881313655 0.328125000000001
0.432793144136315 0.12933474239952 0.328125000000001
0.453857614560629 0.147562379686265 0.328125000000001
0.451749434510205 0.143460661086943 0.328125000000001
0.458485480800869 0.158418504678654 0.328125000000001
0.478650944890769 0.165405390775113 0.328125000000001
0.499514521813476 0.189605769698828 0.32315940575993
-0.00678956792207644 -0.244339109554871 0.325747111889232
0.00130618071523037 -0.239072340705407 0.328125000000001
0.00196112643892048 -0.237743666292554 0.328125000000001
0.00930316422308545 -0.233530563150779 0.328125000000001
0.0147459499405728 -0.225328345903615 0.328125000000001
0.0200880158163739 -0.216798613146215 0.328125000000001
0.0259831971434358 -0.210857500458985 0.328125000000001
0.0393316782724709 -0.205953419588858 0.328125000000001
0.0456500093235297 -0.193744048425872 0.328125000000001
0.0580188126616799 -0.189348537007987 0.328125000000001
0.0650887708374215 -0.183192578015465 0.328125000000001
0.0752954560761062 -0.171070112177927 0.328125000000001
0.0788786370806475 -0.167595991705969 0.328125000000001
0.0880885796503895 -0.156803814872184 0.328125000000001
0.095401766583231 -0.155083236059522 0.328125000000001
0.102455809240303 -0.153897175740267 0.328125000000001
0.111597072976339 -0.131947670112539 0.328125000000001
0.122470544065347 -0.136188966643086 0.328125000000001
0.129747380776077 -0.123955971890289 0.328125000000001
0.143899065384965 -0.112659194152638 0.328125000000001
0.14919616504961 -0.102437137620605 0.328125000000001
0.157767440102179 -0.104381619297889 0.328125000000001
0.157866291706419 -0.0987591708194555 0.328125000000001
0.17634137003105 -0.083218020538693 0.328125000000001
0.180853194195276 -0.0813760304555453 0.328125000000001
0.19075865782915 -0.0718703780825983 0.328125000000001
0.189562860664178 -0.0663190579265986 0.328125000000001
0.203067510405723 -0.0639956957582417 0.328125000000001
0.219223173499063 -0.0453436317801175 0.328125000000001
0.226729265370622 -0.0438271360361241 0.328125000000001
0.232029973442838 -0.0385407900147938 0.328125000000001
0.245731061361315 -0.0226028440456266 0.328125000000001
0.25441604520175 -0.0127952749571486 0.328125000000001
0.265720969553734 -0.0133323947646481 0.328125000000001
0.272104934775362 0.00348083204195294 0.328125000000001
0.279554229979292 0.011250924658244 0.328125000000001
0.298800908684705 0.0186431640338393 0.328125000000001
0.309083880634913 0.0326918564106513 0.328125000000001
0.311797575669228 0.0295613669547693 0.328125000000001
0.320122864051081 0.0410628612432506 0.328125000000001
0.335046723736892 0.0573968986503292 0.328125000000001
0.332578150156405 0.0618914668806411 0.328125000000001
0.346994128229174 0.0617158985756273 0.328125000000001
0.367389979907236 0.0764954495890887 0.328125000000001
0.363647974834392 0.0910296826896249 0.328125000000001
0.382621654935555 0.100252922644072 0.328125000000001
0.400693458456752 0.106914906282961 0.328125000000001
0.401232571362705 0.116266613359569 0.328125000000001
0.422795558923628 0.126520284215128 0.328125000000001
0.413707308917937 0.127815499555452 0.328125000000001
0.439159006054648 0.146490647344909 0.328125000000001
0.448711308386648 0.158868212220904 0.328125000000001
0.454280381617548 0.169474624822557 0.328125000000001
0.462566859178354 0.170095356116315 0.328125000000001
0.480724558050612 0.190495357372851 0.328125000000001
0.497220783942537 0.200897275880088 0.324306274695399
-0.027929774724952 -0.250000000000001 0.318365533227319
-0.0238915050395365 -0.24840600052461 0.323713666404362
-0.0140798712425956 -0.238757459396382 0.328125000000001
-0.0184373883485339 -0.243174007037114 0.326329663148111
0.00112348759293483 -0.225230897572249 0.328125000000001
-0.00203412853549153 -0.223656546195002 0.328125000000001
0.00812091723978377 -0.215820997172288 0.328125000000001
0.0171645024968111 -0.206882609595846 0.328125000000001
0.0242263117339094 -0.202849136114611 0.328125000000001
0.0357365196352844 -0.192266822079665 0.328125000000001
0.0429157050337453 -0.184634577855613 0.328125000000001
0.0486057376074592 -0.18696936921962 0.328125000000001
0.0620015653106971 -0.171352154221729 0.328125000000001
0.0680655901743301 -0.164821467947775 0.328125000000001
0.0733051625680567 -0.159687847522158 0.328125000000001
0.0775080155093263 -0.15556921160576 0.328125000000001
0.0891386335718037 -0.148285581824359 0.328125000000001
0.0974220345805844 -0.136740074890325 0.328125000000001
0.104874059997392 -0.132973024511952 0.328125000000001
0.113183092294309 -0.125041037715096 0.328125000000001
0.120259659662094 -0.118509498247648 0.328125000000001
0.135645765584177 -0.114010100674297 0.328125000000001
0.137226407578198 -0.102152572906913 0.328125000000001
0.151212172268607 -0.101156471044333 0.328125000000001
0.156293742020827 -0.088625206116561 0.328125000000001
0.160179876337355 -0.0839668913067637 0.328125000000001
0.178747945925379 -0.0721772854980553 0.328125000000001
0.175584737413447 -0.0633770269887392 0.328125000000001
0.196448271719116 -0.051427474438817 0.328125000000001
0.20548518175255 -0.0476004521723756 0.328125000000001
0.212361284122965 -0.038390778928409 0.328125000000001
0.217263035972021 -0.0376119700840962 0.328125000000001
0.231568745161424 -0.0203949936200614 0.328125000000001
0.230492552362224 -0.0209748090549731 0.328125000000001
0.253290857061627 -0.00500174725342419 0.328125000000001
0.254527410128788 -0.00337570873672748 0.328125000000001
0.273343826716252 0.0132888050958672 0.328125000000001
0.274890276339186 0.0186733671168777 0.328125000000001
0.279168156735814 0.0204563895893492 0.328125000000001
0.28612285807324 0.0315259899229108 0.328125000000001
0.303494646301894 0.045718670851569 0.328125000000001
0.318345089652738 0.0513824023298824 0.328125000000001
0.329599633792037 0.0651225165493478 0.328125000000001
0.335552037777951 0.0704106516953493 0.328125000000001
0.342791249247563 0.0702645151036541 0.328125000000001
0.355858689450384 0.0906577882455505 0.328125000000001
0.36398278030901 0.0944651956367713 0.328125000000001
0.375396253502541 0.106750941343701 0.328125000000001
0.384806001473389 0.112077597620651 0.328125000000001
0.401643798591511 0.133593798680615 0.328125000000001
0.405983473425758 0.132694655428853 0.328125000000001
0.41684929730377 0.137995143713941 0.328125000000001
0.428867081364558 0.161062320082625 0.328125000000001
0.438171252170742 0.161185549161599 0.328125000000001
0.452489647724809 0.173472844234917 0.328125000000001
0.455473385590988 0.177375316147711 0.328125000000001
0.47767871781111 0.200693882282212 0.328125000000001
0.487634645771111 0.20358057503855 0.328125000000001
-0.0393484596677525 -0.250000000000001 0.314094196730576
-0.0379780364294442 -0.250000000000001 0.321932924222747
-0.0335641802170385 -0.247028195689811 0.324402568821762
-0.0272296309907756 -0.241840579130662 0.326996377101337
-0.0236172008841369 -0.229256974728687 0.328125000000001
-0.0138515279350681 -0.222981324857463 0.328125000000001
-0.00280767876614308 -0.222250001738423 0.328125000000001
0.00814204523056793 -0.214915783705311 0.328125000000001
0.0161038486424986 -0.208947230303382 0.328125000000001
0.0257879611487338 -0.198934565428423 0.328125000000001
0.0277132691941686 -0.18513709364956 0.328125000000001
0.0416327033343548 -0.18573758106192 0.328125000000001
0.0426992916261542 -0.17551115200053 0.328125000000001
0.0516087482061302 -0.165904666283048 0.328125000000001
0.0631954979007232 -0.159984382911478 0.328125000000001
0.0651202384763081 -0.150686543719251 0.328125000000001
0.0750327737635158 -0.143669985660491 0.328125000000001
0.0876739082855426 -0.134891338101888 0.328125000000001
0.0968388867651705 -0.127169920616989 0.328125000000001
0.103336235568138 -0.124553114908437 0.328125000000001
0.10298369457365 -0.123075483985914 0.328125000000001
0.112779103638962 -0.116995286091125 0.328125000000001
0.11540070440926 -0.104714869566228 0.328125000000001
0.127167903051811 -0.0974140369653351 0.328125000000001
0.134104009335984 -0.0877176185945204 0.328125000000001
0.149690180371556 -0.0842596196151909 0.328125000000001
0.154381807985023 -0.0692297667532777 0.328125000000001
0.160932215933852 -0.0641833463414039 0.328125000000001
0.175779358073296 -0.059240369808538 0.328125000000001
0.181634617344244 -0.0558450600993236 0.328125000000001
0.194641081406975 -0.0457442480876886 0.328125000000001
0.203933680793451 -0.0362831975054323 0.328125000000001
0.214457815710919 -0.0276315718669927 0.328125000000001
0.223166664709432 -0.0118537129600969 0.328125000000001
0.238387534042301 -0.00923468581926023 0.328125000000001
0.239487620281262 0.00597301734498736 0.328125000000001
0.242800638612465 0.0121123536732778 0.328125000000001
0.258728005156735 0.0124909843121654 0.328125000000001
0.26101861419054 0.0256654357899166 0.328125000000001
0.27289645537034 0.031390246764838 0.328125000000001
0.282912017075241 0.038025671601522 0.328125000000001
0.296612360806897 0.0485684942714083 0.328125000000001
0.302089134743162 0.052513263571777 0.328125000000001
0.314856057585018 0.0694795988114744 0.328125000000001
0.328039670222033 0.0796658698175492 0.328125000000001
0.331595329408392 0.0881434031211989 0.328125000000001
0.343079908764865 0.092673025173335 0.328125000000001
0.355254954217665 0.0990714697535292 0.328125000000001
0.36387120321767 0.106130774650004 0.328125000000001
0.37177288370663 0.120798848093255 0.328125000000001
0.39123134246658 0.131791887610626 0.328125000000001
0.400153296276249 0.134534462383986 0.328125000000001
0.404475209068597 0.154135930098621 0.328125000000001
0.420399341681102 0.165746911458095 0.328125000000001
0.428444689999296 0.17107159891487 0.328125000000001
0.444573136190236 0.177590671162466 0.328125000000001
0.461812168482723 0.192394303703738 0.328125000000001
0.45897733550535 0.198636907181726 0.328125000000001
0.47508035740697 0.21512939126858 0.325415860057638
-0.0554461016568231 -0.250000000000001 0.315980585603822
-0.0523993767368388 -0.24655100715426 0.324641163089537
-0.0452894256591738 -0.242053882253449 0.326889725539943
-0.0466869056042049 -0.2415754432599 0.327128945036718
-0.0359428879263358 -0.236900933517416 0.328125000000001
-0.028034624872354 -0.222345072863231 0.328125000000001
-0.0193434005880425 -0.211437426595369 0.328125000000001
-0.00636338378898155 -0.215408495921026 0.328125000000001
-0.000263860090789604 -0.20640968219529 0.328125000000001
0.00608612599826603 -0.193649634400925 0.328125000000001
0.00450229880596932 -0.197445918096855 0.328125000000001
0.0209766979520873 -0.181118361859479 0.328125000000001
0.0237719787005137 -0.180536837194893 0.328125000000001
0.0322447787561053 -0.172934847777513 0.328125000000001
0.0437366318633078 -0.160022208258995 0.328125000000001
0.0540774622081368 -0.160770151331227 0.328125000000001
0.0646570912436256 -0.145674591561335 0.328125000000001
0.0653233053794794 -0.139023882371218 0.328125000000001
0.0799741341086639 -0.134847318327484 0.328125000000001
0.0863187353215224 -0.126772295094863 0.328125000000001
0.0851779670794397 -0.121675753408729 0.328125000000001
0.0986627833124252 -0.113245586061185 0.328125000000001
0.110141002746269 -0.0987914528485125 0.328125000000001
0.114147529441756 -0.0994695793590183 0.328125000000001
0.121848593145013 -0.0947238092545882 0.328125000000001
0.129546573511025 -0.0779314605160257 0.328125000000001
0.141835966277518 -0.0772728659485342 0.328125000000001
0.150509675872026 -0.0641238538461443 0.328125000000001
0.158204260907129 -0.0645826677156279 0.328125000000001
0.168398824439512 -0.0519272149523213 0.328125000000001
0.176728505217977 -0.0409518835826466 0.328125000000001
0.192791690084878 -0.0345151677581572 0.328125000000001
0.193416740746706 -0.0308986310873655 0.328125000000001
0.208260882634007 -0.0180740487010773 0.328125000000001
0.211073810237902 -0.0118300702484572 0.328125000000001
0.225300628210296 -0.000128497558864423 0.328125000000001
0.229571603695951 0.00709076874699061 0.328125000000001
0.240639611974812 0.00998191092757643 0.328125000000001
0.255912102529214 0.0275994958449611 0.328125000000001
0.258993990669686 0.0293073453269152 0.328125000000001
0.265370071665666 0.0321641592004335 0.328125000000001
0.278850213420784 0.0500203761940861 0.328125000000001
0.286880932473603 0.0584220152015796 0.328125000000001
0.296337779626171 0.0626921676205415 0.328125000000001
0.317004891048589 0.0815664577516912 0.328125000000001
0.310117267692091 0.0856500195784111 0.328125000000001
0.325020714063457 0.0939950998258977 0.328125000000001
0.330674612201428 0.102912346090405 0.328125000000001
0.344516162687854 0.113752778440116 0.328125000000001
0.363243372063517 0.120089157072467 0.328125000000001
0.368694633778355 0.132655253542706 0.328125000000001
0.3806740634615 0.142594603432946 0.328125000000001
0.395213067845058 0.153607586614225 0.328125000000001
0.405379109661939 0.165617325328118 0.328125000000001
0.416085950994453 0.16674760388269 0.328125000000001
0.424792980942731 0.176961152486673 0.328125000000001
0.436047865456284 0.187807160163936 0.328125000000001
0.434453442533561 0.194430789502564 0.328125000000001
0.458483295815309 0.208603894790436 0.328125000000001
0.464304135088955 0.211563163391833 0.32767115467156
-0.0625330905831762 -0.250000000000001 0.316871142231112
-0.0644951443823322 -0.244771064977386 0.325531134177975
-0.0606744583295498 -0.244339362007635 0.32574698566285
-0.0537211643528337 -0.235369329362207 0.328125000000001
-0.0454650254019689 -0.228895267628718 0.328125000000001
-0.0433871982547502 -0.22951153541421 0.328125000000001
-0.0284995255049966 -0.220937096539853 0.328125000000001
-0.019618269174035 -0.208711222799036 0.328125000000001
-0.0143350004035689 -0.201301361958823 0.328125000000001
-0.0114069717722658 -0.202252926014607 0.328125000000001
-0.00275836627322439 -0.195061232407802 0.328125000000001
0.00254632641575149 -0.188769640286072 0.328125000000001
0.0195671871253531 -0.174331651146313 0.328125000000001
0.0228324396787013 -0.172691497548969 0.328125000000001
0.0271010461950205 -0.164616812717755 0.328125000000001
0.0352459255617212 -0.157666759461725 0.328125000000001
0.0417005691133804 -0.146525119897596 0.328125000000001
0.043636838491388 -0.14970794362279 0.328125000000001
0.0624551357036859 -0.132379837516374 0.328125000000001
0.0759290596604211 -0.122580322521583 0.328125000000001
0.070837413885441 -0.117036447805487 0.328125000000001
0.086949464916443 -0.113894385469205 0.328125000000001
0.0893480152564954 -0.0999054289468212 0.328125000000001
0.101979160233424 -0.0947011982331298 0.328125000000001
0.10875888007155 -0.0822206504546168 0.328125000000001
0.115695824577642 -0.0827103274658428 0.328125000000001
0.121940310259488 -0.0780111238229978 0.328125000000001
0.135433704294004 -0.0672992279321367 0.328125000000001
0.139682742716064 -0.0631863493181497 0.328125000000001
0.152706872531541 -0.0560280613931208 0.328125000000001
0.152790915444006 -0.0485998813010145 0.328125000000001
0.164602643659786 -0.0356637215978297 0.328125000000001
0.177899093652497 -0.027786218043012 0.328125000000001
0.181611706754725 -0.0172765850307716 0.328125000000001
0.1941570574124 -0.0139552706093994 0.328125000000001
0.210089435115256 -0.0066785247850296 0.328125000000001
0.220447744294459 0.00960088600608137 0.328125000000001
0.222541373789926 0.0153393314737909 0.328125000000001
0.240392992675658 0.0259091491601052 0.328125000000001
0.239726348226256 0.0352030075448769 0.328125000000001
0.245245146087025 0.040774555858367 0.328125000000001
0.257021005096478 0.0477388876070847 0.328125000000001
0.272700306574698 0.0564598497322477 0.328125000000001
0.285714556713545 0.0747885593189172 0.328125000000001
0.284245118146239 0.0765198903583964 0.328125000000001
0.296924351541077 0.0796665882148316 0.328125000000001
0.316978957678299 0.0981895127851681 0.328125000000001
0.327445457273405 0.103995209192522 0.328125000000001
0.32145034775291 0.108111814266562 0.328125000000001
0.332867990693606 0.123757528122704 0.328125000000001
0.357185817712977 0.135144705217317 0.328125000000001
0.359910964305162 0.143052551428099 0.328125000000001
0.380235011072849 0.157416895445927 0.328125000000001
0.380892800747483 0.165518411197676 0.328125000000001
0.387122271173022 0.16717666370741 0.328125000000001
0.404636923840589 0.18018146671857 0.328125000000001
0.406461633874196 0.187900219348536 0.328125000000001
0.424434262508628 0.207314633665908 0.328125000000001
0.43226172310763 0.201575140080723 0.328125000000001
-0.0825042874962549 -0.250000000000001 0.312682942656398
-0.0801473152151255 -0.250000000000001 0.31499857573153
-0.0825086268098248 -0.250000000000001 0.319294652777948
-0.0669770097182813 -0.244832288655234 0.32550052233905
-0.0670522838903605 -0.236165077684134 0.328125000000001
-0.0585102531780473 -0.23377146439012 0.328125000000001
-0.0475057398288813 -0.226733123845935 0.328125000000001
-0.049174723343163 -0.218809079609549 0.328125000000001
-0.0322829875267703 -0.213890911833151 0.328125000000001
-0.0294588068409614 -0.204217978672804 0.328125000000001
-0.0184285689449007 -0.196489937057601 0.328125000000001
-0.01335607862106 -0.186563353200304 0.328125000000001
-0.00661332613691681 -0.187827441548236 0.328125000000001
-0.00251800169861321 -0.178001798302944 0.328125000000001
0.00334810879496688 -0.177866848454147 0.328125000000001
0.0102270511574111 -0.168316361186534 0.328125000000001
0.0197290240116094 -0.156339622459403 0.328125000000001
0.0308751034117579 -0.150153524147202 0.328125000000001
0.0399249522557913 -0.139001308886556 0.328125000000001
0.0483364514943035 -0.13294792708538 0.328125000000001
0.0553894398215258 -0.130025986329741 0.328125000000001
0.0532151832706468 -0.12325509028379 0.328125000000001
0.0686019432794746 -0.11836133484315 0.328125000000001
0.0822597220356634 -0.101179036090826 0.328125000000001
0.0852057006124268 -0.100243001267928 0.328125000000001
0.0920381533657241 -0.0954997889167393 0.328125000000001
0.0991158320841156 -0.0835604483999127 0.328125000000001
0.114377073853 -0.0731628786210454 0.328125000000001
0.124076402742814 -0.0666898195980926 0.328125000000001
0.129519172910202 -0.0600051018375395 0.328125000000001
0.139957185492299 -0.0463304766252244 0.328125000000001
0.142689691586319 -0.0453829629195576 0.328125000000001
0.155150276657425 -0.0389340395822404 0.328125000000001
0.155375315484384 -0.0295705660123757 0.328125000000001
0.167959860746818 -0.0198077206237084 0.328125000000001
0.17342806162897 -0.0125977904171991 0.328125000000001
0.193628260650104 -0.00349371853627968 0.328125000000001
0.191837904915019 0.00042611883244818 0.328125000000001
0.208689167854589 0.0127865202795918 0.328125000000001
0.22232309289968 0.0200863987742256 0.328125000000001
0.221966606731183 0.0301062588289397 0.328125000000001
0.236938661961039 0.04159641738961 0.328125000000001
0.248389046225443 0.0510043882077972 0.328125000000001
0.250404632188303 0.0570516263251902 0.328125000000001
0.267876774607638 0.0684046253837626 0.328125000000001
0.268135123397226 0.076704813654679 0.328125000000001
0.282726920104866 0.0851380419942001 0.328125000000001
0.287080012386787 0.0838345298971645 0.328125000000001
0.298920579374711 0.102781130891965 0.328125000000001
