ply
format ascii 1.0
element vertex 994
property float x
property float y
property float z
end_header
-0.300744594999249 -0.0244969933244165 0.2625
-0.299571298389599 -0.00981163055502262 0.2625
-0.300779244171295 -0.00290709357030708 0.2625
-0.303029944289537 0.00154294811893016 0.2625
-0.303421333661822 0.0164237778695926 0.2625
-0.299386530343235 0.0248172563938255 0.2625
-0.302363358990785 0.0455829698123799 0.2625
-0.308437283530964 0.0497061421001922 0.2625
-0.303991429875547 0.0683189906639632 0.2625
-0.306530927059848 0.0760246676112346 0.2625
-0.308305937941786 0.0889660883491512 0.2625
-0.309558831128184 0.10356102835359 0.2625
-0.313894509622153 0.111112783958416 0.2625
-0.311815196164295 0.119724281772751 0.2625
-0.312402071971469 0.141416187615468 0.2625
-0.311581928928213 0.145450266943532 0.2625
-0.320382881064206 0.162567695468287 0.2625
-0.317186851324918 0.173577795185584 0.2625
-0.268131907404156 -0.188828370678873 0.25936625416354
-0.271474262192098 -0.182780189082863 0.262259444049737
-0.269815609822871 -0.178651984434222 0.2625
-0.27468510248133 -0.170168876417158 0.2625
-0.277852316445218 -0.158071070646554 0.2625
-0.279131610548364 -0.151535590996659 0.2625
-0.273402158147552 -0.139025731211654 0.2625
-0.27446093132991 -0.131925583831797 0.2625
-0.276177087207093 -0.11819623641029 0.2625
-0.276237360436866 -0.112968395268099 0.2625
-0.276531126851958 -0.0997989129917013 0.2625
-0.286019226747974 -0.0908343551748351 0.2625
-0.284353612171455 -0.0794861714213782 0.2625
-0.282135491708204 -0.0639315886020101 0.2625
-0.287144529390177 -0.0566642019557436 0.2625
-0.289710460052719 -0.0410206136663259 0.2625
-0.291020387835904 -0.0399083034476069 0.2625
-0.288434972112828 -0.0285382885975358 0.2625
-0.284024591822063 -0.0107333330928915 0.2625
-0.292794249397733 -0.00714400652261092 0.2625
-0.285292657026119 0.000609840226267563 0.2625
-0.291001419406249 0.0129712093953752 0.2625
-0.297738594363479 0.034122592097936 0.2625
-0.293935261755964 0.0473116751755774 0.2625
-0.290731594973298 0.0602355074516686 0.2625
-0.292057530060396 0.0682453561334854 0.2625
-0.299014316211814 0.0750959054589308 0.2625
-0.300635215195442 0.0891645019076199 0.2625
-0.300891813197571 0.0909296880832387 0.2625
-0.297038834190866 0.113288424946899 0.2625
-0.306533958068954 0.125291240585883 0.2625
-0.307195621765263 0.132478020979551 0.2625
-0.308685683903751 0.145671121420877 0.2625
-0.304419292893697 0.159861092832228 0.2625
-0.308753545463076 0.176800792224288 0.2625
-0.305474244019901 0.182526007982558 0.261176373199545
-0.262608784670124 -0.19129700214196 0.250342549443498
-0.261512762702971 -0.18960353232041 0.259215706681517
-0.262200924961628 -0.190458743273194 0.258765312455698
-0.259187517695358 -0.180810420995679 0.2625
-0.261855273991068 -0.158892444071526 0.2625
-0.264081316032702 -0.154625893076012 0.2625
-0.270323295544772 -0.143223288282735 0.2625
-0.263780102749713 -0.134295294665819 0.2625
-0.270325792665196 -0.123618156571889 0.2625
-0.269424729364944 -0.117958608361298 0.2625
-0.27357905043356 -0.103986412911532 0.2625
-0.272847644416184 -0.0995649643109967 0.2625
-0.272403192381563 -0.0816757090727308 0.2625
-0.268386120554504 -0.0724132424591508 0.2625
-0.277970126535006 -0.0646194711171708 0.2625
-0.273555447872698 -0.0598092854148524 0.2625
-0.273369947089918 -0.0436327090045538 0.2625
-0.274130360504062 -0.0337251978426229 0.2625
-0.281717193716041 -0.0175226115554031 0.2625
-0.275173665561427 -0.0170399483446294 0.2625
-0.277949926719663 0.00234007382355378 0.2625
-0.280635117874337 -0.000777441040050124 0.2625
-0.283746444898825 0.0204090498675238 0.2625
-0.283434049387696 0.0307711725366247 0.2625
-0.289334801303125 0.0491106047076263 0.2625
-0.283720610356899 0.0575447638364547 0.2625
-0.282469557997352 0.0680065255663357 0.2625
-0.286761126999233 0.0683472935948834 0.2625
-0.286856325765162 0.0888229688165818 0.2625
-0.284437284815466 0.100188990582635 0.2625
-0.286333175685534 0.116863507787408 0.2625
-0.28635310228922 0.124455386964407 0.2625
-0.290383351322871 0.135050198486327 0.2625
-0.296573912945322 0.152855391443425 0.2625
-0.29915902103974 0.153499272068985 0.2625
-0.295634598546337 0.166786977692558 0.2625
-0.293091517145162 0.188657662894616 0.258563252118064
-0.256142495145282 -0.191758950779129 0.254233701879045
-0.253874521760377 -0.188433742799219 0.260070037967021
-0.250851688153189 -0.178671702975867 0.2625
-0.252088084783429 -0.163509007122074 0.2625
-0.257405173868417 -0.158171886601348 0.2625
-0.253516390772543 -0.14600764396965 0.2625
-0.254507553478805 -0.134873981479001 0.2625
-0.254508504058648 -0.125933806052379 0.2625
-0.262517155299285 -0.124768525498072 0.2625
-0.258091698846896 -0.10929675789507 0.2625
-0.255856799132345 -0.09879896707153 0.2625
-0.266522632751031 -0.0885554611559893 0.2625
-0.265686901045323 -0.0765379997057689 0.2625
-0.267814379141263 -0.0686570681262676 0.2625
-0.267783731004012 -0.0533336060285858 0.2625
-0.267053862115896 -0.039333212771436 0.2625
-0.271473122520397 -0.0289376484748673 0.2625
-0.27202307325679 -0.0310947439623202 0.2625
-0.27420843207398 -0.00790541227119952 0.2625
-0.270936322095008 -0.00233806172417612 0.2625
-0.274950019540785 0.0141447491027976 0.2625
-0.267002896280904 0.0174077160821872 0.2625
-0.268931895335625 0.0305073165575432 0.2625
-0.27674949379517 0.0416310630755476 0.2625
-0.27617986767128 0.0477770921590364 0.2625
-0.273908051273521 0.0586994195103961 0.2625
-0.272813202397163 0.0793837875854087 0.2625
-0.278138870546112 0.0876385216921369 0.2625
-0.274387280375294 0.102846269608281 0.2625
-0.282628255771129 0.108338367829161 0.2625
-0.281628435468145 0.116687692131149 0.2625
-0.286158464115051 0.13206507824274 0.2625
-0.283392749652056 0.14934623607542 0.2625
-0.288196933041072 0.162542418719973 0.2625
-0.281013960043473 0.168203160335428 0.2625
-0.24457844617141 -0.125 0.13510768287147
-0.2475249295733 -0.125 0.143519249921309
-0.248374794131823 -0.125 0.151601837634639
-0.249172145652853 -0.125 0.165828898070312
-0.249739519589734 -0.125 0.181277658528319
-0.245049034321787 -0.192551462325232 0.255603068020669
-0.23921139089315 -0.186476421737777 0.261566507171214
-0.239950624449511 -0.182762147805953 0.2625
-0.241407377436934 -0.171187930941554 0.2625
-0.247703689016612 -0.163721508900202 0.2625
-0.246685657140559 -0.143108562816012 0.2625
-0.247451501032495 -0.134118327612901 0.2625
-0.248856289082058 -0.128392899336051 0.2625
-0.249450693416513 -0.118755096526798 0.2625
-0.246759908552986 -0.109692160624078 0.2625
-0.249117819909037 -0.091901806453286 0.2625
-0.24958380058914 -0.0861940727356513 0.2625
-0.250915208996945 -0.0767946245164212 0.2625
-0.252658090734394 -0.0683963212505452 0.2625
-0.252708793165105 -0.0576326148643504 0.2625
-0.258581671800935 -0.0417235131218581 0.2625
-0.255396395881023 -0.0397452948074479 0.2625
-0.256951718074597 -0.0304703132565768 0.2625
-0.259501147889056 -0.0125955032951704 0.2625
-0.259604710843478 0.00561747394591811 0.2625
-0.256425392799184 0.0133779015443386 0.2625
-0.258805082164038 0.0147030664944183 0.2625
-0.262965712463786 0.0308403895571711 0.2625
-0.264423112923339 0.0393589937096049 0.2625
-0.266105109564962 0.0483949223331318 0.2625
-0.265386573967982 0.0632507089307605 0.2625
-0.270724887890806 0.0754578147772355 0.2625
-0.271564764811429 0.0843852432112794 0.2625
-0.265960421758018 0.103612045033757 0.2625
-0.271557035541772 0.104258911813103 0.2625
-0.268677250118191 0.122695121570599 0.2625
-0.272626380529252 0.130139910535946 0.2625
-0.272093002708363 0.156083863462588 0.2625
-0.279289870828731 0.164526839689351 0.2625
-0.279795674371514 0.176173909110963 0.2625
-0.278398381019537 0.184264435566193 0.26127391462807
-0.241092071628355 -0.125 0.119299797979403
-0.241492610816798 -0.125 0.125475940538312
-0.236953626109456 -0.125 0.135496002147337
-0.244555102921118 -0.125 0.142762717698329
-0.24204232055397 -0.125 0.150138266865347
-0.241120405357965 -0.125 0.162069978459059
-0.23619880176207 -0.125 0.175331138408854
-0.242191544810462 -0.125 0.182344261762708
-0.235642975035048 -0.19213451504411 0.258875631214688
-0.235946399515886 -0.186409812125382 0.261715842444155
-0.235076172204163 -0.184800031598759 0.2625
-0.232142112533602 -0.165962784018131 0.2625
-0.241581403728198 -0.15182795376046 0.2625
-0.239164052562009 -0.148665162790003 0.2625
-0.239179321652503 -0.141827926730203 0.2625
-0.242552409680462 -0.125394740614822 0.2625
-0.239486942177716 -0.110573210438649 0.2625
-0.237698880994529 -0.112240184015339 0.2625
-0.241613043570735 -0.0961443446384537 0.2625
-0.242299034147409 -0.0835567915888306 0.2625
-0.242566358527655 -0.0862037794856392 0.2625
-0.244645947437667 -0.0673082956578877 0.2625
-0.244260381257519 -0.0586737447251789 0.2625
-0.242277742415305 -0.0498288692414046 0.2625
-0.244948545540538 -0.0396191119313425 0.2625
-0.25317607971928 -0.0207023969161365 0.2625
-0.248105473593503 -0.0194473215304035 0.2625
-0.245160114230441 0.00472059252943833 0.2625
-0.246031828827728 0.00931631342339289 0.2625
-0.252722804327734 0.0191566277389953 0.2625
-0.248309153955182 0.0333748008662279 0.2625
-0.25193041061589 0.0457487960793307 0.2625
-0.251540146950559 0.0448959637035814 0.2625
-0.256826168708221 0.0644227807019396 0.2625
-0.260817583646051 0.0736483761094207 0.2625
-0.259656142820922 0.0973410597968222 0.2625
-0.262951644433875 0.0912032203149798 0.2625
-0.256193131765286 0.110111136009504 0.2625
-0.262839669624231 0.123505822294854 0.2625
-0.266224901420716 0.133494871610121 0.2625
-0.258993371153689 0.148193538037351 0.2625
-0.266629066772436 0.161182075534656 0.2625
-0.264113020211938 0.16677810712949 0.2625
-0.265109934879392 0.179552271441242 0.2625
-0.234225929952794 -0.00781250000000003 0.00632037585208707
-0.234374999999999 -0.0140721529955452 0.0186362501464373
-0.234374999999999 -0.0820076998334226 0.0953898313494132
-0.234374999999999 -0.0488719956595409 0.0661424000004336
-0.234374999999999 -0.108166594502361 0.133237260308292
-0.234374999999999 -0.12258728755583 0.159106538896892
-0.234374999999999 -0.0846759333161658 0.134645684909918
-0.224686398648578 -0.19400615929824 0.252641000286425
-0.224492238226899 -0.191863153616262 0.259407497145679
-0.224627975224566 -0.183923040709387 0.2625
-0.22988161631064 -0.179874930396468 0.2625
-0.223610677753515 -0.176114288866885 0.2625
-0.225869851470407 -0.155614272537739 0.2625
-0.23205135067977 -0.147545717672631 0.2625
-0.229622964348053 -0.134836630253842 0.2625
-0.230033096528806 -0.132129485368721 0.2625
-0.227285430560101 -0.117966950160816 0.2625
-0.228785079944123 -0.101930189799196 0.2625
-0.237081460854088 -0.0933212540051851 0.2625
-0.23437488248443 -0.0918568907572593 0.2625
-0.231149839204532 -0.0812995083933701 0.2625
-0.235807600850696 -0.0609738384321276 0.2625
-0.236381045572704 -0.0560273805163335 0.2625
-0.233502075706872 -0.0481707576411633 0.2625
-0.240715659150589 -0.0320120004230419 0.2625
-0.238349368970396 -0.0206162590884802 0.2625
-0.24071407563771 -0.0162706059809035 0.2625
-0.240139153688974 -0.00695283809645329 0.2625
-0.245261786642071 0.00550429940976383 0.2625
-0.245817022690002 0.0154474669049597 0.2625
-0.243407977666563 0.0230471140759364 0.2625
-0.242449495539084 0.0440655273811218 0.2625
-0.243763426684102 0.0584890518224442 0.2625
-0.241225195783126 0.0633447806576215 0.2625
-0.241037713137904 0.0778746293954608 0.2625
-0.242422511898132 0.0832397631710138 0.2625
-0.243047758161185 0.104710525192998 0.2625
-0.243526077857628 0.109756544418616 0.2625
-0.248491949882723 0.116884052230852 0.2625
-0.251846455859408 0.131107180645175 0.2625
-0.25509266785941 0.14256157377192 0.2625
-0.248915532966092 0.164977384420381 0.2625
-0.253238136331276 0.165738231325222 0.2625
-0.251605793841052 0.186183822568726 0.261271256523832
-0.231326454029072 -0.00781250000000003 0.00640867092891758
-0.225848084407454 -0.00781250000000003 0.00698301108005382
-0.225198338274247 -0.00781250000000003 0.0200700433714474
-0.22971222014989 -0.00781250000000003 0.0264966389137897
-0.234374999999999 -0.00932639904770986 0.0363845603951276
-0.228834615523029 -0.00781250000000003 0.0514623381184464
-0.226954195343732 -0.00781250000000003 0.0577468035271366
-0.210871151456551 -0.19499311396335 0.251600730544654
-0.21221126089874 -0.190520226764576 0.260513234119865
-0.212609472528452 -0.190213397862058 0.260651872865137
-0.215690382546339 -0.181459011706411 0.2625
-0.213456202265979 -0.16673314599046 0.2625
-0.217444879098547 -0.157661614489088 0.2625
-0.222273344417745 -0.150846202530338 0.2625
-0.219755930077325 -0.140561742651409 0.2625
-0.215980202254376 -0.128305289846101 0.2625
-0.224262881039922 -0.116271811421262 0.2625
-0.221818498579483 -0.110335173925722 0.2625
-0.22134479675242 -0.0919668673860269 0.2625
-0.224354801179577 -0.084722170199576 0.2625
-0.223533154431682 -0.0764224479706505 0.2625
-0.228601065978796 -0.0696917395643672 0.2625
-0.229607219742521 -0.0612705187983912 0.2625
-0.222036342898919 -0.0538290875463977 0.2625
-0.225382448077992 -0.0298001735244422 0.2625
-0.229293811886097 -0.0232796153201634 0.2625
-0.226679263253646 -0.0183853824787226 0.2625
-0.229228410801743 -0.00425338533109668 0.2625
-0.231209161073769 0.011195550475245 0.2625
-0.233802489105747 0.0164566313231552 0.2625
-0.232973214110319 0.030080493040787 0.2625
-0.231254547379196 0.0369298284893603 0.2625
-0.230647856816038 0.0563388698885495 0.2625
-0.234305571245793 0.0650298075840184 0.2625
-0.231353680646217 0.0788637823665971 0.2625
-0.232079995739277 0.0821794077055871 0.2625
-0.23797575922004 0.103760129507831 0.2625
-0.235470478410921 0.118833513273509 0.2625
-0.235295045718832 0.130419045390493 0.2625
-0.236425966030994 0.130592747881441 0.2625
-0.238151549806264 0.15277631200777 0.2625
-0.247135265729476 0.15040184669426 0.2625
-0.241585533000868 0.162503521568231 0.2625
-0.243898058683195 0.174087771364096 0.2625
-0.214136088879853 -0.00781250000000003 0.000442574847274576
-0.21843409536985 -0.00781250000000003 0.00916332493038965
-0.2222299773146 -0.00781250000000003 0.018121322492451
-0.218918907867593 -0.00781250000000003 0.0362431157304201
-0.216242204780817 -0.00781250000000003 0.0437178673775326
-0.216164249657093 -0.00781250000000003 0.0534860677022498
-0.215586953613317 -0.00781250000000003 0.0523085475537542
-0.201509268688976 -0.195661922399655 0.254103448172576
-0.206567392353605 -0.195300572459396 0.256748108019109
-0.205471994211398 -0.18997468953349 0.261024692499846
-0.203643156557531 -0.176205277224272 0.2625
-0.209739654600831 -0.165950240472283 0.2625
-0.211050074850756 -0.154654173717602 0.2625
-0.20999667863397 -0.150830795128687 0.2625
-0.208244656498981 -0.141121623637492 0.2625
-0.207671714393076 -0.123024768691424 0.2625
-0.214357525218696 -0.120519702719091 0.2625
-0.211377656245346 -0.101352625536881 0.2625
-0.209933435746849 -0.0980018817825971 0.2625
-0.212145068487137 -0.0828174305339124 0.2625
-0.212799995051216 -0.0786534133964528 0.2625
-0.218535078042277 -0.0693257181762581 0.2625
-0.212696425672229 -0.0593859340421238 0.2625
-0.215997277181118 -0.0431630808437277 0.2625
-0.212569298958652 -0.0416391444986143 0.2625
-0.217919179152732 -0.029542314698243 0.2625
-0.218269280036863 -0.0146429374414368 0.2625
-0.215616174918505 -0.00698378262095746 0.2625
-0.221866190127788 0.00592066369033173 0.2625
-0.218206060844862 0.018591131815947 0.2625
-0.219565460904648 0.0293564025634283 0.2625
-0.222982463834559 0.0391041802760153 0.2625
-0.224047491665981 0.0517713827434933 0.2625
-0.225908417489713 0.0712434373750991 0.2625
-0.226842666829695 0.0706505174909079 0.2625
-0.22568838158917 0.0961689592552632 0.2625
-0.226529877680954 0.0948533829295406 0.2625
-0.22976399056323 0.112970146770873 0.2625
-0.232313300357283 0.117595971127413 0.2625
-0.235119224743575 0.135642043142302 0.2625
-0.233035139653755 0.145445583287754 0.2625
-0.232113235762234 0.156234895143193 0.2625
-0.236354459207038 0.180535760674742 0.2625
-0.213778860681075 -0.00781250000000003 0.00346742064561786
-0.207747221920946 -0.00781250000000003 0.00899409629937888
-0.212384204426458 -0.00781250000000003 0.0191246986532548
-0.209280123805278 -0.00781250000000003 0.0274597082026167
-0.209062329858059 -0.00781250000000003 0.0331587611162794
-0.211491930588164 -0.00781250000000003 0.0433134426889794
-0.204980525352193 -0.00781250000000003 0.0601888304731669
-0.19869709847183 -0.195862822497664 0.252922141896501
-0.195624458235488 -0.194349966565198 0.259196082161162
-0.199230814103088 -0.189024098062567 0.261720154266051
-0.201358528228365 -0.178074121607165 0.2625
-0.196816479371153 -0.167689175523587 0.2625
-0.201656426432473 -0.156193476124073 0.2625
-0.195780402920353 -0.156881123600499 0.2625
-0.205180776166326 -0.1309286449191 0.2625
-0.202141988456042 -0.128425640562796 0.2625
-0.203698874809976 -0.117696974398969 0.2625
-0.205394819280071 -0.115819234095142 0.2625
-0.198915619172352 -0.105501752389376 0.2625
-0.203053720212881 -0.0804410882397568 0.2625
-0.202525217481 -0.0781597527613884 0.2625
-0.200847446138819 -0.0674907426154567 0.2625
-0.209827872261259 -0.0566586118511756 0.2625
-0.204253967469536 -0.0405308869331891 0.2625
-0.207730887685419 -0.0359539225549038 0.2625
-0.21109759274023 -0.0227878531252008 0.2625
-0.212517011545855 -0.0110238155930243 0.2625
-0.205982100712552 -0.00294081066722788 0.2625
-0.209685137296157 0.00789023297338983 0.2625
-0.207473665068766 0.0208807443587447 0.2625
-0.210057131282646 0.0296274921644322 0.2625
-0.215007361326679 0.0428559100441713 0.2625
-0.212823705213078 0.0529474461138767 0.2625
-0.210694736037531 0.0740594479853026 0.2625
-0.212264072177507 0.0681780057735353 0.2625
-0.218939040249867 0.083989765988929 0.2625
-0.213771764234747 0.10300748739602 0.2625
-0.219978238975271 0.115757698969715 0.2625
-0.223003960027086 0.117167431859166 0.2625
-0.220482799757296 0.13420018445572 0.2625
-0.224367616881372 0.153368036537592 0.2625
-0.217098760603349 0.148484335622594 0.2625
-0.226713515707732 0.17189394349963 0.2625
-0.223679185379357 0.179328999677516 0.2625
-0.204227295282659 -0.00781250000000003 0.00835334383988027
-0.199279132820514 -0.00781250000000003 0.0194236430874976
-0.201731083404684 -0.00781250000000003 0.0220078766514694
-0.199362171034529 -0.00781250000000003 0.0433583374840718
-0.199116894975954 -0.00781250000000003 0.040167399473332
-0.19592442903396 -0.00781250000000003 0.0514111040750152
-0.190332094216596 -0.196460414408877 0.252172218110319
-0.190216968207171 -0.191827810135689 0.260644550775093
-0.187966164911559 -0.18583010743849 0.2625
-0.191282047578958 -0.173984190670292 0.2625
-0.193267329614742 -0.164124387367525 0.2625
-0.189600681497321 -0.162664360839778 0.2625
-0.19372765453433 -0.150433737739286 0.2625
-0.190078749280152 -0.139635542397956 0.2625
-0.190792024903353 -0.133843280462089 0.2625
-0.193637470731237 -0.115465457002089 0.2625
-0.197705931179 -0.104099448743943 0.2625
-0.195565971208898 -0.0986532228657951 0.2625
-0.194364894448497 -0.0870062505712252 0.2625
-0.195983993889536 -0.0808763474756163 0.2625
-0.195736984389953 -0.0672769630734854 0.2625
-0.20103655408039 -0.0559955944273437 0.2625
-0.197935749668903 -0.0465729107782613 0.2625
-0.198640493018883 -0.034465213892465 0.2625
-0.1980729591849 -0.0231388062720537 0.2625
-0.198658149460126 -0.00888549949280566 0.2625
-0.199118968026144 -0.00336298662878871 0.2625
-0.204396654492394 0.0132805529783232 0.2625
-0.205959222665762 0.0195433654326555 0.2625
-0.201990653817563 0.0302598265468415 0.2625
-0.20291408944373 0.0472628544592909 0.2625
-0.204593998716886 0.0503095310017117 0.2625
-0.203232993949883 0.0663503471802576 0.2625
-0.209774074254686 0.0664897335106968 0.2625
-0.206832616665709 0.0804432139373154 0.2625
-0.210964784819737 0.104533046122426 0.2625
-0.204309297109735 0.110962397440186 0.2625
-0.208321695856324 0.124770387730135 0.2625
-0.213811053249876 0.142284017989523 0.2625
-0.208434802919323 0.143861249470332 0.2625
-0.207119315197132 0.154468502433108 0.2625
-0.206594438813046 0.162203446117948 0.2625
-0.216444343279216 0.185895728334434 0.2625
-0.191625907640424 -0.00781250000000003 0.0110171657555242
-0.192388687428084 -0.00781250000000003 0.0220765318507693
-0.187221955880908 -0.00781250000000003 0.0279684592321886
-0.192363050740061 -0.00781250000000003 0.0406031420303923
-0.18795773352808 -0.00781250000000003 0.040250390318775
-0.193246091074724 -0.00781250000000003 0.0626140455923965
-0.181645470373303 -0.197080982669946 0.254196847050972
-0.175020848386114 -0.197554242502648 0.257735676851567
-0.176112750495837 -0.183098603434433 0.2625
-0.175917659767849 -0.171667026514528 0.2625
-0.17656301312221 -0.165512725425362 0.2625
-0.179802401219669 -0.156422896345499 0.2625
-0.178307878021344 -0.146179958028057 0.2625
-0.185505868075277 -0.134172758062921 0.2625
-0.180852681567978 -0.132467334382326 0.2625
-0.181974527233128 -0.114914359984693 0.2625
-0.186288427849072 -0.10459421657055 0.2625
-0.181219653630262 -0.105705659324705 0.2625
-0.186316828465514 -0.0919010444187688 0.2625
-0.180475246843555 -0.0737792832544368 0.2625
-0.182270999835029 -0.0672202440771757 0.2625
-0.19022514484072 -0.0512300253360224 0.2625
-0.182621387223891 -0.0476124727635343 0.2625
-0.187090190121338 -0.0337236726937221 0.2625
-0.189495802242859 -0.021936700147074 0.2625
-0.191214636185167 -0.0074963361014507 0.2625
-0.187218615932212 -0.00278600075937738 0.2625
-0.192699527799825 0.013960517828141 0.2625
-0.190687275671657 0.0172079697347258 0.2625
-0.187306868773918 0.03061491593899 0.2625
-0.191488195240092 0.0425890058727798 0.2625
-0.195226793732903 0.0469598738257575 0.2625
-0.196333477432606 0.0637594035914708 0.2625
-0.192570984969096 0.0765220867152726 0.2625
-0.200048964700008 0.0855981519767379 0.2625
-0.194432864876783 0.104088297321362 0.2625
-0.199962419783441 0.112141232969049 0.2625
-0.200156952070435 0.126533901581043 0.2625
-0.201655967019422 0.138066962787258 0.2625
-0.202486607247115 0.150268566259155 0.2625
-0.203489292935174 0.160331347800133 0.2625
-0.197147198613921 0.161705401530772 0.2625
-0.196540025911784 0.178337850841303 0.2625
-0.175769770807838 -0.00781250000000003 0.000522866314798876
-0.184134621768328 -0.00781250000000003 0.0119654701011172
-0.176483602088997 -0.00781250000000003 0.0181179370076222
-0.183829984535527 -0.00781250000000003 0.0225355809789008
-0.176518396571371 -0.00781250000000003 0.0344941872745148
-0.17568742743434 -0.00781250000000003 0.0476892938206229
-0.183319651394994 -0.00781250000000003 0.0575457446639064
-0.165565881673935 -0.198229700811525 0.256812311359054
-0.167168770680953 -0.197999970592882 0.258390715291312
-0.167271179508676 -0.181048377825077 0.2625
-0.172701897445137 -0.17652270469794 0.2625
-0.16881136587595 -0.175545231601703 0.2625
-0.166308569081617 -0.163557183406185 0.2625
-0.167712985345703 -0.156430458803452 0.2625
-0.168567977797682 -0.135272664842179 0.2625
-0.172129789191448 -0.122408041841791 0.2625
-0.172020419564036 -0.112872757766243 0.2625
-0.176561587688184 -0.105172431255988 0.2625
-0.173301914370006 -0.104740910150208 0.2625
-0.174390261930324 -0.0927355122497053 0.2625
-0.179008644581302 -0.0747407769338718 0.2625
-0.175761786339727 -0.0683502436092237 0.2625
-0.17700511417078 -0.0589886329710927 0.2625
-0.17931296610003 -0.0473925059192989 0.2625
-0.179205189775933 -0.0327156743809606 0.2625
-0.175727072774887 -0.0189477358613322 0.2625
-0.175215007534184 -0.0190083783540076 0.2625
-0.18316853308403 -0.0112554947749867 0.2625
-0.180927164153078 0.0106446992398613 0.2625
-0.185151029860474 0.0220675101106959 0.2625
-0.179650532756651 0.0356562134399165 0.2625
-0.187218018005345 0.0346501850769429 0.2625
-0.183379388585513 0.0462049774017199 0.2625
-0.184224719172039 0.0613297836500461 0.2625
-0.18065544926992 0.0766627277187895 0.2625
-0.189295310176016 0.0872471570518292 0.2625
-0.184824257967765 0.100406680039321 0.2625
-0.182132832383913 0.111198299468147 0.2625
-0.183975061501464 0.128788335297513 0.2625
-0.184460788813527 0.127419803088779 0.2625
-0.188993384034956 0.150388396202054 0.2625
-0.186599104401175 0.147511310568553 0.2625
-0.188797444701054 0.173692582524492 0.2625
-0.190899805757487 0.188137753397648 0.262457972248126
-0.1933473619663 0.189460949699561 0.26171191673314
-0.173522768723997 -0.00781250000000003 0.00958693723058702
-0.167531791017343 -0.00781250000000003 0.019353211548012
-0.168381666767221 -0.00781250000000003 0.0255277554881119
-0.164653915719138 -0.00781250000000003 0.034447287095991
-0.170279152251322 -0.00781250000000003 0.0438567371824742
-0.16815798816253 -0.00781250000000003 0.0595560278037923
-0.156179645752447 -0.198900249025521 0.255926002322013
-0.159174096524477 -0.197527749678337 0.258910325928139
-0.158893780897716 -0.190839271218478 0.262251283378877
-0.156412608176117 -0.173918048133116 0.2625
-0.162626608093004 -0.173183593108785 0.2625
-0.165689738447653 -0.162830066569587 0.2625
-0.163482726123443 -0.151714464621219 0.2625
-0.158320509650366 -0.136124625695191 0.2625
-0.158483328719095 -0.131399890217007 0.2625
-0.160170420401052 -0.118145717554818 0.2625
-0.167215106534491 -0.115260035648042 0.2625
-0.165135846094647 -0.10239474433348 0.2625
-0.166624921995506 -0.0907525788688831 0.2625
-0.161294539864646 -0.0717259920624775 0.2625
-0.169022131406248 -0.0630533590610366 0.2625
-0.166641198573143 -0.0526666086102297 0.2625
-0.16770785108163 -0.0369974494578117 0.2625
-0.164237753584004 -0.030472431454733 0.2625
-0.164354958525744 -0.0238315157931686 0.2625
-0.164816959920974 -0.0133889658149552 0.2625
-0.16876414067137 -0.00413408896942738 0.2625
-0.172935320462159 0.00727686803887344 0.2625
-0.167240848408434 0.0264021340506466 0.2625
-0.17281508595764 0.0376496932013477 0.2625
-0.175168011297332 0.0480376479726716 0.2625
-0.170482729805611 0.0503960814737436 0.2625
-0.169004176530976 0.0628853616347353 0.2625
-0.177456204255144 0.0722105551444719 0.2625
-0.177736687898914 0.086255285011753 0.2625
-0.173355242367948 0.104786599277906 0.2625
-0.178147448448074 0.105683589251685 0.2625
-0.18169865643667 0.112786962854777 0.2625
-0.177992108035843 0.136426976555593 0.2625
-0.176272797989992 0.157165917036994 0.2625
-0.175746573546558 0.15649999473068 0.2625
-0.17687389939293 0.166547592839459 0.2625
-0.178390565690985 0.179931733441874 0.2625
-0.160285864442498 -0.00781250000000003 0.00439877683977699
-0.15472734496687 -0.00781250000000003 0.0103100737937036
-0.162892930935901 -0.00781250000000003 0.0239459984517074
-0.156999383436564 -0.00781250000000003 0.0306767268608899
-0.163274170826552 -0.00781250000000003 0.0391422358039317
-0.163642620329793 -0.00781250000000003 0.0483290018068848
-0.151710002140768 -0.199219558231691 0.251714573454585
-0.146897457686779 -0.199563364110363 0.257291136214012
-0.153895894378392 -0.193512170997426 0.261097946248006
-0.145661544571462 -0.189209938935853 0.2625
-0.150017583946999 -0.183933504825328 0.2625
-0.155624933670447 -0.171117932871532 0.2625
-0.155752095146294 -0.158461326056842 0.2625
-0.155359104419531 -0.149725995698287 0.2625
-0.156717411976953 -0.134129422528342 0.2625
-0.151498369601211 -0.133668690911706 0.2625
-0.158496343214646 -0.116964266822875 0.2625
-0.149555145281171 -0.116541126669474 0.2625
-0.15628287768173 -0.0955706407880651 0.2625
-0.150780387230683 -0.0930364590297644 0.2625
-0.159092756377179 -0.0760704565965522 0.2625
-0.155921485588563 -0.0719830695472378 0.2625
-0.154297456285108 -0.0554662458330754 0.2625
-0.154163325380292 -0.0429982049114321 0.2625
-0.153090004320578 -0.0410434382135478 0.2625
-0.162885679443145 -0.0221507419100131 0.2625
-0.160798330993949 -0.00988773798133315 0.2625
-0.156531938888312 -0.0072390561328121 0.2625
-0.155397463519592 0.00615848785614055 0.2625
-0.163170922678759 0.0215468488483287 0.2625
-0.158743333794083 0.0367266066501501 0.2625
-0.159643982157916 0.0435481661570242 0.2625
-0.164046074278531 0.0460623807847664 0.2625
-0.162972149236653 0.0598093470830582 0.2625
-0.162221438053781 0.0789477621451606 0.2625
-0.166705006384786 0.0860619809205579 0.2625
-0.166333975976791 0.102225801208736 0.2625
-0.170574155303875 0.110198865715618 0.2625
-0.169373206132532 0.118049099733871 0.2625
-0.169631273780466 0.135965240250399 0.2625
-0.164066201529178 0.156454306129983 0.2625
-0.167403849887549 0.165772983041265 0.2625
-0.171151980178966 0.171139418402353 0.2625
-0.169964562795372 0.177819849933062 0.2625
-0.173982544621525 0.194240022733181 0.26002081622326
-0.148255959719017 -0.00781250000000003 0.00572566960073384
-0.14877040262821 -0.00781250000000003 0.00848400200078412
-0.149263945169087 -0.00781250000000003 0.0246760752904308
-0.152821143949567 -0.00781250000000003 0.020693290897636
-0.149405891454263 -0.00781250000000003 0.0435385433012097
-0.150984964481411 -0.00781250000000003 0.0494494956178505
-0.13897952090118 -0.2 0.250452796141101
-0.138235733343323 -0.2 0.256536193119188
-0.140095884170749 -0.192177123300305 0.262244771683181
-0.138820965521491 -0.190803603357092 0.2625
-0.145066031645354 -0.172496231566594 0.2625
-0.144053441522105 -0.167214756726563 0.2625
-0.137524561977115 -0.152186645720711 0.2625
-0.146013288868531 -0.148450148012292 0.2625
-0.145187702241152 -0.134000845851829 0.2625
-0.143397499699499 -0.129731314046214 0.2625
-0.142093083415581 -0.114324039136563 0.2625
-0.143230301666277 -0.11022632693062 0.2625
-0.145103400889005 -0.0992828021383702 0.2625
-0.147913004630028 -0.0842831220510562 0.2625
-0.147847774058581 -0.0745784897761814 0.2625
-0.142465201204124 -0.0598529127689925 0.2625
-0.150661857439959 -0.0537288611785983 0.2625
-0.151192406741039 -0.0384259697829706 0.2625
-0.150283171173608 -0.0298864238930478 0.2625
-0.152599752237131 -0.0178449911472106 0.2625
-0.152475566122206 -0.0127419441805501 0.2625
-0.148777881541279 -0.0024902234730685 0.2625
-0.147454025368436 0.0105936611633525 0.2625
-0.148972230384394 0.0191418417596098 0.2625
-0.14799894548413 0.0254812669486688 0.2625
-0.148069760486014 0.0400498779812168 0.2625
-0.150173721070753 0.063112085356094 0.2625
-0.154714003793805 0.0635288118268573 0.2625
-0.158336746366584 0.0734406662547671 0.2625
-0.149348104234089 0.0858064180160645 0.2625
-0.151787624417666 0.0988993156568319 0.2625
-0.160219854832891 0.106324210559595 0.2625
-0.153732565592516 0.127319895839036 0.2625
-0.161549131185067 0.129070076724485 0.2625
-0.155478962923326 0.138903112694943 0.2625
-0.160160943107038 0.15479138585306 0.2625
-0.161460782139961 0.165955843379014 0.2625
-0.160690641191436 0.187642253558052 0.2625
-0.158727484118994 0.196350348929909 0.259512582646143
-0.141918911632258 -0.00781250000000003 0.00829659376086199
-0.140547093584832 -0.00781250000000003 0.0143397676161072
-0.141029797174929 -0.00781250000000003 0.03512649323637
-0.143648067581745 -0.00781250000000003 0.0407800327273213
-0.142529266315517 -0.00781250000000003 0.0450055665464125
-0.135197220570338 -0.00781250000000003 0.0576457921778082
-0.126731329346363 -0.2 0.254994321103875
-0.133668700257297 -0.195626771417846 0.26051994762441
-0.135260734840792 -0.189539705311846 0.2625
-0.131066398546001 -0.176126183829283 0.2625
-0.136064219921698 -0.164169756237484 0.2625
-0.131372006747568 -0.161077553184219 0.2625
-0.134564996844082 -0.147029422073251 0.2625
-0.134360155191234 -0.145230649180344 0.2625
-0.130404331522572 -0.127705996052239 0.2625
-0.138987103186852 -0.118488062170012 0.2625
-0.130867949497004 -0.105529249237569 0.2625
-0.134582137382658 -0.0998900122459163 0.2625
-0.137615871684164 -0.08997545764362 0.2625
-0.134777759957235 -0.0741410254950107 0.2625
-0.133365080635046 -0.0659335856386037 0.2625
-0.136734496707242 -0.0559540654849661 0.2625
-0.13944340381577 -0.0437358627315538 0.2625
-0.142153470044102 -0.0415694483012118 0.2625
-0.134153826431484 -0.0286583277616483 0.2625
-0.143473848611995 -0.0169731056716051 0.2625
-0.142333916735601 -0.00574492245880745 0.2625
-0.142300673085872 0.00445406684274546 0.2625
-0.141424612801376 0.018154341739196 0.2625
-0.137768240709637 0.0324681617181536 0.2625
-0.143750153795363 0.0429407846604984 0.2625
-0.138076350657919 0.0552156474013738 0.2625
-0.138681284265475 0.0572402515094899 0.2625
-0.147034525010781 0.071621066082814 0.2625
-0.146110727432654 0.0883003650187856 0.2625
-0.149623708384248 0.0903234602561081 0.2625
-0.144890861607645 0.113985337291478 0.2625
-0.149586416288545 0.126831203655565 0.2625
-0.141701324236604 0.132387269198237 0.2625
-0.148582316604864 0.145232373082419 0.2625
-0.149431826987279 0.152137360391522 0.2625
-0.144557408477324 0.164841231951933 0.2625
-0.143605772295339 0.178457622317483 0.2625
-0.134157521075077 -0.00781250000000003 0.00597990431251958
-0.125111248931174 -0.00781250000000003 0.0243276343055039
-0.130675100341064 -0.00781250000000003 0.030181057822216
-0.131380190283635 -0.00781250000000003 0.0389395222976428
-0.126526402900419 -0.00781250000000003 0.047962986589144
-0.132641167579358 -0.00781250000000003 0.0515373995502733
-0.121732525958978 -0.198379523769406 0.259143571448631
-0.124383582778666 -0.191865157389502 0.262400754638582
-0.117323126454793 -0.189018548149948 0.2625
-0.119447231846442 -0.172999592865906 0.2625
-0.125276089329754 -0.173325252707964 0.2625
-0.12396717162341 -0.161825268761996 0.2625
-0.119006466950931 -0.15721241101675 0.2625
-0.123998234211593 -0.138047420542785 0.2625
-0.122645677824389 -0.121142147838689 0.2625
-0.120651987686582 -0.11853460553834 0.2625
-0.12141390120594 -0.107971179936705 0.2625
-0.127766515666065 -0.105768545130317 0.2625
-0.127574860300782 -0.0793441176740881 0.2625
-0.127546150110724 -0.0798367820789538 0.2625
-0.128833682703875 -0.0674005870458886 0.2625
-0.126082572347806 -0.052145810254541 0.2625
-0.12648961061475 -0.0461029078621774 0.2625
-0.132963896587281 -0.0391361953192241 0.2625
-0.125711645610973 -0.0263555054870121 0.2625
-0.133127238292163 -0.0110073757467992 0.2625
-0.134364868995752 -0.00242184569156816 0.2625
-0.134459855851691 0.00465950267186302 0.2625
-0.129162041800795 0.0134858141450603 0.2625
-0.127408295910943 0.0246879723554022 0.2625
-0.134424993163982 0.0430765578272107 0.2625
-0.137200416594392 0.0474549033907291 0.2625
-0.137573348693991 0.0678822961727478 0.2625
-0.128194134102806 0.0747702392237378 0.2625
-0.133985330150676 0.0870803411935935 0.2625
-0.134982448670096 0.0981150068246134 0.2625
-0.139784043874069 0.111757790207866 0.2625
-0.139831796757207 0.118709133550022 0.2625
-0.138609514171651 0.131705083443711 0.2625
-0.136308175749984 0.145481821433391 0.2625
-0.13335724348956 0.161561829121497 0.2625
-0.138648055084284 0.170799771926827 0.2625
-0.135165398617687 0.173900754583529 0.2625
-0.134299048844746 0.189202115335888 0.2625
-0.116788102761504 -0.00781250000000002 0.00534334557455102
-0.11470185398893 -0.00781250000000002 0.0111295852825208
-0.123917532958359 -0.00781250000000003 0.0268333179920954
-0.12291239608582 -0.00781250000000003 0.0419154220370279
-0.1160737940122 -0.00781250000000002 0.053625253651308
-0.114928943065118 -0.00781250000000002 0.0584907219765593
-0.110242139139989 -0.198949975968673 0.258858345348997
-0.116558054600592 -0.196941469471787 0.259862598597439
-0.110363888242002 -0.184531770713492 0.2625
-0.116662504466915 -0.172413263861013 0.2625
-0.114438361542244 -0.164284173318353 0.2625
-0.110350243966305 -0.152102067437059 0.2625
-0.115179989110781 -0.151874979266904 0.2625
-0.115164500112345 -0.132490696218559 0.2625
-0.118419758254664 -0.131173207299032 0.2625
-0.114512102516019 -0.118919088230764 0.2625
-0.119745472997323 -0.116395379119582 0.2625
-0.119687706197593 -0.101603155161861 0.2625
-0.116103597596513 -0.0871555456907531 0.2625
-0.117559275346137 -0.076315336978937 0.2625
-0.115542462432969 -0.0675089222747688 0.2625
-0.115336906647782 -0.0626098580664585 0.2625
-0.121822949099769 -0.0455444146356461 0.2625
-0.12058205735241 -0.0308624462810457 0.2625
-0.119705688709415 -0.0243756913343277 0.2625
-0.123213026640575 -0.0214947160995716 0.2625
-0.115478447532193 0.00301731510287251 0.2625
-0.1204603145265 0.0134971251908672 0.2625
-0.120573015286419 0.0161361031299469 0.2625
-0.125278971731775 0.0342150147804613 0.2625
-0.122646496459639 0.0401282760677476 0.2625
-0.124248011061866 0.0538171039831943 0.2625
-0.119769794598569 0.0642402986442767 0.2625
-0.125080323383114 0.0757824217713658 0.2625
-0.126150801089151 0.0892355190960033 0.2625
-0.128978955866762 0.10012539243674 0.2625
-0.124357300894779 0.112581907193766 0.2625
-0.129412938291684 0.125756290448849 0.2625
-0.12048367763239 0.132031278626185 0.2625
-0.121131040010627 0.147031925794472 0.2625
-0.123819691255186 0.151085597943263 0.2625
-0.128090060710898 0.176171880522754 0.2625
-0.129004646253284 0.185769067293709 0.2625
-0.109817266195255 -0.00781250000000002 0.00815451591058339
-0.106507920210561 -0.00781250000000002 0.010830196717103
-0.10911244407887 -0.00781250000000002 0.0210672262252899
-0.107563335386153 -0.00781250000000002 0.0412980873966191
-0.112340899835089 -0.00781250000000002 0.0476469445954152
-0.103965215951014 -0.2 0.253871008326418
-0.104593696287057 -0.2 0.252923556268867
-0.105540035438318 -0.192542338140437 0.262062164263114
-0.106947492745477 -0.18929480589014 0.2625
-0.105445280363863 -0.177842094349711 0.2625
-0.100596144991457 -0.164788429433437 0.2625
-0.10707314716812 -0.155151547858277 0.2625
-0.108359717553133 -0.146448837841942 0.2625
-0.105131524368308 -0.143941028262657 0.2625
-0.104573234737455 -0.133256986738908 0.2625
-0.110135912902106 -0.126199624673104 0.2625
-0.103487257707825 -0.108805022175957 0.2625
-0.103694597090195 -0.0964679609154337 0.2625
-0.11053230533052 -0.0866588569045003 0.2625
-0.10530174192094 -0.077733511667726 0.2625
-0.106839875945001 -0.0655425759487036 0.2625
-0.110290742759876 -0.0517086312319062 0.2625
-0.110739626028637 -0.0460352381440128 0.2625
-0.111994700730811 -0.0375752058576922 0.2625
-0.107869987756539 -0.0228533653628134 0.2625
-0.105754255779494 -0.00558250107818364 0.2625
-0.107553397994226 -0.00206539175274454 0.2625
-0.109719520685321 0.00335059761250095 0.2625
-0.112434667074507 0.0152851314659686 0.2625
-0.109256404836867 0.0332477975507976 0.2625
-0.110253353623071 0.0439936398963777 0.2625
-0.111749721461562 0.0507479366245373 0.2625
-0.115086621472529 0.0658356031796691 0.2625
-0.111332149994285 0.0760469928521607 0.2625
-0.10906124973505 0.0851125683485498 0.2625
-0.111584719421992 0.0939741381161124 0.2625
-0.117916156408726 0.109791742990079 0.2625
-0.115593842504807 0.119031372677398 0.2625
-0.11222114160409 0.131779345534487 0.2625
-0.11522055293053 0.135996691588637 0.2625
-0.120820085881636 0.15080705318231 0.2625
-0.12017070243262 0.177086729494162 0.2625
-0.120174755146275 0.178498586534479 0.2625
-0.117501839783386 0.190890146064043 0.2625
-0.0995252360605138 -0.00781250000000002 0.00855030054191465
-0.100941640679328 -0.00781250000000002 0.0247366304295919
-0.1048069772487 -0.00781250000000002 0.0288662094094098
-0.095664132853848 -0.00781250000000002 0.0375966188545524
-0.0973478653071307 -0.00781250000000002 0.0431495592688071
-0.0998337263761558 -0.00781250000000002 0.0529804785780097
-0.0900798392452276 -0.199809127325962 0.258428769670352
-0.0904117182337226 -0.195191128404521 0.260737769131073
-0.0963031204004588 -0.188454245789806 0.2625
-0.0967446329348499 -0.183297386231934 0.2625
-0.0971183420282409 -0.174141755464913 0.2625
-0.0944899215472022 -0.153353559238357 0.2625
-0.0966294752404363 -0.149136786441124 0.2625
-0.097711431474602 -0.140211006662494 0.2625
-0.099143796217119 -0.127820935098456 0.2625
-0.0915086158451507 -0.116152736802093 0.2625
-0.0951884643766637 -0.108345112847502 0.2625
-0.101321490515884 -0.101872744786177 0.2625
-0.100819155857689 -0.0912479298497943 0.2625
-0.0942662398631303 -0.0786253249800591 0.2625
-0.0936311750514795 -0.0685332852931875 0.2625
-0.0988439407985623 -0.0542756915060424 0.2625
-0.0996284907656842 -0.0443957631745724 0.2625
-0.0995327853425575 -0.0392271186699817 0.2625
-0.0942865435593311 -0.0223438306183179 0.2625
-0.0992847399363656 -0.0178484656999355 0.2625
-0.0984402118455195 -0.00668991928669657 0.2625
-0.101215141405378 0.00444723048696959 0.2625
-0.105324497421478 0.0208808369568853 0.2625
-0.104117717648361 0.0292371166390397 0.2625
-0.0999741743907272 0.0404412699362714 0.2625
-0.100182402674879 0.0590375035425302 0.2625
-0.102547823877467 0.0687084547110223 0.2625
-0.102072552768011 0.0737687138098234 0.2625
-0.107498287628168 0.0859893988340916 0.2625
-0.102878472221717 0.103723756480585 0.2625
-0.101718871932941 0.11680938814067 0.2625
-0.105770097047907 0.122841308854272 0.2625
-0.0993506923515843 0.135355591499447 0.2625
-0.104264950400132 0.152803252435708 0.2625
-0.102142929574738 0.168942514090266 0.2625
-0.107925961493566 0.175119939578264 0.2625
-0.108078921262039 0.17293398278864 0.2625
-0.0871638046984941 -0.00781250000000002 0.0104322174815782
-0.0871266877961185 -0.00781250000000002 0.0133658654702397
-0.0907664997930574 -0.00781250000000002 0.0272370596318534
-0.0872027955024055 -0.00781250000000002 0.0333788655148482
-0.0878770551762613 -0.00781250000000002 0.0416080612507922
-0.0866280708075804 -0.2 0.251132820964597
-0.0816567364369599 -0.2 0.254338831106591
-0.0859096131369824 -0.188833793138906 0.2625
-0.0879494708682891 -0.18579589297203 0.2625
-0.0851085189511152 -0.177962758170526 0.2625
-0.0803043944221986 -0.167446633234308 0.2625
-0.0827330863740451 -0.16018213007683 0.2625
-0.087595167062588 -0.153231473849423 0.2625
-0.0870354968330495 -0.132136679134199 0.2625
-0.0883726024302363 -0.127188121992173 0.2625
-0.0900921254842328 -0.114849350884399 0.2625
-0.0865276867581675 -0.111143292153518 0.2625
-0.0824797655879292 -0.10328777936232 0.2625
-0.0871378371785946 -0.0817953731921753 0.2625
-0.0839492649352907 -0.0796376438631812 0.2625
-0.0899275213407191 -0.0705108204423317 0.2625
-0.0920440063289535 -0.0533198644351956 0.2625
-0.0872730406971857 -0.0391702618697026 0.2625
-0.086873857901288 -0.0351272944871407 0.2625
-0.0922924926435379 -0.0183179203375645 0.2625
-0.0896947391818427 -0.0114084632833833 0.2625
-0.0912740736904365 -0.00316469607097035 0.2625
-0.0881303738563882 0.0129172723606848 0.2625
-0.0921248966812287 0.0224727577277099 0.2625
-0.0931709695029564 0.0257240450521977 0.2625
-0.0904816390030849 0.0380354545948465 0.2625
-0.0891336979569656 0.0605735630374782 0.2625
-0.0921873411181748 0.0650115293496039 0.2625
-0.0921523831465616 0.0824816250043584 0.2625
-0.0948336382244422 0.0825713618595985 0.2625
-0.0914278483460577 0.0938153937928231 0.2625
-0.0918396772388932 0.119282240633004 0.2625
-0.0954839273136814 0.124336388233679 0.2625
-0.0954386219634984 0.134676726198856 0.2625
-0.0943302240822186 0.151398979127651 0.2625
-0.0990275798504705 0.163338151717969 0.2625
-0.0937555932721131 0.173341594941603 0.2625
-0.0928177622870162 0.17842760525069 0.2625
-0.0840951900312718 -0.00781250000000002 0.00613181654551293
-0.0842338255577877 -0.00781250000000002 0.0108748339934536
-0.0810955679357658 -0.00781250000000002 0.0276322122795061
-0.0759535007758859 -0.00781250000000002 0.0380973931858506
-0.0781247153140903 -0.00781250000000002 0.0528452427468423
-0.0843778608734964 -0.00781250000000002 0.04987515470503
-0.0735342652535017 -0.2 0.25790031835533
-0.0718678720195061 -0.198714834976936 0.258975915844865
-0.0790264511441791 -0.189039009245574 0.2625
-0.0776839602884191 -0.177381713532535 0.2625
-0.0717370005817446 -0.166675127959889 0.2625
-0.0786115839870659 -0.163093166989434 0.2625
-0.0778097165150237 -0.14350527376108 0.2625
-0.0729232593812401 -0.14105472070623 0.2625
-0.0781045661366376 -0.129849811532875 0.2625
-0.0750851735303706 -0.1198503727664 0.2625
-0.074898070297981 -0.107759083624801 0.2625
-0.0750638865666718 -0.0901070242012917 0.2625
-0.0790773625489497 -0.0829100414977358 0.2625
-0.0754344213346551 -0.0761112919842092 0.2625
-0.0752890588502338 -0.0691086181742341 0.2625
-0.074271076617843 -0.0573797987987027 0.2625
-0.0743325377941054 -0.0432567583989459 0.2625
-0.0752570630008639 -0.0311232360391615 0.2625
-0.0786162576931649 -0.0190492008630429 0.2625
-0.0790555821658271 -0.0164942466030113 0.2625
-0.0782900575923996 0.00568058440948161 0.2625
-0.076147792420074 0.0130955786025041 0.2625
-0.0812578348264116 0.0167621607614863 0.2625
-0.0796065795549958 0.02253979782549 0.2625
-0.0816212284899661 0.0371989107202733 0.2625
-0.0795467403093442 0.0475174683217404 0.2625
-0.0867787299040751 0.0672016882688918 0.2625
-0.0787629701200004 0.0784423864102442 0.2625
-0.0859225407213057 0.0909728643136756 0.2625
-0.0795459855007466 0.103644481640086 0.2625
-0.0823622122613311 0.102901854486029 0.2625
-0.0837891387935852 0.121761728239322 0.2625
-0.0837096937069389 0.140654597441043 0.2625
-0.0835573353050482 0.141710200307672 0.2625
-0.0800329839273961 0.156811981228161 0.2625
-0.0896617518573204 0.170514807127564 0.2625
-0.0804994547156053 0.176206063223127 0.2625
-0.072653599237558 -0.00781250000000002 0.0103583344830919
-0.0652904099123841 -0.00781250000000002 0.0216229982340806
-0.0714586152992347 -0.00781250000000002 0.0264025631609239
-0.0663941838288165 -0.00781250000000002 0.0364299916781505
-0.0718313734298786 -0.00781250000000002 0.052053863135537
-0.0710973257362788 -0.00781250000000002 0.0581657455811974
-0.0694974080114993 -0.198482858147582 0.259091904259543
-0.0679252117644881 -0.198758036184328 0.258954315241169
-0.0658716804903087 -0.184557273731789 0.2625
-0.0656340195746709 -0.172824502513336 0.2625
-0.0634481210126646 -0.171571711455039 0.2625
-0.0618575985391018 -0.162201370589336 0.2625
-0.0628362713342329 -0.14874946050136 0.2625
-0.0697604326483051 -0.133365826305759 0.2625
-0.0622295573113917 -0.131763127959884 0.2625
-0.069247306333369 -0.118732512835904 0.2625
-0.0662371253065205 -0.10455405227065 0.2625
-0.064796940870959 -0.0993002315446869 0.2625
-0.0633165834616398 -0.0906341676201261 0.2625
-0.0643085531120161 -0.073385512902749 0.2625
-0.0726886864868099 -0.0701273340016287 0.2625
-0.070532584419528 -0.0612302602300063 0.2625
-0.0694438440530254 -0.0469126422475503 0.2625
-0.0710596336005674 -0.0332783672651697 0.2625
-0.0677029007839233 -0.0243203939844393 0.2625
-0.0667302044976807 -0.00669897920177558 0.2625
-0.0651865633568003 0.00370690409599354 0.2625
-0.0676071749080542 0.00576525040626598 0.2625
-0.0734042829776864 0.0211162495565224 0.2625
-0.0658412053598143 0.0252145037030522 0.2625
-0.0743400136923775 0.0442054613167898 0.2625
-0.0719930601232417 0.0511952286095859 0.2625
-0.0669861233487915 0.0564842258472705 0.2625
-0.076641353992964 0.0739928702002787 0.2625
-0.0735305109282429 0.0834019389801148 0.2625
-0.0760328599057115 0.101712101842968 0.2625
-0.0730364445047764 0.107871970279157 0.2625
-0.0686072762841755 0.125429746141539 0.2625
-0.074431008914669 0.132734127594669 0.2625
-0.0692456676694697 0.14585448712573 0.2625
-0.0688644105165461 0.155904503152198 0.2625
