ply
format ascii 1.0
element vertex 1023
property float x
property float y
property float z
end_header
0.380662389362563 -0.0683533664850633 0.2625
0.36789780947643 -0.0811187396410489 0.2625
0.368484132237258 -0.0798526643047661 0.2625
0.360687007435496 -0.0895529782623048 0.2625
0.354001729128352 -0.100852879832748 0.2625
0.34759947197848 -0.104307810116881 0.2625
0.337398782766347 -0.117834191040144 0.2625
0.339263932149019 -0.116374596612312 0.2625
0.326714955838941 -0.126423650530234 0.2625
0.319586749898665 -0.135388595640592 0.2625
0.318257621628473 -0.150557666252836 0.2625
0.304361697893362 -0.158448839036691 0.2625
0.301096370318588 -0.157664545420147 0.2625
0.293846870892313 -0.174255228344831 0.2625
0.293655472695127 -0.178190432533859 0.2625
0.419412168121077 -0.0263932948576349 0.2625
0.408161219234819 -0.0438403136120191 0.2625
0.402375378318347 -0.0527143220346033 0.2625
0.40487436416981 -0.048968638814388 0.2625
0.396786940227224 -0.0635209795767087 0.2625
0.387998476184696 -0.0712043758312793 0.2625
0.376650912840977 -0.0784421172952131 0.2625
0.376769044710919 -0.0854281548427177 0.2625
0.377051470394208 -0.0850059529962607 0.2625
0.361664274640223 -0.100116888252119 0.2625
0.353989074511769 -0.115525736459778 0.2625
0.354687995784996 -0.10899266079546 0.2625
0.349870910399524 -0.127606680502714 0.2625
0.333671330869769 -0.134758673410043 0.2625
0.330807652890299 -0.136587377511514 0.2625
0.331230303273627 -0.148714871152338 0.2625
0.32415018384186 -0.147784545966811 0.2625
0.308851331538091 -0.159679249790708 0.2625
0.306037561446439 -0.167120120856721 0.2625
0.297927863917456 -0.180214943764029 0.2625
0.418202454575989 -0.0391643186510289 0.2625
0.420183042838939 -0.0489974290541345 0.2625
0.40807218902689 -0.0528061545098244 0.2625
0.410764639656847 -0.0585929745633895 0.2625
0.399958604352171 -0.0679860233465106 0.2625
0.396453708501503 -0.0767322277954165 0.2625
0.384034209204936 -0.0824994003074049 0.2625
0.3805651462429 -0.0905220891862153 0.2625
0.377193131188481 -0.10282752181276 0.2625
0.370052500814273 -0.110260770437879 0.2625
0.360513031327029 -0.112837913135762 0.2625
0.356580264190636 -0.122531043902256 0.2625
0.352446842046881 -0.132902853605183 0.2625
0.342614146677906 -0.13804299589508 0.2625
0.3373674684895 -0.145155400020953 0.2625
0.332676607634404 -0.153067861237309 0.2625
0.329780176526412 -0.154949941996449 0.2625
0.324771830143174 -0.16933925094422 0.2625
0.314851287646437 -0.176696692711987 0.2625
0.429076023294562 -0.052555727097446 0.2625
0.428501166120969 -0.0501252741802148 0.2625
0.4126771962103 -0.060125245275834 0.2625
0.412629080486453 -0.0666767178176253 0.2625
0.409149160415252 -0.0743904107579624 0.2625
0.398434672201164 -0.0799522675068985 0.2625
0.389012673760979 -0.0958677646651997 0.2625
0.387126599184749 -0.0977881651825428 0.2625
0.388839295061807 -0.098052101440184 0.2625
0.378951045650982 -0.114005076515251 0.2625
0.367740073810972 -0.118510654640714 0.2625
0.369865308634821 -0.125270298079316 0.2625
0.364496149331508 -0.130082571019507 0.2625
0.350363057739886 -0.149283939357642 0.2625
0.350421618227373 -0.149636925613045 0.2625
0.34506318698521 -0.163481710401709 0.2625
0.341292603188151 -0.166364391240142 0.2625
0.330387596726167 -0.18168768569251 0.260707501102454
0.319744139869297 -0.186365540552466 0.258756518904766
0.439903362760616 -0.0538158070470298 0.2625
0.43550100345309 -0.0615240746759715 0.2625
0.426023859363402 -0.0619716200005792 0.2625
0.42032474660634 -0.0727711083802707 0.2625
0.409060146600851 -0.0876621653719501 0.2625
0.405990291024271 -0.0891157481527766 0.2625
0.398748605973976 -0.0957845347517932 0.2625
0.397064484191552 -0.101950509842314 0.2625
0.390950311985545 -0.106277643729184 0.2625
0.384918147428658 -0.121310078537907 0.2625
0.376586519286494 -0.125268061297313 0.2625
0.373680771712009 -0.139101671522122 0.2625
0.371744086806761 -0.140836580231658 0.2625
0.362682396528334 -0.154547087760095 0.2625
0.351096491058718 -0.157040801220958 0.2625
0.347601775287977 -0.164119497108204 0.2625
0.341839030362437 -0.1767603692722 0.2625
0.442751350739341 -0.0536437622119891 0.2625
0.439657489402734 -0.0676794195926722 0.2625
0.428838393740866 -0.0813511187835114 0.2625
0.420925985125318 -0.0786243132514462 0.2625
0.423996381948819 -0.0911317237319101 0.2625
0.414873281613047 -0.092202961324846 0.2625
0.414260684306928 -0.101324897954712 0.2625
0.398470704905586 -0.110439757522691 0.2625
0.399135042760085 -0.117768135305494 0.2625
0.388493400710728 -0.124815437243383 0.2625
0.389343915964997 -0.13619997432738 0.2625
0.382281223529824 -0.141677725330914 0.2625
0.371657211371515 -0.151469336017715 0.2625
0.362513507970848 -0.158339884803076 0.2625
0.358826226710811 -0.162477568658392 0.2625
0.353744859004459 -0.177008530452656 0.262206796779325
0.350200568171378 -0.179752103649307 0.26096654669908
0.448322941783985 -0.0627123688113746 0.2625
0.444874838752406 -0.0683278686655399 0.2625
0.441327425733773 -0.0796873176201127 0.2625
0.434741093384521 -0.090732307589173 0.2625
0.428788937424245 -0.0968557328254875 0.2625
0.425671154955518 -0.0986661197220878 0.2625
0.412605301373382 -0.111174350208251 0.2625
0.413315228781257 -0.109774137418825 0.2625
0.398473800922636 -0.124045623116517 0.2625
0.40272491086727 -0.135254791038674 0.2625
0.390566244872535 -0.142972551482436 0.2625
0.388629954987917 -0.143089023617463 0.2625
0.379336010539264 -0.153725458464238 0.2625
0.376420321471571 -0.163631070147421 0.2625
0.364873704601355 -0.171620748349994 0.2625
0.358703526810292 -0.176569892720798 0.262248825968985
0.452617173402263 -0.0729464826049039 0.2625
0.448367346756868 -0.0838976851216591 0.2625
0.440092178553136 -0.0915656840305256 0.2625
0.439456872193174 -0.101222150820228 0.2625
0.430481847270288 -0.103073186193436 0.2625
0.424996911128007 -0.107964506780112 0.2625
0.420654391796663 -0.11855590600996 0.2625
0.411034521053406 -0.121487038295394 0.2625
0.406228762416327 -0.131650554102925 0.2625
0.403990419527221 -0.142687292201602 0.2625
0.398952815949305 -0.146779550317016 0.2625
0.38832785643659 -0.156294455055219 0.2625
0.387732729644945 -0.16432430445184 0.2625
0.381242878149606 -0.172206818658125 0.2625
0.464344350834946 -0.079305689267008 0.2625
0.457414366327425 -0.0818164100674404 0.2625
0.449521710218188 -0.0897725069010894 0.2625
0.451930102818591 -0.0952436447526717 0.2625
0.441170998413856 -0.107476427690406 0.2625
0.432020474745553 -0.117946151253716 0.2625
0.430707284655086 -0.12897097083308 0.2625
0.42529675402044 -0.125394970788178 0.2625
0.419985884460768 -0.137292974276509 0.2625
0.411149497365236 -0.146284221515688 0.2625
0.406613921887062 -0.149362965829898 0.2625
0.398894267539481 -0.163501609004359 0.2625
0.391669051708214 -0.170146336735145 0.2625
0.383668557671278 -0.182462339553201 0.258426069405935
0.473476747510174 -0.0764539312907431 0.2625
0.460794333081352 -0.0969692124720524 0.2625
0.454706508667844 -0.100101753939935 0.2625
0.456951574334166 -0.100456380593997 0.2625
0.443895577338041 -0.112580210432242 0.2625
0.439774304928971 -0.121492125880966 0.2625
0.436176504954729 -0.128087661434211 0.2625
0.43220929394382 -0.135293035698395 0.2625
0.418748574117959 -0.144228456116344 0.2625
0.419444704495389 -0.146227887176332 0.2625
0.415024261702017 -0.160232840257367 0.2625
0.406926608618588 -0.168389899584665 0.2625
0.39349427640849 -0.177675340216317 0.260460501183781
0.469383491707269 -0.094233395230998 0.2625
0.469034229919156 -0.10111616663503 0.2625
0.462101174942803 -0.0987528902722801 0.2625
0.465115306093628 -0.106525919613856 0.2625
0.450837310359384 -0.121451784729405 0.2625
0.45296163612542 -0.128632774626475 0.2625
0.440813802574454 -0.136746301980495 0.2625
0.43856995566322 -0.147744230317099 0.2625
0.434222197397531 -0.150419759554343 0.2625
0.426000061210863 -0.15862173084675 0.2625
0.422449216455458 -0.164121663305871 0.2625
0.404179430546134 -0.180401994136544 0.258722419372457
0.48439842794101 -0.102613397902996 0.2625
0.478751173847603 -0.100976506067506 0.2625
0.467292537262745 -0.114518112531358 0.2625
0.463943842342064 -0.113746054472167 0.2625
0.45474168750107 -0.130951626702956 0.2625
0.453486242638613 -0.132996811888899 0.2625
0.454628012651491 -0.14159979240454 0.2625
0.443773988325137 -0.156899097962798 0.2625
0.440131843643651 -0.153511925413826 0.2625
0.429018665991996 -0.161419687621074 0.2625
0.426799208865242 -0.169133752042687 0.2625
0.483383766084692 -0.108607863524451 0.2625
0.482884826773427 -0.111928563854577 0.2625
0.478449321679888 -0.118582175376324 0.2625
0.469725137246003 -0.126701672291292 0.2625
0.464473821274559 -0.134565523205551 0.2625
0.460662087449512 -0.142072051241037 0.2625
0.455699068400128 -0.156604833691759 0.2625
0.442780700628372 -0.158059171033504 0.2625
0.445064079603723 -0.165595421882193 0.2625
0.438459473710989 -0.164937845192354 0.2625
0.498556575369332 -0.108259731835677 0.2589107031856
0.4908189884777 -0.123425645079259 0.262005737942253
0.481847282519767 -0.125894733792455 0.2625
0.482919637491405 -0.125726553183934 0.2625
0.470903513577981 -0.145630123246084 0.2625
0.469709914604761 -0.14171264425011 0.2625
0.458812371057614 -0.151976046099737 0.2625
0.452475594650413 -0.167265605919253 0.2625
0.444346768672299 -0.170572090514427 0.26218880973353
0.5 -0.125825938975587 0.255216880378779
0.490823091111086 -0.126801208609941 0.262004096888899
0.48734947087901 -0.133883920214964 0.2625
0.484612805543506 -0.134332710839841 0.2625
0.482637184218569 -0.143966628694397 0.2625
0.469817303781702 -0.15621443455879 0.2625
0.462068229472256 -0.170517617435624 0.261585440892744
0.458805076602803 -0.172509202422896 0.260709692284844
0.458686249779204 -0.177250511607361 0.258352661430945
0.5 -0.129599461601547 0.256325955285536
0.497785744278376 -0.130190265557638 0.259219035621983
0.493088360980043 -0.134471598970387 0.261097988941316
0.494052922930658 -0.145506518364275 0.260712164161069
0.485837923886922 -0.155573627583192 0.2625
0.479809668387286 -0.165256447718648 0.2625
0.475562035366648 -0.170998537443619 0.260865848816959
0.497104043994431 -0.150203902762623 0.259491715735561
0.493206485490205 -0.152496253599836 0.261050739137251
0.494570048638986 -0.161190731397024 0.260505313877738
0.491202883548885 -0.168661863698995 0.259867969838773
-0.485425832927218 0.175379058569427 0.257542110195779
-0.490353423064877 0.173952380210408 0.25782196654797
-0.489854886204657 0.16575092689764 0.261248171880981
-0.489145969968845 0.164267412797714 0.261958043354365
-0.492481603703687 0.146043675039888 0.261340691851858
-0.498477446841502 0.142219067225618 0.258942354596732
-0.47780579592835 0.175923430375432 0.255617798834374
-0.476395193102918 0.176024203167973 0.256055994665381
-0.478840517866738 0.168887047430552 0.261800766915369
-0.484794172699619 0.158320061558019 0.2625
-0.48523783670014 0.143207946336018 0.2625
-0.48250543361785 0.146490789207487 0.2625
-0.487667423515503 0.132940170079936 0.2625
-0.488552910003581 0.115999834790246 0.2625
-0.491557646673777 0.104833337949454 0.261710274663823
-0.493179329775051 0.0957510010882626 0.261061601423312
-0.495526274799467 0.078855685010081 0.260122823413546
-0.498423604721551 0.0651323484206293 0.258963891444712
-0.499999172428413 0.0377906602359124 0.258333664361968
-0.467457827724196 0.176662684284648 0.255825697436509
-0.467570578181144 0.164298795390999 0.2625
-0.476093023096552 0.153202563236778 0.2625
-0.472019457669175 0.148586990889396 0.2625
-0.47984017912207 0.14451233553867 0.2625
-0.481536194993919 0.123278664256226 0.2625
-0.484500352853502 0.121114893676752 0.2625
-0.477748622698483 0.112228746301618 0.2625
-0.485858071303381 0.092925434249573 0.2625
-0.488648144027808 0.0819333406221637 0.2625
-0.489985763398099 0.0741249196930389 0.262339027974093
-0.492593781089514 0.0674314933840294 0.261295820897527
-0.495669293786894 0.0510802435183797 0.260065615818575
-0.490688736707237 0.0511661928544253 0.262057838650438
-0.49590135873258 0.0319114844182352 0.259972789840301
-0.49758339675137 0.0197041369619016 0.259299974632785
-0.464128424634229 0.176900535252206 0.257451167570201
-0.464875521168701 0.173177878040495 0.260160704219081
-0.459277863000025 0.169760859355217 0.262061596403948
-0.463955800032944 0.160518464411321 0.2625
-0.469860857765381 0.148343457382152 0.2625
-0.466533242030673 0.145314540058396 0.2625
-0.466147234463478 0.128796547285613 0.2625
-0.467422304362553 0.116785292698115 0.2625
-0.470045100806043 0.105217093217203 0.2625
-0.477580312342124 0.102672081172571 0.2625
-0.472492462338345 0.0870179292321994 0.2625
-0.479377892110515 0.0763510574242688 0.2625
-0.476233839815587 0.0668501786516511 0.2625
-0.478803487685032 0.055101242166705 0.2625
-0.484906041248496 0.0546202497198726 0.2625
-0.48406467049781 0.0307734396687381 0.2625
-0.491215006957338 0.023853022763295 0.261847330550398
-0.487500499182565 0.0143849642273836 0.2625
-0.48859739654966 -0.00453742448448752 0.2625
-0.494329950864426 -0.0144914091568159 0.260601352987562
-0.498096230511335 -0.0217193425388578 0.259094841128799
-0.49316892489467 -0.034217860814313 0.261065763375465
-0.496760040487671 -0.0636693990112037 0.259629317138264
-0.453191586960823 0.177681857715227 0.253308971187719
-0.45638388101132 0.177453801752004 0.257226893192161
-0.456155992729402 0.16486924577733 0.2625
-0.455847397574951 0.160736759282606 0.2625
-0.455645335741076 0.142725953606101 0.2625
-0.453702716029598 0.147031068766815 0.2625
-0.462728033365649 0.122877485896501 0.2625
-0.46531748710685 0.117805319904877 0.2625
-0.459027540697021 0.105070948950855 0.2625
-0.469164752826049 0.0942067136999849 0.2625
-0.465976450065896 0.0868728253242202 0.2625
-0.467588911697152 0.0791842822529211 0.2625
-0.469327984428831 0.0698276691838114 0.2625
-0.468794805559252 0.0625367280435646 0.2625
-0.473522976517317 0.0451038501338896 0.2625
-0.476756252713611 0.0358661417473651 0.2625
-0.477832126723408 0.0210737435225005 0.2625
-0.476286272979852 0.0111347880406911 0.2625
-0.475441124210171 0.00819779149594909 0.2625
-0.481574880840269 -0.00664195071199417 0.2625
-0.486678546459345 -0.0222910050640077 0.2625
-0.487983483306031 -0.0257878041675838 0.2625
-0.484278640699511 -0.0437008872392351 0.2625
-0.484966147436988 -0.0538347789341582 0.2625
-0.492528956802879 -0.0731522506543097 0.261321750612181
-0.487867038658011 -0.0709078089788885 0.2625
-0.491475066717148 -0.08731817413403 0.261743306646474
-0.499755996456965 -0.106989324780989 0.258430934750546
-0.497366403284485 -0.108479712424361 0.259386772019539
-0.498971300418864 -0.130391476548338 0.258744813165787
-0.499762627225656 -0.138022179708043 0.258428282443071
-0.438956714478167 0.178698790210804 0.25107356921508
-0.443409109654156 0.172269750139579 0.261376704467004
-0.44186655814221 0.168467060752431 0.2625
-0.440669399013946 0.157518723907233 0.2625
-0.446987740598661 0.147987197478199 0.2625
-0.448666798683408 0.139669232931796 0.2625
-0.446017718578013 0.126167965977363 0.2625
-0.450717355995264 0.120032891377162 0.2625
-0.449755722308687 0.109781858252636 0.2625
-0.456858476316414 0.104682094003868 0.2625
-0.460045308083536 0.0846936898118255 0.2625
-0.453357043024388 0.0807031983108057 0.2625
-0.463781122949672 0.0671643492849404 0.2625
-0.466171414574857 0.0519550720596789 0.2625
-0.465626861567979 0.0490977397980251 0.2625
-0.460481396984126 0.0348644271204611 0.2625
-0.462320151143254 0.020690070188771 0.2625
-0.47261610231659 0.0203411689071047 0.2625
-0.468378015194481 0.000209821507453079 0.2625
-0.469262563343057 -0.0084615976374319 0.2625
-0.47420340853982 -0.0196259047010221 0.2625
-0.470459026613746 -0.0261847686487325 0.2625
-0.471393756221291 -0.0390482895930959 0.2625
-0.476091349427037 -0.0522172938056207 0.2625
-0.477712558896036 -0.0632746147389929 0.2625
-0.477012620582011 -0.0776955411954097 0.2625
-0.486514323978831 -0.0818370924157839 0.2625
-0.482775039258412 -0.0942412592015417 0.2625
-0.483260071540652 -0.112231641666855 0.2625
-0.486274329918913 -0.122910989587904 0.2625
-0.491970147963161 -0.139909086703898 0.261545274148068
-0.497936282774342 -0.150593033649763 0.259158820223595
-0.434034726406041 0.175542576404988 0.260080300812517
-0.436406871743524 0.16898184297141 0.2625
-0.435965085456939 0.159695925463009 0.2625
-0.440416617900413 0.156785450635897 0.2625
-0.437327784057204 0.14337131213334 0.2625
-0.441515856057586 0.125893682223507 0.2625
-0.441884619135729 0.112711603733231 0.2625
-0.442743613586667 0.109804481148747 0.2625
-0.443663719394325 0.0950342026978785 0.2625
-0.442540092592635 0.0804899825613258 0.2625
-0.450085296350865 0.0692726603842403 0.2625
-0.4485923295361 0.0667661738017061 0.2625
-0.450436146973483 0.050249523377246 0.2625
-0.44781456210011 0.0482544969548685 0.2625
-0.453212218931141 0.032961619625453 0.2625
-0.456748849200092 0.0264103344025543 0.2625
-0.457912006863376 0.0188768997598862 0.2625
-0.459402813546177 5.94087975524479e-005 0.2625
-0.46589518699237 -0.00749809103027234 0.2625
-0.458129712242462 -0.0161077168306283 0.2625
-0.46709817397767 -0.0312027978397899 0.2625
-0.468270507368356 -0.0438649235580121 0.2625
-0.464036206144299 -0.0547244131978593 0.2625
-0.468103908840866 -0.0678334579869932 0.2625
-0.468825459383176 -0.0744793812290165 0.2625
-0.471403647547116 -0.0931378784455102 0.2625
-0.47811360635281 -0.0948493202208384 0.2625
-0.475454256034656 -0.114687989508179 0.2625
-0.480730655915205 -0.126944877676175 0.2625
-0.478829442392691 -0.13364891089017 0.2625
-0.48016084863183 -0.149124385948564 0.2625
-0.479623109073082 -0.156878136601645 0.2625
-0.424598948733811 0.179724502142337 0.251619852779581
-0.421352362005957 0.179956436748516 0.25442017457927
-0.426076606081923 0.179618939006703 0.258131131995627
-0.425210667700258 0.171824451528852 0.262245938853575
-0.42805241267233 0.1620295720468 0.2625
-0.432095764069632 0.146823062328837 0.2625
-0.426883850129421 0.136843493831723 0.2625
-0.429463677753096 0.125869492639707 0.2625
-0.434971605690822 0.111190520210678 0.2625
-0.43719943729189 0.107579496132317 0.2625
-0.430186943589843 0.100408542304713 0.2625
-0.434749772755796 0.0893863958939165 0.2625
-0.435331460680532 0.0776209601239241 0.2625
-0.436963707999658 0.0650485990942249 0.2625
-0.44611134953682 0.0501375620966732 0.2625
-0.446771628304697 0.048785250085004 0.2625
-0.444085277791993 0.0293921874278672 0.2625
-0.449812557106694 0.02972335303708 0.2625
-0.450207885143895 0.0155205596012717 0.2625
-0.448490179321095 0.00546695414150479 0.2625
-0.449409246802759 -0.00962056725554662 0.2625
-0.457362610004122 -0.0218901041793118 0.2625
-0.458689495401427 -0.0365712397438435 0.2625
-0.455479950647892 -0.0391558453299042 0.2625
-0.458494019251371 -0.0584393324028162 0.2625
-0.456655996239965 -0.0615393785858464 0.2625
-0.456362108784347 -0.0780605223951759 0.2625
-0.464470694439274 -0.0845758835758158 0.2625
-0.463623584045315 -0.0930600598584378 0.2625
-0.462971332103178 -0.107833635508493 0.2625
-0.465555582213204 -0.125392906113952 0.2625
-0.471756131244759 -0.145279814908221 0.2625
-0.474574787944805 -0.143371652157737 0.2625
-0.47386696603064 -0.15903209800204 0.2625
-0.418301404915666 0.176772657086156 0.26002746122388
-0.419577955086383 0.164843973617235 0.2625
-0.415306507762585 0.154632529629728 0.2625
-0.414217594623536 0.143218222859986 0.2625
-0.415128379464741 0.13762518813513 0.2625
-0.420898602633773 0.125477175332007 0.2625
-0.425191302784362 0.114559672659981 0.2625
-0.428476668653585 0.111207623239599 0.2625
-0.425200827797032 0.0979570583326356 0.2625
-0.424516405652122 0.094054929640918 0.2625
-0.433505688242281 0.0739812416962419 0.2625
-0.431610052059981 0.0687652154797131 0.2625
-0.431953920735588 0.0526589121219019 0.2625
-0.432204468269805 0.0422205087138116 0.2625
-0.43181597195634 0.0323551435343969 0.2625
-0.434030745585728 0.0221593827063966 0.2625
-0.438291792828068 0.0226603154662983 0.2625
-0.438993453541293 -0.00129272122466855 0.2625
-0.438989550291841 -0.00775507530580348 0.2625
-0.443690683382435 -0.0204510084213781 0.2625
-0.441259720697422 -0.0292228997682425 0.2625
-0.445578907886539 -0.0432906534573051 0.2625
-0.446999777377946 -0.059624454995931 0.2625
-0.447760390848639 -0.0659028877326104 0.2625
-0.447636306828262 -0.0756130740011307 0.2625
-0.447112966442287 -0.0803823949541175 0.2625
-0.451543373021456 -0.0930921947972982 0.2625
-0.458227248144489 -0.108588274877391 0.2625
-0.45963326715384 -0.116167696685913 0.2625
-0.463766674294166 -0.130834761860483 0.2625
-0.463111398072108 -0.153508237483031 0.2625
-0.462702343080945 -0.154223067900412 0.2625
-0.407932792694717 0.180915124374687 0.256737290375671
-0.401265979234346 0.176768539906733 0.260635601197424
-0.410551769136324 0.166414693072376 0.2625
-0.411831094059345 0.161510430007471 0.2625
-0.404754775780261 0.146203326063786 0.2625
-0.414364198812157 0.13756543443284 0.2625
-0.408020560699495 0.128840646298392 0.2625
-0.411928350286857 0.112801732044422 0.2625
-0.412222065562463 0.112190953708077 0.2625
-0.417411855185663 0.0994350779184194 0.2625
-0.413655475579545 0.0878779134777006 0.2625
-0.417861363225454 0.080323911163067 0.2625
-0.424534014315827 0.0637313987727591 0.2625
-0.426878003493445 0.0581339249107468 0.2625
-0.421280631869959 0.0493744518746146 0.2625
-0.420478682350783 0.039286893824009 0.2625
-0.424731388586519 0.0235461010992159 0.2625
-0.430410180909288 0.0107046625148499 0.2625
-0.431021740861092 0.0050198957716253 0.2625
-0.43005325229288 -0.00952899318031472 0.2625
-0.438635817187851 -0.020147547299591 0.2625
-0.437263879720884 -0.0356628929415404 0.2625
-0.434346468767669 -0.0408996956357693 0.2625
-0.434342131101953 -0.0465574023769066 0.2625
-0.434230672513381 -0.0695685307242647 0.2625
-0.440773855718815 -0.0751033770831475 0.2625
-0.446049772276796 -0.0870899208466574 0.2625
-0.448637458881212 -0.106973210314917 0.2625
-0.448987636109755 -0.110537279073332 0.2625
-0.443109830426873 -0.124208653334756 0.2625
-0.444568480813296 -0.137766317628516 0.2625
-0.447972443558836 -0.143389670340533 0.2625
-0.453322577891342 -0.160418932312957 0.2625
-0.39973765845489 0.181500580853081 0.251539112684733
-0.395284693158333 0.17499450806645 0.261731904736094
-0.400372132701338 0.170170861968493 0.2625
-0.396252830786821 0.158869884369399 0.2625
-0.39835106992981 0.148525433487455 0.2625
-0.402783527544027 0.141975388790074 0.2625
-0.406701693781831 0.122323166217096 0.2625
-0.400303007417484 0.117473584019367 0.2625
-0.400561605110043 0.107988211929169 0.2625
-0.401497084291287 0.105147689715697 0.2625
-0.402302785060283 0.090675820630987 0.2625
-0.412281217077355 0.0798377003367971 0.2625
-0.415448350744553 0.0664735412218553 0.2625
-0.413031681363478 0.0607366960452416 0.2625
-0.417443434962028 0.0476939294456529 0.2625
-0.416152340993315 0.0394821798819901 0.2625
-0.414721517250468 0.0182550542439833 0.2625
-0.41730006414413 0.0119974963419898 0.2625
-0.415150130024993 0.00633556306421977 0.2625
-0.425050836421536 -0.0140198855984371 0.2625
-0.426399568333859 -0.0118279429375548 0.2625
-0.422186160341305 -0.034164232908934 0.2625
-0.428926475717849 -0.0374305905468774 0.2625
-0.429560483693756 -0.0521729424716934 0.2625
-0.427204677803476 -0.0598661955277266 0.2625
-0.427482727116758 -0.0697588457084555 0.2625
-0.433088439740288 -0.0917722606853792 0.2625
-0.439156688948316 -0.0996644500560873 0.2625
-0.438982680337953 -0.109059401038296 0.2625
-0.439307863437614 -0.119012659338409 0.2625
-0.434372649934917 -0.129371403883479 0.2625
-0.442165151044019 -0.147559614942257 0.2625
-0.439080463728391 -0.158058544456126 0.2625
-0.448302553658488 -0.176215275800449 0.259237660826218
-0.390344936558733 0.182171592422012 0.253224302932608
-0.381730369600126 0.174091872208203 0.2625
-0.391220492748012 0.163365311083963 0.2625
-0.39142266811345 0.162863650465586 0.2625
-0.385125546757228 0.146914278068587 0.2625
-0.386983530273283 0.136487230095004 0.2625
-0.39622028209231 0.129010612043019 0.2625
-0.398265776106582 0.116825816444074 0.2625
-0.39647017512927 0.108291409039958 0.2625
-0.392975514324217 0.0973206294858004 0.2625
-0.400054161960435 0.0861811457933149 0.2625
-0.403329054953732 0.0769938153248561 0.2625
-0.399828238483111 0.0653830163757103 0.2625
-0.401595732654992 0.0599587137628495 0.2625
-0.402222668610758 0.0480412123598925 0.2625
-0.40063551661877 0.0313434764464376 0.2625
-0.409230632538348 0.0198913557773675 0.2625
-0.408577211496111 0.0128123231192756 0.2625
-0.411332036042722 -0.00494362171579663 0.2625
-0.414344988303319 0.0015340437429705 0.2625
-0.414077193956386 -0.0209396014053004 0.2625
-0.411838086538795 -0.0339432395888646 0.2625
-0.419903544660255 -0.0379828267914325 0.2625
-0.420066505750378 -0.053452866939145 0.2625
-0.414242278980696 -0.0626896134168538 0.2625
-0.419346202872835 -0.0729602023500174 0.2625
-0.423600586793932 -0.0857192215895643 0.2625
-0.423889117403215 -0.0982681475890725 0.2625
-0.42328951886335 -0.117858682099084 0.2625
-0.426576954057951 -0.118982848958335 0.2625
-0.425979785842182 -0.134343197063622 0.2625
-0.429530747995188 -0.139251227091307 0.2625
-0.431121842248396 -0.156711657190354 0.2625
-0.434610498345254 -0.16511049939874 0.2625
-0.373312989056396 0.183388346621896 0.255117482336874
-0.378559436862611 0.183013542894853 0.255525372670824
-0.380069390305547 0.177186546449285 0.261181562494096
-0.37392787426175 0.163087731692579 0.2625
-0.374882871312235 0.156294800559986 0.2625
-0.379266825690855 0.155886151168022 0.2625
-0.386200180417793 0.141284240926174 0.2625
-0.381600568918529 0.125432848635986 0.2625
-0.386208899936193 0.109713867982941 0.2625
-0.388856103634855 0.113002282724405 0.2625
-0.39154807192307 0.0971806958390243 0.2625
-0.385802208871296 0.0906476306970434 0.2625
-0.393680933769048 0.0789375322584165 0.2625
-0.389663960913402 0.0703078014376166 0.2625
-0.395047395737721 0.0553702722520655 0.2625
-0.390438155368963 0.0540369651997765 0.2625
-0.400185526013684 0.0283923046332424 0.2625
-0.393989083753021 0.0245329220654294 0.2625
-0.400034825665143 0.0117134990330381 0.2625
-0.400939721632662 0.00546496242699567 0.2625
-0.401257499715241 -0.00355887597540873 0.2625
-0.404818444955494 -0.0154892990850187 0.2625
-0.405069544306066 -0.0313114714857326 0.2625
-0.408325349841309 -0.0439793797779672 0.2625
-0.412846967257598 -0.0572278554625892 0.2625
-0.412217174430599 -0.0649928522156165 0.2625
-0.409914868576109 -0.077299984938884 0.2625
-0.406954086008429 -0.0843256467652993 0.2625
-0.41521276531087 -0.105606944687106 0.2625
-0.413420117197328 -0.103715596825211 0.2625
-0.419751930646422 -0.122478795425405 0.2625
-0.417984237902677 -0.133227591490436 0.2625
-0.419996111535795 -0.15234144889857 0.2625
-0.419492015934747 -0.156774173329723 0.2625
-0.422618132830942 -0.166614390916417 0.2625
-0.367361095366039 0.181391075744301 0.259539768258651
-0.364046901450779 0.177583312469216 0.261554016863957
-0.368585831691915 0.169710378874538 0.2625
-0.364231909885571 0.159115788241817 0.2625
-0.367098675538689 0.14713969145197 0.2625
-0.368676357210073 0.135928405274549 0.2625
-0.371286134885823 0.123442831777302 0.2625
-0.372861490129409 0.11542222433339 0.2625
-0.375886368533637 0.113707225122143 0.2625
-0.372852697526365 0.100055896287678 0.2625
-0.379040700966501 0.0868470056967961 0.2625
-0.384127204036475 0.0833124928963581 0.2625
-0.381692496920257 0.0692463703010722 0.2625
-0.382936502863353 0.0573396670982794 0.2625
-0.379689177399319 0.0535134433859465 0.2625
-0.38504186196757 0.0401639188057062 0.2625
-0.383310086344058 0.0287277989208401 0.2625
-0.385018857522615 0.0189999368747949 0.2625
-0.391515116581656 0.00518312050305768 0.2625
-0.388999916516548 -0.00454805220308957 0.2625
-0.388366980639698 -0.0233610655222431 0.2625
-0.394667257104043 -0.0368268821182569 0.2625
-0.396092527802151 -0.0455176753349639 0.2625
-0.400288488424973 -0.0540818412133694 0.2625
-0.395632567297463 -0.057432000591544 0.2625
-0.399733178504231 -0.0739282032592566 0.2625
-0.40397527598694 -0.0893895799099678 0.2625
-0.404558499749535 -0.093400637558897 0.2625
-0.406237864709989 -0.108245613767233 0.2625
-0.402667613943771 -0.124900855384119 0.2625
-0.408940835847563 -0.128981619615328 0.2625
-0.411497413407296 -0.14116485978856 0.2625
-0.415633152450221 -0.159305615935802 0.2625
-0.410997502121605 -0.162760724735296 0.2625
-0.357269161829932 0.182642073525742 0.259275801222571
-0.357528122409251 0.178872254396832 0.261144026595524
-0.361523775919536 0.174374458650158 0.2625
-0.355962333274321 0.161246981289875 0.2625
-0.357244387637721 0.139561899542109 0.2625
-0.365034029829911 0.138195438658776 0.2625
-0.360945488938771 0.133904066829066 0.2625
-0.361843529992401 0.125885673029991 0.2625
-0.370862826910057 0.112472995478334 0.2625
-0.364263306098845 0.101478376907533 0.2625
-0.371669411703678 0.080905730569497 0.2625
-0.367780643388289 0.0819500149142543 0.2625
-0.367754418310031 0.0632590132312734 0.2625
-0.37328626457791 0.0486042122768562 0.2625
-0.377178468815298 0.0506877629868755 0.2625
-0.380008382826708 0.0386775779189341 0.2625
-0.377344664596644 0.026956979332825 0.2625
-0.378785608987182 0.0208406782296484 0.2625
-0.382786927646609 -0.000460527508178229 0.2625
-0.377951395102098 -0.00447083436243367 0.2625
-0.386637600221685 -0.0178028289753329 0.2625
-0.386432407774725 -0.0226407480717925 0.2625
-0.386810104927786 -0.0354642975786822 0.2625
-0.387077077475588 -0.0512365700132895 0.2625
-0.390148853094479 -0.0646402235139037 0.2625
-0.385548304179605 -0.0717688071497014 0.2625
-0.39147967264569 -0.0861892204136823 0.2625
-0.39469937737259 -0.0907566338054239 0.2625
-0.398160576330866 -0.1086780279811 0.2625
-0.395617743432802 -0.119350865204746 0.2625
-0.396232539369599 -0.131641315675917 0.2625
-0.402834114732044 -0.136567165626399 0.2625
-0.404178807867671 -0.147870428515454 0.2625
-0.4067266662857 -0.173507039364054 0.262065606646451
-0.348406542986863 0.185167651240768 0.254354216044145
-0.343412834138424 0.184641186831211 0.258773189318714
-0.347625607013417 0.180714138502166 0.2605790482334
-0.348220373141006 0.161117812996431 0.2625
-0.351589790774547 0.151611233646934 0.2625
-0.349482183056418 0.147873161891378 0.2625
-0.348511168089544 0.141011190549487 0.2625
-0.351453224264138 0.122788158825669 0.2625
-0.351820544501772 0.118066943075799 0.2625
-0.355822026734712 0.108273143771879 0.2625
-0.358395250959981 0.0982690408744675 0.2625
-0.354288161432474 0.0872948953551766 0.2625
-0.35688790124496 0.0707862837360031 0.2625
-0.364884844444909 0.0753680266817517 0.2625
-0.365862482310857 0.0546410031807337 0.2625
-0.360675686603282 0.0489059400343366 0.2625
-0.362510125198337 0.0252397361218215 0.2625
-0.362057659670487 0.0247115053524899 0.2625
-0.371542411904617 0.0105068049115024 0.2625
-0.368296456838404 -0.00107099495056916 0.2625
-0.367815428289668 -0.00029188838444257 0.2625
-0.37461191455147 -0.019059375362042 0.2625
-0.374047472885043 -0.037261750892976 0.2625
-0.37050859592135 -0.0407538318018501 0.2625
-0.372445758876927 -0.0578089571570948 0.2625
-0.381135290398987 -0.0611080580244425 0.2625
-0.376644812354994 -0.076604335565071 0.2625
-0.380477228822437 -0.0840253861644812 0.2625
-0.376989448316118 -0.096930956686246 0.2625
-0.380283210840172 -0.106366109155371 0.2625
-0.380860044482926 -0.123142865555457 0.2625
-0.387663474123801 -0.136590957491801 0.2625
-0.386343844374689 -0.146591557697723 0.2625
-0.391724152625952 -0.157373805332268 0.2625
-0.392615493891121 -0.170458486209158 0.2625
-0.339836693665049 0.185779877185761 0.250370026695391
-0.334754720911483 0.183946286827275 0.259427302164299
-0.335084581974845 0.177282358315321 0.2625
-0.343499471487664 0.160953212064298 0.2625
-0.345308765922828 0.156766339016143 0.2625
-0.341283891567839 0.152679265370254 0.2625
-0.339981118511832 0.134393704356535 0.2625
-0.345733578620592 0.123761464180885 0.2625
-0.342641979954197 0.115972177658225 0.2625
-0.348020194262792 0.110562350004853 0.2625
-0.350475952774702 0.0919872270578335 0.2625
-0.354148019473475 0.088921189555147 0.2625
-0.346425627823865 0.0787617228064023 0.2625
-0.347504061953144 0.0595809516166849 0.2625
-0.347755846428328 0.0652223789522619 0.2625
-0.353516397044062 0.0450474938076289 0.2625
-0.360269196445061 0.0367623445811855 0.2625
-0.356281996504386 0.0197225864328952 0.2625
-0.355005870995191 0.0128699807058837 0.2625
-0.354968608114761 0.00251412004202418 0.2625
-0.363136333729049 -0.00684840107053197 0.2625
-0.363465306525751 -0.0224616799221499 0.2625
-0.3630364892751 -0.0330776798521139 0.2625
-0.369422183859485 -0.0378057086055407 0.2625
-0.364161843528735 -0.0574496729458333 0.2625
-0.367520614413208 -0.0611560492488959 0.2625
-0.364579642189429 -0.0748981007453434 0.2625
-0.373636631964869 -0.093170248752397 0.2625
-0.371241625276052 -0.0941072535368611 0.2625
-0.374401222450528 -0.111915959642801 0.2625
-0.372409875722478 -0.119465887976113 0.2625
-0.370801374024045 -0.134041225866893 0.2625
-0.372613043373679 -0.144285956151235 0.2625
-0.382735805496763 -0.160659309989687 0.2625
-0.37534958378052 -0.171156839887004 0.2625
-0.324057100147379 0.181717157215425 0.260918051330821
-0.332590652399624 0.17927742808047 0.261829472652923
-0.33456320360633 0.168512170679343 0.2625
-0.327384433382575 0.165858311861975 0.2625
-0.33016231761599 0.141107947971305 0.2625
-0.329332781939177 0.138428583924916 0.2625
-0.338923318918941 0.128898188632518 0.2625
-0.338514143492346 0.11930594893798 0.2625
-0.33305487475576 0.109900077893173 0.2625
-0.340095359758323 0.102445204240693 0.2625
-0.341866235077287 0.0939465131339841 0.2625
-0.338863631707509 0.0819783472516222 0.2625
-0.344953288943992 0.0626336389981883 0.2625
-0.33832460097741 0.06339374873848 0.2625
-0.345501791842603 0.0458745147295295 0.2625
-0.349545805791382 0.0371103071259262 0.2625
-0.351787425445372 0.0226853993499755 0.2625
-0.350137753150754 0.0201581431675446 0.2625
-0.345796519335659 -0.00082432047224715 0.2625
-0.3505080814054 -0.0106026285610441 0.2625
-0.353756822800745 -0.0184949273253405 0.2625
-0.350125654062347 -0.0268159461234552 0.2625
-0.356137322072391 -0.0508619185043027 0.2625
-0.35269820644555 -0.0503511423893174 0.2625
-0.360307081281832 -0.0630243156315853 0.2625
-0.353214459541501 -0.0666362378388538 0.2625
-0.359904888293976 -0.096450498002309 0.2625
-0.359626305835043 -0.0962904416516941 0.2625
-0.367320463921869 -0.118902118492935 0.2625
-0.364662185838101 -0.131243639093492 0.2625
-0.365805574226262 -0.136548376806841 0.2625
-0.36341979559124 -0.147041435129729 0.2625
-0.364513684213629 -0.158515296708765 0.2625
-0.368750920475551 -0.173377654283617 0.2625
-0.323084021803436 0.186976680067175 0.250376916445719
-0.320449781036251 0.184846753310499 0.259487797234531
-0.323933262046319 0.17962461708041 0.261964580439245
-0.323141956102267 0.16833462787938 0.2625
-0.322801555032743 0.158509214311753 0.2625
-0.322392581162568 0.153581308780172 0.2625
-0.322934974436961 0.138181687094923 0.2625
-0.328704860229492 0.126604794983941 0.2625
-0.327426399066909 0.116859482630262 0.2625
-0.325489325506517 0.105021261379348 0.2625
-0.3310804518077 0.0986099426233671 0.2625
-0.327962263376363 0.081957365535099 0.2625
-0.330691756878969 0.0788611530742184 0.2625
-0.329920815968133 0.0715559498285606 0.2625
-0.328294624901613 0.0623146280868322 0.2625
-0.332757594464091 0.0445779895818149 0.2625
-0.334833660158144 0.0333542132016405 0.2625
-0.336879653314847 0.0182510163262393 0.2625
-0.3375236392062 0.0134847834766826 0.2625
-0.340796166999926 0.00088721583776709 0.2625
-0.338569386264868 -0.0078256566601293 0.2625
-0.347566166672527 -0.0187128217641331 0.2625
-0.344390091206352 -0.0381473562547437 0.2625
-0.342702946696695 -0.0386832957843316 0.2625
-0.348084428774593 -0.0435228513461113 0.2625
-0.351077770284719 -0.0605362636954535 0.2625
-0.343635461079768 -0.0753954412739642 0.2625
-0.350166615651906 -0.0872070186429337 0.2625
-0.352689188174015 -0.0987672424375978 0.2625
-0.34741293947698 -0.108067338785562 0.2625
-0.352726634948782 -0.121818725066714 0.2625
-0.358739093106311 -0.135850746012048 0.2625
-0.361887887609883 -0.14826364798132 0.2625
-0.357325508807814 -0.153975421995017 0.2625
-0.358992540669404 -0.170067324165577 0.2625
-0.313755957836729 0.187192177564796 0.258557887241559
-0.305522928242601 0.180093094209679 0.262386276559694
-0.312274398357111 0.164960738925554 0.2625
-0.311545137505719 0.151071919743864 0.2625
-0.315696464235361 0.14876992396105 0.2625
-0.314778353213875 0.135255973878986 0.2625
-0.312758069178304 0.128905903414809 0.2625
-0.318430355552593 0.127291935150018 0.2625
-0.314672185230806 0.106699056777997 0.2625
-0.321298490229338 0.100390772127278 0.2625
-0.319532337886022 0.0918972497182832 0.2625
-0.321927161001016 0.0749468990656061 0.2625
-0.325608268202656 0.0596776737146959 0.2625
-0.327461500854297 0.0645602545221039 0.2625
-0.321937432531076 0.0470569476959441 0.2625
-0.324883129073119 0.0340323927854912 0.2625
-0.327085564949403 0.0265068621925741 0.2625
-0.324807884336051 0.0142256377964027 0.2625
-0.329756634936517 -0.000314554137008412 0.2625
-0.327336607901205 -0.0103509971379936 0.2625
-0.335868383343993 -0.0176700535612867 0.2625
-0.332950827493668 -0.028704069937678 0.2625
-0.333476116077969 -0.0448257316155009 0.2625
-0.331634939231242 -0.0507703027581784 0.2625
-0.339089863543321 -0.0626121826120265 0.2625
-0.338799795249255 -0.0703267350121617 0.2625
-0.334506732534309 -0.0807512826603264 0.2625
-0.336213649354528 -0.0929166041713298 0.2625
-0.344019672922573 -0.106907232680379 0.2625
-0.348082696154426 -0.132512840084189 0.2625
-0.341958749238773 -0.133548885472333 0.2625
-0.341442434146838 -0.145689250061349 0.2625
-0.344978558976695 -0.154914496923737 0.2625
-0.352452996306413 -0.16418798452753 0.2625
-0.304273829001036 0.188320471262504 0.251781636820859
-0.296598802011829 0.188613656971172 0.258460385037737
-0.305579487989931 0.17811583915125 0.2625
-0.305921701128512 0.164875305405966 0.2625
-0.299724008170325 0.160230293345187 0.2625
-0.299921799157143 0.151438529663302 0.2625
-0.303536326483883 0.138701309739619 0.2625
-0.301949378322472 0.127721274658565 0.2625
-0.303105281154006 0.124053155355314 0.2625
-0.308772485955871 0.10715896024051 0.2625
-0.314278279800494 0.0973914172134903 0.2625
-0.308165316629544 0.0825619712095465 0.2625
-0.309701652850074 0.0767989214519793 0.2625
-0.315293244768656 0.0658790462190657 0.2625
-0.318346482537605 0.0566542047735042 0.2625
-0.315099538836165 0.045668079168642 0.2625
-0.321159109844343 0.0314588407159411 0.2625
-0.313854248184445 0.0265987989063386 0.2625
-0.314242133083691 0.0152845116229354 0.2625
-0.323938881709482 0.00974292468679614 0.2625
-0.324838159992652 -0.0135427746597553 0.2625
-0.316552822362212 -0.0190204010738641 0.2625
-0.318327536613267 -0.0260746127248231 0.2625
-0.327608709041259 -0.0433974041101555 0.2625
-0.326603202072873 -0.0495754104661042 0.2625
-0.324241650436271 -0.0734784293822567 0.2625
-0.327906341749757 -0.0689503915990264 0.2625
-0.334280618745154 -0.0885137940462685 0.2625
-0.328901360464122 -0.0959649703479235 0.2625
-0.332666815558386 -0.11780962231435 0.2625
-0.33559566745818 -0.125195905069539 0.2625
-0.337049272741005 -0.138570504277525 0.2625
-0.337135511926405 -0.145522728644818 0.2625
-0.334650480059283 -0.158054371829365 0.2625
-0.337126782694296 -0.170029705328611 0.2625
-0.288195747984601 0.189469081695934 0.256248804942175
-0.290277959685187 0.181700254434373 0.262128269765688
-0.289851050759487 0.181438217946269 0.262273957363749
-0.291486269532021 0.173066828777649 0.2625
-0.289078783595181 0.160057340203696 0.2625
-0.290742832439601 0.155505091066756 0.2625
-0.291067327447744 0.140579320032485 0.2625
-0.292168431565401 0.1266903111554 0.2625
-0.295974865826825 0.119744261538826 0.2625
-0.297015345521419 0.111279729982314 0.2625
-0.303554214681656 0.0966839758494393 0.2625
-0.304221317352421 0.0864189481140169 0.2625
-0.306550895690907 0.0812841052234471 0.2625
-0.302160148805125 0.0645791660953929 0.2625
-0.308233516208854 0.0547144537325864 0.2625
-0.306530497461766 0.0512749891817209 0.2625
-0.303865783652914 0.0270851996285814 0.2625
-0.311186965170713 0.02653566634768 0.2625
-0.306661205233547 0.0141743288091624 0.2625
-0.310310235044454 -0.000728532566569189 0.2625
-0.313072873029982 -0.0036443937308316 0.2625
-0.308192804769597 -0.0131990745052278 0.2625
-0.311200043228269 -0.034154034078101 0.2625
-0.309431533666429 -0.0414231771449277 0.2625
-0.315875312449316 -0.0545610161792985 0.2625
-0.311867065375425 -0.0634772148468084 0.2625
-0.316247198897722 -0.0759565121022605 0.2625
-0.315828932959745 -0.0856189925528313 0.2625
-0.32052587067026 -0.103384620758992 0.2625
-0.326167962839955 -0.109939494575608 0.2625
-0.317791302963566 -0.123077317893975 0.2625
-0.320227587504764 -0.13639484487205 0.2625
-0.328048754790928 -0.146538834704039 0.2625
-0.324328658053705 -0.157744378030487 0.2625
-0.331316433312283 -0.176257851232525 0.2625
-0.330110147769582 -0.18099533625133 0.261062174889234
-0.281476764591315 0.189949082662448 0.250097001616455
-0.278876055389233 0.190134876086475 0.253074995551254
-0.280844507215577 0.188839709623469 0.25890831592189
-0.279623882861219 0.183792577483654 0.261465307431549
-0.286377932821361 0.167065926231138 0.2625
-0.285316090424658 0.162082981113575 0.2625
-0.288440297134814 0.148076228682694 0.2625
-0.281568443430357 0.142915590709224 0.2625
-0.282400115974422 0.13159942145826 0.2625
-0.285097234372768 0.119908022475476 0.2625
-0.286895019253046 0.113671690463798 0.2625
-0.286886131549392 0.0909909994708354 0.2625
-0.295565432620346 0.087851185656553 0.2625
-0.291048948897109 0.0765334482879321 0.2625
-0.291700953229152 0.0642183803933744 0.2625
-0.295520911143607 0.0636156788532182 0.2625
-0.293951231836822 0.0435460297400696 0.2625
-0.292224502627738 0.037653375076315 0.2625
-0.295760595083787 0.0271165802465566 0.2625
-0.294813162279045 0.0137400368873217 0.2625
-0.295994172220813 0.00291765008111427 0.2625
-0.302059343539455 -0.0159202096608454 0.2625
-0.299034856313739 -0.0149368251234052 0.2625
-0.304721428276692 -0.0269318517199983 0.2625
-0.307639640955652 -0.0490055961280974 0.2625
-0.30717892972709 -0.0441765910707087 0.2625
-0.309621174910064 -0.0571838425561108 0.2625
-0.308979684958662 -0.0709784354417215 0.2625
-0.305840828291123 -0.0934485127099996 0.2625
-0.31208166291738 -0.102785942783414 0.2625
-0.30860134607605 -0.112400506577771 0.2625
-0.314939811047015 -0.118341395914147 0.2625
-0.314164283107411 -0.132629291432682 0.2625
-0.318708835832134 -0.142533080116858 0.2625
-0.315451357110161 -0.160876628315721 0.2625
-0.316323813089645 -0.16768515475806 0.2625
-0.274939425434176 0.189524947413753 0.258777147095429
-0.271089144131413 0.186272095219003 0.260534112873078
-0.276180514938676 0.175641159327608 0.2625
-0.269521449134297 0.170534266543616 0.2625
-0.27111359918104 0.158650314167996 0.2625
-0.274341525720864 0.152971688949314 0.2625
-0.279007230555954 0.13578100294228 0.2625
-0.274664607549523 0.135006429006761 0.2625
-0.278422526442183 0.11427408630607 0.2625
-0.283862395407631 0.104302204837597 0.2625
-0.283060207998377 0.0994951340035817 0.2625
-0.282899448979702 0.0863045788290394 0.2625
-0.28008468954842 0.0864027741669063 0.2625
-0.282977188644999 0.0633565213030561 0.2625
-0.279342695764943 0.066334290167645 0.2625
-0.281083978197505 0.0425399503193357 0.2625
-0.283198493902713 0.0305176768973378 0.2625
-0.285062195862221 0.0264651202168102 0.2625
-0.284156427373903 0.0168530437621689 0.2625
-0.290917222769858 0.0062418537138622 0.2625
-0.28596888201391 -0.00984735013144262 0.2625
-0.291739240906892 -0.020825647103637 0.2625
-0.29217065630587 -0.0291804939837278 0.2625
-0.290443607189731 -0.0340077584874806 0.2625
-0.29374036237552 -0.0563767512214867 0.2625
-0.29090272558077 -0.0601338407228606 0.2625
-0.300956555946689 -0.0673984819062015 0.2625
-0.293344726141046 -0.0900292520236861 0.2625
-0.298424718525957 -0.104991995311119 0.2625
-0.299310162883337 -0.11144825197017 0.2625
-0.30135049814409 -0.119237881776387 0.2625
-0.299627841794288 -0.130027332983012 0.2625
-0.299107369614923 -0.146119781955099 0.2625
-0.301567436391904 -0.164215660767156 0.2625
-0.305572605689575 -0.164054986593573 0.2625
-0.259512115380932 0.191518226717879 0.257920026715589
-0.259074983921476 0.182029673504288 0.2625
-0.262293586120313 0.176048161610159 0.2625
-0.2604609569448 0.166386258185653 0.2625
-0.26152683231443 0.166906077537882 0.2625
-0.261194777474466 0.151622453714565 0.2625
-0.26871929410187 0.142238930646574 0.2625
-0.270244068554705 0.124999651233206 0.2625
-0.265302530014609 0.118515535851052 0.2625
-0.268043898806814 0.0991632069428042 0.2625
-0.272348686260145 0.0916050402104106 0.2625
-0.275860639970642 0.0876449231966775 0.2625
-0.271612606857179 0.0837805653559401 0.2625
-0.277794232315617 0.0715065864653872 0.2625
-0.278769319746172 0.0554456861077423 0.2625
-0.280605111372524 0.0473720733839662 0.2625
-0.275694773395316 0.0365618338176907 0.2625
-0.274418916193581 0.0274129694790897 0.2625
-0.280405492204298 0.0126790806051219 0.2625
-0.282757652407473 0.00305988363555188 0.2625
-0.281545523761381 -0.0118332600532209 0.2625
-0.284101991012877 -0.0197404929366803 0.2625
-0.286602796532771 -0.0253211988602052 0.2625
-0.278996786236754 -0.042870751645613 0.2625
-0.288935757686221 -0.0528670481425182 0.2625
-0.284671973896129 -0.0737403324743375 0.2625
-0.284332859721111 -0.0732754159645368 0.2625
-0.293621913001053 -0.0928837948080496 0.2625
-0.291637785624464 -0.0963355764589552 0.2625
-0.288851182517357 -0.114960395795029 0.2625
-0.286608660338253 -0.125152508863625 0.2625
-0.290644587408853 -0.126516058090598 0.2625
-0.288815497373555 -0.15230073850795 0.2625
-0.292137622917722 -0.157547245898057 0.2625
-0.291202415413572 -0.173141194643881 0.2625
-0.29937967752637 -0.185662154479554 0.259831348633501
-0.254453954465409 0.188317786493681 0.260107171158694
-0.254928922780747 0.188674462487418 0.259912641493874
-0.255497464967322 0.182430359940608 0.2625
-0.258306926857935 0.176231556285216 0.2625
-0.258072890044655 0.161236114678918 0.2625
-0.260801717418298 0.145068529336229 0.2625
-0.254814646680691 0.141327209793536 0.2625
-0.260977580604053 0.12972966926144 0.2625
-0.263799444822329 0.116119854167907 0.2625
-0.263918502576342 0.115692260512295 0.2625
-0.258655299214432 0.0992777295265982 0.2625
-0.261069593231668 0.0841837928979228 0.2625
-0.263553994556667 0.0762459033498356 0.2625
-0.263794042793143 0.0626657731535195 0.2625
-0.267349527647255 0.0567031439038413 0.2625
-0.270513573479739 0.0517793764633653 0.2625
-0.261760344154837 0.0409900200931106 0.2625
-0.268381215033386 0.0185257955887911 0.2625
-0.265524778457132 0.0111622622740214 0.2625
-0.270976788119889 0.00245125530122443 0.2625
-0.26952026779706 -0.0153794144724231 0.2625
-0.272903351029619 -0.0211194566848657 0.2625
-0.268571791327596 -0.0274136122957904 0.2625
