ply
format ascii 1.0
element vertex 870
property float x
property float y
property float z
end_header
0.0863004643332209 0.18260123461771 0.63564637619895
0.0949136697412767 0.167015179679386 0.63564637619895
0.099985713953907 0.17026107601147 0.63564637619895
0.104829404002384 0.155564402557645 0.63564637619895
0.112383133446071 0.151224528442497 0.63564637619895
0.129380490744066 0.136941602498858 0.63564637619895
0.131964537061611 0.131296238414645 0.63564637619895
0.147813524099622 0.128721140135627 0.63564637619895
0.161751433336655 0.106593193776716 0.63564637619895
0.168772291494382 0.109312788501199 0.63564637619895
0.169985397529258 0.094623854288026 0.63564637619895
0.183343398657781 0.0877358540092196 0.63564637619895
0.198588848143959 0.070851637675271 0.63564637619895
0.207991933666067 0.0659302337076485 0.63564637619895
0.22704152216031 0.052213123700123 0.63564637619895
0.220943384585427 0.052733224000794 0.63564637619895
0.247425356296466 0.0364953741116757 0.63564637619895
0.248265050437918 0.0336730337390972 0.63564637619895
0.263968971378215 0.0169466003573491 0.63564637619895
0.277525535298721 0.0100258028005308 0.63564637619895
0.273503527981771 0.00773873114953381 0.63564637619895
0.288470853264826 -0.00447435855614589 0.63564637619895
0.307259933063638 -0.0114068259761198 0.63564637619895
0.318215634451962 -0.0327677966065012 0.63564637619895
0.325278679038537 -0.0344399900106382 0.63564637619895
0.333347313861539 -0.03849120726088 0.63564637619895
0.354699385334003 -0.0544671228042852 0.63564637619895
0.357954841600972 -0.0605145261258098 0.63564637619895
0.372662797993575 -0.0730758420301058 0.63564637619895
0.382880884278479 -0.0875567168025266 0.63564637619895
0.383250222422977 -0.0871166444387025 0.63564637619895
0.402318825711928 -0.0959915145266225 0.63564637619895
0.423978654343153 -0.124570614303391 0.63564637619895
0.432998857479465 -0.127620304438556 0.63564637619895
0.444911615412043 -0.144529893768687 0.63564637619895
0.450219168871651 -0.140009933071842 0.63564637619895
-0.214083647842519 0.453749017478649 0.610687718193144
-0.212381852397433 0.450655941945683 0.626904614381199
-0.215496183160626 0.4471178772375 0.62765805864916
-0.20928460943092 0.448638245558837 0.628552613286892
-0.205539194458152 0.444193176432638 0.631413738422518
-0.199692805851759 0.437436159495724 0.63564637619895
-0.18857436381177 0.427261752874382 0.63564637619895
-0.188042495647431 0.427982494041073 0.63564637619895
-0.176141039095991 0.420274237142025 0.63564637619895
-0.173367361001524 0.417697209179968 0.63564637619895
-0.164022447878548 0.405850143934086 0.63564637619895
-0.160467496169771 0.405660913270201 0.63564637619895
-0.148356889068743 0.391820684852743 0.63564637619895
-0.134959831263509 0.385037067573439 0.63564637619895
-0.132978641279385 0.379255738959337 0.63564637619895
-0.120778035996464 0.371053028816274 0.63564637619895
-0.119853670770968 0.374225297116061 0.63564637619895
-0.113461325822752 0.365300054450699 0.63564637619895
-0.0983789875089716 0.357574991033845 0.63564637619895
-0.0952406562649533 0.344936911082362 0.63564637619895
-0.0940040301779701 0.342997392675068 0.63564637619895
-0.0851652386280782 0.336838751212616 0.63564637619895
-0.0727936022202269 0.326961534447044 0.63564637619895
-0.064017774323623 0.327501483189113 0.63564637619895
-0.0590840307287121 0.310248131666577 0.63564637619895
-0.0457105050678618 0.301682332011749 0.63564637619895
-0.0374304663743883 0.304139445346728 0.63564637619895
-0.0299063595342135 0.290505170143126 0.63564637619895
-0.0190610852112586 0.279207221280073 0.63564637619895
-0.0201195405699385 0.282042325775285 0.63564637619895
-0.00718880867770074 0.273049660522894 0.63564637619895
0.0011509861408813 0.261691753029837 0.63564637619895
0.00871609780269699 0.248735221184008 0.63564637619895
0.0222047959936355 0.243818524398543 0.63564637619895
0.0217621305483076 0.247367875439064 0.63564637619895
0.0372285188558419 0.22651988137729 0.63564637619895
0.0466469443025633 0.223179121111525 0.63564637619895
0.0546151918127878 0.216809830331823 0.63564637619895
0.0669625860323183 0.212562136005132 0.63564637619895
0.067128289487062 0.205375643072059 0.63564637619895
0.0819542091303027 0.200280455080791 0.63564637619895
0.0872285966188945 0.185139812756216 0.63564637619895
0.0978961214046194 0.182884634106733 0.63564637619895
0.111228093423044 0.175543987819806 0.63564637619895
0.113840749756708 0.161157396357705 0.63564637619895
0.128191051008759 0.146262446163927 0.63564637619895
0.139298723359739 0.14524225241872 0.63564637619895
0.14844376744328 0.137840936301221 0.63564637619895
0.163048777126973 0.125427680395842 0.63564637619895
0.158846933763376 0.120333006690906 0.63564637619895
0.179698618811346 0.114375895330246 0.63564637619895
0.181002032676216 0.104639744611254 0.63564637619895
0.188685863065229 0.0986866012216234 0.63564637619895
0.208916754345987 0.0878082532226262 0.63564637619895
0.20747482183095 0.0817666950789488 0.63564637619895
0.220558966830712 0.0704336658323097 0.63564637619895
0.228636280394286 0.0597626186147496 0.63564637619895
0.240345033471728 0.054046233145861 0.63564637619895
0.263253256607539 0.0315868095744863 0.63564637619895
0.268936853305655 0.0369861267278317 0.63564637619895
0.271747262563748 0.0232769730849493 0.63564637619895
0.291363709276811 0.0171008187032328 0.63564637619895
0.306692380902791 -0.00378060048678294 0.63564637619895
0.308470173647762 -0.00694964422478863 0.63564637619895
0.32249266360529 -0.0223134953459173 0.63564637619895
0.325403620411845 -0.0258182145591051 0.63564637619895
0.338746550696595 -0.039071664580489 0.63564637619895
0.353771716497901 -0.0507496912660173 0.63564637619895
0.367450218102248 -0.0475895377805701 0.63564637619895
0.372370317992579 -0.0631373209357243 0.63564637619895
0.387349321134446 -0.0797607544900773 0.63564637619895
0.397718822791162 -0.0914803386839174 0.63564637619895
0.408156591193876 -0.100101090043794 0.63564637619895
0.422802570983163 -0.103053696492544 0.63564637619895
0.438854902321155 -0.118283105365737 0.63564637619895
0.447678501374211 -0.13059994915316 0.63564637619895
0.471030195169399 -0.150263862826171 0.628204134543146
-0.205661630710871 0.458611471336726 0.618148119248383
-0.210467516514791 0.455836791874138 0.623589543050764
-0.202060648456746 0.456231144511825 0.627070781839609
-0.200393482424734 0.453918000170352 0.62848919422878
-0.199420024087277 0.448878402430865 0.630914768646769
-0.184639259221294 0.440909742310079 0.63564637619895
-0.182115387171442 0.439218844156321 0.63564637619895
-0.179314800013558 0.428648926062699 0.63564637619895
-0.169597190986958 0.426221229856839 0.63564637619895
-0.16520898136252 0.418692786979668 0.63564637619895
-0.160519007910597 0.411714606226568 0.63564637619895
-0.149125760292051 0.411163096823323 0.63564637619895
-0.142156870145245 0.398814598272707 0.63564637619895
-0.133721548297575 0.389851612120366 0.63564637619895
-0.12540068102575 0.385511175693216 0.63564637619895
-0.117083896549524 0.379985149080468 0.63564637619895
-0.116440566038835 0.377577471991036 0.63564637619895
-0.109890305997148 0.367199543244811 0.63564637619895
-0.0930490752247783 0.363778949171505 0.63564637619895
-0.0916879784757595 0.355370933589843 0.63564637619895
-0.0853145225988499 0.352670082946319 0.63564637619895
-0.0756877255804733 0.341012939366754 0.63564637619895
-0.0624133140290464 0.333631096921145 0.63564637619895
-0.0606890223480951 0.333572078474387 0.63564637619895
-0.0483391768818106 0.319127778691634 0.63564637619895
-0.0437772878112749 0.311755126621112 0.63564637619895
-0.0321657982303715 0.301601135600852 0.63564637619895
-0.0268937272440746 0.301642169261414 0.63564637619895
-0.01605429973816 0.294053902439648 0.63564637619895
-0.0142453623244174 0.285071478627224 0.63564637619895
0.00254387529574415 0.273217826225474 0.63564637619895
0.00571382844158829 0.27514375298695 0.63564637619895
0.0141783447514966 0.261499516632067 0.63564637619895
0.0214591895854639 0.261376126725891 0.63564637619895
0.0358284693508648 0.245245015599637 0.63564637619895
0.045332060356934 0.241360587460664 0.63564637619895
0.0537141912624339 0.227947106499302 0.63564637619895
0.0595720609165088 0.222578959877592 0.63564637619895
0.073239792960337 0.21469287767654 0.63564637619895
0.0772437194293598 0.206114457075529 0.63564637619895
0.0849207993812262 0.19931892815305 0.63564637619895
0.0938510440083715 0.19439855460746 0.63564637619895
0.110734453186942 0.18053316734499 0.63564637619895
0.117487080434013 0.176227232684714 0.63564637619895
0.120042383172699 0.1693495985852 0.63564637619895
0.139772968093294 0.160865322941291 0.63564637619895
0.149919479304695 0.149917981937329 0.63564637619895
0.153768499719455 0.145744582585692 0.63564637619895
0.154729711156524 0.140486933839644 0.63564637619895
0.16573063953653 0.130652621043617 0.63564637619895
0.180852517919101 0.121550174774452 0.63564637619895
0.186741943973301 0.11382994851067 0.63564637619895
0.207672984563056 0.0986793564673229 0.63564637619895
0.221237950692033 0.0846595391377109 0.63564637619895
0.22455918506912 0.0869835016278676 0.63564637619895
0.22831102212716 0.0814811840903312 0.63564637619895
0.249777275071104 0.0602731634640533 0.63564637619895
0.249019731554037 0.0663580321735531 0.63564637619895
0.269749633544745 0.0448951405555824 0.63564637619895
0.281214981737475 0.0361068670012739 0.63564637619895
0.279049513489357 0.034643144839665 0.63564637619895
0.298330378892495 0.0209714732141376 0.63564637619895
0.308486701807739 0.0083982880339308 0.63564637619895
0.320370065286835 -0.00363936750111516 0.63564637619895
0.331051722440984 -0.0100863440136117 0.63564637619895
0.335298119097656 -0.0146319611715352 0.63564637619895
0.359045311668031 -0.0322927858707041 0.63564637619895
0.356503704202637 -0.0384587350237877 0.63564637619895
0.368388923057625 -0.0400204619301233 0.63564637619895
0.384822891483853 -0.063292003867585 0.63564637619895
0.400729099487055 -0.0636673337753998 0.63564637619895
0.412696189157873 -0.0827616819252816 0.63564637619895
0.415858610635837 -0.0816070181445298 0.63564637619895
0.423316767368096 -0.0914616313669251 0.63564637619895
0.453891678918819 -0.113375112887175 0.63564637619895
0.459249057222089 -0.127179624300038 0.63564637619895
0.144534095600451 0.169899155142482 0.0098497472066335
0.145042901273494 0.170407960815526 0.0305812095017992
0.150780272089445 0.160983905889128 0.0493167640463026
0.145462759122757 0.170827818664789 0.0767455527535081
0.162778532025872 0.148985645952701 0.0654824542934989
0.143608930010668 0.1689739895527 0.106600139962215
0.150407265428684 0.161356912549889 0.109618863728833
0.148534971966894 0.163229206011679 0.133396744985632
0.144291739784376 0.169656799326408 0.142819902677165
0.154709906493239 0.157054271485335 0.162321669447493
-0.199718958319776 0.46204247484143 0.612357684183547
-0.198936503527357 0.462494225326463 0.623147923479815
-0.199586819297086 0.457385767173455 0.627189272851145
-0.19567868919605 0.454268805786666 0.629515989248192
-0.187596031819965 0.449787745175053 0.63347700975499
-0.1811580866691 0.447644223812282 0.635500684639389
-0.179896937296924 0.443093027238868 0.63564637619895
-0.172624552048453 0.434762846455482 0.63564637619895
-0.159991837823128 0.431751059185086 0.63564637619895
-0.153535470597441 0.422199026407269 0.63564637619895
-0.148919779429254 0.419625889361758 0.63564637619895
-0.14559887236607 0.415008726722857 0.63564637619895
-0.139045480837539 0.407866763329225 0.63564637619895
-0.128169376894968 0.395649754820563 0.63564637619895
-0.11802845778345 0.389205788689384 0.63564637619895
-0.112297977470549 0.386481577780765 0.63564637619895
-0.102010246068221 0.376285024242251 0.63564637619895
-0.102878072963543 0.379899051177003 0.63564637619895
-0.0846814543577467 0.362607760023184 0.63564637619895
-0.0830615638795188 0.367602558669826 0.63564637619895
-0.0732443079782036 0.353729829823836 0.63564637619895
-0.0725550087406516 0.34581436658201 0.63564637619895
-0.0603049879127155 0.343624901167316 0.63564637619895
-0.0514649654757638 0.33355264259976 0.63564637619895
-0.0413307468582758 0.324699597719645 0.63564637619895
-0.0336875141069627 0.321439218386303 0.63564637619895
-0.0249494227079513 0.311212501643134 0.63564637619895
-0.0215593673697387 0.307812495757681 0.63564637619895
-0.00334795276724562 0.293404553731966 0.63564637619895
0.00203292486443362 0.292137111106932 0.63564637619895
0.00525582712684389 0.288964662470283 0.63564637619895
0.0190257145184927 0.276731909325266 0.63564637619895
0.0244879539905405 0.270816808670268 0.63564637619895
0.0296287137515203 0.261425325877387 0.63564637619895
0.0469588251620481 0.254484385493407 0.63564637619895
0.0433696466863906 0.247344445021511 0.63564637619895
0.0569125954009186 0.243166727941811 0.63564637619895
0.0729957715738248 0.231697057128807 0.63564637619895
0.0722011935085904 0.221368809588204 0.63564637619895
0.0902796217771104 0.211825278920446 0.63564637619895
0.0899800642259518 0.213958949407547 0.63564637619895
0.105361219602899 0.199660433310714 0.63564637619895
0.116184122541454 0.190738688941219 0.63564637619895
0.116951233571036 0.186437086745493 0.63564637619895
0.128734931972851 0.183310429963246 0.63564637619895
0.142019512168106 0.172913353629782 0.63564637619895
0.155238537633182 0.158226517181344 0.63564637619895
0.158939671036189 0.154365765973333 0.63564637619895
0.176512128224407 0.142354907455431 0.63564637619895
0.179567086885109 0.131902184812318 0.63564637619895
0.187190844891915 0.130869046152693 0.63564637619895
0.205023473616205 0.111128247919808 0.63564637619895
0.207493223800999 0.115827348615905 0.63564637619895
0.225493001745217 0.100971011530487 0.63564637619895
0.230414941060844 0.0926564320360823 0.63564637619895
0.247058004590402 0.0836098944361892 0.63564637619895
0.249324842472535 0.0676016116423023 0.63564637619895
0.259356044029517 0.0636208439854822 0.63564637619895
0.2683835742338 0.0545004789074314 0.63564637619895
0.279462768480073 0.0517785631207089 0.63564637619895
0.287784202680164 0.0350882444613544 0.63564637619895
0.308838675120894 0.0309540522859286 0.63564637619895
0.31793151823589 0.0164774489952312 0.63564637619895
0.328919370910776 0.00577809030685598 0.63564637619895
0.339635827078254 0.00590854983420325 0.63564637619895
0.347325660320923 -0.0057223250763222 0.63564637619895
0.368364349443714 -0.0236894624555809 0.63564637619895
0.369800863351767 -0.0315607878099987 0.63564637619895
0.382756316374888 -0.0393761429723013 0.63564637619895
0.399295668942307 -0.0500132899970904 0.63564637619895
0.411418426422457 -0.0652690809097641 0.63564637619895
0.41384707789938 -0.0712509071131117 0.63564637619895
0.426109574576674 -0.0786741120557506 0.63564637619895
0.436007344760184 -0.0833842402178913 0.63564637619895
0.458593894507007 -0.111517365633008 0.63564637619895
0.480762914919578 -0.119851890909414 0.62743919062537
0.147816912623452 0.173181972165483 0.00615962421827323
0.147986220472145 0.173351280014176 0.0121195119138487
0.151321816188047 0.176686875730079 0.0272535843340707
0.15056849490789 0.175933554449921 0.0404401448160758
0.147734331024381 0.173099390566412 0.0503410887858422
0.147289922938126 0.172654982480158 0.0565045116635969
0.147376120860214 0.172741180402245 0.069320098500896
0.152944883800215 0.178309943342247 0.0826744007284692
0.151810729105144 0.177175788647175 0.0887058121917724
0.153120987101108 0.178486046643139 0.100578424702465
0.148516245292847 0.17388130483488 0.0988901547251441
0.151866851305231 0.177231910847263 0.120137270691558
0.150225870387976 0.175590929930008 0.119499296930032
0.147236761927694 0.172601821469726 0.138347992082779
0.150436907949743 0.175801967491774 0.139311726867213
0.14654958153224 0.171914641074272 0.156318022805258
0.14789964719516 0.173264706737191 0.167067074936182
0.150692317025323 0.176057376567354 0.172667298026522
-0.192098965026579 0.466165327659316 0.61736838582436
-0.193044218418859 0.465896137719996 0.616918275394725
-0.189164106540319 0.463579018613338 0.62676871451284
-0.184258547636241 0.464247276581536 0.62708079673341
-0.179469225770596 0.455797582428747 0.6317814694926
-0.173446104612957 0.452836998870733 0.633990770785664
-0.172893168013185 0.451328797511873 0.634790731368926
-0.167695479194163 0.447713090796378 0.63564637619895
-0.150710634404583 0.43309620152648 0.63564637619895
-0.157366269258561 0.435747667751495 0.63564637619895
-0.144216042263175 0.427602129339443 0.63564637619895
-0.128946326090239 0.419369905632121 0.63564637619895
-0.1303309879971 0.414182066907665 0.63564637619895
-0.126368508962987 0.4118042894721 0.63564637619895
-0.11769501847753 0.406084799783148 0.63564637619895
-0.105821015395955 0.388311742970875 0.63564637619895
-0.100292905922762 0.385560725902164 0.63564637619895
-0.096446125844054 0.382246950510735 0.63564637619895
-0.0897690362984471 0.378755991279557 0.63564637619895
-0.0821822401992224 0.366562852109052 0.63564637619895
-0.0671195091767913 0.362607651153729 0.63564637619895
-0.0669775628791488 0.358604343793023 0.63564637619895
-0.0503736110459949 0.350216250029657 0.63564637619895
-0.0450859291211226 0.347819938425766 0.63564637619895
-0.0394329739468052 0.334469715110203 0.63564637619895
-0.026372053976644 0.322626733384927 0.63564637619895
-0.0176401903230051 0.319309840641661 0.63564637619895
-0.00616920430099282 0.315443306627609 0.63564637619895
-0.00944742092077205 0.309119114978078 0.63564637619895
0.00526863424494211 0.297604344835439 0.63564637619895
0.0137838353197884 0.28594973673878 0.63564637619895
0.0178543909577944 0.286263927178231 0.63564637619895
0.0298523960799061 0.27734858635708 0.63564637619895
0.0409093589204021 0.268243921617512 0.63564637619895
0.0521598961945519 0.257041757574382 0.63564637619895
0.0572144373679956 0.25045952612552 0.63564637619895
0.0608374329035464 0.245211403138992 0.63564637619895
0.0787657097103601 0.236542059583213 0.63564637619895
0.0848453360501775 0.23698893246752 0.63564637619895
0.0934397347644524 0.226684668486122 0.63564637619895
0.0990597806704806 0.215571117724325 0.63564637619895
0.119028632582144 0.202290919626311 0.63564637619895
0.118741154209803 0.201100050673645 0.63564637619895
0.132543503981058 0.189461491540241 0.63564637619895
0.132557643920648 0.184641906195296 0.63564637619895
0.154292042777912 0.17064996700884 0.63564637619895
0.159695084441559 0.16200986951783 0.63564637619895
0.16501811025114 0.157978674642065 0.63564637619895
0.169330531074313 0.149184690215721 0.63564637619895
0.180971865165165 0.144340495971649 0.63564637619895
0.194519970287866 0.135130007248507 0.63564637619895
0.210743806503393 0.121569809078171 0.63564637619895
0.215090320737666 0.113434952320317 0.63564637619895
0.226682085462839 0.103644380304438 0.63564637619895
0.23634188302477 0.0985878553456782 0.63564637619895
0.248047705428089 0.095087452354529 0.63564637619895
0.248683574828226 0.0826095572442005 0.63564637619895
0.267425811330524 0.0674617512733275 0.63564637619895
0.277769525120898 0.0637802708207439 0.63564637619895
0.285801375901556 0.0547799671567644 0.63564637619895
0.291775952759752 0.044605414817149 0.63564637619895
0.316851971330795 0.0355193520111558 0.63564637619895
0.324861793262552 0.0297469820997988 0.63564637619895
0.325228534841233 0.0189895504804589 0.63564637619895
0.33931490510714 0.0141151562960028 0.63564637619895
0.35392117459436 0.00110803253047607 0.63564637619895
0.374229909941591 -0.0177738324570241 0.63564637619895
0.374441820968174 -0.0228332530337656 0.63564637619895
0.387205085432441 -0.0333276327644752 0.63564637619895
0.397256363700333 -0.0383380552412994 0.63564637619895
0.418751891452366 -0.0582201142009534 0.63564637619895
0.425467511979331 -0.0675314106812481 0.63564637619895
0.434725246874829 -0.06516528288569 0.63564637619895
0.443582338495195 -0.0765254357699587 0.63564637619895
0.465849102042035 -0.0977351610394754 0.63564637619895
0.154907313743086 0.180272373285117 0.00780541044868647
0.158462030120447 0.183827089662478 0.00959424926942869
0.155332436529403 0.180697496071435 0.0277668599194991
0.157880689296183 0.183245748838215 0.04106975273197
0.15296416386822 0.178329223410252 0.0470294694155131
0.156585611381606 0.181950670923637 0.0601793596791631
0.156424480190341 0.181789539732373 0.0657191834659664
0.159616721363517 0.184981780905548 0.0745158391409668
0.15511044888309 0.180475508425122 0.0939765470869001
0.15328867176377 0.178653731305801 0.0923606954637703
0.156249321324892 0.181614380866923 0.103401388706096
0.157384163643115 0.182749223185146 0.1260227269386
0.158339311234821 0.183704370776852 0.127363069272031
0.156436576744115 0.181801636286146 0.136630997943855
0.155342912143764 0.180707971685796 0.148098551490132
0.151216664998385 0.176581724540416 0.162127276843775
0.156113508594643 0.181478568136674 0.160494801667836
0.153270957110601 0.178636016652632 0.16981617868796
0.156672948331804 0.182038007873836 0.181399537276644
0.160106353857503 0.185471413399534 0.192331400135139
-0.176280564108245 0.470403855410936 0.623431026232516
-0.181135695076333 0.468786638950322 0.625292579918739
-0.171675840102368 0.461897749064294 0.629843853562012
-0.171544306751691 0.459989889972223 0.630782300415099
-0.162211384734169 0.457877980042543 0.633010043569331
-0.163910301748755 0.451859259631282 0.63564637619895
-0.154156361051024 0.444265893886615 0.63564637619895
-0.142378862178085 0.433201249047662 0.63564637619895
-0.140788686849239 0.433640492235144 0.63564637619895
-0.130043281668695 0.4217428906796 0.63564637619895
-0.128364583073893 0.41762395394583 0.63564637619895
-0.112024608742756 0.406721227778699 0.63564637619895
-0.109042098265359 0.405160592046834 0.63564637619895
-0.0984997211190315 0.399647874162225 0.63564637619895
-0.0900220830941591 0.38935658680918 0.63564637619895
-0.087563011833075 0.385648546699839 0.63564637619895
-0.07667550510939 0.381365294814313 0.63564637619895
-0.0649352647721028 0.368961516991248 0.63564637619895
-0.0604852092975314 0.364689650669699 0.63564637619895
-0.056401872642704 0.361427676099374 0.63564637619895
-0.0460128112765527 0.355245244292585 0.63564637619895
-0.0445096071476591 0.3455263492369 0.63564637619895
-0.0290254780249697 0.341381791410203 0.63564637619895
-0.0224408797781962 0.336949891774404 0.63564637619895
-0.00773130274661922 0.328591424939465 0.63564637619895
-0.00461834494824096 0.322710416056006 0.63564637619895
0.00216942484529119 0.316619195598552 0.63564637619895
0.0102042496699561 0.299736166778365 0.63564637619895
0.012541083083958 0.299252012097434 0.63564637619895
0.0262572044784118 0.290262053268463 0.63564637619895
0.0347975122680924 0.284827768324328 0.63564637619895
0.039377469974511 0.281981741227693 0.63564637619895
0.052066230539518 0.269992067990238 0.63564637619895
0.0623056778668316 0.258933104912744 0.63564637619895
0.0787027430626571 0.251748197605485 0.63564637619895
0.0768425659646136 0.249659205411798 0.63564637619895
0.0957501318944721 0.231987097971725 0.63564637619895
0.0947789707784605 0.235468304218568 0.63564637619895
0.105214964890507 0.221657024852269 0.63564637619895
0.118016187604769 0.207005675520511 0.63564637619895
0.131131381434456 0.203732458927161 0.63564637619895
0.128055970837202 0.205351121154486 0.63564637619895
0.147507938904239 0.186097994396686 0.63564637619895
0.159341910803717 0.178431642205746 0.63564637619895
0.166782053438987 0.172953147090297 0.63564637619895
0.175767689849315 0.161632384619751 0.63564637619895
0.186919835807929 0.163189778424124 0.63564637619895
0.200654633036603 0.149978878749386 0.63564637619895
0.198708695108237 0.148347155446914 0.63564637619895
0.215878875039773 0.128434975123124 0.63564637619895
0.221442849071824 0.122974553602958 0.63564637619895
0.23227102033968 0.117009338169657 0.63564637619895
0.234530473590682 0.115205670251829 0.63564637619895
0.249634472153505 0.100534630167409 0.63564637619895
0.269265611162738 0.0856760489426693 0.63564637619895
0.274730902398208 0.0773941548399361 0.63564637619895
0.292336943335044 0.0705328148218258 0.63564637619895
0.298769264044905 0.0555778882457147 0.63564637619895
0.303873958773283 0.0544935844698374 0.63564637619895
0.314704410170263 0.0446848048852179 0.63564637619895
0.329080845798736 0.0317858146313466 0.63564637619895
0.33683577299013 0.0257644278566604 0.63564637619895
0.344188529834532 0.0195958250058268 0.63564637619895
0.362903419854878 0.00612598725874093 0.63564637619895
0.376259137655008 -0.00784726507733689 0.63564637619895
0.388079976723157 -0.0213788548638785 0.63564637619895
0.395361048800461 -0.0289640586011043 0.63564637619895
0.412692731870082 -0.0397215339693087 0.63564637619895
0.423129508804282 -0.0428184254093663 0.63564637619895
0.434409582706984 -0.0627809232531825 0.63564637619895
0.449353511758206 -0.0733949003168913 0.63564637619895
0.45849018559631 -0.0821702752773623 0.63564637619895
0.163456375859647 0.188821435401679 0.00512170476428609
0.162521165684629 0.18788622522666 0.0241223911625817
0.162937075933067 0.188302135475098 0.0223667536415709
0.164733754050681 0.190098813592712 0.0369249800312971
0.163620203206435 0.188985262748466 0.0484423654917196
0.163170458681067 0.188535518223098 0.0581248606026595
0.160834898413905 0.186199957955936 0.0645785867046063
0.164474189996429 0.18983924953846 0.0797390405959598
0.161350796257186 0.186715855799217 0.0912949467927865
0.165745192215702 0.191110251757734 0.0960027443663253
0.161667425840098 0.187032485382129 0.111224030256297
0.160751075435866 0.186116134977897 0.111338081278803
0.163896329418509 0.18926138896054 0.129422891866407
0.159757357279353 0.185122416821384 0.136369723537814
0.158473556978519 0.18383861652055 0.147514403074252
0.161549514555051 0.186914574097083 0.15192726840944
0.164438935414359 0.189803994956391 0.168881083653326
0.16150918461816 0.186874244160191 0.178684791392302
0.163094335985112 0.188459395527144 0.192325985102052
0.16532859846791 0.190693658009943 0.193358240100636
-0.171089171444876 0.471794884882678 0.61178585638333
-0.167927827212557 0.472641964516725 0.620175176125674
-0.169325686019802 0.470914685099975 0.625793140184329
-0.161512069201113 0.466129067062819 0.629115572634656
-0.158472076665106 0.458112107600949 0.633380870713566
-0.154018401942163 0.458287556064498 0.633872483531998
-0.146343101039287 0.450308206053993 0.63564637619895
-0.135100238644523 0.442450444609583 0.63564637619895
-0.13003844212073 0.432722794139791 0.63564637619895
-0.119263029603205 0.423730171496451 0.63564637619895
-0.114920118207324 0.424175938771158 0.63564637619895
-0.104905051151338 0.41811310983409 0.63564637619895
-0.101834629365912 0.418136307620981 0.63564637619895
-0.0905944356470804 0.402491949622212 0.63564637619895
-0.0892864754367302 0.399697769435207 0.63564637619895
-0.0763004114188265 0.39755677182052 0.63564637619895
-0.0778069811796298 0.388868068429716 0.63564637619895
-0.062624901856286 0.381296252329041 0.63564637619895
-0.0530878121515646 0.374430601360233 0.63564637619895
-0.0480563260368402 0.367734864374164 0.63564637619895
-0.0405086457437364 0.36048758926242 0.63564637619895
-0.0310514591427941 0.349181268021373 0.63564637619895
-0.0217341758200997 0.346931758390451 0.63564637619895
-0.0140000419613048 0.338089931749722 0.63564637619895
-0.00420087071993858 0.331968286878151 0.63564637619895
0.00600880044376025 0.327473994254041 0.63564637619895
0.0072021774767488 0.317217417057863 0.63564637619895
0.0203945631989829 0.310673120607233 0.63564637619895
0.0288791440041417 0.305607144093723 0.63564637619895
0.0410189711448008 0.290330305127811 0.63564637619895
0.0452451448055379 0.288214094572616 0.63564637619895
0.0514324942229427 0.282088608486628 0.63564637619895
0.0600667394108309 0.270016521518899 0.63564637619895
0.0716018772929672 0.265428692360617 0.63564637619895
0.072666543314246 0.264993818002599 0.63564637619895
0.0895453193835056 0.25467973269045 0.63564637619895
0.0974859666080948 0.246167723592358 0.63564637619895
0.107551420619897 0.23154026115172 0.63564637619895
0.110400761682196 0.232225298694531 0.63564637619895
0.12302552260134 0.220728576880339 0.63564637619895
0.128584476276796 0.218405060600809 0.63564637619895
0.151006006697865 0.197777505292828 0.63564637619895
0.156897772282729 0.200322628408093 0.63564637619895
0.158230007871917 0.192071939208352 0.63564637619895
0.179093830201679 0.175065385579087 0.63564637619895
0.178132086544599 0.177889698953215 0.63564637619895
0.186484725746741 0.163619766815892 0.63564637619895
0.195067224397765 0.16051796708054 0.63564637619895
0.212039184388391 0.145919443301404 0.63564637619895
0.229590053810391 0.133388274805975 0.63564637619895
0.229000281564574 0.136879222532055 0.63564637619895
0.245790902129754 0.118451916838585 0.63564637619895
0.253114915113811 0.111734329727534 0.63564637619895
0.25966421845151 0.10347633117459 0.63564637619895
0.269832851381872 0.0926323562226056 0.63564637619895
0.28930418422087 0.0888910070088309 0.63564637619895
0.294968784136464 0.0769743933964787 0.63564637619895
0.306353624107848 0.0661964286676463 0.63564637619895
0.309199700624381 0.0639739473205908 0.63564637619895
0.329702592032954 0.0481219557111661 0.63564637619895
0.343985442180526 0.0342217009948348 0.63564637619895
0.347388353929136 0.0308279018184898 0.63564637619895
0.352758132554431 0.0271525033874101 0.63564637619895
0.367548427984821 0.0123901237595501 0.63564637619895
0.382610287050802 0.00512294200727349 0.63564637619895
0.394861869132714 -0.00263127182500389 0.63564637619895
0.408224395077222 -0.0204443973332846 0.63564637619895
0.4254956684823 -0.0283842140841265 0.63564637619895
0.439686456081712 -0.0452273780637719 0.63564637619895
0.450387768459318 -0.051125483743376 0.63564637619895
0.452472937592356 -0.0613858458379562 0.63564637619895
0.456122654556358 -0.06695291084618 0.63564637619895
0.486218226184554 -0.0791581905073872 0.630070629944597
0.170056333689967 0.195421393231999 0.0141723697588528
0.169194158813229 0.194559218355261 0.0255821645448644
0.172290508882649 0.197655568424681 0.0332071484002123
0.1682462930978 0.193611352639832 0.0357313817630155
0.166685288476925 0.192050348018956 0.0477068136958084
0.171647697584706 0.197012757126737 0.0597453510922366
0.173718490079442 0.199083549621473 0.0676973250890225
0.172665422822151 0.198030482364184 0.0700973002435587
0.166259137290956 0.191624196832988 0.0905054365912864
0.17120577938637 0.196570838928401 0.099226137641782
0.17283359012443 0.198198649666461 0.11229320101947
0.16867675830358 0.194041817845611 0.115843696500019
0.166436465339609 0.191801524881641 0.127554789164668
0.166565733033203 0.191930792575235 0.141380763086719
0.170139188737611 0.195504248279642 0.139016556745673
0.171164030589733 0.196529090131764 0.156113188263268
0.169393278238073 0.194758337780105 0.164536480391221
0.168140897969588 0.19350595751162 0.179814485892735
0.16623092307743 0.191595982619461 0.189669870926198
0.170263080294978 0.195628139837009 0.195866822243533
-0.159674352017653 0.47485347652995 0.616066795962793
-0.156147187636633 0.475798577377416 0.614618351459542
-0.155411140338585 0.475337210608815 0.625457899094247
-0.154891467708986 0.466422582479216 0.629830584452198
-0.155286026171831 0.462671326263965 0.631591242459571
-0.145423659539697 0.459095547286047 0.634594495248598
-0.141921331903516 0.458059169860774 0.635548261656241
-0.135604052290431 0.452413061621886 0.63564637619895
-0.121352956267429 0.441809827976012 0.63564637619895
-0.112284535457085 0.433350680755892 0.63564637619895
-0.114557878078117 0.434075677075204 0.63564637619895
-0.102773506486098 0.425421588760354 0.63564637619895
-0.0959800867310944 0.416332664986299 0.63564637619895
-0.0817604875550142 0.411778956802092 0.63564637619895
-0.0828936446803111 0.410752247844889 0.63564637619895
-0.0754174665377236 0.402880543388576 0.63564637619895
-0.0652192094544172 0.394515872641191 0.63564637619895
-0.0560229705202043 0.385242412785218 0.63564637619895
-0.0529755121999281 0.377532701378326 0.63564637619895
-0.0400803769017579 0.368113959736766 0.63564637619895
-0.0323322491505065 0.366704410040104 0.63564637619895
-0.0198870255248895 0.361465578403397 0.63564637619895
-0.017644403615058 0.351053956002574 0.63564637619895
-0.00899549525229246 0.346222428819201 0.63564637619895
-0.00280729863003665 0.33466995537087 0.63564637619895
0.0063528198933018 0.333333693949333 0.63564637619895
0.018433767243216 0.322582291549204 0.63564637619895
0.0216618376492569 0.322604946375389 0.63564637619895
0.0316361989615393 0.314558453311438 0.63564637619895
0.0377801465408929 0.299988656148562 0.63564637619895
0.050492615176755 0.295814756271664 0.63564637619895
0.0601316875329303 0.287460566131077 0.63564637619895
0.0660744544303838 0.283892431334664 0.63564637619895
0.0795693171545327 0.274651860400135 0.63564637619895
0.078552505979788 0.265744907732819 0.63564637619895
0.0983235877584019 0.255499435971486 0.63564637619895
0.103238143780795 0.248666530106957 0.63564637619895
0.114006022050947 0.245358772125038 0.63564637619895
0.117990907582513 0.235322066111765 0.63564637619895
0.131498508869893 0.22428219245022 0.63564637619895
0.141477468180054 0.221792070786521 0.63564637619895
0.145032190895432 0.217340409060605 0.63564637619895
0.165226762430409 0.204807696905433 0.63564637619895
0.176104849247061 0.197488885383738 0.63564637619895
0.173552436167162 0.191970744572034 0.63564637619895
0.183223000303909 0.180093176783956 0.63564637619895
0.191220831072047 0.17497395987284 0.63564637619895
0.206793922476874 0.170304890185568 0.63564637619895
0.215732774437786 0.158231755795517 0.63564637619895
0.230277031385031 0.152108838626047 0.63564637619895
0.240991776659116 0.141131028180013 0.63564637619895
0.25003871181297 0.132826782404162 0.63564637619895
0.26275358529839 0.114191184724313 0.63564637619895
0.26683954774713 0.121269706641298 0.63564637619895
0.274496519546586 0.107354163284327 0.63564637619895
0.283677893440937 0.0914424142833153 0.63564637619895
0.298647290116314 0.0839870920445868 0.63564637619895
0.308702258117052 0.0729587769998855 0.63564637619895
0.318849562993012 0.0733853913269736 0.63564637619895
0.327161625648381 0.0592067671821497 0.63564637619895
0.353508106800294 0.040399515298763 0.63564637619895
0.355286222611898 0.0425551119343953 0.63564637619895
0.370635906552009 0.0301887471946351 0.63564637619895
0.383376068372491 0.0169773835441006 0.63564637619895
0.381657558834487 0.0182528071553838 0.63564637619895
0.397260158806396 0.000715495198299089 0.63564637619895
0.41818955593342 -0.0107793320360675 0.63564637619895
0.417122465675761 -0.0164122920907312 0.63564637619895
0.436449507287265 -0.0200116956449817 0.63564637619895
0.451439992866341 -0.0379469238978722 0.63564637619895
0.458354479434621 -0.0555502886877764 0.63564637619895
0.478438671952727 -0.0628909708375882 0.63564637619895
0.497308902486195 -0.0720617770730667 0.625632588083575
0.17738874242528 0.202753801967311 0.00693809126585308
0.175659141016051 0.201024200558083 0.0169245870775756
0.177876905906713 0.203241965448746 0.0289171327653205
0.179550282236329 0.20491534177836 0.0404575338171093
0.177656751035964 0.203021810577995 0.0464376617897792
0.178706742050745 0.204071801592776 0.0574250147668627
0.175999184510366 0.201364244052398 0.0667538996135201
0.176562570781726 0.201927630323758 0.072253328880946
0.178408068773906 0.203773128315937 0.0880183697881019
0.175692126014333 0.201057185556365 0.0970290628515471
0.173531784738998 0.19889684428103 0.106855282308208
0.173771197774788 0.199136257316819 0.116338657263157
0.177265250272653 0.202630309814685 0.127019758088923
0.181048382237063 0.206413441779095 0.133700235846948
0.175436368347077 0.200801427889109 0.140201341038789
0.177439728587204 0.202804788129235 0.152876138454616
0.180385887916282 0.205750947458313 0.171242474095332
0.177052147296994 0.202417206839026 0.178290793643356
0.176479566151804 0.201844625693836 0.178325724355898
0.17517081957734 0.200535879119372 0.188486434433119
0.177725170793958 0.20309023033599 0.202121202680937
-0.153565940562685 0.476490220446346 0.616786066309478
-0.152604838091071 0.476747747077458 0.622276897297402
-0.150731999550257 0.469337489666809 0.628961067173821
-0.143806011582882 0.468518973878237 0.630252668739578
-0.1374875382981 0.463043039506688 0.633715012566885
-0.132730379276177 0.462949204373325 0.634375953133977
-0.129077112013434 0.455946003187798 0.63564637619895
-0.118741386874328 0.447294017414332 0.63564637619895
-0.115210463738513 0.445490526216355 0.63564637619895
-0.0999553906979108 0.43892705439297 0.63564637619895
-0.0903312744609905 0.424613171656076 0.63564637619895
-0.0883418772752688 0.417304963236057 0.63564637619895
-0.0801765856529637 0.419232930452313 0.63564637619895
-0.0694014274390385 0.410425359611841 0.63564637619895
-0.064696754112093 0.409453832539392 0.63564637619895
-0.0570557445285102 0.401080733378377 0.63564637619895
-0.0435534057080051 0.390232193476588 0.63564637619895
-0.0373436763606148 0.383911474707407 0.63564637619895
-0.0310956751747285 0.381833602032329 0.63564637619895
-0.0264184266183978 0.375371727143183 0.63564637619895
-0.0156181199569446 0.369642482078539 0.63564637619895
-0.0054724016730404 0.36199549175845 0.63564637619895
-0.00124741827827239 0.352307929980835 0.63564637619895
0.0112183050318127 0.346296621465753 0.63564637619895
0.0205352330133013 0.338700481743699 0.63564637619895
0.0197901396226359 0.331504341466368 0.63564637619895
0.0369899650666269 0.316365076516077 0.63564637619895
0.0362921681868812 0.320078300788266 0.63564637619895
0.0552390837717819 0.303937892592416 0.63564637619895
0.0573981723087171 0.302649714263278 0.63564637619895
0.0688192841565654 0.295799783648484 0.63564637619895
0.0745049896736975 0.284509391834459 0.63564637619895
0.0850555996171561 0.276825850729195 0.63564637619895
0.0923132606227319 0.272024195975025 0.63564637619895
0.0969326728576894 0.265768928827678 0.63564637619895
0.111301671673405 0.2504525541976 0.63564637619895
0.115246677403558 0.253687299900734 0.63564637619895
0.13630468977033 0.238252439221368 0.63564637619895
0.141299954359885 0.230380546643981 0.63564637619895
0.147958061654691 0.221141952066527 0.63564637619895
0.154822157226233 0.218867685022127 0.63564637619895
0.164270961129134 0.212940645213664 0.63564637619895
0.175011487723664 0.209585363233484 0.63564637619895
0.18246953710213 0.201700145964956 0.63564637619895
0.193266233808323 0.186006318501786 0.63564637619895
0.203673738793125 0.182135591741948 0.63564637619895
0.207801167501799 0.177710624578206 0.63564637619895
0.225427548715991 0.166720662548921 0.63564637619895
0.230484766254414 0.157307279095122 0.63564637619895
0.248543773396459 0.141657492815739 0.63564637619895
0.262373217186329 0.136025033013935 0.63564637619895
0.266199662784994 0.129865807306047 0.63564637619895
0.28010791547104 0.112426480958656 0.63564637619895
0.290148814333367 0.107028057617371 0.63564637619895
0.290659237230344 0.103529194418318 0.63564637619895
0.311688686275558 0.0925854841668599 0.63564637619895
0.322010357178084 0.0753953712983158 0.63564637619895
0.328824746827252 0.0753299080942265 0.63564637619895
0.333605012687739 0.0637880770108317 0.63564637619895
0.35436973508784 0.057933427653044 0.63564637619895
0.364447697123674 0.0535495891232777 0.63564637619895
0.377347219057257 0.0378607888908242 0.63564637619895
0.379323149090954 0.0299509373015964 0.63564637619895
0.39431044224858 0.0178751060751734 0.63564637619895
0.402933492305839 0.0162646051279741 0.63564637619895
0.424776859226822 0.00249109495485444 0.63564637619895
0.43120459374679 -0.0162568626483981 0.63564637619895
0.450321082950008 -0.0254048056051799 0.63564637619895
0.463357145727791 -0.0329638744911493 0.63564637619895
0.471654615824361 -0.0433429879368221 0.63564637619895
0.472866357559874 -0.0496191214107715 0.63564637619895
0.18768113736408 0.213046196906111 0.013070961829697
0.184893014182795 0.210258073724827 0.0149620926445113
0.184651155668153 0.210016215210184 0.0201780616233268
0.180838497630973 0.206203557173004 0.0434274298345649
0.183837134089515 0.209202193631546 0.047908183589529
0.187027265581915 0.212392325123947 0.0590839151602013
0.183698063270423 0.209063122812455 0.0656076383745555
0.181870914250624 0.207235973792655 0.0757915683286429
0.17998474774647 0.205349807288502 0.0852997608783289
0.183630573829387 0.208995633371418 0.0904513735350498
0.181671755913911 0.207036815455943 0.104990894895494
0.179943831118172 0.205308890660204 0.11400406541088
0.186758778913223 0.212123838455255 0.12612862215939
0.184187096603888 0.209552156145919 0.133713845185662
0.181733129041359 0.20709818858339 0.155364998371343
0.183221378580703 0.208586438122735 0.157580205337364
0.184424382745078 0.209789442287109 0.166436162467051
0.181188853132232 0.206553912674263 0.184851415359879
0.182523313036055 0.207888372578087 0.186916171114209
0.181568764412287 0.206933823954319 0.201571765028848
0.186669705120399 0.212034764662431 0.200172046093499
-0.140549668437962 0.479977920050629 0.609786317795253
-0.138159495657293 0.48061836491698 0.611307404130237
-0.142371189817136 0.474198113983285 0.627695534289939
-0.131149753006384 0.47495980742579 0.628779825386042
-0.130075379263267 0.46917916418512 0.631710695878544
-0.125531355550044 0.466157894670469 0.633757896943924
-0.115539097005695 0.457095313747427 0.63564637619895
-0.111958855757645 0.450843404210766 0.63564637619895
-0.104364331977073 0.444950678062216 0.63564637619895
-0.0985116989199874 0.437014586824297 0.63564637619895
-0.0939787669271887 0.434262279460851 0.63564637619895
-0.083451793896805 0.428106053416971 0.63564637619895
-0.0798176985299163 0.425837744452142 0.63564637619895
-0.0639911601138253 0.419948740893481 0.63564637619895
-0.0641901534741882 0.41397452601642 0.63564637619895
-0.0508187448648885 0.408881566083786 0.63564637619895
-0.038386339371271 0.392796345402488 0.63564637619895
-0.0362368969328069 0.391473446355924 0.63564637619895
-0.0316632982253 0.385975311986395 0.63564637619895
-0.0198366631947809 0.383826206408938 0.63564637619895
-0.013936930744865 0.372851999437556 0.63564637619895
-0.00467059942510109 0.360601803244893 0.63564637619895
1.93342704398641e-005 0.359733102993073 0.63564637619895
0.0149310511291127 0.352828011422793 0.63564637619895
0.0197338083197921 0.352098429653622 0.63564637619895
0.0331366379154105 0.341504409079841 0.63564637619895
0.0345345858354994 0.329217765636205 0.63564637619895
0.0500394829618574 0.321544896317252 0.63564637619895
0.0555781839048869 0.314713658998557 0.63564637619895
0.0653743093385161 0.3035809137855 0.63564637619895
0.0765755467248598 0.3016371653463 0.63564637619895
0.08792320163462 0.293191579390388 0.63564637619895
0.090914792379616 0.289707283751237 0.63564637619895
0.0978428543068438 0.275304711498917 0.63564637619895
0.10869487755433 0.275108861241281 0.63564637619895
0.114424438690845 0.268128231962255 0.63564637619895
0.121491408688865 0.257004084822024 0.63564637619895
0.143709035274829 0.249736631436202 0.63564637619895
0.138948631055031 0.243377821268638 0.63564637619895
0.153031321799248 0.230751444509189 0.63564637619895
0.156764256364787 0.232960261580804 0.63564637619895
0.170849534565969 0.223230327524455 0.63564637619895
0.184043516849286 0.212794950102489 0.63564637619895
0.191837290168307 0.204650228689804 0.63564637619895
0.196961925430209 0.194039973379209 0.63564637619895
0.210100965134926 0.181740159795703 0.63564637619895
0.223450056533913 0.184053559429903 0.63564637619895
0.231703213531409 0.173185063160952 0.63564637619895
0.242948746323349 0.159823194581609 0.63564637619895
0.252042152783844 0.153051723325523 0.63564637619895
0.26532351566064 0.139050155982099 0.63564637619895
0.280615504490708 0.137781095019911 0.63564637619895
0.292399616337401 0.121980511851063 0.63564637619895
0.296022795856774 0.118822644763972 0.63564637619895
0.299989670654055 0.109368545268245 0.63564637619895
0.316058285712376 0.0922768332581406 0.63564637619895
0.328588381872347 0.0892463623122469 0.63564637619895
0.346315353100276 0.0800014775968124 0.63564637619895
0.349765008670305 0.0763831910157362 0.63564637619895
0.355298228834228 0.0700625277502743 0.63564637619895
0.372473663092596 0.0533188144106743 0.63564637619895
0.381419702607361 0.0462165123081687 0.63564637619895
0.393398401006309 0.0329382537199967 0.63564637619895
0.405153199152973 0.0308805318441978 0.63564637619895
0.418613687546314 0.020009496706697 0.63564637619895
0.429963554176003 0.00417130607152751 0.63564637619895
0.436306860381637 0.00229531169255855 0.63564637619895
0.452535500706319 -0.0135938789272768 0.63564637619895
0.46266326757359 -0.0253735423683914 0.63564637619895
0.467717560031431 -0.0267194462446159 0.63564637619895
0.19185292405141 0.217217983593442 0.00652023358643965
0.192937492441576 0.218302551983607 0.0194808549633064
0.18910719843919 0.214472257981222 0.0287471597139711
0.191094193851513 0.216459253393544 0.0394138754744126
0.190634893578796 0.215999953120828 0.0473685063082257
0.190231261085151 0.215596320627183 0.0575976185016288
0.19084203664833 0.216207096190361 0.0647691578873733
0.191640807425696 0.217005866967727 0.0764034581895122
0.193211729259326 0.218576788801357 0.0851094324754645
0.19277818426159 0.218143243803621 0.105054752724538
0.194804444117036 0.220169503659068 0.109200500439457
0.193762983440381 0.219128042982412 0.11877349706657
0.192356112948933 0.217721172490965 0.12953786232811
0.190466864064609 0.21583192360664 0.141344024121004
0.190086633986041 0.215451693528073 0.141153886957748
0.190637256313733 0.216002315855765 0.155742922301283
0.193720723755635 0.219085783297667 0.164072727450818
0.188378418334063 0.213743477876095 0.174994201426144
0.190906411360485 0.216271470902517 0.188834061656869
0.194031693032628 0.21939675257466 0.19209815352826
0.189965036756475 0.215330096298506 0.215845933663661
0.191017261589863 0.216382321131895 0.220803932970432
-0.132373915187821 0.48216860653152 0.61243234794555
-0.135237128879574 0.480929470551365 0.625367754132186
-0.131835530061552 0.480957844508332 0.625794249842223
-0.125922269463287 0.471445966777152 0.631153366251491
-0.120371269539189 0.468086831797953 0.63349405611655
-0.116806910596952 0.468575877465167 0.633719127185368
-0.107799303686916 0.466746202551121 0.63564637619895
-0.0948314213307491 0.451664916121325 0.63564637619895
-0.0966413219404462 0.453208693434536 0.63564637619895
-0.0892934489119972 0.442750331102765 0.63564637619895
-0.0835412983748421 0.438371729542891 0.63564637619895
-0.0729808180225896 0.433871172244649 0.63564637619895
-0.0549769383616916 0.425940068141401 0.63564637619895
-0.0501614756082557 0.412821763600706 0.63564637619895
-0.0430626738284701 0.414055975448331 0.63564637619895
-0.0381898094640047 0.404750283759675 0.63564637619895
-0.0216388972566034 0.392393634977049 0.63564637619895
-0.0206917617100275 0.392377191203119 0.63564637619895
-0.00857652331993364 0.386409395459878 0.63564637619895
