ply
format ascii 1.0
element vertex 1037
property float x
property float y
property float z
end_header
0.219879673187464 -0.0402672369035755 0.2625
0.226223943228508 -0.0594088291228123 0.2625
0.21974163535372 -0.0647257928070814 0.2625
0.221553864342726 -0.0799608059633058 0.2625
0.23072152047093 -0.0965000841101144 0.2625
0.231497689032781 -0.0922241752013235 0.2625
0.224423070775725 -0.109973808691014 0.2625
0.232734318072592 -0.116341789664684 0.2625
0.229869036654215 -0.137642469550806 0.2625
0.22542890355387 -0.139559534075632 0.2625
0.232720220464507 -0.158645038700246 0.2625
0.229363673679796 -0.170968764792877 0.2625
0.231684357620604 -0.188680111479177 0.260736827655074
0.231967258354493 0.00781250000000006 0.00635395585839642
0.231427726206185 0.00781250000000006 0.0158237622920841
0.225919099297395 0.00781250000000006 0.0263055870081326
0.231261695277285 0.00781250000000006 0.046293432888902
0.232283657204709 0.00781250000000006 0.0500996244049361
0.232365154463833 0.00781250000000006 0.0590748883892104
0.213074109921722 0.194835735662114 0.252600291567398
0.211374356410918 0.191732989918269 0.259939031481452
0.216868401703961 0.188424762814781 0.261391120784736
0.216112369494459 0.171707275808641 0.2625
0.219333775516717 0.159875403539039 0.2625
0.2169909056614 0.156341510342815 0.2625
0.219724817912453 0.14558342694932 0.2625
0.222365226461763 0.130739584309918 0.2625
0.224358834799536 0.131176610313309 0.2625
0.222722376828941 0.121077948871354 0.2625
0.225122251811192 0.108237044216028 0.2625
0.221367371256242 0.0959054220589872 0.2625
0.224266376052133 0.0876545103434424 0.2625
0.223637075561057 0.0805520240527111 0.2625
0.229110223656929 0.0744313119192152 0.2625
0.224630940884023 0.0573114070838514 0.2625
0.229455788194181 0.0444826415562436 0.2625
0.223791130553001 0.0335911595337085 0.2625
0.231968807274463 0.0275308295906133 0.2625
0.233762226508095 0.0159074121355677 0.2625
0.226634253125991 0.00623934254756709 0.2625
0.225514738874751 -0.00166871302712265 0.2625
0.235784164309638 -0.0196319573228237 0.2625
0.23229931388768 -0.0291626620969538 0.2625
0.23436166504365 -0.0418239226373809 0.2625
0.229138987847943 -0.0474697721392644 0.2625
0.231010760102963 -0.05976695026919 0.2625
0.238592359454101 -0.0745306381196916 0.2625
0.233460773398316 -0.0802963344224944 0.2625
0.239841993109427 -0.0993308477111924 0.2625
0.242503183425583 -0.108401375163337 0.2625
0.244038232413246 -0.117705010813372 0.2625
0.240328778911733 -0.139145041906255 0.2625
0.236381788257121 -0.150787854944286 0.2625
0.242644042553813 -0.160640633729138 0.2625
0.239262540144358 -0.162349935921806 0.2625
0.248424621670382 -0.18282523003009 0.2625
0.234374999999999 0.044499681795637 0.0323002308262769
0.234374999999999 0.0981902348183899 0.0915656374393205
0.234374999999999 0.0646052263153876 0.0711774839655278
0.234374999999999 0.0819309642657965 0.0968363121744201
0.234374999999999 0.0665834395180596 0.0995515119810142
0.234374999999999 0.0718254106104842 0.103980425179004
0.234374999999999 0.01307932285697 0.0613588126716855
0.234374999999999 0.0470231824564488 0.104585133575157
0.228167228748286 0.193757490457386 0.256912014093036
0.227136763752385 0.185467032032388 0.2625
0.223809651888942 0.175336038586555 0.2625
0.23006117440633 0.164346267587351 0.2625
0.22881360602449 0.152472716965022 0.2625
0.224163175429188 0.156036053072588 0.2625
0.229102677802851 0.145710542376439 0.2625
0.233929915375507 0.13121519030816 0.2625
0.226951457739421 0.115485582879669 0.2625
0.228645346057842 0.107569726047399 0.2625
0.232614093359719 0.102822609066919 0.2625
0.231534360263016 0.0886067549706524 0.2625
0.229567291697252 0.0719423392923034 0.2625
0.238462842045568 0.0624522228700717 0.2625
0.239584704279969 0.0576253304009337 0.2625
0.235760076816601 0.044812427578988 0.2625
0.232641391113311 0.0401644372442661 0.2625
0.239708133036541 0.0204468349790156 0.2625
0.241012689617375 0.00998417261591456 0.2625
0.237493353081516 -0.00351435750467217 0.2625
0.241355758928032 -0.0175443930751853 0.2625
0.238654155935139 -0.0213168924178518 0.2625
0.240771799935656 -0.029633705010147 0.2625
0.245797407033307 -0.040443704075182 0.2625
0.239692541119372 -0.0589650185000252 0.2625
0.247252400906426 -0.058704377306626 0.2625
0.246474474659976 -0.0676155501263793 0.2625
0.2469656647422 -0.0791302684520015 0.2625
0.244067243866087 -0.0996378616580685 0.2625
0.249204456275108 -0.104063423839635 0.2625
0.247455466274925 -0.118641648856608 0.2625
0.247263213959393 -0.131207087148482 0.2625
0.251216904305412 -0.152522174252637 0.2625
0.256139417701953 -0.157492158884275 0.2625
0.254722894037729 -0.163552377963067 0.2625
0.242626839190189 0.125 0.115621032018441
0.241058656115986 0.125 0.125320031557379
0.244090241999944 0.125 0.130678519471034
0.24284339781308 0.125 0.1425080985182
0.242563686954504 0.125 0.152125023396475
0.239066707239219 0.125 0.157020986011198
0.237268825824623 0.125 0.175691336039425
0.235008254770045 0.193268770823748 0.251815538530622
0.233971564461242 0.191450996785715 0.259275501536943
0.230513079221591 0.187602237558444 0.261315300498136
0.238282244554241 0.176937775222732 0.2625
0.234663427902948 0.176106269708336 0.2625
0.234352797690371 0.160095732795683 0.2625
0.234378496343733 0.148321781236749 0.2625
0.242836834094918 0.144878667562237 0.2625
0.234231557444636 0.130830756101895 0.2625
0.236987323501675 0.114837991346624 0.2625
0.243291749833607 0.100612370272039 0.2625
0.246284842282961 0.0940600644687848 0.2625
0.240630822984324 0.09234733106375 0.2625
0.240689969648654 0.0708172122316299 0.2625
0.240384458781584 0.0732760786378236 0.2625
0.248983550738587 0.0534099355699913 0.2625
0.24153849957577 0.0446298730704091 0.2625
0.248622508478652 0.0302225807027071 0.2625
0.250810120531532 0.0220562732719386 0.2625
0.245213366666009 0.0144747641548254 0.2625
0.253921419559987 -0.00626772995093455 0.2625
0.246788115691062 -0.0123639670899365 0.2625
0.256648634504023 -0.0201645541863783 0.2625
0.250312163292605 -0.0319468805165101 0.2625
0.249205454053623 -0.0421728556162511 0.2625
0.2522505225171 -0.057718792959434 0.2625
0.251372996990068 -0.0647649281896553 0.2625
0.254334248766064 -0.0674255609627162 0.2625
0.252324213923585 -0.0954523501341849 0.2625
0.257073439881841 -0.0944291158611316 0.2625
0.25928265356472 -0.113276759634994 0.2625
0.259209840225126 -0.121398759334366 0.2625
0.262243581968417 -0.137304307644023 0.2625
0.257350744531974 -0.150130292446984 0.2625
0.264388231926498 -0.153304755406328 0.2625
0.264367728309429 -0.16491221539361 0.2625
0.246974520530691 0.125 0.11358897223697
0.24742494537478 0.125 0.118037312784681
0.244882329396972 0.125 0.14200416330256
0.24664904101998 0.125 0.179318624673166
0.249872162794599 0.125 0.178756844910973
0.243566177659899 0.19265739689736 0.254782000143622
0.246009519957539 0.182798192074461 0.2625
0.239848410918274 0.182953648705663 0.2625
0.248753361235585 0.159961772344036 0.2625
0.248646529354732 0.164108368523579 0.2625
0.24354647017813 0.143742711914155 0.2625
0.24722572521313 0.140705931316309 0.2625
0.247724581331575 0.127630627914282 0.2625
0.252215777205001 0.1158956574139 0.2625
0.247868124923021 0.109425718325824 0.2625
0.247859836220999 0.0959088775109204 0.2625
0.253154919779529 0.0890764124231093 0.2625
0.251241945439995 0.0708576494809449 0.2625
0.25060104266904 0.0658104540875129 0.2625
0.254662886143348 0.0593031392933004 0.2625
0.25501365923003 0.0449700409491593 0.2625
0.252736329564584 0.0390020878492734 0.2625
0.259563190079139 0.0238958273354541 0.2625
0.259668803108466 0.0125689294446776 0.2625
0.26280234694987 0.00664007419160834 0.2625
0.255489641340634 -0.00372104060639765 0.2625
0.261426436073147 -0.0189248715378795 0.2625
0.260921189463419 -0.0253100521423211 0.2625
0.265250062225173 -0.0340762438782026 0.2625
0.261683089880925 -0.0577188635025389 0.2625
0.267984597266629 -0.074740255501897 0.2625
0.269868512236383 -0.0761821639225654 0.2625
0.265918562979802 -0.0849787217568277 0.2625
0.264196718633231 -0.0971173192031448 0.2625
0.273744935882944 -0.11468939608699 0.2625
0.270569384376704 -0.120865320994909 0.2625
0.271753619075143 -0.127373886920024 0.2625
0.27524488465946 -0.146366543145465 0.2625
0.271695870734946 -0.158416235362276 0.2625
0.276576139285717 -0.16834834823211 0.2625
0.278645269307222 -0.187643365779044 0.259582361883475
0.254747573248439 0.191858603333616 0.254469767626464
0.256995543093459 0.188759927678171 0.259796551667423
0.249092464801484 0.186280071230061 0.261312742622058
0.257039900801045 0.17222095894499 0.2625
0.250799621534377 0.168854240873505 0.2625
0.259080067121568 0.157903722773824 0.2625
0.260793543194856 0.155113527580527 0.2625
0.255370859478364 0.14197594806087 0.2625
0.26241235368886 0.134081739944365 0.2625
0.256284664284926 0.120604359984097 0.2625
0.260328899441468 0.102926906967643 0.2625
0.26010672294267 0.100410052299501 0.2625
0.263850498022747 0.0922912771085407 0.2625
0.265142012515797 0.0844910215946072 0.2625
0.260856323414232 0.0674734536392042 0.2625
0.266742407767033 0.0582708666675486 0.2625
0.26686443378156 0.0502203163794509 0.2625
0.266081646890886 0.043082728254843 0.2625
0.270024809386714 0.020602431967237 0.2625
0.268169830397715 0.00906002191756314 0.2625
0.264860693815626 0.000633102334293234 0.2625
0.26571334951369 -0.00933668175280828 0.2625
0.269644354348081 -0.0176853207524634 0.2625
0.273708127890764 -0.0291450052023625 0.2625
0.273121255399252 -0.04110339343493 0.2625
0.275608549204084 -0.0542350086554866 0.2625
0.273072323996216 -0.0620909487468798 0.2625
0.278313149317004 -0.0797538723564017 0.2625
0.281078752974743 -0.0795849749756589 0.2625
0.282703329530146 -0.0962345542289266 0.2625
0.283055802296273 -0.120588005312009 0.2625
0.280693382725101 -0.112494793216238 0.2625
0.277586323620846 -0.128530721309342 0.2625
0.288531254982373 -0.146621013743573 0.2625
0.280920749139764 -0.150719936204645 0.2625
0.282012382837779 -0.171252352540951 0.2625
0.290369786646253 -0.179378308003656 0.2625
0.259230014399249 0.190045851763789 0.259076639570631
0.262093239220753 0.179144616304987 0.2625
0.26573938562875 0.185388041992161 0.261164722215823
0.268206349716127 0.175334307775825 0.2625
0.263074900612397 0.160816654422487 0.2625
0.264449203187313 0.147421551152744 0.2625
0.26818106720358 0.139485647351658 0.2625
0.267948914910963 0.131192317220085 0.2625
0.264232446339217 0.118709340915193 0.2625
0.271379345561813 0.109763024046915 0.2625
0.267427103634909 0.0914812620040024 0.2625
0.274770171099576 0.0912862170560425 0.2625
0.268631988231103 0.0756598746156262 0.2625
0.274166666438272 0.0713015244268002 0.2625
0.279030499311615 0.0526744590438288 0.2625
0.275741650350783 0.0406353004329058 0.2625
0.273748851499022 0.0310921980838477 0.2625
0.280562807439269 0.0226310532445301 0.2625
0.2801672525793 0.015730057883763 0.2625
0.280599888039021 -0.006052133249625 0.2625
0.282366768973932 -0.00392599900973156 0.2625
0.278079234494014 -0.0239171324436251 0.2625
0.281029825227135 -0.0289949174174978 0.2625
0.28211700853784 -0.0369531523377332 0.2625
0.286454733955386 -0.0442401491156156 0.2625
0.287047310105048 -0.0571968057047281 0.2625
0.291409816362645 -0.0710328560320406 0.2625
0.289468526202964 -0.0882041848204632 0.2625
0.288391521587894 -0.0980014841129256 0.2625
0.293567721408327 -0.114556348270831 0.2625
0.294998665973175 -0.120857426050212 0.2625
0.293067282253339 -0.138063777314913 0.2625
0.295957082196978 -0.140744032079285 0.2625
0.29948741322482 -0.1534194196327 0.2625
0.297239185639807 -0.163235421607648 0.2625
0.296098772194374 -0.177064849994259 0.2625
0.269927847700027 0.190774131772637 0.256873836807372
0.272920241805572 0.18867433824317 0.259272604875572
0.27525243239293 0.183493765324034 0.261769649617724
0.272044618574781 0.159442095620114 0.2625
0.274877285523429 0.150373154084326 0.2625
0.272164765911025 0.152108726749033 0.2625
0.278025647078597 0.139431067866265 0.2625
0.281080669157189 0.131608389261868 0.2625
0.277322729280485 0.119072573058229 0.2625
0.280213964821909 0.109621771908875 0.2625
0.279777786443858 0.0913314627844362 0.2625
0.277350571018831 0.0875418869809655 0.2625
0.280001122081311 0.0749595633621117 0.2625
0.287905809824677 0.0633233992890846 0.2625
0.282714262370851 0.062795330663458 0.2625
0.28216578707528 0.048143139045617 0.2625
0.287993473932515 0.03068519909986 0.2625
0.283764174995695 0.0187708199551934 0.2625
0.293028888025787 0.0112899851768754 0.2625
0.293682162542052 0.00297739423443577 0.2625
0.290209819775125 -0.00451405082345099 0.2625
0.288549946886091 -0.0265849496156803 0.2625
0.290051425908584 -0.0333855472295525 0.2625
0.298948239748781 -0.0437774390269567 0.2625
0.298272702757914 -0.0560274052222127 0.2625
0.295643327782678 -0.0689924554543803 0.2625
0.293373966637965 -0.0795058405526295 0.2625
0.302582584584245 -0.0874023074949089 0.2625
0.297812062686264 -0.0951430439149874 0.2625
0.30286070447944 -0.107219078166848 0.2625
0.306202974088647 -0.114773774618764 0.2625
0.299447166225213 -0.132048502881684 0.2625
0.300954514519103 -0.141501744013642 0.2625
0.302130813406248 -0.159160880433223 0.2625
0.303479382660829 -0.170229470629608 0.2625
0.282280692189482 0.189891650458565 0.254919463035417
0.279027532194243 0.190124054655828 0.258274943618281
0.280784168963456 0.184778764509352 0.260932887421361
0.281054029237479 0.173173149830914 0.2625
0.285408887966106 0.1569957617747 0.2625
0.285781164088323 0.152423914210599 0.2625
0.289784815549462 0.144475027640193 0.2625
0.283744588897173 0.13252307280017 0.2625
0.285974509219957 0.119069159326492 0.2625
0.287562190804223 0.113170164291093 0.2625
0.292014476868427 0.0989415312199265 0.2625
0.290704079032121 0.0956996889024784 0.2625
0.293623927102034 0.0835298659114315 0.2625
0.290956660061838 0.0607713373905639 0.2625
0.289512680334081 0.0646892061420246 0.2625
0.29843405126467 0.0383167125700472 0.2625
0.295731907631328 0.0369972179992762 0.2625
0.295882452186119 0.0203110580549074 0.2625
0.303404765469541 0.0180520816201152 0.2625
0.303746333123031 0.00484214461602945 0.2625
0.304094249472931 -0.00749087066189033 0.2625
0.298147636240357 -0.0133776538262793 0.2625
0.306072119013545 -0.0293879342843297 0.2625
0.304385303966189 -0.0407597055482227 0.2625
0.300956253257112 -0.0600250303853211 0.2625
0.307219633339367 -0.0597890583992812 0.2625
0.305234391703978 -0.0716876903543986 0.2625
0.306419730154005 -0.0949900136411093 0.2625
0.313988873546814 -0.0957295140619896 0.2625
0.314438431548856 -0.105430388069441 0.2625
0.309663514146069 -0.123773153274113 0.2625
0.315528570291934 -0.14372125611605 0.2625
0.315230932978878 -0.144005867395204 0.2625
0.321725044372847 -0.164903347429699 0.2625
0.317734907015187 -0.179851905261658 0.262071913005302
0.295047440123839 0.188099701886845 0.258771538690525
0.292701983142286 0.171637070261674 0.2625
0.2970265590224 0.172753797298894 0.2625
0.294653172841341 0.160669588434548 0.2625
0.299082952308275 0.143786344551476 0.2625
0.294199203503707 0.141712313260436 0.2625
0.299160028120679 0.120778513579634 0.2625
0.300644377193286 0.116279211703325 0.2625
0.295232011536892 0.103130909734694 0.2625
0.299853445781017 0.0977698805600667 0.2625
0.303832617620842 0.0887850231090018 0.2625
0.298736853663582 0.0733472123858244 0.2625
0.300868479773181 0.0685096817990953 0.2625
0.306979447381984 0.0526268136858059 0.2625
0.302838189239583 0.0457106072241852 0.2625
0.308047964176556 0.0383354738379921 0.2625
0.311727457692698 0.018328615754162 0.2625
0.30481052445144 0.0221284617774467 0.2625
0.314233069602384 0.00162202689651085 0.2625
0.308006634314326 -0.00834042233389875 0.2625
0.307237738696826 -0.0258411916921815 0.2625
0.311144206764259 -0.03585308868283 0.2625
0.309611938242187 -0.0430335131115238 0.2625
0.315422010823097 -0.0584577091851784 0.2625
0.321611792350226 -0.0695158092473818 0.2625
0.32319541981186 -0.0793537222406395 0.2625
0.318132352465319 -0.0908946105562331 0.2625
0.319089377747982 -0.0988051164708997 0.2625
0.323671305022371 -0.110862186668261 0.2625
0.319509083580362 -0.118822920726798 0.2625
0.326782982926687 -0.141056840907243 0.2625
0.3282596842465 -0.142611077810886 0.2625
0.324597301535212 -0.165792899895632 0.2625
0.322932778560243 -0.168415354637131 0.2625
0.296395237238757 0.188883314097394 0.254144217605808
0.302382144392595 0.188455612307993 0.255375408169184
0.300659691349708 0.178599753559151 0.2625
0.302137882202696 0.17051186437664 0.2625
0.30124987830421 0.15903434755498 0.2625
0.301560271315936 0.151789326780982 0.2625
0.307938113862843 0.143580942987202 0.2625
0.308255991576324 0.130771049135187 0.2625
0.303468602273073 0.123797816590418 0.2625
0.311504195784895 0.107203462791869 0.2625
0.309575641353177 0.100488483911447 0.2625
0.309113262800881 0.0831996103240906 0.2625
0.316042405850674 0.0797905426037493 0.2625
0.317395393211993 0.070700357749502 0.2625
0.316620267497003 0.0540765117752381 0.2625
0.309983772114873 0.0523160460201097 0.2625
0.313644283109753 0.0346558412259047 0.2625
0.31209170078374 0.0286701584148346 0.2625
0.318914254759368 0.0180632534641958 0.2625
0.316969817094567 0.00511201925730844 0.2625
0.321653675054273 -0.00156808227060636 0.2625
0.317325928769169 -0.0200223903318904 0.2625
0.322647912508088 -0.0278325243468861 0.2625
0.322143185936264 -0.0370934768567233 0.2625
0.330412538070111 -0.0508998302376961 0.2625
0.326402552255675 -0.0696648878324628 0.2625
0.323857066036114 -0.0768450881679669 0.2625
0.327052624875363 -0.0863399405561945 0.2625
0.331881329388363 -0.0897373829956493 0.2625
0.32745562472727 -0.104312536723604 0.2625
0.333607744721616 -0.121235783305923 0.2625
0.334521388912812 -0.131139830363767 0.2625
0.334482062159462 -0.144859044805018 0.2625
0.335122195465919 -0.165927692256866 0.2625
0.334893480202685 -0.170297194082448 0.2625
0.308900683207731 0.180213730522052 0.262206023080344
0.314349518675227 0.180538762440803 0.261850291571775
0.30826571998014 0.169191511628008 0.2625
0.308534637542969 0.159653516565672 0.2625
0.309897591384284 0.145286770194286 0.2625
0.311530950675286 0.138650211517533 0.2625
0.313851977717995 0.118948094821087 0.2625
0.316781415455839 0.120270422131217 0.2625
0.31951052850327 0.113426924541528 0.2625
0.315186421228427 0.103268424546141 0.2625
0.320958341237823 0.0821112442184367 0.2625
0.324875709217248 0.0796142722597002 0.2625
0.322305122429796 0.0652564864348927 0.2625
0.32380865236056 0.0631324587983082 0.2625
0.327141512769054 0.0462738607317296 0.2625
0.322331140752375 0.0369758055953615 0.2625
0.325291733097918 0.0243384281226956 0.2625
0.331115581697237 0.0187632284677448 0.2625
0.328296860681588 0.00680385464360563 0.2625
0.333324949111314 -0.0096312080668738 0.2625
0.335101649356848 -0.0198821221572724 0.2625
0.333972580137678 -0.0362983558772706 0.2625
0.332804533668653 -0.0453617013789677 0.2625
0.341196115684486 -0.0565015714599151 0.2625
0.341298036637044 -0.0605259663901573 0.2625
0.342406353987301 -0.0786842189142334 0.2625
0.342624836036603 -0.0867246850872846 0.2625
0.337051458980214 -0.0929994829780692 0.2625
0.344640953776874 -0.117788326118698 0.2625
0.348164875291952 -0.12059590596335 0.2625
0.350331226140799 -0.135499727448475 0.2625
0.341648176883789 -0.15019307889328 0.2625
0.347573144916748 -0.15653166140839 0.2625
0.352810989369299 -0.164398416861809 0.2625
0.315493140027593 0.187518969037964 0.252621203731581
0.321564286484863 0.181197861022744 0.261265360099358
0.322627197622833 0.176702739584342 0.2625
0.321369416913044 0.169755467294609 0.2625
0.320764465563158 0.154040494323616 0.2625
0.327330549112138 0.147473799644491 0.2625
0.322768485432966 0.141057880890506 0.2625
0.321440591336607 0.126949771217784 0.2625
0.326915262924528 0.115973192317074 0.2625
0.328159599072265 0.111846736472492 0.2625
0.333161592494595 0.0975496902200429 0.2625
0.333417759625642 0.0858120279329976 0.2625
0.32796345756209 0.0806217639751371 0.2625
0.334377654023557 0.0699235002698074 0.2625
0.333938369885569 0.0617887836846066 0.2625
0.334385525239579 0.0488203564829698 0.2625
0.335873657983881 0.0359665189375481 0.2625
0.335985492028717 0.0302255463445988 0.2625
0.339454773432977 0.0174499220352638 0.2625
0.344811286883382 0.00538437851277767 0.2625
0.337442129990988 -0.00872023542597441 0.2625
0.346149298642374 -0.0223642855996511 0.2625
0.340721528297325 -0.0300266816843015 0.2625
0.347863401650383 -0.0392986694460982 0.2625
0.346311567983582 -0.0453883199056581 0.2625
0.352019373259961 -0.0586526362056953 0.2625
0.347953214903384 -0.079671001920497 0.2625
0.352432251319413 -0.0889954166779267 0.2625
0.35214938230782 -0.0948112853375667 0.2625
0.354314661012762 -0.115949794793035 0.2625
0.355062824523047 -0.122456365607007 0.2625
0.351727909749175 -0.1354921450987 0.2625
0.359114351730633 -0.150015850557764 0.2625
0.360690077974214 -0.160201959151985 0.2625
0.357667632266793 -0.171229567010401 0.2625
0.331064259133178 0.181251428458446 0.260900690745198
0.325444535848562 0.178777836668962 0.262332524156417
0.332666547774622 0.168202625003332 0.2625
0.331058963786363 0.158168724225869 0.2625
0.327631152427799 0.152073134015477 0.2625
0.336534433512466 0.139488981652365 0.2625
0.338865477292436 0.130302782877962 0.2625
0.3353559804975 0.122193474568227 0.2625
0.340451998061214 0.113148098195677 0.2625
0.334227712901128 0.0946925606696382 0.2625
0.343816466386886 0.0853118307212569 0.2625
0.344681434250599 0.0801864774084985 0.2625
0.33688834835376 0.0682108614030857 0.2625
0.344527066721761 0.0596927203764816 0.2625
0.340271746526074 0.0452984529952336 0.2625
0.348491136952972 0.0344082801002623 0.2625
0.34955930893871 0.0260171037332848 0.2625
0.353941266325755 0.0050739532872095 0.2625
0.351228708286746 0.00590322761706919 0.2625
0.348296022191377 -0.00772702986705927 0.2625
0.348359086950969 -0.0172840509190929 0.2625
0.357356598422554 -0.0300684680750502 0.2625
0.350497575827849 -0.0375055788611173 0.2625
0.360633624872019 -0.0459819434111831 0.2625
0.357574008364194 -0.0662536918743375 0.2625
0.359951314663671 -0.0728132054823372 0.2625
0.362429265552074 -0.0890036904772955 0.2625
0.360201687337667 -0.0904504126518892 0.2625
0.36596319584175 -0.107079559923636 0.2625
0.360111537094204 -0.129574311385257 0.2625
0.367590811511741 -0.134679906900811 0.2625
0.37147013737259 -0.149510733315709 0.2625
0.3654425667376 -0.163449110826886 0.2625
0.369033402768839 -0.167526108569266 0.2625
0.370333276926335 -0.182136584965801 0.259062746233443
0.336870856989071 0.18599175514224 0.253697970801903
0.337618485215996 0.183965895025232 0.259315649384877
0.341590159702387 0.17754687922002 0.26237113142124
0.339263104661157 0.166067745579079 0.2625
0.344428195505911 0.155333564452699 0.2625
0.342479030525644 0.152415724669094 0.2625
0.347115051632979 0.137328507779237 0.2625
0.347384597598084 0.125371128679233 0.2625
0.345919133571701 0.116494275287035 0.2625
0.343786629367879 0.111207443500286 0.2625
0.351808555119109 0.104030348445449 0.2625
0.351924682576401 0.0890038442340753 0.2625
0.346922452967027 0.072461184085409 0.2625
0.356449685547345 0.0659783714105752 0.2625
0.35396819201001 0.0597625875385849 0.2625
0.35217737543875 0.0469272222961673 0.2625
0.356369759970811 0.0321004718775057 0.2625
0.354583958176442 0.0253358705424887 0.2625
0.361171724174797 0.0124327833917438 0.2625
0.354555552852491 0.00895505030813879 0.2625
0.361015766376671 -0.0100042049263445 0.2625
0.359349448233609 -0.0181657504538497 0.2625
0.362494376145865 -0.0360370030675317 0.2625
0.368428162860525 -0.0509668360254603 0.2625
0.368785252167103 -0.0516653334505255 0.2625
0.370828207068619 -0.0685594850745526 0.2625
0.366411160029682 -0.0779046174609083 0.2625
0.366379778971748 -0.0827551938252886 0.2625
0.376501247335565 -0.0932513714419812 0.2625
0.3691624519942 -0.112303253640756 0.2625
0.372144115565954 -0.126016654995735 0.2625
0.380000058137961 -0.128619300190985 0.2625
0.37667664617748 -0.146942179509206 0.2625
0.373823214541815 -0.149493031421765 0.2625
0.383501109479843 -0.169412722819108 0.2625
0.38553694639109 -0.182356317138741 0.258412396621762
0.348131033312818 0.185187333520375 0.250144675072804
0.350362116756003 0.178873259057806 0.261398479737856
0.347115730633214 0.179511922821657 0.26119591405788
0.351583621017819 0.170761410685581 0.2625
0.350171008305718 0.15837106777759 0.2625
0.351376451846069 0.152017609449913 0.2625
0.350217362165853 0.141347510377791 0.2625
0.349392117059722 0.132126690396946 0.2625
0.354276656536087 0.123035293080331 0.2625
0.358676006221806 0.11049225921332 0.2625
0.361886094876746 0.097612843266 0.2625
0.361985915683737 0.0911780882460557 0.2625
0.360812485197044 0.0760726287853629 0.2625
0.363070978826625 0.0655222520607348 0.2625
0.36391327022588 0.0598885936682994 0.2625
0.361187534436121 0.0470730572397888 0.2625
0.364372138867911 0.029616502640574 0.2625
0.364050232013488 0.0255144257364572 0.2625
0.36665334090049 0.018482019691 0.2625
0.374347150787524 0.000227698934318177 0.2625
0.367491667524096 -0.00886205987456913 0.2625
0.369890710338426 -0.0177336744922849 0.2625
0.375011658668171 -0.031065843159602 0.2625
0.378605441101145 -0.0414443227221222 0.2625
0.371559868230025 -0.0477333879400475 0.2625
0.380771997986731 -0.0611192427334259 0.2625
0.381121698854475 -0.0662780458077426 0.2625
0.379799695835779 -0.0859020866310203 0.2625
0.38149070189746 -0.105204822320824 0.2625
0.380200013786014 -0.114729377187858 0.2625
0.386183919819441 -0.121260104330133 0.2625
0.391133470252722 -0.128392183127671 0.2625
0.384446915143138 -0.144041838302735 0.2625
0.392575558130002 -0.157128990486225 0.2625
0.390702481191153 -0.167036540294645 0.2625
0.3555711268458 0.184655816789681 0.252359554077637
0.354998642340215 0.179871887584705 0.260736185338245
0.354276260629841 0.176999054310385 0.262192609765248
0.359477651889325 0.161798662459596 0.2625
0.359258236119062 0.16277502444676 0.2625
0.360365279361026 0.149483810187797 0.2625
0.361274989845549 0.137213479114318 0.2625
0.367319936943012 0.126223742237964 0.2625
0.365716703292272 0.112056970851826 0.2625
0.36463864157342 0.107255406186001 0.2625
0.367473898723704 0.0965238225031219 0.2625
0.364865762207162 0.0901380189642339 0.2625
0.373043062521949 0.0694038194171346 0.2625
0.375618068862548 0.0639750439443873 0.2625
0.368647850150056 0.0659252511907345 0.2625
0.378271346010743 0.0535469827465595 0.2625
0.378107760165881 0.0395646717637622 0.2625
0.373536952913303 0.0234212692507943 0.2625
0.381902209078087 0.00912912313678991 0.2625
0.376159890626064 -0.000498742247765864 0.2625
0.383056849600095 -0.008712630769979 0.2625
0.376714033417272 -0.0117657624376434 0.2625
0.380172019761639 -0.03185073122493 0.2625
0.386259284273478 -0.0350263089903923 0.2625
0.387824332641602 -0.047442402589769 0.2625
0.391120812436587 -0.0632666903947376 0.2625
0.392774261038692 -0.0754153719179295 0.2625
0.387444412839741 -0.0812371039298696 0.2625
0.392132554527406 -0.105991699268404 0.2625
0.397005782294115 -0.112725154527844 0.2625
0.39457851590843 -0.112312717198595 0.2625
0.398029218080646 -0.141683216729566 0.2625
0.403674845934671 -0.147441200580218 0.2625
0.402447113650832 -0.167715258434908 0.2625
0.398734075388422 -0.161444482824332 0.2625
0.366672598516808 0.183862732952455 0.25511394569137
0.370085102041395 0.183618945329513 0.25020756688475
0.363470586214916 0.181816973729093 0.259466080548244
0.371586368639443 0.172592031049656 0.2625
0.365557947092219 0.158666087507475 0.2625
0.376014375830032 0.141315419600954 0.2625
0.371610087580118 0.140998928764619 0.2625
0.375268559878846 0.126950412710358 0.2625
0.373247260085 0.112459018954746 0.2625
0.373860363221394 0.114914149255866 0.2625
0.379169058537141 0.0995236102528381 0.2625
0.375496273008865 0.0902145096227362 0.2625
0.379855315162194 0.0740567329572959 0.2625
0.383711442258609 0.060891956115806 0.2625
0.380690709461723 0.0578394659087962 0.2625
0.381975784246612 0.0511552177699173 0.2625
0.389130933891228 0.0348762262639653 0.2625
0.387261439432834 0.0219944332167112 0.2625
0.391002472684834 0.0185479709571448 0.2625
0.393410206664293 -0.000799174572518229 0.2625
0.39246671120498 -0.00411969213047687 0.2625
0.392722821447227 -0.0181005175761716 0.2625
0.393199663009806 -0.0328538213510185 0.2625
0.393712227812174 -0.0392128230917653 0.2625
0.39360633756303 -0.044155581022395 0.2625
0.394431871117767 -0.0650721224778564 0.2625
0.400844107477514 -0.0695170301066791 0.2625
0.39948463386348 -0.084609850488314 0.2625
0.398789551516254 -0.106068548752265 0.2625
0.404371312978779 -0.116721657679091 0.2625
0.400921756716912 -0.121654783918757 0.2625
0.41104476807788 -0.132476131244652 0.2625
0.414455067206141 -0.149898460397775 0.2625
0.406637472061189 -0.16888110711536 0.2625
0.416996423961322 -0.172443494211048 0.26222989219249
0.37330894935037 0.183388635216566 0.25372789535219
0.377637295203404 0.181479286061847 0.259130229361854
0.372481535285254 0.177224005755474 0.261432869193095
0.378867850454651 0.168903971475084 0.2625
0.380620461465812 0.154770887216454 0.2625
0.379195443412385 0.151141514325288 0.2625
0.376842788903773 0.140903135042992 0.2625
0.388167589210632 0.121673153574842 0.2625
0.382551690500805 0.124440652210061 0.2625
0.384641229630795 0.10543711800115 0.2625
0.385329706728405 0.0939135873894548 0.2625
0.385741522243946 0.0880173931104342 0.2625
0.389001664495283 0.0848029800996774 0.2625
0.393519215674613 0.0655426671737122 0.2625
0.396903628918793 0.0617342310729024 0.2625
0.390277082867107 0.0528627589929958 0.2625
0.395978575752606 0.0278473646729883 0.2625
0.396827567752823 0.0218455033848651 0.2625
0.398269147218358 0.00975486862978362 0.2625
0.4024565643312 -0.000627518880401053 0.2625
0.40391885514938 -0.0084404868255873 0.2625
0.407103098373547 -0.0149613492773416 0.2625
0.407154511506696 -0.0371677227621229 0.2625
0.403275033236417 -0.0416832355242675 0.2625
0.409779886524455 -0.0583924267585866 0.2625
0.407918791632063 -0.0648054197296394 0.2625
0.411951783773914 -0.0758520250938886 0.2625
0.413535978468865 -0.0857623910377351 0.2625
0.4095972526475 -0.0941113685433654 0.2625
0.411419593434386 -0.109658213679037 0.2625
0.41123805128089 -0.124074141825682 0.2625
0.41411328351656 -0.135307756951571 0.2625
0.414702550501972 -0.13936763191054 0.2625
0.42484478077275 -0.165535313870073 0.2625
0.427026390995016 -0.169701036523356 0.2625
0.388706399880815 0.182288648700177 0.250113341537992
0.384384969825987 0.18259736960059 0.255066287418413
0.384558820923203 0.171220625630807 0.2625
0.390467195708989 0.172333104327373 0.2625
0.386721507835345 0.166152893957753 0.2625
0.38629544468462 0.14951245289047 0.2625
0.392678031282166 0.142958529644076 0.2625
0.390944991667653 0.127268061402171 0.2625
0.398829353690146 0.118404759818241 0.2625
0.399092857847856 0.108342163779302 0.2625
0.39664382667729 0.09668153039328 0.2625
0.394956547117821 0.0901153138366842 0.2625
0.403458934950361 0.0772521061648253 0.2625
0.403475293211688 0.0747099290813063 0.2625
0.400683146835455 0.0581748707420435 0.2625
0.402037208458209 0.0445878162780583 0.2625
0.407171078095605 0.0310508326487493 0.2625
0.40611723516431 0.0249774285432072 0.2625
0.40817592016996 0.0215272955292074 0.2625
0.414026474246922 0.0073938345226513 0.2625
0.406677919791628 -0.00795394598801848 0.2625
0.413146468960662 -0.0109849641274972 0.2625
0.410023121924917 -0.0337021680871762 0.2625
0.415507226622688 -0.0432720280372213 0.2625
0.418936759365687 -0.0450059835736695 0.2625
0.41485994784062 -0.0632036667537145 0.2625
0.422186685220706 -0.0756381953794985 0.2625
0.425125073363689 -0.0814569705544135 0.2625
0.4202498665331 -0.0925536646980291 0.2625
0.424130522224524 -0.105982253288434 0.2625
0.423470093627201 -0.125833462649132 0.2625
0.425057453905179 -0.134729473341002 0.2625
0.431854018437768 -0.152495778167152 0.2625
0.436334542422237 -0.159606836220647 0.2625
0.429170193650058 -0.169659586919427 0.2625
0.395239419178596 0.17858779836796 0.259943991359034
0.400080646972219 0.173875046123787 0.262118785875579
0.394364279354443 0.159385263824036 0.2625
0.396907926136974 0.16300134433591 0.2625
0.395465721889087 0.151088808094741 0.2625
0.398969985150366 0.145274806496561 0.2625
0.404353276710502 0.128766191396634 0.2625
0.407984503290932 0.119049933296377 0.2625
0.402841066186111 0.113446194413861 0.2625
0.404078992776965 0.099143658901364 0.2625
0.405226440287579 0.0894699870186907 0.2625
0.405284312136056 0.0732201898829534 0.2625
0.410341644318203 0.0665408692344921 0.2625
0.41223513435506 0.0547342491508847 0.2625
0.415603224438313 0.0517642432391317 0.2625
0.415978357794228 0.0310279604804937 0.2625
0.411734455061365 0.0239111102682144 0.2625
0.415758216653245 0.0132293867618888 0.2625
0.423544327522108 -0.00428862114218062 0.2625
0.419034035737151 -0.0150728411187638 0.2625
0.421142607437436 -0.0135401774829261 0.2625
0.42066353362736 -0.0336498305187731 0.2625
0.430182143679611 -0.0502883652466693 0.2625
0.422760742116321 -0.0471186164997566 0.2625
0.430774971005172 -0.0585121773645648 0.2625
0.429559324713159 -0.0792604612537716 0.2625
0.432842584693104 -0.0872637525990963 0.2625
0.430169854400838 -0.098030528993741 0.2625
0.440075402605045 -0.117147010699235 0.2625
0.436104100398301 -0.119227260732786 0.2625
0.438686857777708 -0.127495596521902 0.2625
0.441195309432892 -0.137600438502397 0.2625
0.446914235936997 -0.15698389134261 0.2625
0.441398288663165 -0.167412486504999 0.2625
0.400314133974216 0.181459397717144 0.250780010346497
0.400191380658314 0.181468167155439 0.253216452237236
0.406703589235335 0.17824083072125 0.259708913204483
0.40417511442659 0.163283194534296 0.2625
0.411532023040044 0.158815790788517 0.2625
0.412125992806596 0.146482228314141 0.2625
0.407408879636475 0.144245302982705 0.2625
0.407086312159562 0.130860239637564 0.2625
0.411155147029081 0.118885649574755 0.2625
0.413749729606158 0.108859004384008 0.2625
0.413985620107983 0.0936671389537641 0.2625
0.416861904068482 0.0928567811767228 0.2625
0.416949043042964 0.0811453951796366 0.2625
0.417565948167181 0.0636993361459664 0.2625
0.419829190810287 0.0533451073772809 0.2625
0.428551485875237 0.0391545712449044 0.2625
0.420417096204533 0.0430962972045231 0.2625
0.428503534475651 0.0182878088880021 0.2625
0.42406282149864 0.00954778528699757 0.2625
0.42593367529847 0.00308615809932741 0.2625
0.436698336062702 -0.0140907645073141 0.2625
0.436031172870412 -0.0193035599097148 0.2625
0.436558705682192 -0.0352618829295593 0.2625
0.433908857765617 -0.0429740745622022 0.2625
0.434064021387315 -0.0503046486953489 0.2625
0.441542884958222 -0.0645674226505017 0.2625
0.44297353357135 -0.0812055336853064 0.2625
0.447162257074867 -0.0926322598943334 0.2625
0.448659481044373 -0.0959231086708873 0.2625
0.448183231167419 -0.102359414300581 0.2625
0.444159201490427 -0.127346227253556 0.2625
0.447598610599799 -0.126864130552836 0.2625
0.455432036691615 -0.147244369485468 0.2625
0.449379281355202 -0.163838662089592 0.2625
0.45677252095377 -0.170418067589848 0.26182343023514
0.409096440790583 0.18083199391015 0.252089824786955
0.410641448288314 0.178786480665812 0.259297067692942
0.416154387254884 0.180327777583637 0.25803233178035
0.416285384766132 0.166020953510235 0.2625
0.413933493022929 0.150773551591314 0.2625
0.415388667679099 0.153868937158629 0.2625
0.417970298543539 0.136347776442935 0.2625
0.423339120740694 0.129039774188638 0.2625
0.422841896275897 0.119358460856779 0.2625
0.421903805715605 0.110079869972987 0.2625
0.425941177748944 0.0909595840867074 0.2625
0.424844895147342 0.0850104966190372 0.2625
0.424380278861003 0.0765801163833544 0.2625
0.431239310229908 0.0684211637481899 0.2625
0.434602367862378 0.0577590743725489 0.2625
0.436847627506655 0.0467441372562305 0.2625
0.431857328385094 0.0288836759707867 0.2625
0.438203945755972 0.0258990202424935 0.2625
0.441177568228576 0.0181853027205392 0.2625
0.437005847877905 0.00213199733601351 0.2625
0.439062893449863 -0.00771643719825471 0.2625
0.446969248508375 -0.0115631364704526 0.2625
0.448456015434997 -0.0220517526706601 0.2625
0.448035770255978 -0.0390340853393648 0.2625
0.447194786531852 -0.0594918135305624 0.2625
0.446677385344308 -0.0627661939632048 0.2625
0.453868411379151 -0.0768988856712416 0.2625
0.45092811611291 -0.0904382806628817 0.2625
0.459299363344542 -0.100194081810893 0.2625
0.453044908961442 -0.109709690130238 0.2625
0.454453886162976 -0.115781714622077 0.2625
0.456533360133291 -0.137703902897365 0.2625
0.464813713110401 -0.149950480101742 0.2625
0.45896861436984 -0.154319975190777 0.2625
0.426323293250362 0.177939189386665 0.25916110261545
0.427915884019854 0.168787336165905 0.2625
0.422000685855593 0.157736488996117 0.2625
0.425337676650695 0.149653447783958 0.2625
0.433082087254433 0.142050494087528 0.2625
0.433607522167743 0.12209876530043 0.2625
0.429988775512907 0.121946150862022 0.2625
0.429535192529206 0.102179730507219 0.2625
0.439317442348906 0.0957735537425563 0.2625
0.434262031545412 0.0851196835098795 0.2625
0.437651339425801 0.0701794888606514 0.2625
0.437921284112585 0.0613644510965002 0.2625
0.444332352545049 0.0490330710176446 0.2625
0.446294912240096 0.0490890285768695 0.2625
0.439363135133098 0.0410180759679292 0.2625
0.449153265426477 0.0237657848534643 0.2625
0.449560118541328 0.0102636567285088 0.2625
0.4522857895496 -0.00302024389823519 0.2625
0.447448621235157 -0.00477798786879564 0.2625
0.44798799049158 -0.0130105691981218 0.2625
0.453449304121896 -0.0311486152519402 0.2625
0.456754106830718 -0.0354843279289819 0.2625
0.454086616462557 -0.0578534783667071 0.2625
0.462032422098014 -0.0622348684885187 0.2625
0.461803428745074 -0.0724787354296367 0.2625
0.465185691810459 -0.0847593073618929 0.2625
0.467494231528697 -0.096070817223728 0.2625
0.464444498855797 -0.111614618341584 0.2625
0.469988760622771 -0.11565890048043 0.2625
0.475222770953773 -0.130001196027644 0.2625
0.471916717010108 -0.146343657558266 0.2625
0.47869200457698 -0.172424820008565 0.26004417544511
0.479033474494631 -0.172758728793431 0.259865733896601
0.431276006963461 0.178962945998695 0.258475044570836
0.43520997259735 0.173310587071656 0.261150059103922
0.435657893662796 0.171091124896573 0.262239455550508
0.43790332777673 0.159921277641175 0.2625
0.435978809611729 0.149247555485556 0.2625
0.440250859991237 0.139767265232637 0.2625
0.441162949641181 0.129956125635724 0.2625
0.446147245737823 0.116325554567966 0.2625
0.446386843157981 0.103110512269293 0.2625
0.447555476446789 0.0941307370996981 0.2625
0.444888522049962 0.0872108317490941 0.2625
0.445268134311177 0.0762832968877258 0.2625
0.450989593600699 0.0665573281020367 0.2625
0.449253025456754 0.0555266795673958 0.2625
0.455223588896413 0.0428730413806543 0.2625
0.451791473331185 0.034581396945812 0.2625
0.451716791710041 0.0312983533665762 0.2625
0.45841623147284 0.0157689898095374 0.2625
0.463369266745555 0.00799713074629119 0.2625
0.460503954693967 -0.00555484183644328 0.2625
0.462889016172278 -0.0206128207136141 0.2625
0.462975221721479 -0.0288360613789639 0.2625
0.463568904140707 -0.0419527263269951 0.2625
0.47053374253247 -0.0496353501465814 0.2625
0.47049039230949 -0.0639151039958591 0.2625
0.475715745785781 -0.0791445659996597 0.2625
0.474682277889232 -0.0898681718733523 0.2625
0.476171283873065 -0.109166053261023 0.2625
0.481588674615337 -0.106754252586781 0.2625
0.474265356201625 -0.121191437084959 0.2625
0.4840449127808 -0.1454299012605 0.2625
0.485368500841549 -0.147826941265708 0.2625
0.47993031760378 -0.160845355557539 0.2625
0.439687185502776 0.178646605709474 0.254643050434531
0.440852495410006 0.178563356525927 0.258176678254917
0.44658289297129 0.17070191395995 0.262044598042374
0.442718007085274 0.161952587914131 0.2625
0.448975681293384 0.145221553988577 0.2625
0.452065746232152 0.140316776032773 0.2625
0.446870549067951 0.128381778740205 0.2625
0.449048342414504 0.121408557696269 0.2625
0.452453683159581 0.11800754522753 0.2625
0.451605798359597 0.0976312414003881 0.2625
0.452586995703475 0.0849327846106798 0.2625
0.462691499967939 0.0782649804449756 0.2625
0.46343613642204 0.0715031550472124 0.2625
0.464733756416054 0.0575221995930747 0.2625
0.463360860658037 0.0468027465916629 0.2625
0.469028810155075 0.0283277884298134 0.2625
0.46498921908085 0.0277876347721341 0.2625
0.470747126610025 0.00988331565900272 0.2625
0.466276637032788 0.00118408718292968 0.2625
0.474583156363568 -0.00386425765469003 0.2625
0.477332461460702 -0.0188393014519078 0.2625
0.479799358145141 -0.036804319588173 0.2625
0.480770897156404 -0.0355704763925383 0.2625
0.482921641413675 -0.0629942303990447 0.2625
0.478528056224872 -0.0645723571011345 0.2625
0.479398489317494 -0.0753964382602476 0.2625
0.481523518462403 -0.0873050493320515 0.2625
0.487156177833539 -0.0998904103776743 0.2625
0.488933309086933 -0.108210766919916 0.2625
0.486526900318974 -0.118024531259904 0.2625
0.48708621855891 -0.140387938492407 0.2625
0.489119176594475 -0.150851836956486 0.2625
0.490462352421372 -0.159210465203987 0.262148392364783
0.452166908565797 0.177755060250668 0.253989463382553
0.448043901346403 0.17804960591843 0.257453659398981
0.458193947127986 0.165438489952326 0.2625
0.458632131332728 0.158054504093924 0.2625
0.452346893569246 0.138892157201419 0.2625
0.453787262225024 0.14168673026654 0.2625
0.46308566418124 0.124408411178318 0.2625
0.458090131452775 0.123816763094735 0.2625
0.46655385399989 0.114464213516614 0.2625
0.466657835874264 0.100116861001378 0.2625
0.46409145824113 0.080836141774697 0.2625
0.468865583309898 0.0862471613192904 0.2625
0.47444551146658 0.0642152437118658 0.2625
0.468423915075367 0.0485993922929935 0.2625
0.475522143735439 0.0528671420614496 0.2625
0.475261205085086 0.0437197612403849 0.2625
0.475865847872322 0.0164192815464621 0.2625
0.482707316499536 0.00902655983304133 0.2625
0.481145528450676 -0.00223663330309586 0.2625
0.484907615270455 -0.00676142122562542 0.2625
0.48476346933758 -0.0166072391254938 0.2625
0.485688143124893 -0.0314267786745797 0.2625
0.486048848910753 -0.0490216126721795 0.2625
0.485815226280972 -0.053906024438614 0.2625
0.49119257771003 -0.0660097062362505 0.26185630224932
0.489790414454043 -0.0755172071944557 0.262417167551716
0.497934524024268 -0.0899924446914558 0.259159523723626
0.498170929119122 -0.102747110856759 0.259064961685685
0.497600461990906 -0.121802945197112 0.25929314853697
0.499330282849739 -0.129701179336084 0.258601220193437
0.461263900302517 0.17710517550317 0.25145346993804
0.459979866135301 0.176720084931256 0.258570799071959
0.464137265405355 0.162068333001985 0.2625
0.464906651025916 0.162049416821072 0.2625
0.467785450502087 0.144504018234221 0.2625
0.470282590976311 0.138254483138219 0.2625
0.464977102052631 0.12103259329425 0.2625
0.470916040465398 0.117022161127188 0.2625
0.468600677246113 0.115642050309561 0.2625
0.471622567735417 0.102438020865989 0.2625
0.476527823492935 0.0913307460146115 0.2625
0.481268397819786 0.075820523495104 0.2625
0.478656490336528 0.067641778149256 0.2625
0.483369691762503 0.061546831246802 0.2625
0.485962338210814 0.0471261639284122 0.2625
0.486730655977155 0.0305183223732205 0.2625
0.484512880363163 0.0250384044187991 0.2625
0.490697899930391 0.00383663793015637 0.262054173361176
0.493753392001174 0.00562891878833269 0.260831976532864
0.490446854023412 -0.0155958017898441 0.262154591723968
0.491399194117692 -0.0235692529526038 0.261773655686256
0.496573513124981 -0.0362977651535298 0.259703928083341
0.499195867437119 -0.0471085542845221 0.258654986358485
0.474725540169416 0.17293142195612 0.259932998038743
0.470794951779169 0.161001072492162 0.2625
0.471596753247308 0.164447420229642 0.2625
0.477947671331689 0.148593102959031 0.2625
0.481499941167678 0.13499857820834 0.2625
0.476609480470567 0.131969893319191 0.2625
0.480757121228937 0.116053738233503 0.2625
0.480882833934327 0.10486698324361 0.2625
0.483254010475012 0.0989339350415762 0.2625
0.487392763163836 0.0839735975587241 0.2625
0.487395208989936 0.0820184075362495 0.2625
0.487126905913768 0.0717220351544654 0.2625
0.488366413595287 0.058779127670104 0.2625
0.48957040445312 0.0466944220284257 0.2625
0.492010591944449 0.0387259186450312 0.261529096555554
0.491833398244517 0.028303271416847 0.261599974035526
0.496220096781306 0.0112903200400211 0.259845294620811
0.5 0.00222700672301513 0.258333333333333
0.479060656196697 0.175215835052588 0.258641083064824
0.481222017484023 0.175679377138124 0.257046518108242
0.483212570563075 0.158911823832562 0.2625
0.48278053139981 0.156631949800914 0.2625
0.486777895622517 0.145499651292789 0.2625
0.484170990547889 0.141959071065936 0.2625
0.487425252188445 0.128911205792626 0.2625
0.48833191161014 0.116975467055231 0.2625
0.491512162516136 0.10902867094676 0.261728468326879
0.497883953159606 0.0915904539405569 0.259179752069491
0.491921226158039 0.0860542259328568 0.261564842870117
0.495293956373243 0.0793037602791533 0.260215750784036
0.498020286687682 0.0633320852842729 0.25912521865826
0.491088468594569 0.173309492526573 0.250328307900377
0.493556921980637 0.171150526563352 0.256464091254643
0.488505251806844 0.168888930681459 0.260587558624444
0.493034028866886 0.15166275176713 0.261119721786578
0.491487589141079 0.144873361762659 0.261738297676901
0.497307633677641 0.13210783816366 0.259410279862277
0.497544887068304 0.127495554059313 0.259315378506012
0.499894410056413 0.0971979493433537 0.258375569310768
0.496027265376726 0.161841828141341 0.259922427182643
-0.5 -0.160864980408559 0.255902559745916
-0.498217360216961 -0.164544975784563 0.259046389246548
-0.489150932986161 -0.174792423283744 0.258404768459444
-0.494558285379385 -0.145835293747861 0.260510019181579
-0.498344064210657 -0.150719841181957 0.25899570764907
-0.489205309196872 -0.159734929153246 0.2625
-0.5 -0.132125046387869 0.254318189540641
-0.494771360132323 -0.136946851786524 0.260424789280404
-0.494203465155665 -0.139915314815054 0.260651947271067
-0.491558720758136 -0.142621351332059 0.261709845030078
-0.482650478285883 -0.149994627961906 0.2625
-0.482525492005201 -0.165062796787088 0.2625
-0.471874363379139 -0.170760939438778 0.261115377639018
-0.5 -0.11962504684266 0.256942451360627
-0.492487383474074 -0.12916376229504 0.261338379943704
-0.487272270207405 -0.131323352674847 0.2625
-0.482751955476245 -0.137068660720157 0.2625
-0.473483764808515 -0.150404494242766 0.2625
-0.470513879596622 -0.155890157703423 0.2625
-0.464089635339526 -0.164613028839432 0.2625
-0.458424790035402 -0.176579215096737 0.258696281606933
-0.489940049864346 -0.111254387738046 0.262357313387594
-0.487843040017026 -0.121680557111175 0.2625
-0.480124503705384 -0.126211671437968 0.2625
-0.47580291070279 -0.131640819969033 0.2625
-0.47704714889111 -0.135709380529573 0.2625
-0.469728143397144 -0.144466073825416 0.2625
-0.463413323740587 -0.155742849257412 0.2625
-0.457149519987977 -0.164492748168075 0.2625
-0.4455044421057 -0.175962262396649 0.259463217851687
-0.48528902069602 -0.104421606905387 0.2625
-0.479350557045826 -0.116527060104067 0.2625
