ply
format ascii 1.0
element vertex 859
property float x
property float y
property float z
end_header
0.177912249394649 0.0702967962098935 0.519839958504379
0.169697838169742 0.0693241369464094 0.519526340432138
0.15342073836384 0.0661512064845388 0.518503280896115
0.153607455718564 0.0638046838718 0.517746683055632
0.128817378028489 0.0625808267389123 0.517501151413429
0.123273835111827 0.0653433792512271 0.518242810216272
0.115798086813498 0.067552600059089 0.518955137335263
0.0986940106008391 0.0641942383852575 0.517872288537562
0.0891214420993161 0.0704598001531512 0.519892516460049
0.0738157922756718 0.0678064619558995 0.519036990952127
0.0646623525004308 0.0658011324554692 0.518390405250696
0.0539075131020413 0.0642931632203851 0.517904185232791
0.053006916579437 0.0727334477036905 0.520625616928555
0.0314570407807986 0.070064906918746 0.519765189594861
0.0255570037129471 0.0710220553211097 0.520073806443605
0.0189094721878902 0.0669399178494167 0.51875758797681
0.00883745363601204 0.0732496987561798 0.520792073637449
-0.0142108232414254 0.0680465307533111 0.519114397209669
-0.0243593110694164 0.0679328327368859 0.519077737143737
-0.0360925465331784 0.0664478006297195 0.518598912827606
-0.0601236448406745 0.0680751748855337 0.519123633041647
-0.0691263237263153 0.0710272857869602 0.520075492921778
-0.0716764896935216 0.0734642388220866 0.520861248573024
-0.0799268358528146 0.0762944946204612 0.521262090691285
-0.0990301984553717 0.0749154945178952 0.521329182237705
-0.112032299420129 0.0777914160966932 0.521160555821168
-0.131629878698766 0.0678705925010875 0.519057668797606
-0.147418114800488 0.0741148953976508 0.521071042144709
-0.15289723866713 0.0757081825842508 0.521301859722187
-0.167261054514014 0.0740172271490162 0.521039550615244
-0.18161588659436 0.071811695878054 0.520328413127086
-0.19024781905892 0.0790259647648939 0.521076817468376
-0.202419882476387 0.0725301606484152 0.520560070342221
-0.220863848564227 0.0744168131530221 0.521168390587242
-0.234206871568793 0.0746440107358643 0.521241646732147
-0.253612638554625 0.0744711663758922 0.521185915895041
-0.260946476056971 0.0802580823913471 0.520993244011011
-0.273878401544901 0.0771798693323279 0.521202036501536
-0.282735061760892 0.0786365792859238 0.521103229143711
0.00861665436418454 0.0774252937784592 0.0928327308494329
0.00885836601978715 0.0751602269955979 0.103647982772606
0.00898975610142217 0.0796996442542847 0.117645640244422
0.00871647320104078 0.0815294567108487 0.131590264810969
0.00869933587511363 0.0828857351791095 0.132482158200848
0.00224178332103522 0.08437043365862 0.140550761214955
0.296579643013765 0.0683121773317526 0.46874719376531
0.296603008469788 0.0710233779993856 0.475991939747677
0.305922936528306 0.074184789545352 0.496892798975104
0.306670348728109 0.0723576674089085 0.501914160901149
0.308832077156667 0.0753959662668923 0.511873094542143
0.303896757902816 0.0715972035003974 0.519329770326356
0.29594379010568 0.0719410706834968 0.520370127917252
0.285155109229485 0.0747770238668702 0.521284534640888
0.275232492059185 0.0693507212680938 0.519534912111894
0.267497441822307 0.0701092074626221 0.519779473580725
0.256229247147755 0.069941746883426 0.519725478655682
0.247571184870734 0.07046908132252 0.519895509021324
0.236085291306692 0.0758176731003502 0.521294433076562
0.219178947568012 0.0726414879557506 0.520595966011779
0.212554758503919 0.0700851357394145 0.519771712047255
0.207165912343862 0.0792422531162958 0.521062146819303
0.194592079787921 0.0743714528834977 0.521153764910174
0.185160901553988 0.0757098761749873 0.521301744847413
0.167380189381114 0.0783196082254905 0.521124729012584
0.167365794120941 0.0770204827881966 0.521212847550955
0.144536182230139 0.0757152340200255 0.521301381429486
0.141830356006586 0.0732713555452817 0.52079905651491
0.123562464973885 0.0799812492457257 0.521012021360345
0.114107995167114 0.0796418844255285 0.521035040178291
0.10461488224285 0.0747542299115005 0.521277185102761
0.0921430680885695 0.0815070265279739 0.520908529226228
0.0863893944298409 0.0791640543590861 0.521067450972381
0.067529856047197 0.0816018376129045 0.520902098273538
0.0611732283465535 0.0820414492563526 0.520872279801542
0.0425171488202229 0.0825242910704669 0.520839529065006
0.047837421525006 0.075841621499535 0.521292808677661
0.0195616475825955 0.0751899481675539 0.521337011107897
0.00852997131168995 0.0834868256020901 0.520774241192393
0.00624738976838077 0.0847150331738186 0.52069093295061
-0.0155296290733261 0.0807243240074275 0.520961619251341
-0.0210620431942683 0.0797669882068049 0.521026554498592
-0.0367473333119085 0.0818834664423991 0.520882995637176
-0.0528645240076513 0.0788998917440329 0.521085368890746
-0.0671779421883829 0.0802623064687472 0.520992957495548
-0.0681311705958092 0.0870673239496727 0.520531379131524
-0.0824104699020187 0.0791174433385236 0.521070612557003
-0.1095683196439 0.0872405617075206 0.520519628566433
-0.116318679832795 0.0844275833258033 0.520710430421551
-0.130005112737518 0.0831192773743228 0.520799171666143
-0.148947971579205 0.0791833285751184 0.521066143619222
-0.15651272408071 0.089033460400639 0.520398017821427
-0.17007612366535 0.0890197147711571 0.520398950175413
-0.17829543888685 0.0826732852043497 0.520829422923654
-0.19745569370065 0.0811725029526649 0.520931219666782
-0.211906749138366 0.0807899659044222 0.520957166819071
-0.217008403413031 0.0880985006667727 0.520461435319707
-0.234820636728407 0.0904687373634599 0.520300664244559
-0.245007793609058 0.0862154700015737 0.520589159637284
-0.262462812295304 0.0830614879277801 0.520803091473589
-0.274986453081296 0.0826516570394316 0.520830889943101
-0.28295573788287 0.0868315763608586 0.520547369683594
0.00859952385000203 0.0904994170149139 0.0901352419654638
0.00884713730981908 0.0908377446237396 0.100817006472434
0.00908898095733813 0.0917945337063603 0.111156209263785
0.00901995458739185 0.0881062797465349 0.116225641249664
0.00879728856431096 0.0856624111775796 0.127532204686538
0.00860621432914578 0.0929421392760953 0.136733650995948
-0.000652913303243639 0.0902822188524512 0.140187001832386
0.296790332015672 0.0825170903812654 0.46690415204357
0.311591232612371 0.0801241942227893 0.492410265746394
0.309039548297093 0.0793898982368926 0.501039327425679
0.308003565955845 0.0771095429720251 0.50546287317654
0.306193851389276 0.082584954475723 0.517437855241974
0.30117639391871 0.0804336674366758 0.520981334231471
0.298690880824997 0.0850590139809927 0.520667601034318
0.2832855997273 0.0799781134823165 0.521012234056425
0.27445232084369 0.0789463436180837 0.521082218100893
0.272250942140175 0.0782587359397327 0.521128857926309
0.259209173300706 0.0795401307792197 0.521041942038827
0.241636376595987 0.0833275642200579 0.520785043752177
0.236707665765381 0.0864381861410817 0.520574052996984
0.224149647835005 0.0853584088481497 0.520647293343211
0.219937223794551 0.0797079612153905 0.521030558247621
0.204037651145096 0.0792757145690088 0.521059877158329
0.195255023231353 0.0806911357179912 0.520963870383889
0.18877135941138 0.0842414988647189 0.520723052367249
0.173390697426119 0.0826031355963519 0.520834181110005
0.15677243179089 0.0833271165276157 0.520785074118763
0.143920838057876 0.0857303780105365 0.520622063001346
0.139686956437506 0.0858917485160487 0.520611117381567
0.124213394117918 0.0824311612563298 0.520845845978573
0.115861288019006 0.0822628958429497 0.520857259273903
0.0981925598291574 0.0840610566940934 0.520735291601336
0.0985048213984923 0.0919586539801766 0.520199604507916
0.0872334808664307 0.0825178695708364 0.520839964629691
0.0673104244057997 0.0899661472963981 0.520334754487763
0.0581755256283495 0.0902938037777234 0.520312529836168
0.0556953420403995 0.0920923460541322 0.52019053629186
0.0312404271905842 0.0841251104996769 0.520730946887913
0.0188923692072198 0.0941562340103835 0.520050544582941
0.0108120926124616 0.0845297929219563 0.520703497634337
0.0016862264234295 0.0942739485643573 0.520042560108045
-0.0093597336529305 0.0875597253856324 0.520497979974227
-0.0202687480039426 0.0936799041295939 0.520082853620754
-0.0363660166958079 0.0892908710881464 0.520380557880383
-0.0433071426379993 0.0881647612488582 0.520456940922571
-0.071299138340921 0.0896328131198088 0.520357364252445
-0.0750616306037742 0.0921487229035891 0.520186712299634
-0.092009580973245 0.0939397253446725 0.520065230175741
-0.0965952137242085 0.0896234272701822 0.520358000886389
-0.120715586124763 0.0959452708521107 0.519929195783926
-0.126987561239448 0.0967902993649876 0.519871878241449
-0.141026399051815 0.0922047842435799 0.520182909708139
-0.157780082468528 0.0899515327994827 0.520335745776263
-0.160546582337154 0.0985415286965004 0.519753093892674
-0.180387904411633 0.0932898597971527 0.520109309985543
-0.184350864917894 0.100596887496596 0.519613680708932
-0.209548852969101 0.0917229005767603 0.520215595454385
-0.220822305622067 0.0943629680175792 0.520036521996652
-0.243732394671907 0.098907314501449 0.519728282962518
-0.243244294751182 0.102255886121472 0.519501152288053
-0.267092934760719 0.102140314808108 0.519508991388819
-0.266693362279598 0.101485934567655 0.519553377426281
-0.297211694899347 0.0963428010930832 0.519902231656532
0.00859934107288634 0.103102630775562 0.0888555773583507
0.00881463708501746 0.0946860057585396 0.0988329056899826
0.00911953740984624 0.101779817090448 0.110987505207945
0.00883683872264411 0.103733502256158 0.125771649839772
0.00879461172326274 0.0961875714906874 0.127816377927109
0.00332625022648022 0.0989071699259315 0.138540941613762
-0.00243417501659477 0.0994557580165053 0.138681047752564
0.296830260342361 0.0938425927872261 0.470236114542852
0.311742410296137 0.0862746888039713 0.490526932812204
0.307938182226697 0.0865848169035206 0.504242387979099
0.309144386374586 0.0918395420788306 0.510076926626206
0.307755605438011 0.0872400763130665 0.51439573818304
0.304270307347117 0.0899661562962329 0.518673860242568
0.289358654914074 0.092101723734748 0.520189900212013
0.281673697956221 0.0923399571575132 0.520173741048007
0.274357938129172 0.09429294995706 0.520041271260252
0.262227427875353 0.0929465666932568 0.520132595255525
0.246514364289389 0.0898791664348206 0.520340654323274
0.240988631564979 0.0926295439253664 0.52015409863167
0.230765724928623 0.0946172184978511 0.520019276409691
0.220039935388478 0.0937913180678042 0.520075296511096
0.208282690941334 0.0899759467078258 0.520334089802285
0.200309821196579 0.0934947337316877 0.520095413566349
0.195096798994495 0.0922911332537511 0.520177052730554
0.18028743932895 0.0931581181551285 0.520118245905512
0.174897972212621 0.0925122333831988 0.520162055702799
0.159837244951161 0.0960024157371502 0.519925319696521
0.154053957085965 0.0915151338943202 0.52022968808613
0.140629656417359 0.0953979225718874 0.519966321937452
0.128847575148229 0.0985856294650527 0.519750102576244
0.123343875417661 0.0955636641303518 0.519955079832986
0.106099487960149 0.0977452956784377 0.519807101679559
0.0920149006209352 0.0947682811163011 0.520009029964846
0.0818085231920017 0.0968814092653404 0.51986569833686
0.0636414721704878 0.102096129661665 0.519511988428528
0.058504546538228 0.0992625148924439 0.5197041900317
0.0528475377761708 0.0972521405043636 0.519840551962251
0.0379745234987587 0.102771441729082 0.519466182603611
0.0231032802912647 0.0973879299703579 0.519831341481934
0.0162797206396568 0.101698832153129 0.519538936769885
0.0017276066566424 0.0989376992870508 0.519726221989174
-0.0092844274748475 0.101809165700542 0.519531452942187
-0.0208457476988265 0.09894560364654 0.519725685843407
-0.0396793676984352 0.102387039569355 0.519492256264776
-0.0507370503346877 0.103798489095516 0.519396518882026
-0.0575414385734049 0.0996470755891661 0.519678105617111
-0.0766918743550077 0.103258955172188 0.51943311499458
-0.0842536085349635 0.104321512332023 0.51936104267487
-0.10070664032372 0.0983577799721567 0.519765557407399
-0.113601016392988 0.107941542549432 0.519115499201962
-0.132542330988368 0.100360369621818 0.519629723508824
-0.134293409535369 0.102252657162728 0.519501371305491
-0.147159928513908 0.106549795851494 0.519209900159163
-0.169603688552542 0.108007426631191 0.519111030342512
-0.181899486700704 0.105653521345099 0.519270693672411
-0.203989364731045 0.111840571968377 0.517647708799206
-0.208841721360332 0.111838667135361 0.517648622907101
-0.225600278687254 0.107967682921529 0.519113726123461
-0.236230325262986 0.112074714309996 0.51753534652857
-0.250933513169652 0.112712342376669 0.517229356006321
-0.264307324347015 0.112593227603741 0.517286517843261
-0.269201874808675 0.110353420702849 0.518361375929288
0.00879154676838195 0.1073552260064 0.0959376458981025
0.00900042019867858 0.112063614699116 0.104286830916957
0.00891378361706011 0.112642924144032 0.121977811445664
0.00894285350024349 0.111639117865979 0.120483116420648
0.00872142835721309 0.106624653986913 0.131690372611685
0.296877693871408 0.102067537132227 0.467491970579254
0.3118775058274 0.102178373993713 0.489224216697305
0.305590756244139 0.0993250619748375 0.493658413242662
0.308267030532672 0.096916223339978 0.505008637935814
0.304822560680288 0.0972219420616503 0.517722469669719
0.304244966262948 0.0957727843555838 0.518326853207824
0.294058814882593 0.0954309594485923 0.519964081075096
0.28353858979471 0.095290128987281 0.519973633481702
0.27010441919862 0.102517967222659 0.519483375556947
0.266189893546452 0.101003399904579 0.519586107329032
0.255853577114203 0.104623011454226 0.51934059225399
0.253433252559188 0.0974609604269671 0.51982638789015
0.233254332782779 0.101934245773582 0.519522968870596
0.223778129313651 0.0985940548018118 0.519749531093045
0.206320713814719 0.0978013332726882 0.519803300698717
0.197656144365079 0.0980065938193165 0.519789378055964
0.192929626532186 0.102296377555063 0.519498405789645
0.188812460315227 0.0995674105915407 0.51968350922399
0.176060355392661 0.102702013839563 0.519470891836432
0.159151868034074 0.106853925857779 0.519189271287724
0.151102349625203 0.10705998915111 0.519175294195367
0.140333908122613 0.105053643824977 0.519311382838181
0.127986947130887 0.103883152316557 0.519390776250039
0.113104942823953 0.104850173048867 0.51932518408237
0.106365960820429 0.102576446385797 0.51947940896663
0.0948444425168046 0.104417850771224 0.51935450812308
0.0765961896022378 0.109213987686908 0.518908176990658
0.0632979348745824 0.107747834119851 0.519128638274752
0.0486982953534409 0.11201553199452 0.517563747454702
0.0472077909893486 0.10609685450522 0.519240622773204
0.0345799980542793 0.1084574091026 0.519080508426356
0.0220485468334182 0.11133492683 0.517890362201796
0.00456491351390464 0.110633692721656 0.518226876546514
0.00101366164533372 0.108125484166317 0.519103022603505
-0.0117366541176199 0.114497920888708 0.516372477004325
-0.0243543301609279 0.106555828480876 0.519209490971206
-0.0409921201968195 0.115648516623631 0.515820319079935
-0.0486878600530394 0.10776030739296 0.519127792223583
-0.059705883840195 0.112073322462208 0.517536014460636
-0.075220528744897 0.111774885780164 0.517679230860556
-0.0873851985171658 0.110343025085631 0.518366364668818
-0.0955551388986102 0.111993618919307 0.517574263292505
-0.115582066048819 0.11801852340372 0.514682979539414
-0.13220745741352 0.11004203695085 0.518510805482149
-0.145239290927376 0.12006663819501 0.513700112336151
-0.157163848038072 0.119361487955642 0.514038505988009
-0.174789274741697 0.118579953262213 0.514413555678412
-0.19013524658386 0.121370867539633 0.514231657055625
-0.206610884694515 0.122831932989783 0.515117071835829
-0.213576785042348 0.117232096000008 0.515060377186335
-0.229195214274373 0.12380109051096 0.51605698687051
-0.242621212624981 0.117915049665783 0.514732635419959
-0.262594880172411 0.120508932773729 0.5137093192088
-0.27745848178943 0.114966194770074 0.51614775764675
-0.281874257726678 0.115875005981318 0.515711629390028
-0.30155648147782 0.121224899522085 0.514143199526115
0.00885746998082314 0.119839893851395 0.0969281121630273
0.00910652505847916 0.120072875255327 0.112265409532524
0.00910612399260353 0.116489006523701 0.112235497986457
0.00891583037124956 0.119823549161731 0.12197442408796
0.004206240620616 0.124369233235676 0.135243043617387
-0.0071965670849879 0.122691354853308 0.134889961519802
0.296816854957914 0.104103175934578 0.470158705377335
0.311864442613048 0.106468029481959 0.489563109416271
0.308347152338908 0.103508483306257 0.494459575784377
0.308514365776605 0.110736692717995 0.505720178523338
0.307549438994674 0.10348579187891 0.514125173285654
0.301002606938484 0.111319085688995 0.517897964186813
0.287244289402487 0.110250453650786 0.518410788656993
0.281420658143462 0.111345909265424 0.517885091854823
0.277508029538305 0.108370752224351 0.519086386286363
0.256316529002607 0.113966891404637 0.516627312068296
0.250996024411731 0.110460456215813 0.518310010793055
0.242483651068554 0.112121003047249 0.5175131330853
0.233594573494873 0.107826925280342 0.519123273590742
0.221172378499333 0.111676460603584 0.517726463993409
0.20391184153612 0.110946777624902 0.518076630630346
0.196953788046485 0.112688037323191 0.517241019727534
0.183005002218829 0.114577537627109 0.516334269828957
0.175409886456007 0.114675183488149 0.516287410680847
0.170423620913136 0.117578895223759 0.514893952147762
0.156011479563913 0.113231120352118 0.516980400303246
0.145596128076316 0.118567946837724 0.514419317426196
0.135702094183491 0.11791226564138 0.51473397144189
0.130949040989301 0.114702647286256 0.51627423111369
0.108602479022385 0.115953233309054 0.515674088977178
0.105375654525313 0.113081843981269 0.517052036351066
0.0906804508072578 0.116326504918335 0.515494960139169
0.0750570101207869 0.115360038986536 0.515958756246437
0.0596902901297971 0.11519921507346 0.516035933829615
0.0574740357639061 0.117202821664669 0.515074425609902
0.0385401212198682 0.116746617099558 0.515293353038644
0.0348151358011377 0.122299921252355 0.514794669403061
0.0138934538793962 0.122212081839521 0.514741438170745
0.00166553142430186 0.11940172995214 0.514019194307472
-0.00515822886318695 0.120047333385619 0.513709376496586
-0.0200949500290952 0.121162813361938 0.514105574925632
-0.0345972423954031 0.11979491215233 0.513830510601306
-0.0503543675071782 0.122741391968033 0.51506220341165
-0.0581421367824659 0.118196260554366 0.514597685484162
-0.0617259723036215 0.125022530007673 0.517678556353821
-0.0791772558905442 0.12703248644626 0.520346952154322
-0.0990893726668564 0.121824123396984 0.51450633293361
-0.102603020938287 0.121001119681268 0.514007587546136
-0.111225649304927 0.127718025196196 0.521257065769867
-0.125083861348202 0.125817165004277 0.518733504932388
-0.137229410243516 0.127679664378435 0.521206138375097
-0.151509794780061 0.130188059679102 0.524536256062126
-0.162864220283584 0.13101271691849 0.525550772121548
-0.184408845326299 0.125736851742947 0.518626881940395
-0.186619600547122 0.129376762978234 0.523459187590394
-0.195246641236268 0.130164396584626 0.524504841201228
-0.225586083531096 0.128178744874406 0.521868712087638
-0.237965234084835 0.129433073060904 0.523533944229512
-0.243420532626706 0.131430675284121 0.525804053036151
-0.258401369429082 0.130189521123793 0.524538196259834
-0.278235309341931 0.129378334453143 0.523461273862995
-0.300927626716415 0.128285604876538 0.5220105782373
-0.298044899941123 0.128566389276996 0.522383344482699
0.00873097302693009 0.127986700129427 0.0902271246158377
0.00891034730548638 0.134341841782147 0.0970514805076081
0.0091580148097223 0.130740949639415 0.108324626305177
0.00890327865852481 0.133710338376156 0.122808764313071
0.00875548467264613 0.124808553485583 0.130211216247636
0.00389039075872785 0.126941390518701 0.134998198042702
-0.00760738782946709 0.12729989489411 0.134284620001666
0.296861996504507 0.112666341616107 0.467497300053723
0.311748355541853 0.120177244172979 0.491682766112358
0.310727127360632 0.114720838479169 0.496245878670951
0.308662080858502 0.116622897766664 0.507059377239303
0.30794041885257 0.117583401830198 0.511191027437424
0.30146539123503 0.115209937320692 0.516030788344022
0.28605747558096 0.113885512275895 0.516666364994925
0.283852707916715 0.118752820140873 0.514330598811791
0.27054658881417 0.114073096254141 0.516576345558094
0.262026266303448 0.119934042230907 0.513763743644785
0.251561625473842 0.122495224891993 0.514913024627426
0.234402217320565 0.117022597164037 0.515160913316376
0.232114635255744 0.116164212961031 0.515572842220226
0.222819203978433 0.117810289175014 0.514782908798683
0.207499632857136 0.124361105631069 0.516800456711959
0.196379871517363 0.117115139177756 0.515116503447069
0.190460283732481 0.125675254439019 0.518545106045172
0.17209143335127 0.119977016818004 0.513743120624819
0.174867356374905 0.125898331918849 0.518841261224925
0.164237301774172 0.124617051299188 0.517140247332718
0.14110596602482 0.125177241254237 0.517883949283087
0.138777227884572 0.121785617653513 0.514482998212781
0.115450450038954 0.121667691150054 0.514411534015794
0.121668835069136 0.129594234316213 0.523747900118613
0.107699000998284 0.12551990292834 0.518338863108391
0.100865240991446 0.12617204787688 0.519204643484818
0.0892986391919525 0.127129968693226 0.520476368500583
0.065040197620378 0.123930865273306 0.51622927440083
0.0720265551243272 0.131395598250599 0.525782796509514
0.0524284801657224 0.131071061045731 0.525586128403715
0.035142486595281 0.124362733846742 0.516802618312967
0.0275439073767754 0.131689506558779 0.525960903639857
0.0198152611671051 0.130529658226266 0.524989758491935
-0.000878216111663193 0.125978877499732 0.518948192641772
-0.0122539406133936 0.129267441760852 0.523314053958755
-0.0154006841779638 0.134628810530589 0.527742108801648
-0.0365848931763556 0.12896563407796 0.52291337743755
-0.0397843474207261 0.132673858279695 0.526557416414013
-0.0501745754115758 0.135160181953859 0.528064117525834
-0.0658609492301245 0.130790903683921 0.525336585054304
-0.073203143903851 0.13287189021752 0.526677422889436
-0.0927688117850404 0.134920574317682 0.52791891636173
-0.11092150416053 0.133290003198483 0.526930797500244
-0.107469542691935 0.139282814573712 0.530562414596527
-0.131671623156959 0.134739192881849 0.527809000016616
-0.141836167588742 0.13462540365623 0.527740044250907
-0.155693030990543 0.137734606040704 0.529624207096735
-0.168674096836095 0.13581534827325 0.528461145407646
-0.171533956646295 0.140915899402068 0.531552056754606
-0.19245416351746 0.142872118038084 0.532737516566005
-0.216966903714512 0.137923390749496 0.529738609792404
-0.214006288717735 0.143428304680946 0.533074563203129
-0.236865243696455 0.137397287872142 0.529419793783661
-0.244909326584315 0.144162223870395 0.533519314974679
-0.266945838415997 0.136226288680544 0.528710173470644
-0.276522663213054 0.144618137185926 0.53379559642047
-0.293938321784865 0.145632923495783 0.534410552420451
-0.294803358363036 0.141398040906225 0.5318442323663
0.0089969702559247 0.141022571457166 0.099807012920674
0.00917217244747128 0.139711551023783 0.109197681215272
0.00900546650526332 0.13788921608799 0.117662799757645
0.00870011257133825 0.135370359124528 0.131376068640718
0.00755538424288601 0.135866086824738 0.133255446301746
-0.00303603263958746 0.136745630018916 0.134007575138497
0.296869373421557 0.127984171834562 0.46611906747825
0.311847921305879 0.124243641809254 0.490442974056009
0.310468722992469 0.124242012173194 0.497598446360332
0.308488993153507 0.126191466922633 0.509941640492319
0.307392051786709 0.12408782968797 0.511890789890778
0.305018369031284 0.129425540408992 0.520357488723264
0.291658268567962 0.123430033843981 0.515564376168654
0.275698613368431 0.123312443038464 0.515408263923833
0.268769947168521 0.124513780705474 0.517003146441727
0.266231660815988 0.130278786724816 0.52465670427838
0.262656895366032 0.130350903237669 0.524752445358309
0.235412311978571 0.126119517279773 0.519134904448674
0.230925094921397 0.126374384942868 0.519473263921959
0.230509222286034 0.129664936412604 0.523841763434987
0.219994996823597 0.13400697980919 0.527365282144269
0.204756200676258 0.12799799234054 0.521628747035143
0.199254721250994 0.130695681435041 0.525210169056352
0.191870200172187 0.132491138198002 0.52644668885545
0.171079809916969 0.129850213751036 0.52408773556767
0.169557819267443 0.133675723756947 0.52716454244678
0.15320305131312 0.128043501912586 0.521689165036549
0.13976847416549 0.130286126205173 0.524666448090825
0.143114124724703 0.133956451634716 0.527334662294791
0.123002147748527 0.136879985280841 0.529106310709208
0.109574431475488 0.135428692675458 0.528226833831427
0.0967305174227632 0.139404487787162 0.530636148023872
0.101283756219481 0.137959895520243 0.529760731521463
0.0826593007530103 0.133322436655846 0.526950452031461
0.0665423876864368 0.141330449031014 0.531803271989906
0.0658340538696291 0.138244933338885 0.529933463174514
0.0529787928293936 0.142468895054687 0.532493165227638
0.0351092311036914 0.134711133770303 0.52779199631955
0.017359883632355 0.136299517807909 0.528754549996824
0.0133298127938441 0.140604013481498 0.531363055270943
0.00188310020684998 0.137175594358 0.529285448498004
-0.0153709912097516 0.140937574015461 0.531565191474127
-0.0241351816673348 0.141751773495598 0.532058592745536
-0.0384998071210196 0.140973816932889 0.531587154521236
-0.0405052671544234 0.146843389365243 0.535144089365093
-0.058447233895143 0.141815718129203 0.532097342909703
-0.077365325551951 0.145659995652534 0.534426958027292
-0.0815630538751733 0.142883923831716 0.532744670824549
-0.0987879096505141 0.141428274966453 0.531862554072615
-0.104644454797247 0.14959879541023 0.536813853199399
-0.117202830199481 0.142548301190392 0.532541284993457
-0.134845712187436 0.149485316049625 0.536745085210513
-0.143487162027838 0.148479504153159 0.536135567665217
-0.16083743957049 0.151202290838626 0.537785564312424
-0.17075312200405 0.144664497607288 0.53382369063006
-0.187567674392065 0.148760345707835 0.536305756400928
-0.205173711292384 0.150254204912002 0.537211028448655
-0.206001039167787 0.152743501425324 0.538719531087812
-0.224816204653921 0.14916906224807 0.536553436810359
-0.247963252372318 0.146073646883747 0.534677628837553
-0.256913816543822 0.154687286026634 0.539897455929362
-0.257304588512802 0.156205140352999 0.540817268914646
-0.282083102248401 0.15614147050538 0.540778685269567
-0.288477182977402 0.158615035098966 0.542277654435184
0.00893327434596293 0.151048674098561 0.0955470077823994
0.0090482841872623 0.145383640655372 0.11558726340148
0.00900667840800022 0.148118189398662 0.117744750162815
0.008839486581338 0.144844209834027 0.12621422622138
0.00270404203622185 0.149887418541141 0.132458034035618
-0.0018386292886869 0.153166419929923 0.132268588590764
0.311489062689522 0.138029990206818 0.49595071774994
0.308171299709054 0.136672925947124 0.499223084623322
0.307828794224388 0.135432509152629 0.504277358021551
0.308254717726004 0.135001172625645 0.513549832531945
0.306873238234703 0.135345253764311 0.522375546388012
0.305891611643701 0.137112896964234 0.52498814513984
0.296512981393703 0.135405085716702 0.528212528119192
0.279230702220116 0.138759212188244 0.53024511387477
0.268312179180557 0.13256718663557 0.526492773871101
0.269240664909711 0.13512753597692 0.528044334208697
0.252499621090584 0.136366050689307 0.528794868627666
0.244539062418114 0.135153744053648 0.528060216186878
0.237381286776165 0.136442259045847 0.528841050553505
0.22496205003732 0.13885869107113 0.530305397636294
0.208792441733717 0.135917941820123 0.528523316641724
0.202778182889052 0.13556756320006 0.528310988753006
0.198603280567196 0.140393529668485 0.531235503014419
0.177438591802369 0.138203037048451 0.529908074208453
0.175035122748185 0.139987114165705 0.530989217023476
0.165133966889134 0.146055835197435 0.534666835034698
0.158249273575847 0.146900063621846 0.535178433713065
0.146070770132033 0.142742263437943 0.532658825254636
0.128102949574669 0.148135415380602 0.535927051396171
0.117373454053323 0.14858272876458 0.53619812132161
0.110701733410171 0.149173926293377 0.536556384400226
0.0963407417731065 0.140702870958029 0.531422962462974
0.0766650115088432 0.143995109871077 0.533418044632772
0.0710119210736046 0.145432886598938 0.53428933094876
0.0663382431116475 0.149480831187472 0.536742367403952
0.0571086808724515 0.143227133548791 0.532952654389875
0.0457070273518941 0.147929920231993 0.535802522248136
0.0358008364126248 0.152206141758717 0.53839389351474
0.0161484645815457 0.15097466923679 0.537647626631935
0.00593686635456993 0.148186463517428 0.535957986340528
-0.000316288410817458 0.152688103869475 0.538685960414831
-0.0197796960888975 0.151373077555913 0.53788906030512
-0.0286480579786752 0.154283397012898 0.539652700979566
-0.0379633278069384 0.147650632713993 0.535633275251754
-0.0561937711651806 0.148152896626023 0.535937644953312
-0.0664805806380878 0.149371191893628 0.536675926478481
-0.0663273678621446 0.155597037715908 0.540448761415431
-0.0914418543216105 0.153387407322597 0.539109735203796
-0.0914773969584534 0.158756087942847 0.542363131832561
-0.117285031921052 0.157609901223458 0.54166854776758
-0.125474002173793 0.16018486601142 0.543135894862081
-0.1379995497318 0.161712404716393 0.543390254573577
-0.144310843115133 0.158133374077827 0.541985769994066
-0.174705374283486 0.153842592961496 0.539385575680779
-0.177382571869398 0.156179091152823 0.540801483214951
-0.193369553174294 0.156053752430361 0.540725528505413
-0.203556692007262 0.163641243738695 0.543711437228811
-0.214790760210565 0.164988825055668 0.543935831146875
-0.229769364555201 0.165858144314168 0.544080586756059
-0.252995319704331 0.160842877496274 0.543245464335446
-0.257674154399953 0.167539095573178 0.544360492120086
-0.270419330408727 0.159335941751769 0.542714520667278
-0.298903510825177 0.165541898198962 0.544027926702101
-0.269519284746201 0.16860978082072 0.76677064363102
0.00852621018430027 0.161740089130257 0.0848972389411516
0.008930906562249 0.163396111154416 0.0935980453443861
0.00920247752836422 0.164552178725938 0.10800308370557
0.00898827299876301 0.1567997880727 0.118804120828089
0.00883658320180407 0.154714239347335 0.126213419678715
0.00639362354059158 0.157322182163883 0.130839817410613
0.296443575819286 0.144578034467308 0.476771689429181
0.296338265102103 0.148581935490715 0.478560302444559
0.307663835049535 0.139788342670744 0.500245733472533
0.306379653183227 0.145470854108346 0.509502417666927
0.308348725782242 0.142130857356057 0.519909401444849
0.303878266971472 0.141852823256524 0.529735410388422
0.29916796484953 0.146136836892287 0.53471592170228
0.284045976831623 0.147310485495043 0.5354271475467
0.274859203373874 0.147718488267702 0.535674395416147
0.272554132577061 0.143801333598167 0.5333006170714
0.260639357981559 0.144851573931076 0.533937058051999
0.255882077611104 0.149057570367453 0.536485873225524
0.23991868205057 0.145986925732244 0.534625076204625
0.224774530799346 0.144015678556365 0.533430509164769
0.222312399502944 0.147269227945869 0.535402145655008
0.214327195220719 0.152568463548553 0.538613458911336
0.204299626051574 0.153561171893785 0.53921503576274
0.194989023335044 0.151287565297546 0.537837240256067
0.189077590579595 0.154687479825276 0.539897573370479
0.168067373183901 0.150785113129893 0.537532756472437
0.159582056631948 0.152523204278542 0.538586031994577
0.140495176282775 0.150821093092867 0.537554560170314
0.134403408927163 0.155086034482603 0.540139095723967
0.126438826612241 0.153847415884092 0.539388498350467
0.113298535982829 0.157838761321185 0.541807235971082
0.103785704413673 0.153349258033587 0.539086616903969
0.097141885058544 0.157282831825637 0.541470345164089
0.0759013718245843 0.152134793135396 0.538350656565665
0.0742924373036174 0.16045306723403 0.543180554670296
0.066375105552803 0.157092308599777 0.541354888934792
0.0423280449606612 0.153557039095126 0.539212531305095
0.041173205859405 0.153501057975977 0.539178606995344
0.0200365544723061 0.162655182703335 0.543547242240065
0.018049829525425 0.15931194586761 0.542699979267976
0.00377627281000112 0.16198153129792 0.543435068468904
-0.00416519508668198 0.156859629547171 0.541213886461582
-0.0184080448125566 0.162438874221979 0.543511223406151
-0.028542796684229 0.164561509466342 0.543864676242803
-0.0369363494382915 0.164289769065596 0.543819427104624
-0.0541049162907878 0.16257325386749 0.543533599773932
-0.0758560896493415 0.159167868120119 0.542612668792438
-0.0909940558278048 0.160464983065583 0.5431825388475
-0.0926600348782819 0.169215214146475 0.544639592764378
-0.106538588102484 0.168453349282832 0.544512730036589
-0.117481250730367 0.162118256675771 0.54345783543877
-0.13423914326598 0.16283624496579 0.543577392012827
-0.156000080210186 0.166754877194292 0.544229907173234
-0.158546462125864 0.168128450346596 0.544458629149051
-0.178811209219698 0.168208181433239 0.544471905654668
-0.181697155709115 0.167124205871758 0.544291406325787
-0.180317615696769 0.174271565633447 0.566589316603975
-0.214273382187373 0.172433373331034 0.545175467920319
-0.23712570151062 0.168162952078592 0.544464374241184
-0.239892987678008 0.172593998942444 0.545684371217023
-0.234274057526884 0.17263190694039 0.56139220499093
-0.271405890484977 0.169956967113635 0.544763106538604
-0.242293946797791 0.177267447051941 0.576085152644299
-0.253526110766418 0.178446829912114 0.57982336010466
-0.280928335094555 0.174043712886577 0.565867107669982
-0.286863067600335 0.17684660225384 0.574751230287918
-0.062867721837379 0.16851777429541 0.74981741579211
-0.168108775543819 0.170121899413443 0.711962473392141
-0.176066871055124 0.170294689359403 0.71264589239632
-0.110640671372924 0.168854209471887 0.77329900861458
-0.178194059008375 0.168546937175334 0.755191001482117
-0.167015047208961 0.168631165192822 0.770710952551632
-0.167338486577463 0.172094954516411 0.781254218521655
-0.189840185316022 0.169553460654164 0.775015493514305
-0.185132729721936 0.173631143018015 0.784960383967528
-0.2578842601542 0.168567604670969 0.75899921792313
-0.226323638434382 0.171357379544344 0.779443658405267
-0.214064054510314 0.176405455696904 0.802220242290976
-0.262428421139801 0.171692304194808 0.780265813761794
-0.28143621892711 0.173082354726783 0.783678036448669
-0.264493045197774 0.176029539715994 0.801402682163765
0.00889296373392121 0.164479013341042 0.0917915540576261
0.00915857239196894 0.172092506898575 0.102165418663294
0.00906387152946987 0.165493662100805 0.115075828248155
0.00894500920811767 0.172420285604265 0.121227048960822
0.00329645542256356 0.166928802913164 0.130250046991805
-0.00115229636101718 0.173103865681468 0.129989766666787
0.296369377229592 0.151658016858328 0.47511695249496
0.296188820837901 0.156645915439317 0.479468100485058
0.310880349043452 0.152773698336331 0.504977484162856
0.309298971029021 0.150547157304842 0.51241161356695
0.304664180471624 0.149234449666074 0.511375735842462
0.303506568521803 0.150857558671364 0.513746553519684
0.305872429684237 0.156895854193269 0.535723807031604
0.303271296290688 0.153097153468948 0.536684096607257
0.300186174339039 0.155592296132214 0.540445888036757
0.287133695622062 0.1555436644826 0.540416417472926
0.275084961261101 0.155603514406013 0.54045268626089
0.270017877992469 0.155241026260211 0.540233020053318
0.259372642691791 0.154450826516587 0.539754162515722
0.242371461242107 0.154248572105439 0.539631597240204
0.241178621084221 0.158708324934395 0.542334187661419
0.231670574139058 0.157346503619843 0.541508929988792
0.211161963600093 0.157378842218325 0.541528527035948
0.208519941971384 0.155342025823481 0.540294225340407
0.192656986703424 0.155355274835184 0.540302254182698
0.188244815804116 0.157656725664465 0.541696923171015
0.177703111446867 0.163274288350354 0.543650333266989
0.171276372661472 0.163960075888111 0.54376452789897
0.161558104087423 0.161790724965606 0.543403296152117
0.141044517679021 0.157354801738797 0.541513958612049
0.135952787074917 0.161126690869963 0.543292723817392
0.119152084513935 0.158872658925634 0.542433773330767
0.101674176266998 0.161517053485491 0.543357725458229
0.10546660113354 0.160756735751882 0.543231120352423
0.085861367441299 0.163656743518043 0.543714018190846
0.077010572470719 0.163834552144231 0.543743626180948
0.0606836418120628 0.169106945125879 0.544621564234722
0.0602940700064654 0.166762597120301 0.54423119266482
0.0418742834352137 0.170666081693235 0.544881185497454
0.022454651345026 0.163786025725503 0.543735545753377
0.0414689265591505 0.172883555892805 0.562189839095237
0.0055987059052774 0.167865531852323 0.544414848999892
-0.00296223958634328 0.16990909237936 0.544755134626954
-0.0208774194891462 0.169500066604514 0.544687025270546
-0.0341986996311229 0.172288157419037 0.545151287140245
-0.0457392439137138 0.167808054575181 0.544405278110733
-0.0385667759110275 0.172927001517772 0.56232754565759
-0.0472475585676159 0.172672756297313 0.561521682343837
-0.0433340145594899 0.176006908259274 0.572089710894254
-0.0957294630421295 0.171724339257505 0.545057402367023
-0.102968235155343 0.172581490859868 0.545644742390694
-0.0781362626623496 0.176573207747283 0.57388467081979
0.0768612665072044 0.169977209521095 0.711390195754144
-0.125419485339515 0.174056907126375 0.565908928530125
-0.113984865206887 0.177204284342984 0.575884950218258
-0.149415449038683 0.174935941443327 0.568695142195347
0.0808963761596994 0.168520620684247 0.75034189466268
0.0762457388230387 0.168608584313186 0.766550173780945
-0.171919936701949 0.176709762300569 0.574317498247658
0.0489686748325045 0.168551722707865 0.756072789192965
0.0590692650178225 0.16863955475784 0.772256823420526
-0.209330627472909 0.17808235223052 0.578668100659674
0.0323044789681834 0.169208461122481 0.774168606871055
0.00771736192282421 0.168604150146315 0.765733129109597
0.0159140341247551 0.170913035176004 0.778352905299852
-0.00447644514322631 0.169713188733363 0.775407585573576
-0.101205130268636 0.170341578269731 0.712831347471416
-0.0245646904574715 0.171363068499685 0.779457623352608
-0.0334595424545426 0.171533681312396 0.779876434681269
-0.0414855348743016 0.173681475961211 0.785069908451922
-0.0420940309594301 0.176639194286368 0.802728588199743
-0.0694929747519058 0.175172196154575 0.793820218911181
-0.105574542360663 0.172232629694322 0.781592176282673
-0.0835330773378886 0.176353250286052 0.802106703456489
-0.105426852942418 0.174912636176586 0.788604229915312
-0.126865988924874 0.173483092775973 0.784638226640845
-0.121843120532964 0.179762917537449 0.809522211531053
-0.13810373074127 0.178660891822795 0.807125473086254
-0.142227890755917 0.179638319584523 0.809251229919689
-0.160676317873601 0.180068492232898 0.810186790052769
-0.171084655629869 0.182217942448891 0.814861517601632
-0.184327717386798 0.179032368602975 0.807933378626539
-0.198709715863466 0.180083325662398 0.810219050507565
-0.216264071860177 0.182864105302885 0.816266823605999
-0.224141213461182 0.18464888911356 0.820148457144867
-0.251687113211149 0.181149362832929 0.812537519338391
-0.265210087953006 0.179787393554424 0.809575443148136
-0.259741045861856 0.18975677050484 0.831154419452539
-0.279740789132801 0.183071618735819 0.816718133784981
0.00862554863288604 0.18132238694732 0.0855081537068571
0.00902955008017993 0.17676296497675 0.0958747988612639
0.00925018444627746 0.183402259286013 0.105838028064693
0.00896149099419889 0.18455631637843 0.120558055667056
0.00883879160985906 0.174907718366758 0.124897236667982
0.00357834542883621 0.182744650922244 0.128259301432528
0.296061787706373 0.163865096247026 0.483622233534509
0.310853553262784 0.162353248142173 0.505701150053576
0.308630281704032 0.161746566267196 0.51303089544592
0.302682176022568 0.165319481412827 0.51977300983121
0.30731084887634 0.157578703294698 0.531263615412564
0.30587933037522 0.158947088110284 0.53665499286785
0.29330155727449 0.162235176483989 0.54347730446341
0.300317839489251 0.166588071061793 0.544202131274921
0.280834571320034 0.16324668013041 0.543645736055254
0.271813791862126 0.159937587055551 0.543079115051166
0.261200879275835 0.166075518190679 0.544116782995366
0.249318897931392 0.161165441992456 0.543299176501245
0.242850563064903 0.169812207173862 0.544739001685223
0.231617537234057 0.16980872973861 0.544738422636441
0.225546931463013 0.166635729539573 0.544210067176394
0.21033944513169 0.168373690829843 0.544499465625642
0.199224190949722 0.169215584172511 0.544639654379651
0.18497473494041 0.168124795449699 0.544458020550057
0.182284997514042 0.167106687892353 0.544288489301051
0.174551912516509 0.171533607084177 0.545025642398897
0.162325574814789 0.165829481316091 0.544075813906835
0.168772245238891 0.173660914389198 0.564653778015095
0.134840078422745 0.172375598832122 0.545165847538964
0.146583312194781 0.174079421058309 0.565980289367355
0.136741529419395 0.175449686250525 0.570323523220578
0.125252729763512 0.174624874783362 0.567709175934331
0.0990150347021725 0.171082215767036 0.544950478499726
0.110714361492544 0.174721521116428 0.56801550906455
0.0645442968007713 0.172359247650735 0.545163124804826
0.075773957043688 0.173794288668773 0.565076525151554
0.0718348879542689 0.175399024187593 0.570162943218949
0.0703752763064918 0.178520462945909 0.580056749587887
0.0399741101217818 0.174301711423569 0.566684867608943
0.0364370822641473 0.173839959799861 0.565221285745183
0.0234158065706656 0.175901810970129 0.571756591358935
0.0273198794514752 0.178544593451227 0.580133234364838
0.176118861207785 0.170351145704738 0.712869188601977
0.159845598893356 0.17023260250111 0.712400326378971
0.231638706553654 0.17045305369203 0.777223767028217
0.214952970548331 0.169978788777341 0.776059566544663
-0.0346671016931664 0.178175670192287 0.578963884083907
0.198073993714677 0.169702825935989 0.775382147525472
0.183954080807431 0.171161588311648 0.77896304042
0.170451728191448 0.16937829493802 0.774585505958571
0.154750611952639 0.169019736754167 0.773705336251525
0.163182323247952 0.174376829942747 0.786582998715743
0.150768368888255 0.174162917593745 0.786117525444316
0.147197727772251 0.175040065562383 0.791164987853474
0.140150819544662 0.175594946650833 0.800457508295985
0.101119879761232 0.170057911742602 0.776253793424123
0.105373220299345 0.175152501076828 0.793424436365672
0.0688393451165646 0.171130956624942 0.778887847372042
0.0731064080305114 0.171093078652731 0.778794866524844
0.0830218070143133 0.177393393013963 0.804368855810026
0.0790825209974166 0.180005288723289 0.810049332024966
0.0535684319089697 0.176683640340949 0.802825251613598
0.0426465190845182 0.176218109330732 0.801812792417232
0.0248915586313328 0.176118501028563 0.801596159498369
0.0162268102634465 0.177206999332611 0.803963477880979
0.0185104039433864 0.17835837112899 0.806467536553969
0.00835465563635944 0.184595670674351 0.820032715127663
-0.0194090899497635 0.179626765521428 0.80922610158843
-0.0354469033099512 0.179117762818601 0.808119098067414
-0.0428639125985823 0.178028178637192 0.805749418066575
-0.0498933892658799 0.182450314116065 0.815366890662164
-0.0604699225602742 0.184592797505299 0.820026466421636
-0.0594734527460468 0.187582313259295 0.826528208843483
-0.0862835728926793 0.182705313562347 0.815921475703311
-0.0830777880265888 0.187923957327969 0.827271232770184
-0.125878437298843 0.183316894226559 0.81725157070066
-0.110542494713686 0.187428911948444 0.826194584306131
-0.132433615896102 0.185533783320256 0.822072967559248
-0.130459347818384 0.192987867264532 0.834219511112853
-0.154237847743066 0.18948338594703 0.83066275301651
-0.166242585415368 0.193187954560637 0.834409318459473
-0.181595519037075 0.193764588808633 0.834956326783901
-0.203661455969292 0.197191965842758 0.838207614363742
-0.224202289816505 0.194484383002181 0.835639139879229
-0.237750950218954 0.193035479665424 0.834264677316083
-0.236696916004069 0.194094977124039 0.835269740632365
-0.260161462978046 0.196255534130163 0.837319294004992
-0.279411675016435 0.194989512052947 0.836118316751985
0.00865353013936018 0.193452236155611 0.0853625828851429
0.00903255416661894 0.192790215735185 0.0936084210030766
0.00925840267010004 0.189550132997543 0.105505807696887
0.00911967735609023 0.184388388736951 0.112498903758704
0.00885567362685244 0.193066170820892 0.123281090580525
0.00884565294292951 0.192641108041571 0.123598458800562
0.29571354413094 0.167090909673228 0.492919589121605
0.295567242591371 0.171745247061128 0.492864162875515
0.310253998283045 0.169861787718358 0.514335846283047
0.307809981899641 0.16699118320195 0.52103556913403
0.306403851005384 0.169774315426876 0.532652939609996
0.306497920354684 0.168045947845166 0.538579897092522
0.302462314928987 0.173652926825844 0.545184996305236
0.295027574094706 0.169231900551786 0.54464237131868
0.284456491729375 0.171163681394319 0.544964043834199
0.271206211842445 0.169689214495166 0.544718521430178
0.260785537629279 0.172363470665954 0.54516382800464
0.272559925244627 0.174387459812397 0.566956658286641
0.264370075169782 0.173848171592283 0.565247314089948
0.25527249686008 0.17289487865534 0.562225728064639
0.245659811921008 0.175885676445684 0.571705450883958
0.229910331350671 0.173898672122128 0.565407382091437
0.2294110013337 0.173771183177821 0.565003289291028
0.225262526132766 0.178382451518671 0.57961930440843
0.218987072140257 0.178242429749089 0.579175487187288
0.210184909862322 0.177973306184074 0.578322465024196
0.200578288200996 0.179576089720636 0.583402696029791
0.168028059880357 0.174497293773684 0.567304791320747
0.182602213139359 0.180048840111083 0.584901139916113
0.157559708446257 0.177163801707897 0.575756635237934
0.156469411660984 0.177955241145854 0.578265205534572
0.140494934637833 0.178049091356047 0.578562675989456
0.289095824296532 0.170831233401511 0.714128408833236
0.28675726882532 0.172476315856843 0.721274664169415
0.283278178692964 0.172502940486507 0.721379969937006
0.287370487992269 0.169067621891794 0.74346689091527
0.287162329653111 0.169025119204478 0.745675742548681
0.267770014154121 0.16846802421303 0.740650408574605
0.289004454405225 0.172545210660612 0.767282543421183
0.270669642783652 0.168579246664237 0.76114438495021
0.278939678819002 0.172637497585389 0.782586024615024
0.279606131379673 0.174637605821647 0.787150447028231
0.259354596178657 0.17258103359126 0.782447419782086
0.24695132969657 0.170489341488354 0.777312844395568
0.260723264960149 0.175278836484449 0.795963210259273
0.237062428589253 0.175033315565659 0.791029343256386
0.243777616776053 0.177833197937524 0.805325364677736
0.214625167921738 0.175176704122202 0.793910808799959
0.194751438823568 0.17307445222022 0.783658637792608
0.221139775784079 0.180522318581813 0.811173793389664
0.168321301145944 0.174682570557404 0.787248290293237
0.190600318791252 0.179626822320887 0.809226225118621
0.171013956030629 0.17539559482692 0.798309528186345
0.18004017507007 0.181113294744919 0.812459076728556
0.156198726380006 0.17722340467704 0.803999157011846
0.137969801652934 0.17918585651587 0.808267191510173
0.133578037242231 0.180859048788041 0.811906130412348
0.111680428106775 0.18052992865234 0.811190344136491
