ply
format ascii 1.0
element vertex 848
property float x
property float y
property float z
end_header
0.135240026464894 -0.0540490944537983 0.544914399996191
0.120671132167183 -0.0380254286976366 0.541638118074371
0.11409029396221 -0.0307853022842146 0.540980034253874
0.104527375044285 -0.0190270692215212 0.540023742362081
0.101862538703783 -0.0197220969203061 0.539757258728031
0.0914539064001922 -0.00395331880418829 0.539268610010297
0.0814285052791445 -0.002624905666463 0.539268610010297
0.0790248850472681 0.00607826068957784 0.539268610010297
0.0695026195914232 0.0181061988418895 0.539268610010297
0.0601543891754978 0.0272048707067095 0.539268610010297
0.0562829585755998 0.0327558857394448 0.539268610010297
0.0347793886424585 0.0507127197217337 0.539268610010297
0.0285847120213166 0.0546015916351079 0.539268610010297
0.0228537429735235 0.0691856856539426 0.539268610010297
0.0173182298511811 0.0660074530847211 0.539268610010297
0.00194338792649356 0.0834003058834583 0.539268610010297
-0.000952917662846583 0.0815422642234955 0.539268610010298
-0.0116562305803044 0.0982514821518084 0.539993912552812
-0.0178650379548006 0.1004502220982 0.540133320698214
-0.0208891798524341 0.109191583136015 0.540687554923399
-0.0372583296957801 0.118288235601049 0.541264315923079
-0.0429158148122555 0.126399883711371 0.541778624048089
-0.0566826871518916 0.137674172061436 0.54249345511858
-0.0618329945854748 0.156758540205042 0.543703473781057
-0.068257112145597 0.160478041472655 0.543939303750122
-0.0836547764339261 0.167872956127351 0.544732495415153
-0.0810083826751985 0.176742379747508 0.54515914409928
-0.0927339227488149 0.189273759044021 0.545357000630366
-0.109205844836007 0.202644110988616 0.541805811693485
-0.116356163690893 0.205126771498016 0.541440097135261
-0.131721395468456 0.222789662867603 0.536289803115181
-0.153760583680154 0.257533082831892 0.674819613603253
-0.156001583921849 0.25172392197545 0.681293429613285
-0.150178986800996 0.248465230203736 0.694797912042903
-0.142621267959731 0.242907056064938 0.724757836895331
-0.140470396581745 0.241983528162679 0.732486749789229
-0.143722725999102 0.240587462353541 0.740284129928775
-0.145998117975266 0.237734944123695 0.758495861673145
-0.138234756138588 0.2364441942516 0.772082991311176
-0.142899954513506 0.236671173166132 0.769066311911324
-0.139630095507945 0.235689909309857 0.796271846155743
-0.145295236757898 0.235260009720318 0.803070983680348
-0.139445209483655 0.235689909309857 0.804199459398735
-0.148468834643299 0.234905767177672 0.818934948434114
-0.147590727572289 0.235003783023656 0.8294625654801
-0.146116436946418 0.235168345920017 0.840177949152332
-0.145618799145162 0.235223893121143 0.851200725495891
-0.138427130220005 0.235689909309857 0.863538626210018
-0.144267611976665 0.236255559144264 0.880708105752471
-0.141489079654129 0.237266809720357 0.886968538634505
-0.148858774826187 0.237170183316231 0.89345118695635
-0.141174768438484 0.239028225018215 0.902383586174848
-0.151251436598809 0.239945901689018 0.920621391310695
-0.140042197639333 0.241705401680149 0.925160234969464
-0.1525577706629 0.241430291000405 0.93103927796308
-0.1566025403592 0.243233080774142 0.939901870900091
-0.156942863471941 0.247434413218954 0.955358611363472
-0.154982081507798 0.24968464530301 0.962559886917622
-0.163414223520938 0.252272464233082 0.966778299152631
-0.165018101692714 0.258103760224507 0.976061726495966
-0.166466024667839 0.264451204727768 0.98616305767366
-0.181597585511599 0.277490332155065 0.988790319090738
-0.192998704101262 0.291829050660552 0.986510095372805
0.131704959268296 -0.0677105560902634 0.128008924830196
0.13875095581878 -0.0660833546537465 0.145804625818986
0.12763061832821 -0.0614736929812753 0.148564381653898
0.120985585062412 -0.0563412349200761 0.150382478364024
0.115279755175578 -0.0472292554769753 0.15227796076442
0.109195231903003 -0.0476967025566285 0.153575511878391
0.106461526739656 -0.0397613488343479 0.15473733292827
0.100960129157793 -0.0392973578008132 0.15597353848106
0.100789011237618 -0.0292819673870537 0.156722702698236
0.0958777799509061 -0.0230479304164931 0.158239875879741
0.0858464146253532 -0.0116210018485144 0.16124592374724
0.0797860052074028 -0.0139963943535573 0.162402613707654
0.0683652352278995 -0.00490124413460419 0.165546837148785
0.0638977764716326 0.000868924044791892 0.166933986509975
0.0638500996531375 0.0050205415284272 0.167239446562591
0.0512539786960654 0.022962884379218 0.158262328271421
0.28659416348157 -0.225615139079643 0.494741876687357
0.284713294088221 -0.222463803049667 0.5015260821522
0.281947603640622 -0.220911105949909 0.507239015606664
0.279535541996417 -0.216261313878834 0.516249038729594
0.275468506602515 -0.216477380794591 0.521595642705917
0.277950194784792 -0.213938313466893 0.52127501763504
0.270963525118282 -0.216013309475012 0.528377604775513
0.275143618305571 -0.209464375608411 0.530614381556355
0.267788740877983 -0.204485339157408 0.542008499218121
0.268589104608581 -0.199006402293954 0.544014212997983
0.262520960011465 -0.202527501550554 0.545502109901796
0.255831259993826 -0.196286621524159 0.551587437936128
0.251761910367968 -0.19217472460048 0.555427717586012
0.249398028650319 -0.185392106246156 0.559588023110854
0.242977893373548 -0.184545448655533 0.563169872695443
0.236612702655061 -0.177145792745584 0.567681300979875
0.230745642801279 -0.170912741738849 0.569754141216754
0.227534513750557 -0.156744094996713 0.567778149963535
0.229493053707938 -0.16413997815634 0.568872480827218
0.20917395065906 -0.150193189838896 0.564874111394043
0.208754772451912 -0.139911856600511 0.563665443786312
0.197077615910142 -0.130024436041519 0.56118502479056
0.185421260576345 -0.119826063352329 0.558665402357578
0.16968141388476 -0.10690148072661 0.55536426883001
0.164824561587432 -0.0983397137665312 0.553753097362278
0.161233116101822 -0.0978436142047 0.553328088157846
0.148216392237919 -0.0775370416542621 0.549330413767306
0.14126529924659 -0.0725028555760341 0.547966940778415
0.132285141476886 -0.0590452626406969 0.545282227741994
0.118937187342417 -0.0450072853245189 0.542083680339647
0.105080613363127 -0.0366508575410524 0.540079066193966
0.0974063764961049 -0.0350476689605319 0.539311642507264
0.0996038736872024 -0.0279218696989562 0.539531392226373
0.0838555594418889 -0.0147277390277934 0.539268610010297
0.0762213035056972 0.000376494269287804 0.539268610010297
0.0736693530547949 -0.00578815890045985 0.539268610010297
0.0538832722441638 0.0122537268599649 0.539268610010297
0.0477591435001474 0.0130615047663765 0.539268610010297
0.0466948876073373 0.0285899072462636 0.539268610010297
0.0409526443984257 0.0311440665569669 0.539268610010297
0.0266278982882748 0.0472057759754799 0.539268610010297
0.0156270053537711 0.0527790856245831 0.539268610010297
0.00646847440154008 0.0596332180547802 0.539268610010297
-0.00175415621447257 0.0714406245760346 0.539268610010298
-0.0122410202344153 0.082191973827101 0.539268610010298
-0.0140993938277384 0.0865921470733774 0.539268610010298
-0.0258526768106103 0.0996554528488167 0.540082929424221
-0.0307939260853612 0.107799284309521 0.540599278091223
-0.0378609529663631 0.118729552739566 0.541292297041954
-0.0523558132063106 0.123286499700949 0.541581224127499
-0.0567737182736452 0.132308988351002 0.542153282870361
-0.0671075385779438 0.142836230397188 0.542820748475953
-0.079898737205451 0.152283791655696 0.543419758375137
-0.0823291197910448 0.157809363283723 0.543770099803287
-0.0935264526223721 0.174995882541738 0.546408127668763
-0.0999518445868317 0.179820113765815 0.547652270873881
-0.114601157698435 0.190112237801717 0.546629674182645
-0.128834139245022 0.198095364242746 0.544825006064729
-0.138041393897992 0.214966016137113 0.539513197982543
-0.15533145376567 0.238638698613548 0.532373433072625
-0.168249332727058 0.249851045401766 0.68108160937945
-0.162681221163925 0.246646728941563 0.693815819275731
-0.168527253344359 0.242391409341429 0.707153952928602
-0.162904870871829 0.240850654367392 0.720036398381202
-0.1657699842844 0.238626265322245 0.733193497653413
-0.151698558778212 0.237662162466182 0.753558101686589
-0.155027967066339 0.236403297877944 0.759368893664214
-0.159530348415801 0.23367106167755 0.778879898274223
-0.157358356748948 0.233913503183518 0.782429825793922
-0.154676045733953 0.234212907427038 0.799205368258962
-0.152983876694794 0.234401790292689 0.80792021519836
-0.155602976253825 0.234109441822361 0.812392973067789
-0.159964268646805 0.233622626742978 0.826204231855456
-0.157564859014732 0.233890453039695 0.838816933687007
-0.153659236714243 0.234326405426953 0.849249294534879
-0.161195436468639 0.233485201638924 0.862295145570687
-0.150403320501929 0.234689836485121 0.870104182998392
-0.162092918477245 0.234053288656923 0.878809913037363
-0.153446592334131 0.236936274432784 0.895935259640923
-0.158024322339259 0.237144696506139 0.902359013833559
-0.162078448831295 0.237118084036669 0.906162176406703
-0.157808146244499 0.240174249057879 0.925926575729311
-0.159340584334801 0.240021260824302 0.925785431110697
-0.161482428945129 0.241339964856663 0.933569999744621
-0.170876036766178 0.245045495487784 0.950704069077413
-0.173514779976194 0.245943891355877 0.954650537605621
-0.178523421851222 0.251687881706572 0.966042667831052
-0.169643106218023 0.257012130000331 0.974386754526758
-0.188790062205684 0.261411637108894 0.981619858424983
-0.185601673016992 0.263759551105322 0.98530877003569
-0.199101156074078 0.285533973043563 0.985289604978242
0.115582652644722 -0.06341997250868 0.116260942944889
0.123962645311277 -0.0656918551347073 0.133417554910115
0.122370312333676 -0.0653290437664233 0.148394040539457
0.118877087622967 -0.0644037997869364 0.147012952700741
0.108760397069958 -0.0591366264021636 0.152857644264748
0.108639661344658 -0.0535400492652721 0.153281768600165
0.106823957818939 -0.0546125975898308 0.153602668180753
0.0917387766175202 -0.0418218041328444 0.157810978300248
0.0873534872476607 -0.036605666615691 0.159140784180442
0.088681608537374 -0.0305727903656157 0.159279028668157
0.0799446130393827 -0.028681974011817 0.161324301128815
0.0750264721319757 -0.0191306917661209 0.163078723795745
0.0661220307327353 -0.00570779580823897 0.165980140055205
0.0605493049707685 -0.00421124378461753 0.167305324467092
0.0542788336915011 -0.004710698297109 0.168641270409124
0.0552422446775808 0.00513519783737072 0.169130252331884
0.276630700554409 -0.228929185742489 0.494294414180041
0.273296975992476 -0.230044026566956 0.494521008676434
0.276673848281628 -0.225637098840998 0.508738797292172
0.274192176318407 -0.224001342386268 0.514161420722278
0.273547474389286 -0.219044282601626 0.521108801414845
0.272322974624349 -0.218002195952413 0.524071580011784
0.271791766555199 -0.216801802150918 0.526271397600673
0.268007733948359 -0.216844849038682 0.531439033014296
0.264746335640776 -0.216640504427067 0.536188006262534
0.257771289922882 -0.209754188687747 0.544703582020832
0.251281578334298 -0.205861948595032 0.549657587550256
0.252660898116151 -0.201626314674042 0.55082786754529
0.245638416745388 -0.199108634310666 0.555444665088345
0.247470031479746 -0.190593054107203 0.558268195815054
0.23662815148701 -0.19049157680473 0.561821899866005
0.231047311590874 -0.182575133657087 0.564950346895818
0.224817960964073 -0.174553712195998 0.568084476325655
0.22798035904088 -0.172505064312401 0.569181154551556
0.21799492024368 -0.163387991007455 0.567376894428624
0.20031917213511 -0.145642354951117 0.56329570715627
0.201307959680781 -0.145780562241947 0.563432220510298
0.183731202108554 -0.138050697996816 0.560439112562159
0.180213323678677 -0.134592208991133 0.55963473666934
0.16886928432909 -0.108290361551003 0.555413533177086
0.154287933119513 -0.104130087012978 0.553172447137472
0.145407123307373 -0.089502422536793 0.550508382116732
0.137853420565855 -0.0809190607274067 0.548656895067913
0.135563678686636 -0.079137335131157 0.548183756052144
0.122387192957454 -0.0653205590617906 0.545078228216454
0.108652830379506 -0.0613414536352278 0.542960822618577
0.100143962003775 -0.0546005559489428 0.541189723925555
0.095752982326282 -0.0318125858820788 0.539268610010297
0.0831475034305251 -0.0297477069413375 0.539268610010297
0.0805781983813005 -0.0295824877893324 0.539268610010297
0.0743849591822348 -0.0121001119204787 0.539268610010297
0.0645255588579039 -0.00827470401130474 0.539268610010297
0.0549614266600352 -0.00270042320613819 0.539268610010297
0.045257926527995 0.0112776975497422 0.539268610010297
0.0358263482152636 0.0224099868882244 0.539268610010297
0.028225743205534 0.0256344324474589 0.539268610010297
0.0213616202723978 0.0345101066258178 0.539268610010297
0.0111135868989424 0.0483649898458848 0.539268610010297
-7.85406441763903e-005 0.0587729610686379 0.539268610010298
-0.00706975965717635 0.0657570376479725 0.539268610010298
-0.0242399550808245 0.0795059556792269 0.539268610010298
-0.020271889522042 0.0755246128525412 0.539268610010298
-0.0289934857644638 0.0897171718791032 0.539452806102568
-0.0488731347620646 0.100027508562701 0.540106519115737
-0.0520221917634273 0.112115586368444 0.540872947410788
-0.0579456527103227 0.117736183408417 0.541229313797218
-0.0677506989542883 0.129072845994021 0.541948099622117
-0.0746907885773389 0.137757492059439 0.542498737910851
-0.0910549845008777 0.142719583512353 0.543510882424522
-0.0946332042062967 0.150263250020126 0.54452142932379
-0.098271653178701 0.159871988074579 0.545706467479691
-0.114381910830021 0.175145167782255 0.548951786260394
-0.120263872518836 0.175034222428547 0.549659008979263
-0.136930503882013 0.197651994672246 0.545563085879513
-0.141110734014941 0.198993769474068 0.545388097423532
-0.155256500928683 0.220439876748136 0.538810917951476
-0.165481840080984 0.229243546860588 0.536428107776985
-0.187823660069133 0.249355220908946 0.677767757846602
-0.195164653462148 0.2565300934195 0.667755525552016
-0.177483234007869 0.240040533237785 0.712563543666993
-0.182206337249182 0.240952972629082 0.705303435221996
-0.172738610257248 0.238274080158035 0.729038715632171
-0.168014222966914 0.23645922319485 0.746535140667341
-0.174408258517091 0.234972939388555 0.751037272161747
-0.178006643673852 0.233197565908787 0.763287246694896
-0.170687454307422 0.232957019958533 0.772730291284378
-0.176393082409216 0.231788813837248 0.788702758752649
-0.16160108826394 0.233439922076551 0.801416886661284
-0.169290185531246 0.232581651600903 0.810565280199942
-0.171832697874255 0.232297851929483 0.81517415347924
-0.161786695136954 0.23341920431299 0.836582046860494
-0.170176136222472 0.232482760236322 0.842445580455593
-0.163477044877681 0.23323052452061 0.855714656767626
-0.168143278499001 0.232709671368357 0.864372395483686
-0.16710898440115 0.233196546542011 0.876159318853075
-0.17470237284781 0.232731752749907 0.879577422817597
-0.174477062265876 0.234474506539489 0.894914542853716
-0.17244409455896 0.23554248120686 0.902424598952516
-0.171403836902862 0.237641878895838 0.917242077867885
-0.171894033445461 0.239657812450435 0.929706603497344
-0.179214249633957 0.240320704413661 0.934543603322147
-0.184898516233875 0.242689443264067 0.94588731175983
-0.183855399528441 0.2452418590991 0.955023713216231
-0.187485994859319 0.245730139065496 0.956693333613203
-0.18971672090981 0.253684265740788 0.969356857715544
-0.201592946761838 0.25618649671885 0.973483301511387
-0.199473910555116 0.257625317669796 0.97574178734857
-0.2082281513156 0.270903744165331 0.982254568417043
0.102721498152244 -0.0599951595769206 0.106330547909576
0.0956003642634784 -0.0581190589253345 0.106178727015215
0.101451752593351 -0.0597229071198737 0.122788959948363
0.0987179668614986 -0.0590267959936168 0.129116189317976
0.101535775353996 -0.0598156416840338 0.141481458158286
0.0902741622457446 -0.0568523888989577 0.142215413115146
0.0887899667424423 -0.0564813317502791 0.147468670164015
0.090613832753946 -0.0449040425651057 0.157837981572355
0.0787916797583451 -0.0456196532369991 0.160372796612547
0.0732839456168968 -0.0405510922291034 0.161937609353167
0.0758679078376578 -0.0294350178066597 0.16216241868691
0.0672602488366862 -0.0302105419787868 0.163989921395698
0.0609209305254589 -0.0197002221580067 0.166123328846702
0.0585283697431736 -0.0149744239639422 0.166982451527644
0.0533765098778998 -0.0107272712404878 0.168411056668275
0.0457576615817901 -0.00611125057781833 0.170405439943045
0.0390096085750724 0.00103729610779948 0.183024236947478
0.266012699024123 -0.232498113658439 0.496157511681765
0.269662974662391 -0.2314735170996 0.508255086901175
0.268168542148494 -0.229267669336301 0.516035355670684
0.264576916625871 -0.232301231646989 0.517282870483919
0.264744642285781 -0.225618921014279 0.525217886961893
0.264404997321301 -0.220504060713777 0.53193727471341
0.260346143809469 -0.221710515721273 0.536062245580994
0.256431173498136 -0.222512063451467 0.53977143745181
0.252543481549239 -0.21093161547818 0.546800457802655
0.250446053249493 -0.212568337760424 0.547130458977853
0.246123633582872 -0.207260685111412 0.551622350604461
0.239311428246836 -0.206331649897427 0.555033473284678
0.233760912425862 -0.195320153279608 0.559522901464147
0.227750711331688 -0.194399728045174 0.559552518480747
0.22154713282032 -0.183511004976963 0.563947335610723
0.222040774402587 -0.180452347802893 0.565321208608227
0.21282293249343 -0.173997852574885 0.567581030019519
0.208037837015254 -0.169021993103264 0.566756915137359
0.207377382356204 -0.161979486902366 0.565919139069311
0.186652813930836 -0.147954124734684 0.561862438012653
0.173719892639518 -0.138235612795582 0.559227117419603
0.167131031962669 -0.125723436851869 0.557072315980001
0.167449361283031 -0.127863997626812 0.557341425391652
0.15273059818439 -0.110364598594398 0.553650536316443
0.141613045127758 -0.104837896787897 0.551688877020118
0.135270001493316 -0.0921797581324808 0.549548643178551
0.13138838861957 -0.0872407554212667 0.548540473485644
0.115467537434952 -0.0751200233438228 0.545279450320789
0.105494798746575 -0.0668339026801616 0.543162238619265
0.0917156947209257 -0.0514501218562222 0.540461501842751
0.0833963378521657 -0.0478802338376462 0.540078022812411
0.075369416238714 -0.0374354049154946 0.539268610010297
0.0647368594037878 -0.0240386714030994 0.539268610010297
0.0581420473763074 -0.0176724607201726 0.539268610010297
0.0562301715802377 -0.0145525989166583 0.539268610010297
0.0501149849985381 -0.00559120134247157 0.539268610010297
0.0349074894302326 0.00244172418858157 0.539268610010297
0.0364882218284362 0.0137480227404302 0.539268610010297
0.018209902252545 0.0232386861332393 0.539268610010297
0.0106405810353798 0.032733094820072 0.539268610010297
0.00624575030319862 0.0455654288300502 0.539268610010297
-0.00862706003412237 0.0526722081434808 0.539268610010298
-0.00980556091104702 0.0506655191019137 0.539268610010298
-0.0216551884110681 0.0651001691400635 0.539268610010298
-0.0342209323255145 0.0825990508823173 0.539268610010298
-0.0395573208982187 0.0851654363416058 0.539268610010298
-0.0516397433608652 0.0955586122160289 0.539823174760846
-0.0567169749143055 0.103384666514399 0.540319375194799
-0.0687674581392578 0.108179572007017 0.540623389720574
-0.0681576660742201 0.121484639137615 0.541466979584928
-0.0840878360022967 0.127297874736672 0.541835559959783
-0.093367303673197 0.140726103759142 0.543605824912207
-0.103333921210889 0.14974577883373 0.545446128103543
-0.106470571104111 0.154693809736494 0.546196701148137
-0.117567940704627 0.161091836171546 0.54795073180596
-0.127722243354611 0.17023759085689 0.550095232945387
-0.138084215243152 0.178542557871708 0.552181925006075
-0.141901078694704 0.187978570536184 0.549344496246138
-0.169284380978059 0.216084568678354 0.5413596610838
-0.168251286432268 0.214374212004249 0.541891022421606
-0.196398347472167 0.241529808130826 0.693660615148433
-0.199487368738185 0.238181881967437 0.707447822761849
-0.190603284586242 0.237390063877684 0.718252895528608
-0.184014184823578 0.235960866408042 0.734777962752692
-0.1860700465597 0.23461172089613 0.74262284897707
-0.179920984918306 0.233354498691347 0.759977889926858
-0.178727831451187 0.231864914742649 0.774468162958812
-0.183716020274606 0.231196069425877 0.775468742939146
-0.185541852723003 0.230767612104998 0.790895372332911
-0.180519368485128 0.231328230573711 0.806989476875172
-0.18366637269932 0.230976956463125 0.815690090918025
-0.185819624997016 0.230736606678295 0.83416443286321
-0.179640103636825 0.231426375652819 0.837175120611519
-0.185105545117361 0.2308163135225 0.852634504539458
-0.187509304954816 0.230548001648256 0.853749974795266
-0.177363095857408 0.231680539240813 0.871152889041789
-0.190786906129063 0.231280208055628 0.882647687941616
-0.19000140689875 0.231863947102005 0.887077192401232
-0.189843962843125 0.232542178750659 0.892976445978049
-0.197502492276002 0.233562715314297 0.905517476418064
-0.1946386939913 0.234890840177513 0.912373271322862
-0.197143781775605 0.237456755591107 0.928024953386748
-0.197122499374579 0.23843526872277 0.932023467306122
-0.196951566790602 0.241133241093232 0.943015664016778
-0.195057900626448 0.244934570357204 0.955526288866178
-0.199053333781676 0.246837669477563 0.958600367436004
-0.210195164727329 0.256743467162383 0.970383395353149
-0.216465073337454 0.260019043542323 0.970703652535975
-0.226242593816396 0.279227380119673 0.971854060444688
0.0896868699599747 -0.0566089458883678 0.118715122579487
0.077474144274116 -0.0533785634746513 0.115046187184094
0.0881249010074339 -0.056263014912739 0.136043429952098
0.0841215558504108 -0.0552326743489161 0.142407861297813
0.0784714937844641 -0.0537382851170997 0.140738556222534
0.0851137201944129 -0.0555451237533736 0.155946588124204
0.0794414934211371 -0.0519894938427099 0.159778004009373
0.0712130370427165 -0.041418086193926 0.162328933442808
0.0682369256244116 -0.0346731785462204 0.163459173705688
0.0618601246618839 -0.0313886595991075 0.165087281473569
0.0534647555166689 -0.0226822835047117 0.167542179587532
0.0540430004710857 -0.0199202988477775 0.167611988319052
0.0486037127088879 -0.0130282689867745 0.169291414718557
0.039189335756187 -0.0133668730410559 0.171326407373684
0.0364812795003047 -0.00984713631260327 0.186093338759424
0.0374571451424727 -0.00749118824422643 0.191305191927799
0.256724444534756 -0.235631872183244 0.49852926254559
0.259571231092956 -0.234959472482137 0.515938180199025
0.2574042272826 -0.235696996799063 0.516894449979249
0.254490657620945 -0.236808211942051 0.525709752571236
0.256578587105984 -0.232864113682355 0.527629030873398
0.253603030193069 -0.230885735880515 0.534151705712364
0.250494517604041 -0.222436575604012 0.542772913414244
0.245790626276897 -0.225386984623665 0.543829283606018
0.238897501578777 -0.219668225623205 0.549151356896026
0.239840077899845 -0.216142141140402 0.550758463034717
0.22644406147432 -0.205392196385689 0.554644105279598
0.224488134533798 -0.198536521864108 0.557532656202007
0.223134621657116 -0.197132498278327 0.558064835829613
0.219555429619589 -0.192189505661333 0.560012332770785
0.2111680085087 -0.188315109980047 0.561190940063373
0.206703613350042 -0.182329092825073 0.563541280933349
0.201964182064282 -0.175336447765885 0.566316509136731
0.197668779781229 -0.171388809677028 0.565735281209216
0.182229919914231 -0.157472844599545 0.562340720730911
0.173783322974896 -0.150055572210472 0.560504627848811
0.162827923623583 -0.140460408946182 0.558125885012858
0.162775895594186 -0.135374963143783 0.557573202182628
0.146950511381495 -0.114809725748667 0.553416813228907
0.128464241335161 -0.108593819349745 0.550474422811133
0.135110435237891 -0.105473204208721 0.550956997231145
0.119659260719186 -0.0900963958778909 0.547403997014046
0.108542514342698 -0.0844466790509453 0.545429222646388
0.101887793051442 -0.0748199556640081 0.543576273929206
0.0951111881877764 -0.0667705568895695 0.542107230095405
0.0717148813097386 -0.044099378402269 0.539671881564095
0.0764598416658224 -0.0399974710195998 0.539268610010297
0.0678675715595671 -0.040805929348976 0.539318097735902
0.0583449839123175 -0.0315433156825371 0.539268610010297
0.0445343258021444 -0.0139096478967102 0.539268610010297
0.0384056664607982 -0.014311978593103 0.539268610010297
0.0296903658825661 -0.0105390703426935 0.539268610010297
0.0225395303426914 -0.00154320958555678 0.539268610010297
0.0128111393694964 0.0123391419577641 0.539268610010297
0.00120058505894076 0.0200145002280592 0.539268610010298
-0.007613924315908 0.0379448662060215 0.539268610010298
-0.0214566325033107 0.0422036011131205 0.539268610010298
-0.0199779471629299 0.0457480925734815 0.539268610010298
-0.0313151674072729 0.0552774537573594 0.539268610010298
-0.0473385632065327 0.0732547070699122 0.539268610010298
-0.0464032580517501 0.0804406154436686 0.539268610010298
-0.0617626390486703 0.0883868760836971 0.539368460489082
-0.0639344831424558 0.0958727355933898 0.539843091330578
-0.0705281404664735 0.103281987748803 0.540312864985938
-0.0907825475107217 0.112477835800774 0.541023293141784
-0.0941212492611385 0.122906135527408 0.542241620219994
-0.0973722283393102 0.12870823031088 0.54307429418237
-0.103472218232654 0.130815591820155 0.543923306259327
-0.116882693017036 0.145948282735384 0.546642978471223
-0.124998697352435 0.154796374439104 0.548263715823096
-0.135796192052038 0.16151800504762 0.550218584150956
-0.140799574813674 0.180931234306266 0.551760379531047
-0.146052853862163 0.174046427668064 0.552710177317572
-0.160499464180674 0.196691063446154 0.5475949392504
-0.182490217190427 0.210660125698795 0.544227904208439
-0.199147757036715 0.225824649299487 0.540054853703566
-0.20190234631586 0.238928640431012 0.702418943334589
-0.207168804907518 0.236089341790098 0.712445720273853
-0.204088852213012 0.234823569100943 0.723686636503915
-0.205925620305059 0.232376530378549 0.742791405738377
-0.19791027832723 0.232176338897508 0.752567973844132
-0.200477609818739 0.23064037169282 0.763724300866276
-0.205881709949229 0.229011344565 0.77288415382776
-0.200718941485262 0.229073518931496 0.781962039351675
-0.196234747408354 0.229574052511641 0.800382785886899
-0.201619299804474 0.228973019362299 0.806524613003701
-0.202954831187688 0.22882394501512 0.818868944224144
-0.196158320263678 0.229582583443105 0.832499783474168
-0.199877227890368 0.229167472474069 0.847401662719689
-0.203358377749455 0.228778900442594 0.849849726591032
-0.20260142810044 0.228863392485381 0.869612573349948
-0.190112562737448 0.230885610141412 0.878452052085221
-0.197670302541865 0.230444156276106 0.882043035425495
-0.207429391163038 0.230190713354368 0.889506947657399
-0.196488118351751 0.234289003106887 0.909564134317817
-0.204786678065128 0.234743797214247 0.916916416683254
-0.205158430601825 0.234952108732954 0.91843448061769
-0.210176809218351 0.238154606357774 0.934662653044173
-0.217617629374715 0.243310011435095 0.941460150435765
-0.211907775059563 0.243848349433635 0.947818600546222
-0.214797934333559 0.249246772972925 0.954890386219546
-0.22264296765333 0.254961243021369 0.957858101528527
0.0675351085938393 -0.0508086509348178 0.127695534969061
0.0701670204686281 -0.0515087866810038 0.129537245955197
0.0672695428822728 -0.0508124354605911 0.147214773699373
0.0529472085089708 -0.0469977085141493 0.135940506166123
0.0542313994520351 -0.0473981763588366 0.152419513647525
0.058573864794536 -0.0482409598373015 0.164608432608292
0.0585921193303856 -0.043759959223448 0.16492287999074
0.0478049991771514 -0.0366878794065708 0.167784746976529
0.0403795972835423 -0.027883567104448 0.170034459526128
0.038917555090999 -0.0231946828787015 0.170687441559141
0.0346786886415739 -0.0189533825987697 0.171915946422065
0.0320542572550475 -0.0205349134580307 0.186706967391017
0.0338854901407896 -0.016113926189409 0.197392941902481
0.246063538207705 -0.239166195455066 0.497313463110119
0.253546141146253 -0.236792492951193 0.504899455500019
0.250477974166052 -0.23790334392064 0.510447602141735
0.252360224138057 -0.237459413456259 0.521998991949605
0.249433087221208 -0.238471453864743 0.524286030938454
0.248305665349324 -0.235344723627465 0.536010362718721
0.246871843225239 -0.231041596588949 0.540805637520465
0.241477209261703 -0.227980059478734 0.54484732823468
0.240027986699688 -0.22266227671969 0.54790706961496
0.231052481023601 -0.220665825051673 0.548224389701302
0.221620606812707 -0.20841694946957 0.553015284874774
0.224442201139637 -0.20860355945825 0.553109183834277
0.213141374550266 -0.199361669122985 0.556463186254166
0.207055838438961 -0.20046071529413 0.555601323655281
0.205981090878541 -0.193547870549473 0.558569894377368
0.19638125548433 -0.180133742664557 0.563862004535998
0.194974521666383 -0.177582623060505 0.564894577058211
0.191712665615098 -0.172910970795906 0.565165912162102
0.177207424032347 -0.167332853987187 0.56278188588653
0.175535258853383 -0.16239590503017 0.562045802096983
0.152020071820073 -0.138091772242842 0.556541574260727
0.143056010113298 -0.134280626304259 0.555029180816691
0.13677183872193 -0.128371890717927 0.553621215026427
0.122726897418073 -0.116223670902294 0.550588063670641
0.117279976817483 -0.111766318435508 0.549439027091934
0.110273299769402 -0.0917500173684098 0.546426718110111
0.0989549565945258 -0.0882402398606693 0.544657011194363
0.0923918258141519 -0.080409275211389 0.543572307557196
0.0816279267416287 -0.0715376376487567 0.54261931212643
0.0702377594679617 -0.060704791712926 0.541455642780591
0.0662548321369691 -0.055416497195061 0.540887571725333
0.0576185538954795 -0.0399929642732879 0.539268610010297
0.0484844902442652 -0.0321658068314959 0.539268610010297
0.0338085066092393 -0.027803585607645 0.539268610010297
0.0309872637595546 -0.0251878018348414 0.539268610010297
0.0203853087764851 -0.0115311596430303 0.539268610010297
0.0161930935813128 -0.0020704836040817 0.539268610010297
0.0112538797560381 0.00369307291367926 0.539268610010297
-0.000784038167744504 0.0181078336434349 0.539268610010298
-0.0139813468150951 0.027192949203923 0.539268610010298
-0.0134170774444296 0.0367970475751545 0.539268610010298
-0.0294567792799969 0.0431898467191554 0.539268610010298
-0.0357697704373771 0.050069195699599 0.539268610010298
-0.0445125826668706 0.0634715951903947 0.539268610010298
-0.0516555183058678 0.063051653455364 0.539268610010298
-0.0656627718163896 0.0842258508501342 0.539268610010298
-0.0743750536166439 0.0837887730051136 0.539268610010298
-0.0737093124968155 0.0897196960171078 0.539452966142139
-0.0887028861073439 0.106680220495536 0.540528325357067
-0.107442685970061 0.114341811090612 0.543025878508567
-0.112922967847177 0.126119425815315 0.544591798652992
-0.111832156172173 0.135129614369466 0.545202727763321
-0.123307863875408 0.134387117220577 0.546417474170118
-0.130530369623755 0.148762506539413 0.548388059092239
-0.139535712988576 0.15618505905168 0.55014768158714
-0.154447008420145 0.160371172415145 0.552382440202039
-0.15698727227399 0.171415411787618 0.553785042260294
-0.169477718958595 0.182502530588352 0.553262468181694
-0.180474265182958 0.198826101242493 0.548272767448991
-0.187529197280126 0.212337192558533 0.543995850128001
-0.20412427985194 0.217318465495167 0.543423457016449
-0.216236769247483 0.235589833091381 0.709085523983289
-0.221558642726725 0.233431373674097 0.717790706327554
-0.221404673753119 0.232414121873578 0.727027584554409
-0.215959803520681 0.231403561381483 0.741478216547975
-0.21617903243704 0.229899010082888 0.754694400578174
-0.205900434917944 0.229232775912676 0.770888248468932
-0.204600645326888 0.22864023636442 0.784788760831342
-0.211714547678018 0.227846170150616 0.792854584609711
-0.217704177414752 0.227177597210986 0.803043953718743
-0.208870255039572 0.228163655066051 0.817467921443317
-0.210127019892043 0.228023372776699 0.831560362332444
-0.207933812360744 0.228268182434535 0.838313229297201
-0.215572569716888 0.227415530987753 0.842577724814076
-0.208227400181846 0.228235411648824 0.859197246676458
-0.208413088244925 0.228214684822685 0.866323321373991
-0.210697450530872 0.228532123438225 0.877954100971275
-0.21539601082749 0.229243023357313 0.887846203158545
-0.211248902011828 0.232225801355269 0.904475490321211
-0.220394496130361 0.232551234807926 0.911466407915877
-0.220767802013649 0.233860185264452 0.91994681669949
-0.22858243907165 0.241632983503949 0.928024431733257
-0.231574050460163 0.243039996284557 0.927910715752584
-0.240605654782937 0.251494942500442 0.935582249675607
-0.231213143708433 0.252309405749655 0.945906261392344
-0.246068963089593 0.261358831849706 0.949270581719375
0.0462231849153133 -0.0451547423192048 0.116871337195512
0.0468220303066912 -0.0453598403174461 0.12941432158433
0.0441862358440371 -0.0446649122544456 0.129222054149945
0.0442917206775142 -0.0447316361062889 0.139531787612074
0.0441588839796815 -0.0447634033048383 0.157204466501665
0.044172422805447 -0.0426878854404 0.168152854817812
0.0397064424891645 -0.0435973563150753 0.158955474202326
0.03671299965122 -0.0408762323547184 0.169913078716677
0.0352717274271167 -0.0329197070852346 0.170793731225344
0.0304982052976131 -0.0242915551974248 0.173697633333915
0.0289430270118118 -0.0280460877069162 0.18218219901107
0.0290963216170608 -0.0276760017918843 0.197990448599172
0.0297357558905791 -0.02613227089651 0.203178926857128
0.242950189317332 -0.240211641559958 0.497795896869499
0.241362114042476 -0.240927186458982 0.509517283118444
0.239360244496974 -0.241550217829743 0.51607271344939
0.242660414333344 -0.240805951115488 0.52912977173883
0.237925828993107 -0.241920229410915 0.529333075068558
0.239163674961878 -0.24105058004478 0.539778584399463
0.230000721738855 -0.233667438263731 0.542449611203759
0.231294085259139 -0.230659676436018 0.543850974093372
0.22146775259878 -0.221907374261198 0.547081880823967
0.216242313132867 -0.217438052564621 0.548718786052698
0.212903884567732 -0.210992097541775 0.551341264153895
0.206948584887838 -0.206829206401979 0.552798125329447
0.198538664513908 -0.200516305794675 0.555046120019047
0.200153611881056 -0.19630835564329 0.556994547499241
0.187914878837746 -0.19091675965125 0.558599368668217
0.187631539687768 -0.182327884391443 0.562353234102455
0.174882860323603 -0.180082655416631 0.562544651253189
0.160758672413365 -0.165102919023681 0.560518380329131
0.169778415574842 -0.164313154336341 0.56154339323537
0.14544409839583 -0.145126316963369 0.556488076374886
0.142317527660677 -0.142067249689455 0.555774755677844
0.133360443723034 -0.137535868563533 0.554185852826791
0.118620526700497 -0.119330012303038 0.550416472866845
0.116687094409608 -0.114002290563751 0.549606264022658
0.109724388948956 -0.10385973645975 0.547660008088738
0.0983608546037211 -0.0981436322512477 0.545647735908023
0.0793228811008797 -0.0795073275045762 0.543475419915279
0.0787472452089192 -0.0808386292992215 0.543618428972887
0.0705150373390873 -0.0709206971660031 0.542553040093002
0.0647396265846854 -0.0619350599366306 0.541587798765045
0.0455473047451457 -0.0462529822006325 0.539903222685171
0.0438219518691446 -0.0407631703360307 0.539313504542857
0.0286975879313195 -0.0361016505689668 0.539268610010297
0.0301906930996043 -0.0256362167398238 0.539268610010297
0.0229928935385307 -0.0134508529988382 0.539268610010297
0.0118799927699723 -0.00577252429306076 0.539268610010297
-0.00387072532199606 0.00406208949558658 0.539268610010298
-0.0111756078472293 0.00667650266703751 0.539268610010298
-0.0146533778210301 0.0175558187578952 0.539268610010298
-0.0218845915446145 0.0228625984406635 0.539268610010298
-0.0323172654637584 0.0365458936293069 0.539268610010298
-0.0455624652304515 0.0393302169363831 0.539268610010298
-0.0577944977926888 0.0574183995418177 0.539268610010298
-0.0565723133856975 0.0624084366160037 0.539268610010298
-0.0717958689420523 0.0721961589259986 0.539268610010298
-0.0829546087766759 0.0872804178701111 0.539298306996045
-0.0891534558231104 0.0925857474350232 0.539634684272768
-0.101302230246955 0.10030816045761 0.541203289629794
-0.109540231538698 0.102489116237833 0.542295838492839
-0.111540979231088 0.107567717880026 0.542930809816433
-0.125441657003515 0.125013361282881 0.545892889916056
-0.134989496231455 0.127435228741312 0.547150551807491
-0.137039024493542 0.137979936360235 0.548235096207656
-0.149859322080588 0.143812381289683 0.550184377288967
-0.159747392012604 0.159132340825519 0.552907087381284
-0.168161674851415 0.166300756360339 0.554643542487638
-0.176445793628309 0.175242095066784 0.556332986941163
-0.192279404340268 0.189990806039052 0.552248007732692
-0.207866272948671 0.210250542961444 0.546194269603912
-0.21424219133859 0.219984540514501 0.543205807344762
-0.238408408899426 0.239278074733998 0.726227557746651
-0.256703096907694 0.249671754778471 0.720800924067971
-0.226512431708528 0.22768866044705 0.76413200619492
-0.231932657408398 0.226127307228879 0.772671501378163
-0.224649188687766 0.226402382914502 0.787904721730263
-0.228441705151433 0.225979055598431 0.795133524183307
-0.229825845072132 0.225824555481343 0.803931076250236
-0.225928357619654 0.226259599842648 0.824742002906027
-0.228236275570427 0.226001986007304 0.824167756552946
-0.227525344893261 0.226081341332023 0.836997173531583
-0.227284681216699 0.226108204632222 0.855132675205968
-0.221732185440965 0.226727983915122 0.863868743588065
-0.227972284974589 0.226421572694716 0.876326245679226
-0.238410716038555 0.229769788560562 0.88410460215667
-0.232790004408247 0.230148168905499 0.893060305590584
-0.233453184002993 0.232002925991574 0.89743124913414
-0.244441432456541 0.239495066288692 0.903446088517188
-0.250264465217456 0.245205541446764 0.911606079783529
-0.244842472603111 0.249192449154805 0.927238827789483
-0.253096906734283 0.254997839293424 0.930588751870405
0.0276568686100569 -0.0411627974790579 0.116637102276129
0.0276314498571475 -0.0422031249253927 0.122751201238968
0.027493834584222 -0.0467392562256826 0.138866528585743
0.0275126900069213 -0.0473422519021068 0.155634020347462
0.0275822386205593 -0.045950682322371 0.161450574536216
0.0275286529983521 -0.0478289886488865 0.169461191015426
0.0273182782864909 -0.0342552682541494 0.173342188260556
0.016077006403139 -0.0351146018858953 0.173883226028998
0.0216957574632854 -0.0327872389931841 0.184347923030401
0.0220947722203355 -0.032621961669227 0.196650502681626
0.0241088024368696 -0.0317877230385093 0.212108953723737
0.0218972332756058 -0.0327037849792312 0.207790369297867
0.227021524934803 -0.242632119392145 0.497874456930618
0.228410417466098 -0.242633015363529 0.507646180049213
0.223285160969238 -0.243421390543145 0.521427190007547
0.229210166811274 -0.2429229230856 0.531491601485336
0.232695497811111 -0.242638975849864 0.537700539223752
0.217820655935816 -0.236749987054976 0.540336945446672
0.22345802921126 -0.228394466743673 0.544357321312143
0.220472971594872 -0.227653635402041 0.544496603422375
0.20181687196554 -0.222046371618189 0.545796195785172
0.201559870774736 -0.211273132097928 0.550510894618906
0.196790459905005 -0.213320727062014 0.549314529218419
0.194666577799365 -0.206733377617404 0.552074786955683
0.181996809999021 -0.202999563963485 0.552924785098188
0.18512118676809 -0.198432333253766 0.555125046969167
0.17354542575694 -0.191099786006013 0.557623489920816
0.17748350327958 -0.183830581736795 0.561060945049796
0.165193247220755 -0.1778631173361 0.56243474664032
0.156945798796791 -0.168552652266054 0.560419790691695
0.141025953481667 -0.158013127248437 0.557328745293136
0.129192062122737 -0.141492708729713 0.554097992760094
0.133712883871261 -0.144547567711568 0.55498241941215
0.1143358282928 -0.126109765894654 0.550617539071043
0.108253571666873 -0.129003186998331 0.550179949993179
0.10500862715893 -0.112570689331511 0.548015483682706
0.0849695164778814 -0.101169687637746 0.545802400710061
0.0809874142028659 -0.0993456686021462 0.545606463737402
0.0662247563252934 -0.0822703226352221 0.543772222136532
0.0576936612529593 -0.0734443552509285 0.542824132617552
0.0498897024390048 -0.0725530107615665 0.542728383978182
0.0450839975169369 -0.05629260493104 0.540981683625572
0.0404022881009681 -0.0473794303062782 0.540024226264284
0.028082762171525 -0.0458329240176597 0.539858099839901
0.0221136718554595 -0.034790140446853 0.539268610010297
0.0109655307052462 -0.0242797777105536 0.539268610010297
-0.00183110944632422 -0.0153994870528538 0.539268610010298
-0.00146340302763496 -0.010633588895633 0.539268610010298
-0.0135547315256328 0.00693378607059898 0.539268610010298
-0.0251086265475515 0.0128103832494342 0.539268610010298
-0.0279528142542051 0.0200788803162212 0.539268610010298
-0.0436380008674803 0.0313753871030813 0.539268610010298
-0.0526771611835426 0.0395596838502836 0.539268610010298
-0.0611906019780956 0.0491839089939909 0.539268610010298
-0.0737097103057366 0.0624579772025708 0.539268610010298
-0.0799209661002858 0.0622965481383247 0.539268610010298
-0.0938068472090168 0.0756694546967737 0.539273308527413
-0.100727511026586 0.0869726562375998 0.540055844388744
-0.106595457618717 0.0902189617612616 0.540971619725239
-0.115540319340279 0.104940271697616 0.543161685602394
-0.120304806707593 0.11089398868981 0.544174847341847
-0.125560274226898 0.117558028166585 0.545300280279155
-0.139297574781218 0.127735350614823 0.547653613855779
-0.146116206256828 0.128773941416869 0.548495631139642
-0.149613666817871 0.136694361315961 0.549527818212593
-0.166895474008271 0.154236890029055 0.553295649969056
-0.178740221302723 0.161283653879005 0.555438937112718
-0.184747791906852 0.163771464533849 0.556418550687996
-0.193378261839887 0.17564999569643 0.557403904468515
-0.209316308504004 0.199491569451731 0.550107307048528
-0.217433694569546 0.198392693324961 0.551078962343057
-0.256082966387157 0.245935082943399 0.733879455627758
-0.230873098709899 0.226151921494732 0.773507786041345
-0.239758862840541 0.226489637121241 0.785736886181966
-0.250273609487974 0.231644730364824 0.78291473846057
-0.236161961246344 0.225117307119988 0.796428343594473
-0.242174614434467 0.227674014181155 0.816927444073675
-0.244235816581556 0.22868456532598 0.829133756727357
-0.233107230712928 0.225458281481053 0.833960398877929
-0.233978256338376 0.2253610560784 0.848483230435903
-0.236517199055482 0.225077654854862 0.860747873744999
-0.255524591241944 0.234219143374449 0.85895595618211
-0.261027511228337 0.236917074821875 0.864498460871549
-0.248133142711518 0.235735207630692 0.887530158819399
-0.262761561135398 0.241416648521954 0.883271073370751
-0.26832381468888 0.248073603150795 0.89450101120883
-0.257757505297443 0.247485551851747 0.90762374905939
0.0274054727227471 -0.0479686151665239 0.123129650975009
0.0271753983730375 -0.0550648387550341 0.142516579998062
0.0272795694434843 -0.053095530472176 0.153010913816307
0.0275054942316981 -0.0473354937829544 0.152696365953135
0.0272682314874168 -0.0540627756335876 0.163536017931094
0.0205530352196022 -0.0573425405101712 0.16803282132616
0.0170759924605539 -0.0441672221050501 0.171062741843169
0.012092326341686 -0.0367651104090668 0.180748331471423
0.0103231019604045 -0.0374979471426748 0.183566769403848
0.00731024111704292 -0.0387459149655378 0.185502588988563
0.00607058493344529 -0.0392593973694633 0.198423840550712
0.00847774596931554 -0.0382623186215902 0.215375998848038
0.00933512160908967 -0.0379071820035476 0.213185754239269
0.217918292594219 -0.243617382934153 0.496224610634355
0.217255078975495 -0.243877304903252 0.50794883571377
0.223905763690247 -0.243428040942242 0.526186988727619
0.22087314836577 -0.243914645843523 0.534833920449967
0.212454931746214 -0.240800276074852 0.538224000126799
0.208976323114898 -0.236475939922875 0.539906102735937
0.204686482871289 -0.232378341657973 0.541438084626756
0.200188033125769 -0.22833663744844 0.542932521866048
0.19066795442046 -0.221566142590205 0.54531226867372
0.185865446266983 -0.211934745418239 0.549242287457744
0.18375827227619 -0.21280103313269 0.54873056585689
0.175899648960887 -0.201913801306669 0.553021585257367
0.171425722100131 -0.196926291664933 0.554932870243311
0.171415637926553 -0.190691161062778 0.55767019514872
0.156780890935429 -0.188245656973274 0.557832016243016
0.153820118436004 -0.183814926151024 0.55959311029276
0.153803120356015 -0.175461425298433 0.560775238033371
0.143665784790083 -0.169676783352781 0.558906483232866
0.121863624466846 -0.150666226161297 0.554181676062778
0.114377039587825 -0.141696162961589 0.552296908003582
0.112837128793845 -0.134682276547071 0.551353992094985
0.096052044819827 -0.123192412539988 0.548168092055845
0.0897691341258865 -0.123014690293933 0.548149001049563
0.0758660652603488 -0.111059432914692 0.546864761744744
0.0721961265921232 -0.108409573203285 0.546580112582815
0.0598007488415672 -0.0934221611521333 0.544970157813708
0.0555649694525603 -0.082372973944686 0.543783248987909
0.0524731631577227 -0.0737851452816146 0.542860740441057
0.0313494778598672 -0.0665987303564401 0.542088772409346
0.0260038796839953 -0.0488497689100665 0.540182170720558
0.019668146071419 -0.0482477368408178 0.540117500155838
0.0180944665455521 -0.040799214444799 0.539317376417774
0.00895676125281138 -0.0352175428944514 0.539268610010297
-0.00974591934910618 -0.0194964947695487 0.539268610010298
-0.0127781368332314 -0.00908415863264757 0.539268610010298
-0.0258673774524727 -0.00357832872633861 0.539268610010298
-0.0350968423566616 0.0110393914495595 0.539268610010298
-0.0433346956891136 0.0114307132760188 0.539268610010298
-0.0510561567424045 0.0257038322125884 0.539268610010298
-0.0508794816783528 0.0242418987974322 0.539268610010298
-0.0729828685043135 0.0371309202348242 0.539268610010298
-0.0718853556754794 0.0393630749006713 0.539268610010298
-0.0882231108671172 0.057339265694092 0.539268610010298
-0.0916268654720772 0.0661677111370919 0.539268610010298
-0.101233059106293 0.073202143887585 0.54001592971714
-0.113199683967665 0.0831051574311738 0.541377105770363
-0.124060191578952 0.0861794139816022 0.542626526845929
-0.123062476748991 0.0981100099302103 0.543442482236937
-0.135872224720008 0.104477348955704 0.545383171025535
-0.14326205389379 0.108010026703922 0.5464913138413
-0.15401156371058 0.124279742062688 0.549007713151245
-0.159968606054885 0.135728223378159 0.550619098964894
-0.178390936643169 0.143667719061967 0.553653823223384
-0.18327460445237 0.14684059008366 0.554563968678996
-0.191455225273262 0.162856651677893 0.557147050907095
-0.192886402472874 0.162550274081824 0.557291494809926
-0.198392052947343 0.170228085938667 0.558723187840682
-0.22969532677399 0.199591873306434 0.546515349944108
-0.271335394449885 0.244598471878824 0.767463005575552
-0.276483683037256 0.244847009892229 0.776132882637964
-0.266088554581113 0.239398366218445 0.79989354053585
-0.264814481272419 0.238773722855584 0.804914102985789
-0.275510616391449 0.244017745915143 0.817252042986971
-0.277030013839442 0.244762665006501 0.836871907733241
-0.260337177331673 0.236578622957477 0.867488898938407
-0.264292069290768 0.240034932923904 0.877178566304413
-0.273742627897748 0.246843903834275 0.883395485029777
0.0264867542086722 -0.0709555373269495 0.117650033694932
0.0266688206397427 -0.0664966520038076 0.120231858875963
0.0264262351359534 -0.0743265980176573 0.146063259087866
