ply
format ascii 1.0
element vertex 856
property float x
property float y
property float z
end_header
0.060148063014552 0.163697716427102 0.737964214852628
0.0849632899485836 0.161446763983437 0.726507519267938
0.0871108556779336 0.163302991890373 0.735955181356677
0.0994653370798126 0.162225545120126 0.730471289553381
0.124709728703476 0.162238270688033 0.730536059005998
0.111361706258796 0.166391597119898 0.750558406908051
0.103910552746564 0.169684411402401 0.764393938121496
0.140262083508631 0.165365252031285 0.746245977390015
0.168834814331745 0.164265165454821 0.740852365950046
0.153760911488619 0.168254245175135 0.758384759412907
0.151277550243927 0.172760497967735 0.777318837019104
0.155035106170984 0.172104889963046 0.774564146279074
0.166677111469991 0.173360161316643 0.779838463171562
0.18680191486737 0.173013816678371 0.778383214972813
0.239995446777382 0.169096533220798 0.761923830112523
0.216599390615688 0.173406215702854 0.780031971472752
0.247834995772475 0.171979972252064 0.774039275229228
0.239852299636847 0.1766573678467 0.792731236565191
-0.0356147918123182 0.172280237106777 0.0764212653620158
-0.0356147918123189 0.165110998464581 0.0914264158241783
-0.0356147918123193 0.164440263900157 0.0934918725184553
-0.0356147918123189 0.166642141029567 0.102762373430922
-0.0259798203933921 0.172765574746682 0.107057189635111
-0.0275350951467019 0.164472495301123 0.107649552452651
-0.00817381457742217 0.170063033319483 0.107250228308482
0.00449557369916597 0.167838036066382 0.107409156683703
0.0148447750811988 0.175231922378635 0.106881021947114
0.0207824105979403 0.170191114579602 0.107241079647045
-0.249787828778617 0.158606762192716 0.462534033874505
-0.249787828778618 0.154882278802859 0.47116705022709
-0.249787828778618 0.153731923263355 0.477616519254187
-0.249787828778619 0.152040614368495 0.49133347513185
-0.24978782877862 0.159994828528139 0.49940068166288
-0.249787828778621 0.155942585916888 0.509456769629205
-0.249787828778621 0.153477263409446 0.513679794773337
-0.249787828778623 0.156780103985357 0.531948742532802
-0.249787828778623 0.15717910943737 0.538074778503483
-0.249787828778623 0.157135522814939 0.541663280228833
-0.249787828778624 0.153422317693782 0.545779920671216
-0.249787828778626 0.156201376504628 0.559005968116488
-0.249787828778627 0.154575941765937 0.571284478566997
-0.249787828778627 0.159698622375926 0.577496740649059
-0.249787828778628 0.160327592452617 0.586519468213391
-0.249787828778629 0.154368445853805 0.597015756956877
-0.249787828778629 0.15904928261077 0.604317441080655
-0.249787828778631 0.159340714199006 0.621760297525202
-0.249787828778632 0.15921466135419 0.625425712466583
-0.249787828778633 0.158186182049673 0.63629680196509
-0.288415700383874 0.154866589958894 0.673768481446133
-0.288415700383874 0.150983606929246 0.683209555095645
-0.279086226827039 0.157221220064787 0.690473204943908
-0.272984141627011 0.151828614211297 0.690473204943909
-0.256557105344405 0.153663312610784 0.690473204943909
-0.252640401036647 0.151508885076922 0.690473204943909
-0.238659564846304 0.158430644408465 0.690473204943909
-0.225277804345197 0.154944678190881 0.690932311999798
-0.223692990193988 0.154921840356335 0.690785534509305
-0.230473892975991 0.158884741026876 0.711156129592919
-0.207437904381571 0.156972407308141 0.703734340514
-0.230473892975991 0.161634585297393 0.724082370335512
-0.215486891317393 0.16076530406463 0.723039085776635
-0.181269344256643 0.15826590761191 0.710317882187965
-0.181990163035783 0.15943619168912 0.716274288978316
-0.179838639906882 0.161664315248198 0.72761479215655
-0.179335517234142 0.162763685376033 0.733210267496317
-0.161425183837408 0.161865077303506 0.728636612834768
-0.136348864282281 0.160800685188782 0.723219165444684
-0.131093357474779 0.160790734033941 0.723168516950509
-0.125584347466807 0.162051181147806 0.729583827467086
-0.118274250028276 0.161947231683768 0.729054754820956
-0.103756117629165 0.163440516652299 0.736655142538524
-0.0833462361277885 0.16252316002267 0.73198606315489
-0.0949407673420852 0.163965104303491 0.739325141651165
-0.0693449452895733 0.163681528435719 0.737881822667964
-0.0780746499124222 0.166890584540643 0.752655019544698
-0.0624416846703276 0.167176485927547 0.753856301251809
-0.0407795852969534 0.164250980965467 0.740780171010071
-0.0507144488873245 0.169055469938964 0.761751293106549
-0.0541748355097951 0.170110387080937 0.766183774805539
-0.0176999294660972 0.165674912949034 0.747547090336427
0.00302790262370337 0.166503622077938 0.751029106033684
0.0180531991104175 0.166313091881771 0.750228548744382
-0.00754712970766274 0.172815507948051 0.777549974348581
0.0224748872056018 0.170425817587002 0.767509130029951
0.0284727251661589 0.170570726471921 0.768117998684054
0.0373783211491057 0.170553858155749 0.768047122498857
0.0745534709514022 0.168970300613183 0.761393434216198
0.0808907136587561 0.169903191157702 0.765313192556656
0.090591555266447 0.170007167369937 0.765750072989746
0.0866541649079523 0.173983223497666 0.782456405003045
0.072762522923953 0.17878744177835 0.800330215844653
0.115472366238007 0.172975597129358 0.778222626577004
0.10470563635423 0.178675802845184 0.799931947067545
0.123904459935947 0.175581190507185 0.78889200395336
0.13021375919146 0.178977831159928 0.801009424647757
0.143292139288902 0.179482502201564 0.80280982449837
0.152095391157192 0.17931967704135 0.802228950285389
0.171659532168042 0.180398328999188 0.806077011028994
0.161978356071072 0.182752044016014 0.814473823635757
0.176703053508436 0.18332626911411 0.816522355640838
0.207540801537585 0.180916524043053 0.807925657379966
0.228899347621824 0.179112402951425 0.801489505756674
0.229732177871395 0.180700155537291 0.807153768776674
-0.0356147918123182 0.177086959647552 0.0750591648592817
-0.0356147918123189 0.182499509148552 0.0869525589959099
-0.0356147918123189 0.175021828843325 0.0868764465463334
-0.0347574460857032 0.179573967965728 0.10657087583375
-0.0349231361731152 0.180826678293826 0.1064813965246
-0.0111555279508973 0.182985599476542 0.106327187868692
-0.00969138411437792 0.183814163675397 0.106268004711631
0.00402976484555927 0.175883871056045 0.106834454184442
0.0132825930893787 0.180854021431905 0.106479443443309
0.0202013237960686 0.17938069284551 0.10658468119948
-0.249787828778617 0.165331270149097 0.466472116531245
-0.249787828778617 0.163742490209625 0.465131776135284
-0.249787828778618 0.161151398179409 0.477939079128732
-0.249787828778619 0.168805107543174 0.490067780403253
-0.24978782877862 0.166662495190267 0.49862011250298
-0.24978782877862 0.160922879323113 0.5029036963295
-0.249787828778621 0.161152581011781 0.518070195839622
-0.249787828778623 0.163912831739528 0.530755863499573
-0.249787828778623 0.161250202183584 0.529628732234978
-0.249787828778625 0.161352300505413 0.547556676083222
-0.249787828778625 0.164892443214666 0.557242211049726
-0.249787828778626 0.164123933536505 0.559431723538133
-0.249787828778627 0.169052018913235 0.572237000546096
-0.249787828778628 0.167866428804957 0.583918688453126
-0.249787828778628 0.162819921194089 0.587810627806002
-0.249787828778629 0.161997423571493 0.599394695373103
-0.249787828778631 0.162993078570678 0.611907562581321
-0.249787828778631 0.166858727997497 0.613893578802992
-0.249787828778631 0.161096590146799 0.621383686683139
-0.249787828778632 0.16024503852469 0.633604677992765
-0.288415700383874 0.159428596531629 0.677848402077847
-0.288415700383874 0.160659239664607 0.687340274092678
-0.282994947832488 0.163384221795174 0.690473204943909
-0.272515122673874 0.167111085796067 0.690473204943909
-0.258033097515595 0.165380437880375 0.690473204943909
-0.256727939795452 0.167922624871606 0.690473204943909
-0.230473892975991 0.17110822060651 0.681353382646312
-0.230473892975991 0.167313226250114 0.695678625427322
-0.230473892975991 0.163994872556884 0.701728953246977
-0.230473892975992 0.163863899434738 0.709106323577607
-0.230473892975991 0.168748325420494 0.718518689039086
-0.230473892975991 0.167772308153181 0.728732073813723
-0.225876640093237 0.162985809772354 0.73434081629922
-0.230473892975991 0.168919375982023 0.75000257618753
-0.213497846074567 0.164478833823271 0.741939876021747
-0.217508933296818 0.167911322571613 0.756943889695462
-0.216940891086054 0.170710295818358 0.768704432015362
-0.196326984155001 0.166779553592347 0.75218849698405
-0.200197045131825 0.17230650478201 0.775411278209864
-0.188158742005817 0.171677089662581 0.772766643018214
-0.196812178375526 0.172976391132619 0.778225962767861
-0.157587611419915 0.169054551478445 0.761747433979341
-0.165990448129531 0.173515011482416 0.780489102447926
-0.144519497898266 0.170146751574419 0.766336568750616
-0.121615483517136 0.169481487020456 0.763541303754814
-0.140097057388948 0.17468359372973 0.785399174735968
-0.106578475062369 0.170339839430309 0.767147872646889
-0.0966843038284919 0.172676529249148 0.776966022761364
-0.0817427835630453 0.172227452804217 0.775079122791305
-0.0814080801101358 0.17342074520872 0.780093020598111
-0.080834059693666 0.176934380282795 0.793719470696768
-0.0631918265840101 0.174653708563876 0.785273605205009
-0.0668769009347484 0.179179126047971 0.801727538540694
-0.0400327567275833 0.177059140434 0.794164549052886
-0.0483295298051611 0.180100270758789 0.805013696578161
-0.0414819272946365 0.18055964258257 0.80665249273383
-0.00816085827898473 0.176247287977101 0.791268288079834
-0.00798196584380148 0.179890370289137 0.804264882513101
-0.00356484462649699 0.181125971558487 0.808672855543501
0.00468539611426859 0.18236798367687 0.813103699098831
0.0288105990975578 0.181141237286592 0.808727315602294
0.0403475587301883 0.182351354307399 0.813044374287535
0.0321019707255429 0.184769450239058 0.821670864010448
0.0590307691345657 0.183149087730715 0.815890266002485
0.0848875479630718 0.182978399659711 0.815281341074791
0.0808197368341922 0.18681658564911 0.828970267884725
0.076609324153912 0.189407135343648 0.836976276670169
0.104123402807344 0.187786688240805 0.831968338096721
0.120339060868355 0.186166569147588 0.826655046709048
0.126386932900192 0.188230307967732 0.833339330299134
0.148935497085264 0.187216585829067 0.830206455309218
0.140300718151953 0.188965589927843 0.835611695058182
0.174851672080118 0.189775967501303 0.838116140344958
0.195556289226261 0.186636801567643 0.828332587738695
0.175699437465396 0.193224299825343 0.84877309818661
0.195797857454715 0.192681555610641 0.847095765008902
0.214815563505679 0.191739081107797 0.84418307849849
0.237310568586951 0.191614028248525 0.84379660674229
0.243356678526451 0.192460263454322 0.84641186886463
-0.0356147918123182 0.190390061416091 0.0689084368818621
-0.0356147918123186 0.184493053834317 0.0754289715536526
-0.0356147918123193 0.184975777890507 0.0879502285058465
-0.0356147918123189 0.183961458547144 0.0910960417903514
-0.0356147918123189 0.19244956112676 0.102342370203636
-0.0188838298216442 0.187798840013287 0.10598338497321
-0.0246812576773003 0.191867691308855 0.105692752737813
-0.00320965033711655 0.190342250787384 0.10580171277506
0.0078231047202653 0.18868039672588 0.105920416636597
0.0149358000323582 0.190887970765933 0.105762732776594
-0.230473892975991 0.171132901649464 0.478919336412762
-0.230473892975991 0.176599768316477 0.49159176573943
-0.230473892975992 0.171487795572441 0.494339977890402
-0.230473892975991 0.173524329001401 0.515294742460354
-0.230473892975991 0.175601259915104 0.517388535966019
-0.230473892975991 0.172477247561178 0.521343600193012
-0.230473892975991 0.176675980377924 0.536483966445347
-0.230473892975991 0.177707983474074 0.546738115680939
-0.230473892975991 0.172058627297461 0.55017020480178
-0.230473892975991 0.172601075529608 0.569836514963591
-0.230473892975991 0.176687639463499 0.569145202615815
-0.230473892975991 0.172554062775889 0.582938292024852
-0.230473892975991 0.172281530261326 0.586424619487827
-0.230473892975991 0.174368972341372 0.595614986722271
-0.230473892975991 0.177315982311919 0.615190514333601
-0.230473892975991 0.17421475427719 0.616659784065745
-0.230473892975992 0.174989817587494 0.631219928279468
-0.230473892975992 0.173942503371873 0.640501391257554
-0.230473892975991 0.173153133100041 0.646841563491643
-0.230473892975991 0.179760322657518 0.651355397238485
-0.230473892975991 0.177656608858369 0.660777261668845
-0.230473892975991 0.173444589443868 0.677672254383313
-0.230473892975991 0.176233221713201 0.681812757251464
-0.230473892975991 0.179845170350775 0.698132895455844
-0.230473892975992 0.178031223813742 0.695157763276479
-0.230473892975991 0.180094473079359 0.71108213552115
-0.230473892975991 0.17219222311385 0.721249974672905
-0.230473892975991 0.174421127766737 0.732220538184022
-0.230473892975991 0.171283954883258 0.737919328909165
-0.230473892975991 0.175861594581691 0.743278473219414
-0.230473892975991 0.173692037675406 0.757570931301253
-0.230473892975991 0.17165889621054 0.764398992544791
-0.230473892975991 0.175567086090763 0.778307149139405
-0.228357147984844 0.173946419722034 0.782301765311021
-0.215769739663189 0.173524559504538 0.780529220701419
-0.202892168496725 0.173125345499106 0.778851829461242
-0.216702329790808 0.178292202806471 0.798563464639556
-0.181067278916219 0.173848295704087 0.781889474244288
-0.182541359491854 0.176483984615222 0.792112696727758
-0.179089018636612 0.17946898888143 0.802761616106084
-0.161300373820348 0.175585780985491 0.788908380356554
-0.14730071043305 0.178267818821821 0.798476475455116
-0.156595434795539 0.179569229707241 0.803119222453438
-0.136388922765862 0.180156564408433 0.805214522601546
-0.125357832705306 0.180011299214586 0.804696293078303
-0.12772887461058 0.182469865196111 0.813467158574188
-0.112824530064035 0.181292831231001 0.809268122766468
-0.11234956839223 0.184568905543437 0.820955426408034
-0.0890945549179055 0.182591941104861 0.813902660970296
-0.0858022133256316 0.18606928218613 0.826307978190297
-0.0672621654871073 0.184950043699348 0.82231512613786
-0.0734831029696932 0.187037592045925 0.829653280898633
-0.0393326686533404 0.182842140371437 0.814795239868237
-0.0435006996659656 0.187646400511227 0.831534783473986
-0.0186022509909436 0.184550136661382 0.82088846894533
-0.0119402454051916 0.187305378438198 0.830480865952754
-0.0195661293030473 0.190609092238908 0.840690884995755
0.0174834628754446 0.186751480676316 0.828741702257046
0.0166735319985214 0.190383872049277 0.839994849393486
0.0296043829413191 0.191936955116107 0.84479460162514
0.0503877948903033 0.188790984114362 0.835072081523777
0.0362717006460919 0.194626766384572 0.853107375046132
0.0521245533616462 0.19575499690544 0.856594134432034
0.0801091438863654 0.192006297042556 0.845008900572393
0.0791573059199409 0.196368076207661 0.858488835888681
0.0890555289555453 0.197662621147571 0.862489584526671
0.0907139400000474 0.199805059645148 0.869110720369016
0.117224879929606 0.198997017918419 0.866613493939874
0.134390602471007 0.197288432731059 0.861333167509727
0.151891482323806 0.195846496347876 0.856876910455034
0.165570427624448 0.196804028733628 0.859836132858234
0.166463867339511 0.1996093487663 0.868505882322953
0.182274613424982 0.198440051273858 0.864892206809598
0.200634538049066 0.200918285357559 0.872252123648776
0.187513038851159 0.204796398421673 0.882791450839436
0.201036131175927 0.204676974175481 0.882466898361385
0.218248418737014 0.208931182126731 0.894028317225167
0.23540297366923 0.204430102918056 0.881795990393269
-0.0356147918123186 0.196109745202381 0.0637394211992535
-0.0356147918123182 0.199135022327162 0.0664574352942823
-0.0356147918123186 0.201707761364391 0.0747969412697268
-0.0356147918123193 0.200068636407645 0.0849044382567153
-0.0356147918123189 0.200854821455567 0.0924094500102104
-0.0356147918123189 0.200531079630497 0.10467430119724
-0.0286857763591187 0.198678657858193 0.105206255127147
-0.00673740098077867 0.202196832848629 0.104954956913543
-0.00135801552209777 0.201799379040712 0.104983346471252
0.00997112117300811 0.197880153856018 0.105263291127302
0.00999188865809933 0.205017386286606 0.104753488810832
-0.230473892975991 0.180542329409781 0.479835107949119
-0.230473892975991 0.180640842085196 0.49161515716685
-0.230473892975992 0.186937620689462 0.498621317414772
-0.230473892975991 0.187267187647344 0.509211832828677
-0.230473892975991 0.187315514593587 0.510653996151342
-0.230473892975991 0.189025284293176 0.525827203522552
-0.230473892975991 0.184816519047618 0.533001613638164
-0.230473892975992 0.181890871469828 0.545800634759067
-0.230473892975991 0.186680479308397 0.554950957327063
-0.230473892975991 0.182644596161806 0.566394631835335
-0.230473892975991 0.188125230694485 0.571366053144356
-0.230473892975991 0.187418787635725 0.586543369259364
-0.230473892975991 0.18344423227414 0.588962157063342
-0.230473892975991 0.183407137419961 0.596380589868603
-0.230473892975992 0.182817989032814 0.61231390398283
-0.230473892975991 0.182738705428346 0.613735659820795
-0.230473892975991 0.186354614780886 0.629167113078835
-0.230473892975991 0.18781618108837 0.642006451029717
-0.230473892975991 0.185158358620403 0.642604218983681
-0.230473892975991 0.182979800613781 0.653125539363915
-0.230473892975992 0.185113864156706 0.665144585437946
-0.230473892975991 0.18418188729553 0.671605361427397
-0.230473892975991 0.186021917101853 0.681706933022929
-0.230473892975991 0.187558981590969 0.689542276626635
-0.230473892975991 0.183314562030316 0.709108372696515
-0.230473892975991 0.188278593416588 0.706239666295868
-0.230473892975991 0.188261650538293 0.719459644073036
-0.230473892975992 0.187599804464314 0.731686693474912
-0.230473892975991 0.186423671643377 0.737573580634704
-0.230473892975991 0.186712341953764 0.74729964439482
-0.230473892975991 0.188840862490952 0.757038057555261
-0.230473892975991 0.189419053833158 0.76612620050912
-0.230473892975991 0.187687764829951 0.777867624511811
-0.230473892975992 0.18233617859442 0.783817269324596
-0.230473892975991 0.187102188914054 0.792994821560179
-0.230473892975991 0.18791187628013 0.807770549834177
-0.22548814923501 0.18100954455497 0.808257505459098
-0.230473892975992 0.188775264434415 0.824372305615688
-0.215978777700496 0.184482858542015 0.820648456132893
-0.209057625551125 0.184359880756823 0.820209736317763
-0.18505201732991 0.183486990177856 0.817095723548419
-0.191362354027435 0.18880394131897 0.835112125339244
-0.172365688051171 0.185432765027164 0.824037220997258
-0.168811660545515 0.188330907006561 0.833650228326055
-0.165159863467589 0.189889945058844 0.838468384244752
-0.162893303654169 0.19271483392814 0.847198610556633
-0.127530808541298 0.186619579897816 0.828271149912416
-0.139079372599195 0.191583898228371 0.843703490904146
-0.12904830714401 0.190835092401294 0.841389331078218
-0.118912994868338 0.193580815756925 0.849874898969052
-0.102921305545439 0.19300828919218 0.848105524416264
-0.105185490829326 0.194530547872828 0.852810014894358
-0.106143125218943 0.197942383109871 0.863354179686815
-0.0776405031628608 0.194142460527801 0.851610643695127
-0.0697222629529453 0.19579867623859 0.856729123977179
-0.0493683385018434 0.193679772201167 0.850180720611328
-0.0264407458813325 0.194408320528191 0.852432275298375
-0.0438088895740793 0.198689147708934 0.865662031164578
-0.0230336054756425 0.19953946164378 0.86828989846514
-0.00482335037640205 0.19952523299817 0.868245925302997
0.00799962593388938 0.200332826133595 0.870661054431316
-0.00374437790571989 0.204119929005456 0.880953048401415
0.0163387980497764 0.203243578165413 0.878571439592099
0.0301338507006289 0.2005549444208 0.871264692660832
0.0494133999980263 0.202833272574539 0.877456375436183
0.0694713754676239 0.201857755528515 0.874805268271915
0.0746652975724644 0.201146238190675 0.872871618091699
0.0672372203190336 0.206360149960996 0.887041169412709
0.0863861757582391 0.205227498297132 0.883963026439269
0.0993270351686345 0.20691457203865 0.88854789074381
0.120848620402069 0.204958162471398 0.883231067792205
0.123043835158403 0.210496163953914 0.898281379281749
0.129666687071448 0.210873913207407 0.899307966932178
0.166801786025292 0.206866565334683 0.888417425656256
0.151733730235315 0.213976921889643 0.907740837051454
0.157700205459918 0.214437306976998 0.908991999405185
0.177392627829509 0.215141573112174 0.910876487501579
0.222486789792298 0.211376439264608 0.900673653401631
0.227289327502408 0.212139458035206 0.90274726609497
0.231157108674076 0.217076924139957 0.915554964250935
0.241730022956381 0.220303177589049 0.923354041282666
-0.0356147918123186 0.211769130743452 0.0659653985190879
-0.0356147918123186 0.21062770157963 0.0747749923016074
-0.0356147918123189 0.206954615828302 0.0854515879429893
-0.0356147918123193 0.209170289361822 0.101297480384005
-0.0356147918123186 0.208238852868325 0.101014688124624
-0.0311656663937044 0.208614549111928 0.104496548609022
-0.0131177025079809 0.212399813894571 0.10422617255312
0.00147563046552364 0.212522662119305 0.104217397679924
0.00375515032763651 0.214602548928587 0.104068834336405
0.0153053085488664 0.213711199272418 0.104132502168988
-0.230473892975991 0.189698693149199 0.480053108254081
-0.230473892975991 0.197574633959795 0.487041455169268
-0.230473892975991 0.190116065919617 0.500524292698772
-0.230473892975991 0.189527646944093 0.502185345455605
-0.230473892975992 0.196444642323022 0.518699756091168
-0.230473892975992 0.195353394909972 0.530053870415847
-0.230473892975991 0.193618133567769 0.533115711272183
-0.230473892975991 0.198624896641988 0.539994821127517
-0.230473892975991 0.189075212331036 0.560557619674642
-0.230473892975992 0.191752849113107 0.560635047282765
-0.230473892975991 0.192730192820119 0.567736821466166
-0.230473892975991 0.191220130812697 0.581349288624846
-0.230473892975992 0.197325971431382 0.592067531602787
-0.230473892975991 0.189496458617183 0.593944007663938
-0.230473892975991 0.193166493105163 0.609895004872941
-0.230473892975991 0.198659152295754 0.612451400703132
-0.230473892975991 0.191738969694186 0.626891368023208
-0.230473892975991 0.189752735161718 0.639881767961185
-0.230473892975991 0.195641649800048 0.639216572117937
-0.230473892975991 0.195164927435568 0.65758065080682
-0.230473892975991 0.191193046240331 0.658093159340851
-0.230473892975991 0.190832527770032 0.675696241832322
-0.230473892975991 0.197460589951966 0.678770516152592
-0.230473892975991 0.195388289474612 0.690377579911209
-0.230473892975991 0.193174768033689 0.697788438118468
-0.230473892975991 0.193669728279672 0.711770910424704
-0.230473892975991 0.190162660657031 0.720843086937456
-0.230473892975991 0.189059169920164 0.730657966819628
-0.230473892975991 0.197293317677942 0.735261703160015
-0.230473892975992 0.190843846622853 0.749425414038832
-0.230473892975992 0.196991764129683 0.75625291955841
-0.230473892975991 0.198163178917571 0.765174599890918
-0.230473892975992 0.192941394207581 0.776942782583199
-0.230473892975992 0.193044892114551 0.786637265188647
-0.230473892975991 0.194904777925806 0.796105985690897
-0.230473892975991 0.189416899041612 0.806291660012362
-0.230473892975991 0.193782116885994 0.80779731115789
-0.230473892975991 0.197616772482944 0.819389842228662
-0.230473892975991 0.195564002076961 0.836978216337102
-0.227719652548119 0.190069799961817 0.839024219917908
-0.230473892975991 0.194481005928281 0.847994774156591
-0.223678876601124 0.194296769814048 0.852087531478432
-0.216084276311433 0.197300350377454 0.861369998604664
-0.195249125483793 0.193063942554885 0.848277519306652
-0.190546664664942 0.195194341168911 0.854861446284138
-0.198288088118411 0.19953894424192 0.868288299451679
-0.163483633398429 0.194248316620007 0.851937788472927
-0.169799374349768 0.19976898657046 0.86899923771594
-0.15888905677296 0.199615612271968 0.868525239481596
-0.132161871931569 0.197919478437975 0.86328339355026
-0.149677300921158 0.203932927635827 0.880444845420471
-0.108701822060415 0.198400951120256 0.864771369068513
-0.11246971809959 0.199199696368351 0.867239865035629
-0.0965567757274952 0.202075230007735 0.875396286288725
-0.0866085926077755 0.200784269021084 0.871887915077326
-0.0909659942849584 0.20494286265789 0.883189488359666
-0.0511065526580952 0.201606871642674 0.874123455411892
-0.0738382190424389 0.206563910852084 0.887594918791424
-0.0368202598374429 0.202966505374772 0.877818454635775
-0.0333009421483221 0.203040835759845 0.878020458093524
-0.0180843350470506 0.207396892933903 0.88985866679441
-0.0235457005975896 0.209441222266858 0.8954144242902
-0.0166289091817169 0.212357304134728 0.903339294043128
-0.00671680233641531 0.21347232616728 0.906369525970762
0.0188958358028595 0.210363266551338 0.897920211573281
0.0438946706835563 0.208360817821266 0.892478270608736
0.0384208651365077 0.211798061060689 0.90181947096449
0.028152737560633 0.216884323614907 0.915089375804486
0.0628943410354958 0.213995435052997 0.907791149222011
0.0678492072688119 0.216438885895082 0.914012584056854
0.103991689971627 0.212007289480451 0.902388079134751
0.0902548672321447 0.215958613406724 0.91285158347459
0.106945522404529 0.219948567076209 0.922496813309246
0.114730513689351 0.220543251583854 0.923934391093473
0.131471705989785 0.219921628789596 0.922431693263439
0.142370553342163 0.224043319281147 0.932395380912838
0.169503872065654 0.21816986795308 0.91819702356971
0.178322175342536 0.220410835288352 0.923614290733978
0.20041066675742 0.218540541908819 0.919093082971143
0.197029454128942 0.224740098091494 0.93407975931079
0.213675894631516 0.22445714731935 0.933395760082906
0.23849445912603 0.223630410402009 0.931397223698504
0.219717515869598 0.229685760586466 0.946035299500007
0.250127209779192 0.226905299239582 0.939313870892408
-0.0376563181469294 0.220502266950438 0.025897196929892
-0.0376563181469294 0.220473282530058 0.0439035006534955
-0.0287992231442023 0.222221180098555 0.0486793578896833
-0.0149798579323624 0.215879955440501 0.0399763814888785
-0.0356147918123193 0.217256493101847 0.0805081598775045
-0.0356147918123189 0.212797074578325 0.0825928538093471
-0.0356147918123186 0.215276328122452 0.0960427389980665
-0.0352840477352119 0.222562625104565 0.103500257466692
-0.0229310988387844 0.217286555948539 0.103877119549265
-0.00648322891060354 0.220524355845527 0.103645848128051
-0.00104080672061845 0.217706963612712 0.103847090430395
0.0054647492763945 0.22437195743384 0.103371019443172
0.0175785733612393 0.218134792400303 0.103816531231282
-0.230473892975991 0.205200947348808 0.490469671543873
-0.230473892975991 0.201094699909687 0.496363021434427
-0.230473892975991 0.204302949630989 0.508432069344253
-0.230473892975992 0.201153605644975 0.512182457520309
-0.230473892975991 0.198755985688668 0.526923976355579
-0.230473892975991 0.20456944875027 0.530261072380075
-0.230473892975991 0.201433322192711 0.550834560839946
-0.230473892975991 0.199526026145084 0.549218391708828
-0.230473892975991 0.204934328712753 0.564712964870074
-0.230473892975992 0.203072036975118 0.565830522144658
-0.230473892975991 0.199751007182348 0.579996149364876
-0.230473892975991 0.207473196465225 0.59491491353325
-0.230473892975991 0.206249608845307 0.597618296958119
-0.230473892975991 0.207565172273787 0.604703825950993
-0.230473892975992 0.202551307419893 0.613921951846291
-0.230473892975991 0.206182274365838 0.63123417944675
-0.230473892975991 0.19923866268537 0.642179039454016
-0.230473892975991 0.206112282661934 0.653119979542777
-0.230473892975991 0.2019482263171 0.659619834573837
-0.230473892975991 0.199339239311618 0.665897416297877
-0.230473892975991 0.200689134234609 0.675852274249502
-0.230473892975991 0.203276636138166 0.682593537515466
-0.230473892975991 0.205787113870373 0.689926420497809
-0.230473892975991 0.204799358484679 0.702442932208589
-0.230473892975991 0.201291065694211 0.709550370245969
-0.230473892975991 0.206617787881005 0.722783435896395
-0.230473892975991 0.204536760829032 0.729727851301563
-0.230473892975991 0.201832459828474 0.739396474865752
-0.230473892975991 0.203618466931299 0.746068544613525
-0.230473892975991 0.201907889283448 0.75268480917764
-0.230473892975991 0.198937550872759 0.770199320543584
-0.230473892975991 0.205597305888645 0.775313808795395
-0.230473892975991 0.203029294742906 0.782939828754976
-0.230473892975991 0.200278541228834 0.788768681256387
-0.230473892975991 0.207540638107136 0.803451480470475
-0.230473892975992 0.202628270646611 0.813315805322792
-0.230473892975991 0.200563152229778 0.822095825816786
-0.230473892975992 0.207211231348201 0.829503185606315
-0.230473892975991 0.206166459434168 0.84014317629685
-0.230473892975991 0.202960032999717 0.845726256434775
-0.230473892975991 0.201483453108999 0.866401625943566
-0.230473892975991 0.207014302428087 0.872330054997193
-0.230473892975991 0.205331846145953 0.881585588811207
-0.207654364572224 0.19991170696507 0.869440310410092
-0.207264611589023 0.202682028832247 0.877045348924268
-0.197615244643228 0.202284672897311 0.875965477311397
-0.206283178322957 0.209304276472611 0.895042254498065
-0.189457920238505 0.207373805118094 0.889795922351196
-0.158914793740845 0.204304620334968 0.881454973517784
-0.155568886005984 0.206503382504524 0.887430424345618
-0.165527855625276 0.21228406317739 0.90314025126114
-0.134362043373968 0.207952185511287 0.891367753833091
-0.112922086926785 0.206614860581591 0.887733381972016
-0.112903659504214 0.207338239910145 0.889699268809388
-0.0967808087525043 0.210041988746944 0.897047093166565
-0.102557068086351 0.210202661464004 0.897483744266652
-0.086317600969296 0.211852494147232 0.901967400666278
-0.0703692939629737 0.210838378552996 0.899211396423982
-0.0858287470455638 0.216975057178361 0.915308713206805
-0.0648662572860774 0.214931363946703 0.910334669917485
-0.0509484734267322 0.217203523679284 0.915861003306754
-0.0460993819631804 0.217200856054673 0.915854554647293
-0.0351383133242227 0.218804031241503 0.919730036525805
-0.0297419768368205 0.222391920224492 0.928403323668667
-0.00992098818930737 0.221340176149131 0.925860859726873
-0.0046653009507121 0.224910739966961 0.934492265380946
0.0382270565783599 0.218831632998379 0.919796760430632
0.0281492127217837 0.22009204835448 0.922843661924678
0.0484501960458019 0.220587107239487 0.92404040683029
0.0520537900243012 0.22481621776267 0.934263769398188
0.0648054569094305 0.227238130448435 0.940118450035791
0.0824121362988072 0.225815612778147 0.936679685826895
0.0965725091361901 0.227170789957824 0.939955662554301
0.114934424902266 0.225352739986734 0.935560746904989
0.119216610418407 0.225568171031358 0.936081525367859
0.128136747635551 0.230588260707437 0.948216984254683
0.129345599334185 0.231293490747679 0.949921792477509
0.154748958140424 0.229378843032769 0.945293363479963
0.169433117277235 0.228900045464924 0.944135928339435
0.186536542689591 0.231231086476801 0.949770937709473
0.182486171595398 0.234908160009653 0.957832097857267
0.20866424075455 0.23634613403091 0.960952014207166
0.215280032967702 0.23564830366296 0.959437958777625
0.246400794089066 0.234518790542604 0.956987298056687
0.244808852875144 0.238213111212976 0.96500272204271
-0.0376563181469294 0.222507783192761 0.0291299045866812
-0.0376563181469294 0.226194578672549 0.0346883875594665
-0.0376563181469294 0.228378106237318 0.0448635924845231
-0.0340088847442472 0.226275203039212 0.0521096568005411
-0.0295618196374085 0.23006136892901 0.0545756629621158
-0.0356147918123186 0.227700477895692 0.0808946343221851
-0.0356147918123189 0.226933955055559 0.0786847363070117
-0.0356147918123193 0.229535142753618 0.100999984841782
-0.0321762034853751 0.225133796571399 0.103316602361918
-0.0209942224874884 0.230780299362334 0.102913280733994
-0.0216867796949978 0.231008818849092 0.102896957913511
-0.00690532221295303 0.232129550682929 0.102816905639666
0.0107101263192487 0.227785262994218 0.103127211903145
0.0109266341113709 0.232807401065767 0.102768487755177
-0.230473892975992 0.212927013995906 0.489894983666702
-0.230473892975991 0.212624981358611 0.49387740785238
-0.230473892975991 0.207451501554838 0.513593035118496
-0.230473892975991 0.214836187789509 0.520263925728282
-0.230473892975991 0.21665434758816 0.526050514575923
-0.230473892975992 0.21460195695875 0.537208737734996
-0.230473892975991 0.211139072716979 0.546978042268768
-0.230473892975991 0.215140847296702 0.557850884320003
-0.230473892975992 0.214114222447407 0.562746794024601
-0.230473892975991 0.21380282113466 0.571757923818483
-0.230473892975991 0.212723922458571 0.583041422071151
-0.230473892975991 0.215573603532735 0.587738492856009
-0.230473892975991 0.213040144176313 0.605207080169572
-0.230473892975991 0.214021956267181 0.608737380432346
-0.230473892975991 0.216243942136548 0.621653742451929
-0.230473892975991 0.213119459799877 0.631497035740734
-0.230473892975991 0.209383294801959 0.635146822810386
-0.230473892975991 0.213564134396557 0.645467772278514
-0.230473892975992 0.21072109853122 0.661872843457566
-0.230473892975991 0.216416328038258 0.665676014470955
-0.230473892975991 0.214652323702627 0.678333642069926
-0.230473892975991 0.212394554823456 0.687186936565811
-0.230473892975992 0.216928284214184 0.690981598528861
-0.230473892975991 0.211319054681446 0.700699259342689
-0.230473892975991 0.210259496021802 0.713242034440335
-0.230473892975991 0.216933382296924 0.714264403748856
-0.230473892975991 0.211614779823837 0.726271330462834
-0.230473892975991 0.20853491292045 0.74275435865259
-0.230473892975991 0.209666539974013 0.7534394119266
-0.230473892975991 0.214057490788347 0.754499567879274
-0.230473892975991 0.213616650502093 0.772222509609755
-0.230473892975992 0.213120115298821 0.777454267995231
-0.230473892975991 0.212995284201111 0.779053033840925
-0.230473892975991 0.208712940158998 0.790040514756011
-0.230473892975991 0.215098611151526 0.805286994829423
-0.230473892975991 0.211733822249067 0.810413542458194
-0.230473892975991 0.216444593335486 0.827490297334247
-0.230473892975991 0.207946482681489 0.834462225188972
-0.230473892975991 0.216744766951582 0.842217076709154
-0.230473892975992 0.214591068161886 0.851824294523659
-0.230473892975992 0.209070659023181 0.857117456814219
-0.230473892975991 0.213262140945045 0.863530455716082
-0.230473892975991 0.212361519772014 0.871594854197791
-0.230473892975991 0.208357311913646 0.885518744097202
-0.230473892975991 0.213893873252299 0.892604949102683
-0.230473892975991 0.216975820937987 0.900677649150328
-0.230473892975991 0.216040638097703 0.912222021254041
-0.222693364049395 0.21742098861765 0.916386698461454
-0.199060900253016 0.213083837460694 0.90531375231979
-0.180442017300302 0.213089485591546 0.905329101923602
-0.175675112188001 0.215185881622802 0.910983597960504
-0.166747957032712 0.217975113058927 0.917726227196834
-0.165665349920566 0.219169587204194 0.920613723798806
-0.141411309465651 0.214751368308101 0.909845506013091
-0.149146297734352 0.22128762127014 0.925733814671018
-0.14125361392884 0.220846256282024 0.924666868259105
-0.119836112405658 0.221053708834925 0.925168359684387
-0.109454810776991 0.223617952218596 0.931367107548719
-0.107900113809347 0.223878327528069 0.93199653332936
-0.0811701567263283 0.221527872461255 0.926314592832448
-0.0832940072154003 0.223915101692814 0.932085430419484
-0.0558832312296568 0.223529327030395 0.931152866888264
-0.041865067387601 0.224863453609712 0.934377956338412
-0.0487119133541391 0.229609783431861 0.945851633929163
-0.0249864787574744 0.228672347774711 0.943585496746278
-0.0279017019116477 0.230648857723875 0.948363470203958
-0.00945524434308063 0.227524129260171 0.94080981753029
0.0174731753063757 0.226680766880296 0.938771091103462
0.0165603616463539 0.229336493242736 0.945190987990884
0.00829736062184615 0.235396100085601 0.958890762477225
0.0405441158077697 0.233565939969557 0.954919935199005
0.0458146187837322 0.236641884616441 0.961593692758829
0.0669281984885026 0.233977668132967 0.955813245794153
0.0837059159469433 0.234995020234131 0.958020555110666
0.0919700402282718 0.234570350071432 0.957099164762627
0.0886513463260419 0.239706731385318 0.96824337168404
0.116314415055659 0.238860642319402 0.966407645119305
0.123909634014886 0.240828017122577 0.970676181771613
0.1465019688024 0.23810112378223 0.964759747266392
0.15615917676843 0.243233366420446 0.975894974664047
0.152863848674483 0.246461194421473 0.98289826763471
0.183350605439208 0.240001422767927 0.968882752124287
0.184093961567226 0.24620850124024 0.982350009059809
0.192294258054991 0.248844062719127 0.988068284374654
0.23208089447799 0.244158341147021 0.977901856380977
0.244793386997541 0.246892578998343 0.983834225986233
0.250083875158055 0.251572376075954 0.989172575698552
0.251875423189492 0.250189546534215 0.989642040400045
-0.0376563181469294 0.232390916389086 0.0275949850520998
-0.037656318146929 0.231902457433455 0.0383552530367494
-0.0376563181469297 0.237163581409366 0.0471466100006073
-0.0376563181469297 0.233740478959741 0.0544289119700198
-0.0356147918123186 0.240304579699802 0.066203891565483
-0.0356147918123189 0.240665750465431 0.0759037603043687
-0.0356147918123189 0.240471005491862 0.0862978452841027
-0.0356147918123189 0.238192225844195 0.097204531992086
-0.034817525501134 0.237137967113161 0.102459161608935
-0.0199478784667487 0.238393519341763 0.102369479306892
-0.0163848020145309 0.241419519183553 0.10215333646105
-0.00280419964383941 0.237796260839317 0.102412140628496
0.00598528438212434 0.236153691461038 0.102529467012658
0.0140781259500945 0.237963728090315 0.102400178681995
-0.230473892975991 0.216746858968032 0.537773718035885
-0.230473892975992 0.219350443857385 0.581447361816064
-0.230473892975991 0.221265506597578 0.618926401317978
-0.230473892975992 0.220262642354694 0.621789974320321
-0.230473892975991 0.22271640906309 0.638924844668209
-0.230473892975991 0.221898187674043 0.645772709177649
-0.230473892975991 0.221833526371956 0.657960263906989
-0.230473892975991 0.225716581622592 0.668511325310379
-0.230473892975991 0.217863308923596 0.676493731322158
-0.230473892975991 0.222287939819916 0.688318679620624
-0.230473892975992 0.21791608921615 0.683850920871408
-0.230473892975991 0.216812996865404 0.70416885678041
-0.230473892975991 0.223717076029447 0.713751216514713
-0.230473892975991 0.224055452622122 0.720712567986632
-0.230473892975991 0.220253901944126 0.72355628424306
-0.230473892975991 0.217677108649411 0.740674733552315
-0.230473892975991 0.224224782447659 0.747241073760574
-0.230473892975991 0.220573662864742 0.752913579882364
-0.230473892975991 0.224384281437727 0.762166123966104
-0.230473892975991 0.224231483356075 0.774756040304047
-0.230473892975991 0.219908081433005 0.781953685264816
-0.230473892975991 0.225414663486792 0.786027893517256
-0.230473892975991 0.221353523553035 0.804922072823849
-0.230473892975991 0.225843909452729 0.813327176110318
-0.230473892975991 0.219906381371606 0.822494029179196
-0.230473892975991 0.218611888621424 0.833425367051642
-0.230473892975991 0.226114831468367 0.836161021609921
-0.230473892975991 0.222454260739614 0.847371827395463
-0.230473892975991 0.224727604526179 0.858309488322892
-0.230473892975991 0.216935206518317 0.868641766435884
-0.230473892975991 0.225184989945589 0.875636043941268
-0.230473892975991 0.225779274792264 0.893097806425677
-0.230473892975991 0.22509437563112 0.899894730312163
-0.230473892975991 0.224086348043578 0.902698662682587
-0.230473892975991 0.224101115357976 0.915573792587946
-0.230473892975991 0.225434134314952 0.922167498770431
-0.22646743055818 0.221849992653285 0.927093279389707
-0.21394577919092 0.222717553111394 0.92919050174041
-0.217901411193 0.225908321379086 0.936903797643166
-0.193110064581521 0.223663576766401 0.931477399368159
-0.203909520627851 0.22842224660242 0.942980907448133
-0.178281273667965 0.227650126742881 0.941114401187143
-0.166243587841311 0.225083831810222 0.934910693951564
-0.156469494167659 0.228287687115878 0.942655626183828
-0.144325795762597 0.229133509366328 0.944700299049894
-0.131428567363244 0.229254602449286 0.944993026914242
-0.113634981664992 0.227361224071173 0.940416013962804
-0.103356425678994 0.23026151583418 0.947427118090579
-0.0892684593172911 0.228925037150513 0.944196342712992
-0.0849928409783022 0.228589743197463 0.943385810183739
-0.0802422898666893 0.233791265855814 0.955408816017571
-0.0669687272841997 0.235653693530225 0.959449652963164
-0.0586207524741667 0.239668556141773 0.968160544341728
-0.0398480062096136 0.235314691723189 0.958714133917075
-0.0264930432238125 0.233684101055104 0.955176304714219
-0.0354933592538967 0.239879210516019 0.968617592950862
-0.0224264989751923 0.241994388455024 0.973206812322905
0.000126621888738536 0.238994113654696 0.966697232688393
0.0284638390990624 0.236898884243437 0.962151294861741
0.0349903700080281 0.240708323843664 0.970416487915999
0.0431828212128485 0.239465698605074 0.967720412228009
0.0460358153575214 0.244805069136144 0.979305036965173
0.0471639191417676 0.247579968135364 0.985325627482806
0.0873201988114889 0.241582365078998 0.972312861216416
0.0855246315593362 0.24768814044193 0.985560324732458
0.104258761757694 0.247273504421345 0.984660705072608
0.110044600305715 0.247355936752821 0.984839555298641
0.127898950410174 0.249433050975892 0.989346189305491
0.123983469377056 0.252593773020903 0.996203885091328
0.150260665060955 0.256433997427578 0.994855217528936
0.17333859631133 0.253925637320617 0.99461472799755
0.187440859399136 0.254330194801804 0.993347897691669
0.213060293595021 0.253016705016642 0.991976310458925
0.229432198569388 0.260150099904179 0.987154329958411
0.243862076310103 0.254375567320172 0.988463616818006
-0.0376563181469294 0.247719526218139 0.0304667807046393
-0.0376563181469294 0.249705251021357 0.0403026872548745
-0.0376563181469294 0.243380806443718 0.0441578260379564
-0.0368129206569831 0.251539739782069 0.0566487303255344
-0.0356147918123186 0.249500414288827 0.0662801416151168
-0.0356147918123186 0.249080483098582 0.0705964842160305
-0.0356147918123189 0.247853119190424 0.0837851620528126
-0.0336111198806644 0.248804851782958 0.10162581270395
0.0132083784747699 0.256239265023065 0.0547021232339996
-0.0117789300520294 0.244676084215876 0.101920724673027
0.0187218281802802 0.250311239465786 0.101518213583748
-0.230473892975991 0.230193289960648 0.683370726175992
-0.230473892975992 0.229122306189962 0.695551834776107
-0.230473892975991 0.234036508380002 0.698819811920869
-0.230473892975992 0.234311103214049 0.704739097420625
-0.230473892975992 0.227341110010507 0.714889308057038
-0.230473892975991 0.230089289233277 0.733082293724274
-0.230473892975991 0.232368201524773 0.741958286932372
-0.230473892975991 0.227021953280421 0.746599800538159
-0.230473892975991 0.22782992052757 0.76269179262049
-0.230473892975992 0.233381984979098 0.770405825999227
-0.230473892975991 0.232852946706051 0.779150259749365
-0.230473892975991 0.234049086230513 0.786959596953399
-0.230473892975991 0.228162117907055 0.795802066175096
-0.230473892975991 0.2340375547876 0.803908169298934
-0.230473892975991 0.23220297764294 0.810736126258111
-0.230473892975991 0.232933691331107 0.816343031354214
-0.230473892975991 0.229832373973616 0.82980372474233
-0.230473892975991 0.226725994450447 0.837751928945651
-0.230473892975991 0.23283243174929 0.84532589603662
-0.230473892975991 0.234564235974803 0.861677939258373
-0.230473892975992 0.228944184161712 0.872863957054682
-0.230473892975991 0.233912054080599 0.881024911496827
-0.230473892975992 0.232789086733133 0.882941473287956
-0.230473892975991 0.229540590966454 0.901303955829383
-0.230473892975991 0.23457027423734 0.907000740250998
-0.230473892975992 0.234252192105717 0.912809964284188
-0.230473892975991 0.22864076445655 0.926368253837377
-0.230473892975991 0.23083602188873 0.929916778034509
-0.230473892975991 0.22963193306974 0.942104181789292
-0.223290930735724 0.228616494517104 0.943450478259534
-0.214077222227728 0.227717087036977 0.941276269589598
-0.198385244304464 0.229649805500624 0.945948382433948
-0.188677031416112 0.229919605285639 0.946600590742958
-0.198735378283764 0.238047089117757 0.964642510354838
-0.17990009895249 0.237156500873535 0.962710235652304
-0.155544007334316 0.234434217557613 0.956803803337918
-0.164016310097066 0.239050027895308 0.966818547643252
-0.132297296077241 0.234817539277699 0.957635481576944
-0.132143753945477 0.237413153768996 0.963267085465276
-0.111643616662399 0.238607945956299 0.965859379640828
-0.107546624266463 0.237065620789987 0.962513056666904
-0.0982396145434448 0.239647194532227 0.968114196887672
-0.101053851213236 0.243750782037686 0.977017591220436
-0.0862182610369245 0.245790867593394 0.981443885566756
-0.0708492259063896 0.245169245774457 0.980095176864313
-0.054329657641491 0.241832855891083 0.972856341396567
-0.0628426534664049 0.250059927003382 0.990706297860038
-0.0462680887258273 0.248464332947191 0.987244399445934
-0.0303015612463428 0.249276030782988 0.989005508695229
0.00810013605808147 0.245254812539984 0.980280827750093
-0.0100852517467681 0.25383160996092 0.998889571793993
0.00534573436542786 0.249459128841667 0.9894027694374
0.0153662532901317 0.253847587442047 0.998924237513859
0.0423878534832996 0.249263290071032 0.98897786566764
0.0500877267530412 0.254335629556877 0.999670969636013
0.065405662117731 0.251602876649509 0.994053975743545
0.0747831039202813 0.25681128773089 0.997919855009392
0.101150182029797 0.257826380801225 0.996615918895328
0.11533667303317 0.257375242264762 0.996220731410657
0.133173354101488 0.265636656365633 0.991631202628339
0.156759911622997 0.260128458864922 0.992765421919153
0.173940837730139 0.266217262467175 0.988903362448152
0.198174987726971 0.266997745277487 0.986687067490709
0.218594102920809 0.271179954683167 0.983086276511541
0.238912248730976 0.269321671246569 0.982038777023772
-0.0376563181469294 0.257739949038181 0.0272342977958742
-0.0376563181469294 0.257202230760847 0.0372748398289428
-0.0376563181469297 0.252205070961836 0.046441682232353
-0.0376778431231005 0.257076561834125 0.054355303539127
-0.0243668321085287 0.254504844687825 0.0554205436597114
-0.0163947385492756 0.254943977386075 0.0552386489404152
0.00801234505339809 0.265298710734695 0.0474882688337653
0.0129608985291494 0.262253970199782 0.0506339050054058
0.0148350223853286 0.260724079702922 0.0518078312722984
-0.230473892975991 0.236425469126789 0.725733107761197
-0.230473892975992 0.236583535853214 0.730608600149139
-0.230473892975991 0.240775563408603 0.740955992049547
-0.230473892975991 0.241301446384529 0.745736072428419
-0.230473892975991 0.236455773029708 0.757259148843284
-0.230473892975991 0.23875045947182 0.765059240695408
-0.230473892975992 0.238759302477503 0.777122471412167
-0.230473892975991 0.242265161484417 0.786810736288911
-0.230473892975991 0.235281997107439 0.791422393458004
-0.230473892975991 0.243841956740431 0.801960375025648
-0.230473892975991 0.235401000689446 0.815057596091939
-0.230473892975992 0.244015480246103 0.826272898392022
-0.230473892975991 0.239689336607577 0.830373291288307
-0.230473892975991 0.239410328384367 0.837302685051846
-0.230473892975991 0.236517134990759 0.847582487313369
-0.230473892975991 0.238409597944998 0.854334322337435
