ply
format ascii 1.0
element vertex 852
property float x
property float y
property float z
end_header
0.289272739276518 -0.189604208252689 0.535393586602073
0.278398883617739 -0.207760195912381 0.528206262247448
0.278070898500285 -0.199813457742159 0.538370381355285
0.2917920435684 -0.203366355116293 0.49928132260752
0.294167848851831 -0.197137738196732 0.507598119798049
0.288655291258978 -0.208404266729644 0.513269973816597
0.28706263374447 -0.210778809388993 0.512565205568481
0.274266629092851 -0.227648311872351 0.50960177581077
-0.338855297926154 -0.0635291679530795 0.0272643437520145
-0.334375624722339 -0.0620736338964725 0.0372990498316996
-0.331643178146529 -0.061185808185088 0.0582186421910377
-0.334563959086321 -0.0621348274408084 0.066037743166973
-0.336182177861802 -0.0659994984926135 0.0724078131375291
-0.32826242026112 -0.0600873333599242 0.0257396896169321
-0.322977240732516 -0.058370074432954 0.0373011536281324
-0.323490639923823 -0.0585368879422392 0.0423157479705795
-0.331215974462433 -0.0610470012938222 0.0489090114540066
-0.326417930365559 -0.059488022263354 0.0600735961570975
-0.321891890361026 -0.0620805904968861 0.07289489565779
-0.328273789266508 -0.0676088592236921 0.0752181521062494
-0.333568159896433 -0.0837643149488127 0.0720536506605394
-0.327516784158272 -0.0966933059110183 0.0738135730614259
-0.320489907418318 -0.0575618908480744 0.0321165580593133
-0.315218550867955 -0.055849123278995 0.0464872786030167
-0.31563177747619 -0.0559833887430182 0.0594119534162647
-0.320965166587261 -0.0577163119128791 0.0581866257138034
-0.311682842072068 -0.0630465125818847 0.0757752356709474
-0.319675908798121 -0.0665729840310146 0.0764002333510839
-0.314332798593333 -0.0704249885433272 0.0801582130436365
-0.322841454231287 -0.0801505428820085 0.083372070964196
-0.313347665429445 -0.082860317367842 0.0887362126633227
-0.316160296460067 -0.108049270337885 0.0811050486936109
-0.293947902161534 0.119492193669157 0.525935985166708
-0.300059895209853 0.079880339637345 0.523972451631343
-0.303428109448217 0.0522626933404776 0.524014447405715
-0.305473746827629 0.0442340839780979 0.523493416801157
-0.277366493259147 0.303057047685651 0.758553940261725
-0.27858123010606 0.304084402619632 0.763278167797705
-0.280096205842575 0.288027812638849 0.771443615136514
-0.278980056802958 0.263252405841462 0.770227885575668
-0.281562083655479 0.286749404669997 0.79503521352355
-0.279760367720571 0.246355161252635 0.77650747813453
-0.280237172457111 0.246335047325867 0.778014228348544
-0.280756801629576 0.262185527786935 0.807541043251498
-0.281809808186387 0.294305856549458 0.841349787606863
-0.28036993621029 0.250384799316682 0.820287917259937
-0.280817618010558 0.264040636987016 0.83126167497816
-0.281203134287919 0.275800211979256 0.85832717811403
-0.280306516880897 0.248450291220085 0.872842724290453
-0.304421236066057 -0.0523408630334322 0.0351019040843658
-0.305022742080917 -0.0525363041850628 0.0356689187495222
-0.302763519905257 -0.0518022384020239 0.0588020560122229
-0.30653751551686 -0.0530284839097307 0.0674253441055453
-0.307412936981125 -0.0563215512968699 0.0721857176875682
-0.302619903601051 -0.0523414156547851 0.0705563985872574
-0.305877135607382 -0.0709607327659215 0.0823661303472241
-0.304531299192923 -0.0726140711674163 0.0837720740017041
-0.30640538750965 -0.0789196750314231 0.0876030799044619
-0.305372880022636 -0.083264327763088 0.0907504635601008
-0.306448509869278 -0.100122966521643 0.0926408643567921
-0.304782492459571 -0.098025958722267 0.0926408643567921
-0.306288294266889 -0.109124273261983 0.0901616865357641
-0.309747702194161 -0.137568148179862 0.0780819533485096
-0.283750967523878 0.166389560045196 0.530088427711187
-0.283633872240879 0.157494019515341 0.530326418301678
-0.280342271676791 0.154997226679086 0.532022584479763
-0.282729042551054 0.144338736673072 0.531044204625717
-0.290510836527567 0.121723511644524 0.527609507309377
-0.286167280690924 0.114632322055048 0.529924330382462
-0.289005335542595 0.105844682000091 0.528682569311701
-0.29310085796436 0.0885943774008867 0.526982785328049
-0.293580257533448 0.0724422642418127 0.527677150181765
-0.268811425117806 0.302531684721007 0.724402559973348
-0.270953724378312 0.295489640585752 0.733895199449924
-0.270664296017676 0.290518307982944 0.733389390396721
-0.27073446141588 0.281049715189534 0.735038124717408
-0.27154875398148 0.283546047270592 0.737850865887506
-0.270861569737095 0.264515698403005 0.738025080500273
-0.276348070282284 0.282385564093895 0.757190956320196
-0.27334042698728 0.253810050745518 0.749343432869272
-0.275729202885034 0.260795255070607 0.757645653984513
-0.271812098038483 0.246672479754814 0.760451393441883
-0.273679723551122 0.246230933647302 0.765622364947019
-0.279542419124572 0.245994428732703 0.779861812401495
-0.278786103654105 0.245623627903871 0.785082486180319
-0.27346945049877 0.243017017998892 0.791471023548515
-0.278957681267089 0.245707747723693 0.803652507546695
-0.27202426644721 0.242308483709886 0.816217130508408
-0.278704596048007 0.245583666949644 0.820420324517394
-0.27689722407619 0.244697561810551 0.83031633338185
-0.273230756981427 0.242899993083334 0.838141372335222
-0.277085069884622 0.244789657482501 0.852450093908529
-0.277098285573127 0.244796136773805 0.857100009893898
-0.273670919815956 0.279620999175737 0.895401306106286
-0.268735309365376 0.287626573300671 0.911085112068791
-0.27314567595421 0.255129930165145 0.894583357398482
-0.290046366173778 -0.047670184674645 0.0251699315360195
-0.290790632400547 -0.0479120114309633 0.0356917623877298
-0.293863929799519 -0.0489105862882707 0.0515964053376961
-0.299296056286014 -0.0506755911761612 0.0692791456330161
-0.290485112013307 -0.051280532042475 0.0724945051252078
-0.297016949511051 -0.0557495684079461 0.0740726666030941
-0.296776234227015 -0.062245360756084 0.0784936755094716
-0.297700865001541 -0.0700335346764864 0.0835291716492743
-0.298233920299546 -0.0753027012310045 0.0869562014629044
-0.30125403793341 -0.0846230002021761 0.0925641687512167
-0.295768927918216 -0.0932974137905647 0.0926408643567921
-0.299005224583359 -0.0993659714011063 0.0926408643567921
-0.305226879105258 -0.130746752818979 0.0844894386980911
-0.267132621724088 0.206628635360135 0.516504131543704
-0.266233536081693 0.194715124076354 0.526842903221485
-0.268473770827902 0.189857664595273 0.528627489166268
-0.276545754589679 0.180953669112139 0.52820096955144
-0.27681968340784 0.177537916991847 0.530669416060181
-0.273457510034602 0.171895628657768 0.534439461952795
-0.271714258285538 0.159421396744728 0.5362473457697
-0.275989169909171 0.147290790706577 0.534354591413994
-0.273962199990226 0.141053558277321 0.535493895302276
-0.27831626824224 0.116625079956404 0.533809638222766
-0.26062063054988 0.305722052270372 0.702569703254165
-0.257517990708582 0.293466844046316 0.697306795023963
-0.263743504240622 0.291420334039994 0.709915189679989
-0.262535906758393 0.280092134968187 0.70837108325333
-0.261566801133043 0.266586684809561 0.707471381544739
-0.266467014691526 0.267559338274181 0.720358858567739
-0.267368754416464 0.262213362623429 0.724694697154557
-0.267105807093406 0.25990374707726 0.724012777640938
-0.26664368026868 0.252456263098621 0.728760458872878
-0.268473773931704 0.251013335239099 0.737676638576875
-0.268593032567362 0.249729592463818 0.74279053594754
-0.26638823911251 0.246950195152567 0.749261708036829
-0.266784171275766 0.245415593711621 0.755848206219146
-0.26534990526373 0.242202117722567 0.765412558388504
-0.266326689797758 0.239671344232303 0.776879535237904
-0.268891694489701 0.240772669193885 0.788441303796128
-0.267269999986862 0.239977596649101 0.789109352981418
-0.269273727270939 0.240959969437574 0.802834916525185
-0.266665709547049 0.239681329542731 0.804893330083835
-0.264074664399397 0.238411010838692 0.81443108943273
-0.267765478452849 0.240220516215116 0.829188281888431
-0.269980809758205 0.241306632678733 0.831501959262922
-0.26281804420867 0.237794924263125 0.842601602432865
-0.268729319230482 0.240693061036905 0.858182460435769
-0.268513485847517 0.240587243821181 0.863086645268292
-0.263071582900467 0.237919227362467 0.869175485479386
-0.266649539395011 0.2918060666652 0.917824498884685
-0.261992361850797 0.28155828009594 0.927109942651919
-0.263441027636263 0.270314067937744 0.923427213525494
-0.282293649879361 -0.0451511744512832 0.0304178216701346
-0.28997990833409 -0.0476485912135619 0.0266864579622705
-0.285663060328579 -0.0462459622709271 0.0464104310993199
-0.280660146381296 -0.044620416990897 0.0579051926462497
-0.288368716383874 -0.0471250832145243 0.0672521253004535
-0.281246760944603 -0.0494335464493854 0.0732710637904898
-0.290177208402757 -0.0577489182176654 0.0769117646087299
-0.286801097847945 -0.0671381350958045 0.0839637061941664
-0.285416406900838 -0.0659358002989701 0.0834577038988098
-0.289147607480767 -0.0734508109417572 0.0876962401515458
-0.286263170951809 -0.0798214239967216 0.0978484321374721
-0.282295047459562 -0.0782423626722422 0.10712535734082
-0.292147696916827 -0.108972495841171 0.0926408643567921
-0.288788690670856 -0.119910461224913 0.08874145966442
-0.254786506037212 0.220216802203573 0.502600682432667
-0.262987798725185 0.217389440016162 0.501233752690751
-0.261027431979903 0.218484102539773 0.512678864143826
-0.264892250974354 0.204882367521577 0.519985792995482
-0.25965364389272 0.20551881957316 0.524363164441124
-0.264120176646377 0.196461712048102 0.52742076253056
-0.260746761888811 0.196705508919522 0.53037199684933
-0.260536254222644 0.188997405540737 0.534845608211414
-0.260142305967907 0.178835468428704 0.538640177031279
-0.263415481704025 0.1740642937533 0.538692711276452
-0.268908079827923 0.158161556114972 0.537675848801874
-0.270622839615734 0.146656769440086 0.537050546187762
-0.251279186743577 0.303049681409716 0.684099191433941
-0.249049800535529 0.298090363920516 0.681130028115399
-0.255053479592388 0.292781235173218 0.692430493089568
-0.251684234660842 0.272218465013701 0.687682101874725
-0.255185803545151 0.281788968051645 0.693640613484531
-0.25520046072825 0.270352140659018 0.694705376842461
-0.251451720146004 0.255400492302072 0.701530441068216
-0.257535852677914 0.257224809874711 0.703737540301156
-0.25268581218909 0.250260786963414 0.712474332882157
-0.260233831703351 0.25323726129488 0.713853788022254
-0.256673449820826 0.248493342107453 0.725235357696433
-0.257404491150968 0.247429208599508 0.730655320670475
-0.255630075163605 0.243758695797533 0.741325618734045
-0.258510067581817 0.242343809034953 0.752096133897689
-0.26179409530973 0.241324693843066 0.762113462444117
-0.258116188622619 0.23961988976667 0.76173865556709
-0.258835070983072 0.236957622809808 0.773224877259674
-0.260204144773955 0.237348108811816 0.774294486454535
-0.257370840340114 0.235124308907304 0.786964606489636
-0.259900463191341 0.236364513936148 0.797624550701678
-0.259183685350932 0.236013097328012 0.809584506074201
-0.256927488907025 0.234906945802524 0.813988224488309
-0.253267642921002 0.233112623224177 0.829570937723435
-0.256485923477891 0.23469045832673 0.835760137581839
-0.254814035457989 0.23387077727074 0.84795066526568
-0.259602519382506 0.236218440220119 0.848694117628709
-0.262274277006817 0.237528330048129 0.859395108213672
-0.260724149779508 0.237965029091191 0.876262295625215
-0.259290635942189 0.237421158443324 0.876716478719788
-0.252516426497221 0.240308587687324 0.894457906514323
-0.253338869925537 0.24245569575828 0.89944112997963
-0.247841210018877 0.296976497997227 0.954331668492467
-0.255325697224733 0.26037747077542 0.938568043659627
-0.272255188248088 -0.041889480547405 0.0357123099897257
-0.278042283139014 -0.043769821661435 0.0405382185595134
-0.27126603339878 -0.0415680846542399 0.0544198202461195
-0.268770510271597 -0.0407572400378142 0.0588072472933887
-0.270375166264953 -0.0412786243757335 0.0670490905528853
-0.271322451136591 -0.0446630820093215 0.0722314747620172
-0.276777258747343 -0.0579073940065484 0.079946335704047
-0.277588482473485 -0.061841908515629 0.0824150319728351
-0.273230310763872 -0.0699521774071297 0.0888214711711968
-0.276577753763924 -0.0756515897851449 0.0919228743985048
-0.274950405861428 -0.0754065765119658 0.102118000365114
-0.281360426968711 -0.0778856382089528 0.105433018595252
-0.277272175994622 -0.0904115119300652 0.114093819511904
-0.283230970146864 -0.0910313009861435 0.112746503255331
-0.254520086421925 0.220007673575821 0.498249557171587
-0.24601782144092 0.22338644270225 0.516773331321414
-0.249298656712805 0.222357687026538 0.518387540647904
-0.253184305148274 0.218880679992819 0.519740336355465
-0.247873500629062 0.215702940412583 0.527226645168752
-0.251623466329567 0.208031213658124 0.529847661977544
-0.247694240160141 0.19639555870075 0.53864747321794
-0.255679315060137 0.188541546508177 0.537435463955364
-0.252164848438404 0.178976702396102 0.542578905233549
-0.254610518090077 0.17130907390142 0.544070613833082
-0.253378469254 0.165351141092344 0.545295624079018
-0.240313375504709 0.303880739738385 0.672124472828073
-0.246850261793752 0.302580540254354 0.678721790949462
-0.241003711793812 0.284132312765961 0.673889176189623
-0.246462803036147 0.284638995441761 0.679168235328615
-0.245595587141852 0.269926898954103 0.679150038775371
-0.249702945788672 0.262347369866957 0.686663135229195
-0.244145604987694 0.259053241939408 0.687748076896579
-0.243454698204664 0.254891048988031 0.695031867657198
-0.247233136500912 0.251109627705627 0.705764567260324
-0.248410723805033 0.251615438346001 0.705900830464549
-0.250568694776123 0.247974628082388 0.715808219950293
-0.249285048174913 0.244166990351733 0.72791771083561
-0.243961161728739 0.241264378025731 0.7290319838661
-0.247198041719611 0.240472555606313 0.738095244879151
-0.253305131065903 0.241122108258171 0.747028241070609
-0.252939705090525 0.239998908556033 0.75062508741907
-0.248287512164061 0.234265026480414 0.763781344464425
-0.246418713363986 0.232742083933338 0.766092984855898
-0.250558530284261 0.233808644557024 0.769762364224372
-0.25123811310449 0.232117600158423 0.78483611066807
-0.246855481187099 0.229968915368954 0.789375893895718
-0.248540154245368 0.230794864580241 0.80118464479694
-0.251924683554267 0.23245420690755 0.818916246587236
-0.244844498696962 0.228982985551007 0.823660119132219
-0.248571252586671 0.230810111248041 0.834831984567211
-0.253952640292664 0.233448458736047 0.835416252841449
-0.250046056033639 0.23153316711805 0.852134932499831
-0.251253102158165 0.232124948882259 0.864612021797624
-0.247086271349432 0.230082065485303 0.864114535475363
-0.249337803445422 0.233866893215078 0.880503680259397
-0.253076634387895 0.237740918927095 0.886335856962491
-0.245251469350887 0.2365754252232 0.893968260663528
-0.239855981901111 0.301152039798492 0.96240008871898
-0.241783854242679 0.28786022711901 0.959653857359883
-0.244110967843278 0.279019295646874 0.957067197531533
-0.242075704032099 0.265219002770066 0.957247483740467
-0.259071715478139 -0.0376059105796984 0.026788150819332
-0.265145825361142 -0.039579508517769 0.0441841418706917
-0.262847613558585 -0.0388327742370032 0.0540156152657192
-0.259024749870156 -0.0390429914582583 0.0711391184879838
-0.266556720386659 -0.0400379361008766 0.0686454744050299
-0.260036918215351 -0.0466456281129918 0.076030713432149
-0.264707392438879 -0.0552452347954998 0.0807934000908825
-0.264999267790265 -0.0567123184055479 0.0817162345327173
-0.266600434061717 -0.0652030971327503 0.0870764029329603
-0.266410292758794 -0.0729956350256105 0.092358420468475
-0.267857934413696 -0.072638270615697 0.10490788932277
-0.269285915217313 -0.0759849632195357 0.116865740924409
-0.262974289060021 -0.0772190972202234 0.11815847840797
-0.271941209037866 -0.0867123429982192 0.115522655694136
-0.26804818812258 -0.099398467718014 0.115472580948754
-0.239703163701991 0.225027806777273 0.499434824462998
-0.23870438111957 0.225514456274731 0.503490547093579
-0.241514538167444 0.224623270024914 0.504285937463405
-0.236251602048447 0.22673067768432 0.528490682125247
-0.24175586903427 0.222718445531905 0.527336736521969
-0.243789209228949 0.21716970603161 0.529865506932276
-0.242846296088307 0.20930699202572 0.536500456131378
-0.24516522007605 0.204721348464048 0.536964433326046
-0.239630049494485 0.192931695287281 0.543905867876816
-0.242717150163581 0.183549506209675 0.545683860793075
-0.24660166637821 0.180439644079391 0.544842576188249
-0.248032841292956 0.169358809018446 0.547887594433588
-0.244012496210416 0.162455651685118 0.550037019098446
-0.23671156171252 0.289850252463083 0.669750194795807
-0.232877061450417 0.281448795707909 0.668055327751881
-0.234724223515708 0.273372531427191 0.670760077293979
-0.241028313642634 0.270207810149997 0.67578550541285
-0.23469170928826 0.257429556229878 0.682047186477707
-0.233723094486143 0.256261150803116 0.683332643585811
-0.237585969517621 0.251717440137898 0.69559638661809
-0.23743131465831 0.250463080307992 0.697841529703507
-0.240984284205817 0.248144954802346 0.70557602914734
-0.241312300738026 0.244363323500058 0.713086496344297
-0.243383665682618 0.243110368508669 0.720919922432071
-0.242235820914361 0.241084143232086 0.726495812559493
-0.238274360911997 0.237581796417606 0.732440069150097
-0.240379263931314 0.234667671677557 0.74747491928548
-0.243579361953295 0.235658689225256 0.749676760245177
-0.24074543046089 0.232234077624488 0.757431024753657
-0.24124379202401 0.231181138497131 0.762373699037702
-0.23973075258475 0.228096752304042 0.771299066438954
-0.237273996036799 0.225271374760703 0.781848783372489
-0.238635513248243 0.225938889481987 0.790525821086044
-0.238498062341336 0.225871501054546 0.805766815636226
-0.239651183813963 0.226436845033995 0.813716648217645
-0.238794474489152 0.226016823838989 0.818126363774059
-0.244463223287123 0.22879605662584 0.831707496158501
-0.245059989237876 0.229088634680631 0.835617940270647
-0.237650742247284 0.225456083143067 0.843368979841976
-0.23655214864118 0.225073753721023 0.854101991439405
-0.23870343324382 0.225972188801699 0.855947234936393
-0.243068555469707 0.228112289067413 0.870459691863796
-0.244004527086829 0.232266180852289 0.883401360237341
-0.241503203025601 0.238404920733427 0.904447336200463
-0.24258586260501 0.24165389924361 0.912214641383768
-0.23932412614077 0.290257492680194 0.9620828630981
-0.240082668068636 0.277729643713526 0.960816167244446
-0.234648096369877 0.276330615738088 0.965041064588529
-0.249354067950546 -0.0404515948389874 0.0237777740277798
-0.248879806265411 -0.0419112222196397 0.0317097964552398
-0.248669003747255 -0.0425600056593647 0.045227294914345
-0.248952734811109 -0.0416867712351548 0.0528312111387433
-0.256364137499366 -0.036726165165308 0.0689978692115865
-0.257824385147701 -0.0388473127570602 0.071269814162053
-0.253127854046215 -0.0463328271643651 0.0755689059677344
-0.258347666560341 -0.0527882331736496 0.0805307212163065
-0.259104786968025 -0.0593629011836908 0.0847867387944188
-0.255015463264859 -0.0683865882291473 0.0841791159742467
-0.258241395413824 -0.0689166260601355 0.100564609714752
-0.255263211900712 -0.0677508271154955 0.102594989205221
-0.251848420510511 -0.0663945247769134 0.109923043135591
-0.251763999950951 -0.0816942303081494 0.120292301850862
-0.255478203566303 -0.0923932379310871 0.118719634551147
-0.261511176931452 -0.0995634337906341 0.116890593123552
-0.227825630704228 0.229032091456922 0.504376759866242
-0.226723328550939 0.229603082621456 0.51704279428601
-0.228500437462362 0.229119996659491 0.522263538378575
-0.228689078750072 0.228405363537966 0.534986272308156
-0.232191958741695 0.223436874116364 0.535682004453463
-0.234912368354996 0.215458028304148 0.53828979035669
-0.234480118190877 0.202773837540427 0.542996454680145
-0.231121758783562 0.19784671429501 0.546419966418292
-0.238828899248128 0.191820517205749 0.544699829450282
-0.230379088619351 0.184477356392162 0.551524408043284
-0.238190497816865 0.176664288204017 0.55038473637072
-0.231599313739809 0.16963149575398 0.556098857508792
-0.228042214196099 0.278165785159632 0.665185379259794
-0.226811403727101 0.271032807151954 0.665540209098738
-0.231900825437307 0.273537816760193 0.668725170092252
-0.229870338130873 0.264110243176341 0.671271908944836
-0.232501755741282 0.258733382238481 0.679214713489967
-0.232019689494556 0.254667706127468 0.684777247035475
-0.229777442948161 0.252146187404807 0.687486587167685
-0.228276560098342 0.246776476444841 0.696314227789606
-0.230923898479565 0.244459516414467 0.703200663586567
-0.228322904373314 0.240465413485086 0.708380250946388
-0.23184255019174 0.238990073988923 0.715060065225972
-0.234941114981332 0.23776270666992 0.725524407001264
-0.234786070731306 0.235153416725966 0.735176319738681
-0.227724547096847 0.231369884740947 0.736401097914071
-0.231817845108418 0.230245492032713 0.748331227327166
-0.23379792727112 0.229600199778389 0.754488547226078
-0.227253791643321 0.227963040028125 0.760943047892221
-0.226498997462907 0.226791431472334 0.7721570838552
-0.235227500009943 0.225460205600165 0.77534428923241
-0.230585529614668 0.225739758164961 0.783962530309391
-0.231724174392901 0.22561266064474 0.797530629789834
-0.234520585825199 0.22530052031322 0.808359339512195
-0.227243256567134 0.226112828524006 0.818404303931001
-0.231522351471124 0.225635188472006 0.829897447003957
-0.234957478905153 0.225251753544052 0.834050887230822
-0.230177230423737 0.22578533323426 0.845479819471479
-0.231928802172781 0.22558981973431 0.856486158971246
-0.229937966956927 0.225812040240599 0.859450115773595
-0.233451903250061 0.225419808530054 0.871981724047867
-0.233528663788631 0.227216317035682 0.883647582880024
-0.233131287294675 0.231600264700647 0.896731597540876
-0.232852941546991 0.236955085748244 0.912423161722055
-0.227674127322496 0.237798414851085 0.92156782611643
-0.223856063133986 0.304221901784448 0.973867826995843
-0.226245232807307 0.286082314491706 0.97185253684239
-0.246957777985321 -0.0478266170152576 0.0490421219471975
-0.240186680978634 -0.0686659108013586 0.0350257939391658
-0.24818459767315 -0.0440508542589444 0.0648280804507616
-0.240375406037299 -0.0680850747952504 0.0537431821362093
-0.242961451365774 -0.0606233342617736 0.0703160920025556
-0.245679439032648 -0.0688810422969036 0.0754528240017876
-0.242648240062245 -0.0628675731597202 0.0972042380550276
-0.25154435433678 -0.0777445645159797 0.0837696689150161
-0.247499823146069 -0.0647111107670944 0.108083267767688
-0.248505041045683 -0.0650650338410446 0.117493951683465
-0.242433711518897 -0.0828045521397859 0.122254061465599
-0.246901317874541 -0.0771985568797455 0.121675320771687
-0.246288268670559 -0.0980344343192771 0.120328712723862
-0.218896197202209 0.231377451823332 0.498313643379785
-0.221832978005373 0.231058916004916 0.510087688548652
-0.224991482250173 0.230116087988389 0.51442988319339
-0.217605043001181 0.232041050260103 0.528800612203283
-0.224473337260226 0.230643354827355 0.535556787866908
-0.220684273354805 0.228378387523011 0.54069654273149
-0.223474518532751 0.217292092034044 0.543359408165472
-0.226463352601295 0.213446400776638 0.543226467619796
-0.228760025801885 0.195465212251952 0.548443947663317
-0.220167540411372 0.198827434725986 0.551121273720557
-0.221646704839873 0.193822408515097 0.55258220414707
-0.229073447582001 0.18083654471929 0.553466172255105
-0.230704185901972 0.166173903576632 0.556616168795465
-0.22031357961442 0.277690169448412 0.65977508896963
-0.222797290290259 0.271986056818137 0.662523313588515
-0.218794805274928 0.26483338995059 0.663941222213095
-0.218546231688872 0.260472179852833 0.668991828865166
-0.218539430041449 0.255941482944003 0.674385573909193
-0.22000031932415 0.249536579547973 0.683326298335993
-0.221456041024271 0.245556737144692 0.692267619365295
-0.221630494158815 0.243605366796079 0.696147966552318
-0.219645676563724 0.241404982004652 0.698485972283913
-0.221127422339446 0.236717955125311 0.708798804083313
-0.225677498998994 0.236062764131995 0.71469717133294
-0.220712047147213 0.233933278888326 0.71415282170351
-0.220149752490041 0.231823150584494 0.733555379245513
-0.226227357646339 0.230320946108524 0.740911495787398
-0.219790213153832 0.229743102916703 0.752487247131721
-0.225051688519382 0.228876744985468 0.754979102028056
-0.225820415993415 0.227714628412149 0.76458986880628
-0.222573870091746 0.226901336607285 0.775087920649678
-0.225743758675491 0.226280205099429 0.780568340559629
-0.219414206170911 0.226986720812508 0.794509487366702
-0.223772870821143 0.226500199046364 0.799002837382451
-0.22629770641565 0.226218372484507 0.808340259750303
-0.224538210971844 0.226414770441114 0.814266213757959
-0.218130877280397 0.227129968226214 0.822075113859273
-0.22672257926701 0.226170947434263 0.83098738378666
-0.218015129219473 0.227142888227074 0.843319850205897
-0.219564117937518 0.226969987399111 0.861051381734096
-0.224787112073414 0.226386987665138 0.868913837795412
-0.21979777972325 0.227304638798995 0.876063843176711
-0.223335319048632 0.228452009913411 0.887125033712516
-0.218948179599501 0.23057801376944 0.898205793555878
-0.223432731228336 0.231175550665145 0.904403882346633
-0.216832688388996 0.232810032794785 0.91118228094655
-0.22330000254515 0.235636147032374 0.9215340045765
-0.216237161471798 0.285344405024794 0.977630624380111
-0.216496357246174 0.284326403447526 0.977480979576078
-0.219437220685825 0.263456002200129 0.973591780789787
-0.237594756476862 -0.0766430341700638 0.0332780637766808
-0.232862036164463 -0.0912088495615874 0.0334461167230638
-0.233162222752398 -0.0902849702418197 0.0457274932176607
-0.234892180505212 -0.0849607077459745 0.05860260063891
-0.237499725636509 -0.0802368972382199 0.071182606437486
-0.231343799178979 -0.0584626415092536 0.0997693747853574
-0.235974104440768 -0.0602393008768372 0.105762169323494
-0.2306411211982 -0.0580976461794394 0.123197037085219
-0.240292390615699 -0.0681010291257563 0.123767296144872
-0.240769314632104 -0.0742121339275359 0.123228703836553
-0.212916927304676 0.232183605429565 0.506624448320155
-0.213000355056229 0.232291385831763 0.513485151008692
-0.212644808019404 0.232597441633868 0.529108575796429
-0.209303372024853 0.23300755404123 0.531385220752241
-0.217196543961446 0.231041653545209 0.53950334486252
-0.217860765501363 0.220464634053696 0.543295564096058
-0.209709438739293 0.210213696179057 0.546339607264306
-0.211242118947422 0.209908474134161 0.546557671818607
-0.214036083082313 0.199932387834289 0.550290006725107
-0.211598272578635 0.195371398860758 0.551729744085345
-0.216562483745486 0.17703712365734 0.558576868205933
-0.214476564126148 0.17905007568079 0.55771451337236
-0.221602013714898 0.167452352995858 0.561141465704731
-0.206322207627375 0.261972339007888 0.660064609038512
-0.214177770579398 0.264964131132829 0.661088678516298
-0.214584008586574 0.259238849060926 0.668146865660142
-0.207713612216589 0.252168441969819 0.672557349083996
-0.207181701537408 0.248868208887847 0.676178448339957
-0.209628873836497 0.243399649645844 0.685330563337444
-0.212037569376511 0.239963816651282 0.694125592950936
-0.213516813747957 0.238579006224262 0.698145280596322
-0.216502429727795 0.236871088936595 0.704187419445645
-0.207277481265345 0.235286160389447 0.717326917697561
-0.212792086576262 0.233378386468819 0.727001577218141
-0.212737031000246 0.233322121237635 0.727558864700433
-0.210920684525462 0.232791618320427 0.734106294102578
-0.215733233548606 0.230369721846062 0.750935575023063
-0.212450135058322 0.230089722143104 0.756708097889966
-0.213189277398254 0.228981305455549 0.765868846480705
-0.210184662693185 0.229247404737386 0.766487482578516
-0.212339046123971 0.227776462542606 0.779390608211329
-0.20973421755988 0.228067218059537 0.792378369452854
-0.214138755655556 0.227575575819236 0.794963158017092
-0.215026712033188 0.227476460576434 0.805927032864748
-0.21084506702776 0.227943223100437 0.812101712094192
-0.21669013172746 0.227290786762906 0.832027983996045
-0.209889068667404 0.228049933308273 0.841060311397754
-0.211677833973131 0.227850268198521 0.844529872461712
-0.212720061550394 0.227733932934787 0.858239472949678
-0.209630559783386 0.228078788521718 0.870594543012971
-0.212866765604459 0.227717557571869 0.871099396717855
-0.21631392912983 0.228129633080949 0.879958126150496
-0.211337548989911 0.230396138535035 0.892950740485818
-0.213399073514585 0.232521951359603 0.907508297841049
-0.212995872763142 0.23435830129294 0.918905692838892
-0.207993841039447 0.236612549889654 0.927718182220928
-0.203891531860689 0.301096240334154 0.984331529820921
-0.211471215822681 0.28375381418187 0.980382208600231
-0.21238786295283 0.270003714923727 0.979852989015194
-0.206047705286785 0.265064614697305 0.983513433147659
-0.231501215392085 -0.095397025249782 0.0327307802657026
-0.230122719114823 -0.0996396005483701 0.0440656076807409
-0.231997666472817 -0.0938691059316016 0.0606027306743783
-0.222675143475157 -0.0550578543454502 0.10860702861928
-0.219322463049408 -0.0537082569571698 0.120385810318405
-0.220977609785615 -0.0599087337051071 0.128573888821427
-0.22000259712313 -0.0607296315749342 0.128728801004918
-0.227136924161364 -0.0847131167387665 0.125464050807648
-0.22989446010639 -0.0880421771146821 0.124624361398377
-0.204858555878763 0.232954331653629 0.499318388051672
-0.205857960578773 0.232976967818344 0.507153888295892
-0.198480794059721 0.233929111464336 0.514917724671077
-0.19904737723344 0.234191669504891 0.533626364798199
-0.202505430133174 0.233880901325604 0.536699873491882
-0.203779894569213 0.226819504950999 0.540035119388615
-0.202092833870573 0.219216850284345 0.542605571852534
-0.200958241174736 0.208413692621415 0.54634874038534
-0.20218055075827 0.205175303143028 0.547582947041913
-0.201472531478408 0.196994411813839 0.550428381126754
-0.208804881891941 0.185530262517802 0.555013271653741
-0.20603195544504 0.180566169336902 0.556571665680096
-0.210557722942577 0.170879392177177 0.560273058729894
-0.20222075877018 0.269800781615005 0.650537773883842
-0.202527666121686 0.262820918597612 0.65879212485177
-0.203281456955783 0.260189286160705 0.661777000716063
-0.196997205056946 0.259103212665748 0.664324453486167
-0.198549464748957 0.252880437697879 0.67142842074875
-0.20492852105871 0.246308550831334 0.677985489925827
-0.200876695085475 0.242038615628707 0.688451161588477
-0.198914147493918 0.242593329676567 0.687079855265698
-0.201013693920225 0.240409620031039 0.696019348054833
-0.20593969291247 0.238047557534322 0.704017944939604
-0.201166376411953 0.237397225411492 0.710078053461124
-0.206176776022729 0.234682874960845 0.722693215284186
-0.204409303592058 0.233994195454588 0.729858009694052
-0.200099990996855 0.233462812001001 0.738898070103607
-0.200260117262382 0.232336159450109 0.748798765493376
-0.207868344192209 0.230376846703526 0.758710981393527
-0.206418661692706 0.229042471957305 0.772071019832656
-0.201677716837168 0.229449966342757 0.773157707521752
-0.200393464460588 0.229109849245844 0.785218385388682
-0.207246039712837 0.228344952819553 0.792826636054143
-0.199998006695244 0.229153990932776 0.805854501655649
-0.206268144439558 0.22845410719908 0.811964847341322
-0.203121143708145 0.228805380920912 0.814989121132373
-0.204491673358288 0.228652400006011 0.827539389717966
-0.202693780871273 0.22885308390769 0.837515344497519
-0.203155959562995 0.228801494714344 0.853311995796834
-0.207460957910202 0.228320963274739 0.85613827350309
-0.2025147475745 0.228873067917183 0.867402296940196
-0.198940167421923 0.22973957071969 0.877017220906005
-0.201981004400327 0.230278177860352 0.884857479850505
-0.203627685676402 0.231521553216979 0.895910735592626
-0.205871526785358 0.23351537527843 0.90973178562964
-0.198855178358184 0.235832341713591 0.920602347067718
-0.198633626228359 0.235945049646104 0.921195729883884
-0.204975267199747 0.238208441648649 0.933373703943528
-0.202595348710202 0.288220499900717 0.984590766451017
-0.198597920051513 0.279195351504418 0.985390252182756
-0.19775486844222 0.26973346176143 0.985558862504615
-0.223662811213094 -0.119521152749189 0.028189448689223
-0.216317658035213 -0.0526019472436588 0.104595380090904
-0.213666293606136 -0.0515618073804517 0.106982962489274
-0.21849879626696 -0.0533877794566602 0.120451341165837
-0.218583176296152 -0.0594271272728333 0.129131809879789
-0.211474895052726 -0.0677751338647764 0.130093243389404
-0.219451405047169 -0.0706033108587278 0.128147686670204
-0.219709108476254 -0.0854529762786442 0.127036039837407
-0.197168336593477 0.233872435202953 0.503048233950284
-0.195655604230692 0.234043051177267 0.503196795411289
-0.196081947768595 0.234419477910269 0.528037033946227
-0.198100530098603 0.234238749048018 0.530590118380358
-0.192642086303418 0.232332053969297 0.537284116763173
-0.193266702832065 0.228414254665876 0.538715953158072
-0.190338616463914 0.222798466652037 0.540493927825563
-0.193377629084358 0.210364177503235 0.54511411991667
-0.194907496389899 0.199217000469539 0.549170321594175
-0.199947436698435 0.196126574121646 0.550626155209491
-0.199848494126186 0.190643990675121 0.552560033269478
-0.202073108889377 0.185012790286037 0.554713298609599
-0.202828588555919 0.168272485261711 0.559071459196537
-0.195113319731115 0.270930678804505 0.650609398757001
-0.194522730891534 0.264653701819108 0.658205381989974
-0.188226059992135 0.260006686968818 0.664997696160842
-0.193303281562025 0.255374252594549 0.669503849309121
-0.193585890087873 0.250293183379331 0.675500889042828
-0.192727634748131 0.246787716017994 0.679848382568199
-0.190121551327558 0.245949484586241 0.681366867548121
-0.196333135600425 0.242695409634264 0.688224667684616
-0.192378765216456 0.240160104055785 0.702626552314829
-0.192611584486979 0.239793114204384 0.7042044492148
-0.195617793836037 0.236554828796147 0.71942206251013
-0.19123369506239 0.236611990270197 0.723211116820993
-0.195888939623495 0.234634656617844 0.732888213820712
-0.189293884048137 0.234272547947446 0.742438212631119
-0.197243352277392 0.232990164062895 0.745965762512647
-0.196018652808274 0.231694768487643 0.758753498387048
-0.195699424001416 0.230913306652472 0.766049637671028
-0.192413971896542 0.230541210777797 0.77264686701094
-0.195170097475752 0.229692890597866 0.780992038987707
-0.194023814144789 0.229820840746693 0.79525529443365
-0.193036808151748 0.229931012080682 0.803183800691438
-0.188958444942495 0.230386246110086 0.815870238616813
-0.197067284162687 0.229481123304049 0.822253452311529
-0.19807183016572 0.229368994123489 0.836320927603056
-0.189993213177074 0.230270743471219 0.835037923193457
-0.190727775224245 0.230188750371679 0.843160211741332
-0.193899602484356 0.229834705469322 0.861652152775478
-0.191952376826842 0.230052058200491 0.86341264520231
-0.197036981937297 0.229527977067763 0.873230896202326
-0.19011106172911 0.231246431046421 0.881672458613679
-0.189280010635781 0.233059448643692 0.897033241413249
-0.197206824134108 0.23452560293562 0.911448245801736
-0.19130666886342 0.237125627115683 0.924711143413695
-0.189532855223536 0.238677970881633 0.930814549303618
-0.184677890581652 0.302384328929188 0.988174258076728
-0.18878343601296 0.289471106728311 0.987353148990466
-0.191839172892765 0.271523305470844 0.986742001614505
-0.202396246557642 -0.0471694373634649 0.109754739481067
-0.204071950606039 -0.0477436702173558 0.129463615333338
-0.201105839741713 -0.0500367188333976 0.13362167115853
-0.206483119715141 -0.0611849913514104 0.131653339125997
-0.200089176337297 -0.0746074047088614 0.132097927001147
-0.209613170308966 -0.0846028670097694 0.129304574697828
-0.183130444046644 0.235404836097072 0.501444282618922
-0.181618902312344 0.235632755182728 0.504959326040851
-0.182145864620272 0.235735917514545 0.514437909276624
-0.187576278832443 0.235509503263567 0.533935761749411
-0.18234498676962 0.231976809824393 0.536670809951934
-0.185495221814333 0.226476214935756 0.538844273733018
-0.189358627761005 0.222276761549595 0.540608286710312
-0.190209692315987 0.20523050012705 0.546704199435081
-0.183528925253963 0.196624513388787 0.549271435547105
-0.184086692123962 0.196466389565927 0.549367449191628
-0.187661389043006 0.188999369755261 0.552267545122103
-0.189971271529371 0.180090663811699 0.55558725425081
-0.177745916765796 0.273729997894698 0.650738722383485
-0.184581288233535 0.272141108976589 0.651268194884361
-0.180776604279716 0.269395491333903 0.65529816383827
-0.187005598780549 0.261891354518948 0.662995817180579
-0.18038955231703 0.258493702269091 0.668363390307023
-0.179084768364374 0.253381705029048 0.674713919396795
-0.183164127954916 0.249493978152288 0.67853190045863
-0.184526304156516 0.244720520375175 0.687627730296341
-0.179611315938257 0.244770286961587 0.690391089620464
-0.185814542050278 0.240882479188236 0.703363694174901
-0.186621253522548 0.239607817767808 0.708845403493503
-0.182581836793201 0.239058509609423 0.714006838080515
-0.179532582804036 0.237347106750353 0.729159858243838
-0.187957653440424 0.235266854624542 0.735963130360774
-0.188636211715158 0.234458086597306 0.741436979445739
-0.181637164728242 0.233751481636465 0.754722546757078
-0.187046356644219 0.231934528567199 0.765555384542714
-0.182374310495644 0.232656760803132 0.763762990034076
-0.185341636281293 0.230833532368263 0.777085699286512
-0.187025988912944 0.230601950229568 0.789234328607371
-0.180110399419962 0.231373880415542 0.793333846649225
-0.180827721048551 0.231293811721656 0.804214646970191
-0.183176542305398 0.231031632187799 0.808155873544529
-0.181643211541884 0.231202785247511 0.826752978687958
-0.182066928242518 0.231155489248832 0.838059111226709
-0.187952041685087 0.230498582600626 0.846148305757852
-0.184565532084811 0.230876590721004 0.851703392421845
-0.185498688730987 0.230772430145227 0.861744133557037
-0.186038413548258 0.230712185117815 0.862850756406193
-0.187548204434222 0.230543659620377 0.872798000640017
-0.186761436616468 0.232724808482655 0.89153482424141
-0.181747728852954 0.23479326128005 0.904803507970667
-0.188368757996284 0.233939607330073 0.902975142036147
-0.184993466518012 0.236479414453509 0.917218922156301
-0.181358718595861 0.238309839721228 0.926835949519699
-0.181955084199719 0.240087247683806 0.934383431222389
-0.18316388862465 0.291836090397259 0.988477058468128
-0.179408002066088 0.27930575384638 0.989228235779841
-0.17958382484877 0.273393356369839 0.989193071223304
-0.192804685692095 -0.0434745570950749 0.101059939170969
-0.188093171575632 -0.0415530997492033 0.123959023632611
-0.196900378933895 -0.0449630084783695 0.127559319015088
-0.189290654489849 -0.0459647424262957 0.13649518956242
-0.195754199884722 -0.061399639569958 0.133984649473423
-0.193407016113812 -0.0748135212688466 0.133544760953774
-0.194799886647456 -0.0732645386986971 0.133350198382072
-0.174285308174667 0.236397266434494 0.502009166690494
-0.17807549838222 0.236124029019889 0.51067777960478
-0.173038157172045 0.236816846503212 0.518479974157261
-0.175723682284409 0.236605328505833 0.523571932518915
-0.171648706739149 0.237277587640106 0.532105778678372
-0.174105774749595 0.232674017621861 0.535832611838862
-0.17254333098732 0.223489189788998 0.538972139839113
-0.175077525911869 0.219523331223023 0.540558050163064
-0.177045605185628 0.203199688861566 0.546478310164112
-0.180311213373841 0.198276305469812 0.548455706686879
-0.173301321578734 0.194464360118918 0.54930210239035
-0.177176741488271 0.190657721713657 0.550927910768041
-0.179461523250238 0.174299178003492 0.556814429064585
-0.170367858153766 0.27333209296372 0.652684500058714
-0.17579780215131 0.271943695478886 0.653255459462013
-0.174784888941146 0.269863224896078 0.655936110552719
-0.176367225004761 0.261731979493255 0.665307764992529
-0.175648650409777 0.255417283564784 0.672974215057292
-0.171979652713226 0.25647278918358 0.672448589521885
-0.175241990119431 0.251958490711446 0.677176020911888
-0.177298743949676 0.245733773126029 0.688331386514927
-0.172684846171967 0.244723128679233 0.694704579798462
-0.17727289790599 0.24199472090392 0.703513485100361
-0.170784332820761 0.241730052424109 0.70884098217763
-0.177393084588546 0.239017456988829 0.719268379778833
-0.170890294763389 0.238457682347488 0.729496003262837
-0.17355891323972 0.237053705436985 0.736976774811229
-0.177198775221079 0.235405754770755 0.745271579132354
-0.175790337418737 0.235116963893434 0.748684453776614
-0.177763486036841 0.233172685951784 0.7637517670334
-0.173219886284633 0.233419855727489 0.766073355980273
-0.175674789958521 0.232475856498104 0.77205584129112
-0.179563128495279 0.231434967752652 0.790491908863645
-0.178271613939716 0.231579128864597 0.788439377515091
-0.178951505324149 0.231503238199982 0.802136290526938
-0.175246320622235 0.231916817392171 0.806422597999842
-0.174547478616323 0.231994823358277 0.820995484129369
-0.173377338094797 0.232125436488411 0.833147611310717
-0.17646067243844 0.231781269320055 0.841017277710277
-0.180244933551616 0.231358863480634 0.849527260748546
-0.175652155606537 0.231871517381923 0.859778635451202
-0.175743845368317 0.231861282810462 0.872490158245684
-0.173789329176603 0.232986611729013 0.880943111136869
-0.175007395004502 0.234041597558645 0.891577528122323
-0.178758628322142 0.234345857569578 0.898033275640082
-0.173713975485778 0.236053257407548 0.908251212667991
-0.17672756277398 0.237845107151741 0.921398774837386
-0.179425029626327 0.239841990533061 0.932645565813113
-0.178497454838402 0.24013559333149 0.933578027895309
-0.17258697500766 0.243313524162478 0.9448691313408
-0.168392079590903 0.2868437655183 0.991431420274878
-0.173149963583733 0.270012644818155 0.990479843476311
-0.180742362401413 -0.0387616543647549 0.107025389284008
-0.18320137341636 -0.0397118663716088 0.108502544805745
-0.18377230169484 -0.0398792347038075 0.122433305198241
-0.186572520991272 -0.040948035168835 0.127499333674392
-0.181215778891099 -0.0427908355001606 0.138486829321475
-0.179638828254029 -0.0623658945039421 0.137440639328521
-0.179336548323228 -0.0656377669093343 0.137274238303285
-0.189995642384102 -0.0800942754487099 0.13391560194315
-0.163899699490676 0.237514880405436 0.49987900776267
-0.164547438566284 0.237742020261872 0.517410900485535
-0.168682453726782 0.237264519165038 0.516352638157546
-0.168905961652217 0.237546703758423 0.530496535052071
-0.168886734485545 0.230450775668459 0.536245102568344
-0.164501205291363 0.226293658636982 0.537402061380305
-0.165097483035335 0.219101348717692 0.539991127187672
-0.163926732945416 0.21224438389207 0.542334643821566
-0.168642189982089 0.206615561870818 0.54466584695473
-0.16549479570424 0.192949266797673 0.549278173403597
-0.169559885128998 0.188117342009339 0.551280573795576
-0.168213157729553 0.182717680038915 0.553095535905751
-0.170919666886657 0.169159962324433 0.555263113662196
-0.164538610203442 0.272453458248927 0.654894056099506
-0.163057787383459 0.267388689847264 0.661223433453365
-0.165529384221171 0.263176650185904 0.665748495802915
-0.160165250639475 0.258019913576265 0.672962058602446
-0.160166575379369 0.254526403719283 0.677123842902548
-0.161886655175415 0.2522550104776 0.679486793011797
-0.168015094153155 0.24700778361713 0.689333475355166
-0.165014446556994 0.246542138360558 0.692793386203897
-0.165177240103845 0.243849598331031 0.702410611093042
-0.161094888425704 0.241848729388801 0.714634972157304
-0.163626820656246 0.240070908601411 0.724918926183782
-0.162800252521377 0.240157223178214 0.725093349294235
-0.165147780988333 0.238376114071469 0.735577370473701
-0.169563023020931 0.236780072454781 0.742758713387974
-0.169520542541851 0.235164060329508 0.75435095783415
-0.165971085102744 0.234501596324151 0.763639060821146
-0.167730254664025 0.234027950386101 0.766115034853373
-0.162608701943671 0.233747439288357 0.773724532900708
-0.166102283177617 0.232937490833293 0.786320524161551
-0.163113430002228 0.233271111848518 0.793325619040225
-0.162723462526397 0.233314640699738 0.808089804853875
-0.168030077853648 0.232722307022238 0.814842587312707
-0.162383986682496 0.233352533586756 0.821688425262125
-0.169046456361266 0.232608857076835 0.830942389483965
-0.161581342029401 0.233442126185762 0.839898216473579
-0.166930323081757 0.232845063571981 0.847149097990235
-0.164907264165517 0.233070880944026 0.865008393883854
-0.165425321375512 0.233013054492808 0.865944986419821
-0.170463778684501 0.233216272742745 0.879679223900413
-0.164913026365394 0.235279889352286 0.892573516277747
-0.168381437075888 0.236085250029695 0.903221883405934
-0.163200243937221 0.237372573157797 0.909552709642123
-0.167590560456892 0.238057806267967 0.917816162894478
-0.161471578739581 0.240481039644085 0.929842842875758
-0.16818209569919 0.243712370181486 0.945188449396384
-0.157933127913186 0.298094344621537 0.993523210610421
-0.15811286628238 0.289805837424093 0.993487262936582
-0.15978646119748 0.282463313910422 0.993152543953562
-0.174046915314399 -0.0361491303394563 0.109450665629934
-0.168470683570728 -0.033942654887089 0.119294720224859
-0.175120184542856 -0.0365040800789374 0.125350310081113
-0.16710703196275 -0.0333418499033409 0.13732296814289
-0.176245621629878 -0.0406853369896756 0.139723498064466
-0.168509072107038 -0.0624468446403313 0.139869119344003
-0.169164914305975 -0.0627894265269657 0.139701332122089
-0.17728607156389 -0.0809321336330548 0.136635820168385
-0.154924628105197 0.238636344783587 0.507160793038259
-0.158586350991019 0.238247600413569 0.508222499517628
-0.157763676479455 0.238546025761577 0.520356465452
-0.159647467728199 0.232832341016266 0.534738818536976
-0.158916169670771 0.236469534703702 0.533398666907552
-0.153393511406699 0.219556485246176 0.538989946154496
-0.160004561202734 0.215272782583582 0.540980997294919
-0.162985648179379 0.206281478435765 0.544378123966944
-0.160921187356857 0.202914482961579 0.545421953139636
-0.157388755441701 0.188978814997898 0.550102008707554
-0.155545986289861 0.186587784571416 0.550816232306134
-0.159335149313156 0.177061746131168 0.554460668596972
-0.153145160030139 0.277885654049775 0.650695014789253
-0.153692502625474 0.273230981066883 0.656131253151433
-0.158739673330454 0.26920818862925 0.659917094030694
-0.157519863195184 0.263190513689294 0.667329666631526
-0.153162763898224 0.258086896044554 0.674279068635894
-0.155974256032198 0.257276049388324 0.674684265474663
-0.156229399143244 0.249450715151036 0.687655001429284
-0.154217496003548 0.248222543446803 0.693248571319734
-0.152730879941033 0.247017831216742 0.698443952173558
-0.153312551070906 0.24446116176999 0.707233654682034
-0.15583053969113 0.242421993624254 0.715577638520998
-0.15275288872215 0.242134456520488 0.720579777292904
-0.155655697778379 0.241351028837041 0.723400510542783
-0.154090737975764 0.239797573147844 0.736003322026542
-0.156541920153028 0.238121132626485 0.745639906081964
-0.160391917568308 0.236711192695613 0.75203216416473
-0.161223981682944 0.235461960537508 0.760165240979225
-0.156334519771955 0.23487220880421 0.769934602571169
-0.157992214442498 0.233842750879934 0.778041700733496
-0.157527330597477 0.233894642027219 0.788804913433721
-0.15956432094007 0.233667269605015 0.797259078891873
-0.152258094371256 0.234482803384133 0.807317143547368
