ply
format ascii 1.0
element vertex 858
property float x
property float y
property float z
end_header
0.16654809100668 0.22612069520227 0.730603310224346
0.162280767127669 0.227655962841142 0.737018535715348
0.166764485306262 0.231448457092795 0.75286574383833
0.168653122841499 0.231607942784459 0.75353216619278
0.176288656076377 0.234427987069068 0.765315922667753
0.17185886787329 0.236185048347987 0.772657928726094
0.17869666237438 0.23763390984947 0.778712100000149
0.183541113809878 0.240291854988939 0.789818513618645
0.18632020195185 0.242193277556183 0.79776374363177
0.185640850890191 0.245184928872454 0.810264572346188
0.179743049353321 0.248046429340688 0.822221556445593
0.18121944024637 0.250420010278452 0.832139733935538
0.190692806474013 0.252684816511808 0.841603388553489
0.189723672113134 0.2544456482786 0.848961149864727
0.192104711608777 0.256484873254188 0.857482197084149
0.192368316388519 0.258322728160457 0.865161805085342
0.199954946119195 0.258818281418309 0.867232509769939
0.202351372806151 0.261877198780292 0.880014414461084
0.198030655894696 0.262374406737487 0.886017608334197
0.192841312910667 0.262374406737487 0.904418850323587
0.199646760812204 0.262374406737487 0.911330842969469
0.195300254101284 0.262374406737487 0.932215462589541
0.198195610629548 0.262374406737487 0.940836585621683
0.205796311059992 0.262374406737487 0.941570796704008
-0.129491765455202 -0.0610245372090731 0.132939925828128
-0.130397442816146 -0.0591351687770889 0.134056373198762
-0.259097482689786 -0.200730546565246 0.32970613805119
-0.264259612484462 -0.193771919161837 0.344435107160327
-0.25951422512963 -0.200730546565246 0.346650366016306
-0.264259612484462 -0.200122618051658 0.358204602038512
-0.262154458230643 -0.200730546565246 0.375571405051736
-0.264125953873262 -0.200730546565246 0.38643437571402
-0.264259612484462 -0.196024428911167 0.392128525296745
-0.264259612484462 -0.19497676329034 0.395157224117448
-0.262542069483297 -0.199295491082982 0.40846196754728
-0.257645084854531 -0.188183733316599 0.40846196754728
-0.255435799783779 -0.186665076230375 0.40846196754728
-0.248608221114478 -0.18140617526241 0.40846196754728
-0.234392383091543 -0.172123086787295 0.40846196754728
-0.228174966871836 -0.16016233822668 0.40846196754728
-0.219810977296818 -0.16093756934332 0.40846196754728
-0.2195148898941 -0.150075344179643 0.40846196754728
-0.210009832444044 -0.145043869190182 0.40846196754728
-0.204134404901315 -0.137993142293198 0.40846196754728
-0.196284884705368 -0.13802950423999 0.40846196754728
-0.188853805851065 -0.125267513000908 0.40846196754728
-0.180474294260247 -0.115278935034064 0.408461967547279
-0.176787155455751 -0.108645568005565 0.40846196754728
-0.173457027605239 -0.106995923600683 0.40846196754728
-0.157150518757761 -0.0956294482755914 0.40846196754728
-0.15477609240629 -0.0867923036054222 0.40846196754728
-0.146207267490844 -0.0812753712523788 0.40846196754728
-0.138533887095352 -0.0747334685431176 0.40846196754728
-0.134269925427823 -0.0674367783105926 0.40846196754728
-0.12976343418691 -0.059554784760853 0.40846196754728
-0.115295641313913 -0.0541541470677635 0.40846196754728
-0.110191436905238 -0.0364608839231791 0.40846196754728
-0.108486892379843 -0.0347110563510633 0.40846196754728
-0.0955096599460481 -0.023175179031303 0.40846196754728
-0.0906935726269816 -0.0208838322121314 0.40846196754728
-0.0826367107424961 -0.0154002840463606 0.40846196754728
-0.0674744672343794 0.0047734324745884 0.408461967547279
-0.0706872264189343 -0.00166330102182615 0.40846196754728
-0.0596093659092549 0.0192895695055613 0.40846196754728
-0.0549018886168715 0.0202374087261394 0.40846196754728
-0.0405383999079752 0.0273236657528488 0.40846196754728
-0.0322490264132722 0.0385801790424146 0.40846196754728
-0.0267506998859942 0.0512802187521549 0.408461967547279
-0.010466634884187 0.0531601639501331 0.40846196754728
-0.0123049704088295 0.0579537960094714 0.40846196754728
0.000579684103728837 0.076221797890223 0.40846196754728
0.00210591505604266 0.0812005291036951 0.40846196754728
0.019740918690219 0.0940701112464708 0.40846196754728
0.0177901819211901 0.0923486203936495 0.40846196754728
0.0352135727109726 0.103688482674747 0.40846196754728
0.0438731816382461 0.114562821609369 0.40846196754728
0.0452814616891212 0.118737666997833 0.40846196754728
0.0600963628395227 0.135561456959463 0.40846196754728
0.0665732700367148 0.136768680347468 0.410653184756068
0.0678138377209724 0.139743543398571 0.420024003367042
0.063236909459935 0.144080525529872 0.43368549708064
0.0694982688487667 0.14593472580148 0.439526227936206
0.0818050451951391 0.147085686721641 0.443151754834713
0.0790293055090252 0.150029754118898 0.452425567136073
0.083760623221705 0.153118163936448 0.462154058061354
0.0824053292244736 0.152906456454866 0.461487179494372
0.0841899899093005 0.15683469809084 0.47386114064769
0.0792367314136157 0.15850389900529 0.479119123528207
0.0780927925759804 0.162487920484922 0.491668791189049
0.092411519913807 0.165238825882382 0.500334143191049
0.0933995777200001 0.165519070560791 0.501216913928037
0.0944568404916821 0.170995502049151 0.518467673116371
0.0925116677028082 0.173338052529461 0.525846707129346
0.092145049359568 0.175539669876012 0.532781801770983
0.0998984805653258 0.178953393243004 0.543535030377005
0.103676340216072 0.180091993891334 0.547121622419248
0.112524535968531 0.182960204088441 0.556156484540131
0.111325444294219 0.184536553518764 0.561121985245653
0.111219068236613 0.187149456206028 0.569352628710532
0.117617077997705 0.190368688263711 0.581210995516801
0.110290455430194 0.191842716474059 0.587370327681467
0.122040466792293 0.192734175416978 0.591095352550091
0.122237353162657 0.196434049133101 0.606555539149605
0.127478130557884 0.197753694412045 0.61206977120805
0.123065836413464 0.199658762134489 0.620030232762549
0.132447966126451 0.201835813908047 0.62912719910206
0.125213528154509 0.204332840529274 0.639561203197902
0.135388262015821 0.205154112231133 0.642992945666383
0.12881199789631 0.208454454987023 0.656783663610636
0.124715332643451 0.210337450503952 0.664651894877806
0.141444557201782 0.21146601971258 0.669367701928141
0.139269442983979 0.214301508607869 0.68121599481203
0.136626885261204 0.215969835321358 0.688187217150536
0.142967283502634 0.218614779074401 0.699239303547182
0.146473004941594 0.220288049664858 0.706231184228735
0.142720530925126 0.222219518130081 0.714301963172703
0.146309139444746 0.224511168736437 0.723877788920689
0.150929121073525 0.227317523801456 0.735604344013805
0.145293171461756 0.231082353152866 0.751335952375052
0.152528412865139 0.230814074619641 0.750214931361223
0.154069938474423 0.233238084829422 0.760343831166378
0.157500190376871 0.234650215346305 0.766244519397636
0.160559216001559 0.237440645571467 0.777904531409918
0.163551059896374 0.239289778195424 0.785631264160027
0.162548745523549 0.24154935955209 0.795073086257525
0.167998356415287 0.245261760911284 0.81058562050844
0.170819042854267 0.245275665673134 0.810643722549029
0.170880165647629 0.249420332564858 0.827962509203733
0.166033699681933 0.251637361378419 0.8372265224604
0.172660552991009 0.252520617928258 0.840917273043654
0.177987233498959 0.254049925966835 0.847307595919138
0.178422726904123 0.257119091949355 0.860132325203239
0.181433304658972 0.258532030410626 0.866036389487837
0.177996760468274 0.261291180892377 0.877565696858009
0.182494591891695 0.262374406737487 0.891610570445177
0.187287009047009 0.262374406737487 0.898716780721076
0.181453388474947 0.262374406737487 0.918057398705149
0.193378465648724 0.262374406737487 0.92112860425666
0.180372804703197 0.262374406737487 0.939589758565962
0.182655123475169 0.262374406737487 0.94115087994475
0.180132837589576 0.262374406737487 0.962274096535267
0.184934141414275 0.262374406737487 0.957090394941449
0.212273100241547 0.285818388590885 0.95017707855866
-0.145095259329627 -0.0571246168836756 0.133297519390994
-0.140197760867973 -0.0547564782552377 0.133594007997181
-0.130232495796976 -0.0496502645581668 0.13420142324021
-0.264259612484462 -0.192618763278556 0.344078017398415
-0.264259612484462 -0.183492265686744 0.349711930518509
-0.264259612484462 -0.184387561562233 0.355206129201072
-0.264259612484462 -0.19397151937812 0.368860872362308
-0.264259612484462 -0.189952779331911 0.377033950493911
-0.264259612484462 -0.187522714687561 0.375843933653149
-0.264259612484462 -0.189585114538066 0.392580785318609
-0.264259612484462 -0.190239814957937 0.405144359495513
-0.264259612484462 -0.187441642903389 0.407984461175342
-0.254290484449729 -0.18303480430577 0.40846196754728
-0.255080130911021 -0.177085464424276 0.40846196754728
-0.240254222515224 -0.166671771097461 0.40846196754728
-0.237160946718138 -0.161449594496146 0.408461967547279
-0.231072391487466 -0.150748805807966 0.40846196754728
-0.227602091377984 -0.151312706158149 0.408461967547279
-0.222642629888082 -0.141723157119822 0.40846196754728
-0.216599212255994 -0.138475276381805 0.40846196754728
-0.206670393535645 -0.124882491811001 0.40846196754728
-0.195969975358403 -0.120861165514049 0.40846196754728
-0.19199752624192 -0.110395669472672 0.408461967547279
-0.181040544400025 -0.1008820427649 0.40846196754728
-0.177858210940309 -0.0990816340471734 0.40846196754728
-0.175164680634099 -0.0917474670429064 0.40846196754728
-0.159375876821926 -0.0838032302352839 0.40846196754728
-0.155385899001141 -0.0707705842824235 0.40846196754728
-0.151975590430771 -0.0667994909209119 0.40846196754728
-0.140331329511276 -0.0592508329828876 0.40846196754728
-0.132067465184467 -0.0484367202531472 0.40846196754728
-0.129998351295218 -0.0410679428902153 0.40846196754728
-0.118011921786612 -0.04274216305308 0.40846196754728
-0.105363363458285 -0.0251264573671748 0.40846196754728
-0.106411179364179 -0.0252472456646222 0.40846196754728
-0.0972801283070276 -0.0164406783395288 0.40846196754728
-0.0882263939644623 -0.00839783253430462 0.408461967547279
-0.0799570327249058 0.00796912269617052 0.40846196754728
-0.0743336425683788 0.00609190662640364 0.40846196754728
-0.0636851087329678 0.0230846654482413 0.408461967547279
-0.0576683580626478 0.0264470734875197 0.40846196754728
-0.0467330774085595 0.0385388579474408 0.40846196754728
-0.0420871035795097 0.0454343089565585 0.40846196754728
-0.0332014514171155 0.0497357366005693 0.40846196754728
-0.0312989883499102 0.0622825928785822 0.40846196754728
-0.0227774510548681 0.0693146758345889 0.40846196754728
-0.00699204374793004 0.0762767878119589 0.40846196754728
0.000763268816393813 0.0889543617144861 0.40846196754728
0.0111752400169578 0.102351368967538 0.40846196754728
0.015317718636523 0.106122912328664 0.40846196754728
0.0212973822448078 0.107424545345705 0.40846196754728
0.0266599258671387 0.122167713448327 0.40846196754728
0.0445404948256665 0.125740980014783 0.40846196754728
0.0486136230107331 0.135439714904068 0.40846196754728
0.050582838767908 0.139196420093868 0.418300564957229
0.0478758822765154 0.141955475507374 0.426991589509773
0.051180375762274 0.143717643447436 0.432542418520968
0.057928774409981 0.145039435004522 0.436706061925787
0.0604704427630907 0.150379314609252 0.45352668268069
0.0659901555582392 0.151790270963917 0.457971195197881
0.0646995707122713 0.154336571820459 0.465992042895989
0.0664725475034708 0.155867571590713 0.470814692172291
0.0753212479952182 0.159469476136779 0.482160691492397
0.0663659369380319 0.16307189467679 0.493508309893433
0.0763803057568561 0.164169442317922 0.496965584962997
0.0775357294267203 0.166278754498576 0.503609918332059
0.0847851217134068 0.167821939514951 0.508470951133637
0.0865983063697858 0.169979841624008 0.515268342777171
0.0863891975300776 0.172696714424206 0.523826492097792
0.0839640354697338 0.176959755964483 0.537255072949666
0.0937953131970846 0.176629640629151 0.536215209643369
0.0935781405628627 0.181501040984022 0.551560120761213
0.0950316508995933 0.184593447800321 0.561301202232557
0.0893631483244866 0.187025558119986 0.568962349739499
0.099406042606879 0.188282865547517 0.572922868136222
0.0972796651496345 0.191329097946627 0.585224135977555
0.100421928484958 0.192288264006132 0.589232079869055
0.10593268341232 0.194734924446261 0.599455625279594
0.103903512210242 0.196462365535797 0.606673861260871
0.106943149704496 0.198081696785909 0.613440352555983
0.112053210691231 0.201231137311628 0.626600514752738
0.112233680201845 0.203459766069012 0.635912999203232
0.119493528242245 0.205908211077619 0.646144001560628
0.121511255880297 0.207887888851251 0.654416226543305
0.115096633794119 0.209446220938626 0.660927828479837
0.118739751509665 0.211504924140475 0.669530266858988
0.127300960283226 0.213213913505056 0.676671400989561
0.1333752036415 0.215940995194996 0.688066706622522
0.133090907830867 0.217292761888923 0.693715160307863
0.128183363169409 0.221852924846261 0.712770126951022
0.130813091219904 0.223298812817673 0.718811873117284
0.129663175007608 0.225059977431583 0.726171025253977
0.131213267132178 0.226570189239113 0.732481553164015
0.139066096733839 0.228115606918512 0.738939191324361
0.139017431748492 0.230176913240878 0.747552507028533
0.14453310653683 0.231959132752965 0.754999638561185
0.148988890190297 0.234895831552032 0.767270844257282
0.147193528740471 0.235758719287132 0.770876482293236
0.149046684291771 0.239878226202581 0.788090136189933
0.154322089707574 0.2424050676031 0.798648723470675
0.153112679829981 0.242592168245141 0.799430536867771
0.151255048372785 0.244511949721938 0.807452480895819
0.155122972328421 0.246266088782632 0.814782276256578
0.158256840663868 0.250752054614774 0.83352720491231
0.162499474438258 0.252225026238724 0.839682122055242
0.165408088910926 0.253707612209847 0.845877213434582
0.167241165010154 0.255875594306756 0.854936281482378
0.164450255009725 0.257242214348629 0.860646800943059
0.169645412116977 0.262121698288182 0.881036073119052
0.163592377867022 0.262374406737487 0.882096007250606
0.172402025585385 0.262374406737487 0.893964373846232
0.167034418710637 0.262374406737487 0.910535456823175
0.165197779696406 0.262374406737487 0.912476504712252
0.161008753824852 0.262374406737487 0.930293097468472
0.161681816981088 0.262374406737487 0.939181328802516
0.176462647408862 0.262374406737487 0.952118753082804
0.170302430216968 0.262374406737487 0.966226060702353
0.174136284790759 0.263564103915621 0.967015421073751
0.204038790234391 0.295074977778116 0.954206887295179
-0.264259612484462 -0.176156496991891 0.329647878175117
-0.264259612484462 -0.171111124955935 0.337094250548785
-0.264259612484462 -0.177300419423037 0.341027426694219
-0.264259612484462 -0.173419301503372 0.354378788757052
-0.264259612484462 -0.176678812783395 0.362268701221343
-0.264259612484462 -0.168409184952236 0.369775882733802
-0.264259612484462 -0.177122566980264 0.38865629455712
-0.264259612484462 -0.169317848767588 0.390702485323426
-0.264259612484462 -0.180398622484172 0.404937292643109
-0.258923398013917 -0.170222580365703 0.40846196754728
-0.25476540808778 -0.171143427890436 0.40846196754728
-0.251429042783428 -0.157425936409723 0.40846196754728
-0.241477581493649 -0.149739287238462 0.40846196754728
-0.243123790994665 -0.154006069051297 0.40846196754728
-0.227197074080101 -0.14355807672926 0.408461967547279
-0.225788619518151 -0.137280049307715 0.40846196754728
-0.210078480039227 -0.127209297809324 0.40846196754728
-0.20698408439838 -0.117630302428813 0.40846196754728
-0.206122325740462 -0.113105875050088 0.40846196754728
-0.199371104822036 -0.100888490181782 0.40846196754728
-0.186313489510461 -0.0939327739111997 0.40846196754728
-0.183179089466923 -0.0911135340724065 0.40846196754728
-0.177185227254949 -0.081610836982741 0.40846196754728
-0.165277641258183 -0.0707294579059105 0.40846196754728
-0.161448162148792 -0.0656996023793653 0.40846196754728
-0.153636002520761 -0.0608929551165253 0.40846196754728
-0.151419015381201 -0.0580237037667494 0.40846196754728
-0.142662140856597 -0.0446006355492145 0.40846196754728
-0.134545374954936 -0.0382038710497546 0.40846196754728
-0.129109247816649 -0.0318184061688259 0.40846196754728
-0.114577916080644 -0.0150453817902405 0.408461967547279
-0.107150866687159 -0.014320843224568 0.40846196754728
-0.110646995612812 -0.0130993185633429 0.40846196754728
-0.0988602826009587 -0.00332465228105297 0.40846196754728
-0.0918547651616274 0.00731654288943058 0.40846196754728
-0.075814766134015 0.0217602085544443 0.40846196754728
-0.0701283122309654 0.0271808922002828 0.40846196754728
-0.0657478054737831 0.0344626777785574 0.40846196754728
-0.0532836662555924 0.0401953208465431 0.408461967547279
-0.0490666951561772 0.0490257896064719 0.40846196754728
-0.0468641897488416 0.0596311890154333 0.40846196754728
-0.0299173038532605 0.071530908045148 0.40846196754728
-0.0265138266357193 0.0806144660977858 0.40846196754728
-0.0122090735501114 0.0870251916054189 0.40846196754728
-0.00657643075055077 0.0878688969484903 0.40846196754728
0.00450145388012316 0.103211568154344 0.40846196754728
0.00552680275109437 0.11272559610557 0.40846196754728
0.0198381323633842 0.128877458602334 0.40846196754728
0.0303575538723724 0.12956375304773 0.40846196754728
0.0323649547120944 0.136487458975873 0.409767337435543
0.0405929354011702 0.138632889460453 0.416525443461972
0.0370109338436045 0.139940372953553 0.420644016465235
0.0331832359883012 0.145898463846188 0.439412002777035
0.0421094975424864 0.148312423466055 0.447015975579617
0.042393505913782 0.148143025081209 0.446482370667351
0.051099290679074 0.150410665882988 0.453625439192955
0.0579309485109858 0.153184351807808 0.462362549856138
0.0527426010354882 0.15598416357023 0.471181956907769
0.0492365268345665 0.16039234311167 0.485067722463304
0.0576014147740341 0.161447706165874 0.488392116084048
0.0537127742891517 0.162527743663251 0.491794234200783
0.060197576054901 0.166023986062006 0.502807397756863
0.0658551949484584 0.169606937773197 0.514093695647116
0.0666724862830051 0.170739139122115 0.517660129896207
0.0706493782175736 0.172316442094843 0.522628634260298
0.0640393350118163 0.176639824779122 0.536247289715778
0.0694311448160536 0.177913024127154 0.540257867662078
0.0733772497496811 0.180853947382805 0.549521775917379
0.0754221732223989 0.18531929839449 0.563587631604186
0.077177194307952 0.187100053092878 0.56919700890411
0.0778939056140277 0.187911814839716 0.571754058406651
0.0910269553667311 0.190152138408425 0.580306126478637
0.0890945568948941 0.193777899681091 0.595456628939423
0.0896785761548972 0.194043612554002 0.596566929158373
0.0926895675295608 0.196905915469066 0.608527266339176
0.0944831702791428 0.197763154173509 0.612109299497025
0.0976834955551611 0.200901371559716 0.625222565003676
0.0961514647163992 0.203100774765817 0.634412928400596
0.100756690953893 0.204265201641057 0.639278569272139
0.105119639308469 0.206261155530082 0.64761880516556
0.101069013040422 0.210083327378639 0.663590023247034
0.0971238381888476 0.210959131181525 0.667249631994806
0.10362317188377 0.213221661092507 0.676703774837125
0.106316509515184 0.215983705290861 0.688245173808817
0.116132322588161 0.217524509162976 0.694683532845871
0.113949547316887 0.218296775902312 0.697910504578095
0.11548099712047 0.220985418358499 0.70914518912716
0.122845098408214 0.223484333760738 0.719587085629375
0.118827136176574 0.22537847092341 0.727501873059114
0.127360710999312 0.226471877629385 0.732070751080509
0.126288118698961 0.229683526286441 0.74549085439749
0.128806680663387 0.232243289392597 0.756187007376787
0.122356280818565 0.234616918272917 0.766105385198122
0.12876726942054 0.23643505302011 0.773702591106032
0.129771453311128 0.237557821281106 0.778394158482341
0.129022057243415 0.241745768395723 0.795893794639847
0.131521612918663 0.24328611365648 0.802330237336584
0.128355731140233 0.244915131280533 0.809137203837087
0.134575151679385 0.24766953246537 0.820646665930872
0.136963827590026 0.248445903923803 0.823890789525038
0.138787930580243 0.251630200104061 0.837196598563975
0.147936899796169 0.252244154730855 0.839762051825935
0.143629019629054 0.254144183825701 0.847701459115113
0.144727893315501 0.257873825120358 0.863286031667784
0.152417704157446 0.259531308582667 0.87021194470672
0.159386377929623 0.261985208158553 0.880465739363101
0.149768009637888 0.262374406737487 0.89129862526102
0.152854127424391 0.262374406737487 0.89682076732381
0.146470428154543 0.262374406737487 0.914455598972674
0.154149907113348 0.262374406737487 0.921047267052243
0.155291372753369 0.262374406737487 0.938537310867904
0.15068377337276 0.262374406737487 0.948545027756174
0.14922246907127 0.262374406737487 0.957756043876208
0.159519386025317 0.262374406737487 0.965906539090862
0.163155262563731 0.277826926369478 0.97120019557064
0.192102651032813 0.298312850382784 0.960048343105445
0.2209700566768 0.322831875442629 0.945920854176355
-0.264259612484462 -0.161856490808846 0.338097507513017
-0.264259612484462 -0.163068248959611 0.350004140186272
-0.264259612484462 -0.166751600475076 0.362491981112671
-0.264259612484462 -0.160488565870601 0.360511908141394
-0.264259612484462 -0.166659333215098 0.378034681715375
-0.264259612484462 -0.163366326422591 0.389079991082591
-0.264259612484462 -0.16420329193816 0.393945334224126
-0.264259612484462 -0.1644401761369 0.406072686626935
-0.262563840215877 -0.164588448977654 0.40846196754728
-0.260271221281211 -0.157374778243305 0.40846196754728
-0.246788531777735 -0.15069458508032 0.40846196754728
-0.249597332812014 -0.142005326013087 0.40846196754728
-0.236306573981075 -0.129039695320761 0.40846196754728
-0.226296460282287 -0.127948617393177 0.40846196754728
-0.224390012703246 -0.117111021015768 0.40846196754728
-0.22045279148726 -0.114265235116837 0.408461967547279
-0.210971735300338 -0.106908169215908 0.40846196754728
-0.202760105902285 -0.103388129658586 0.40846196754728
-0.199417149559273 -0.0858382406250398 0.40846196754728
-0.186200009702105 -0.0822706284980923 0.40846196754728
-0.180171182516803 -0.0796043714018652 0.40846196754728
-0.179949000312866 -0.0677676645206435 0.40846196754728
-0.166012666591228 -0.0626114462807725 0.40846196754728
-0.154657485144496 -0.0517383000998545 0.40846196754728
-0.157230358199725 -0.0473560824686766 0.40846196754728
-0.149400128981594 -0.0398240805216298 0.40846196754728
-0.136526040574928 -0.0289733366439981 0.40846196754728
-0.129214522489477 -0.0230918279306147 0.40846196754728
-0.12503640527224 -0.0168911654084364 0.40846196754728
-0.114677990335805 -0.0130829253877818 0.40846196754728
-0.109972660166989 0.00234140192532439 0.40846196754728
-0.103691793762295 0.0063177751632125 0.40846196754728
-0.0932278361496031 0.01551502671595 0.40846196754728
-0.0795711237588818 0.0289751015439952 0.40846196754728
-0.075239952914932 0.0324035886662848 0.40846196754728
-0.0755592983232602 0.0409786122609549 0.40846196754728
-0.0690522107639333 0.0456158020044344 0.40846196754728
-0.0535357998890057 0.0537527754787549 0.40846196754728
-0.0522055813626537 0.0601574771202563 0.408461967547279
-0.0400220475954788 0.0736297812927834 0.40846196754728
-0.0264165352438815 0.0875578891127033 0.40846196754728
-0.0280571043500717 0.0898362582023328 0.40846196754728
-0.0144668817077756 0.106324609524581 0.40846196754728
-0.0152192047135507 0.101997359457479 0.40846196754728
0.000198741707321145 0.125642874025764 0.408461967547279
0.00977774609454378 0.12449513263132 0.40846196754728
0.0185233125667008 0.137407050490529 0.412664050706708
0.0192576065119617 0.138278046999125 0.415407689708787
0.0269648919638485 0.14090701219191 0.423688930066059
0.0209260790832154 0.143879125540301 0.433051087113491
0.0296998122869981 0.144001176065395 0.433435546267537
0.0247199218617803 0.148192016038669 0.446636692183351
0.0295518975249769 0.149803877412836 0.451714055511976
0.0380940246802783 0.15328038256984 0.462665046756539
0.0389161717019649 0.156325096957654 0.472255897078154
0.0338974512921425 0.160452849907042 0.485258318868725
0.0429235491466353 0.160058243290337 0.484015308026105
0.0484054788969877 0.163692709129923 0.495463875420803
0.0404858500427895 0.166454498071482 0.504163510586713
0.0474062877078997 0.169230694251634 0.51290852855419
0.0471771795833435 0.170071819835487 0.515558074143328
0.0567163824265474 0.172003955879089 0.521644302680675
0.0522744875942438 0.177288778361137 0.538291493499126
0.0520896180948108 0.178164288218403 0.541049349549513
0.0647818482320852 0.178582895264046 0.54236796174329
0.0576314980793014 0.183871045790657 0.559025635902113
0.0718321391372173 0.186177711095126 0.566291631611193
0.0766263162149505 0.187580081648733 0.570709098855055
0.0706783188024036 0.190782955675645 0.582942041488093
0.0769159312796795 0.191900511156825 0.587611826891596
0.0734806769418961 0.192839937563048 0.591537287231883
0.0718867980481461 0.196988075309034 0.608870577099043
0.0764198650549838 0.197027703987656 0.609036168363285
0.0728740386132909 0.201906621198109 0.629423072421246
0.087012901481492 0.201980568719115 0.629732067419734
0.081640676258417 0.204562396432729 0.640520418937335
0.085100642565767 0.20635204434842 0.647998590585046
0.09074976579455 0.207891079836944 0.654429560304948
0.0874100291517453 0.211855308974371 0.670994374914914
0.0877588533516292 0.211881600479664 0.671104235847746
0.0844644398054414 0.215650343617293 0.686852198244265
0.0991387985957641 0.217491777040423 0.694546759333775
0.0979074712896666 0.220499373805368 0.707114217244433
0.096775534517327 0.221623994345996 0.711813524503488
0.102542239953163 0.222168520197312 0.714088864667918
0.107200927742483 0.225626567815347 0.728538563643277
0.10407847758917 0.226311474355781 0.731400494544376
0.100098180862464 0.229133872487711 0.743194086738512
0.105575171138495 0.230702650828623 0.749749339091608
0.113364543312865 0.233468424470644 0.761306321810055
0.107132384187397 0.237211278404055 0.776946104317522
0.11296016339588 0.238219389589008 0.78115856891179
0.121586499627236 0.239149823282349 0.785046452558965
0.126888027399381 0.24047355311194 0.790577752204039
0.11881721814894 0.24488467118527 0.80900992415331
0.119299669627938 0.247331486519336 0.819234116799233
0.12819842400433 0.248834289118261 0.82551368480188
0.126831458107406 0.251263520498535 0.835664401640882
0.125091287541312 0.25401635265845 0.847167307451957
0.130172655991417 0.255921589123384 0.855128474109005
0.139074889039133 0.256993459758425 0.859607362119712
0.134051984661712 0.257974663895159 0.863707393691066
0.140369989284014 0.260237246245679 0.873161755655737
0.147551968415954 0.262374406737487 0.888423112971282
0.142202470825312 0.262374406737487 0.894079534096538
0.138337552859528 0.262374406737487 0.912847238118642
0.147717072678669 0.262374406737487 0.91319475991327
0.139539205474165 0.262374406737487 0.938154769214637
0.138891878421728 0.262374406737487 0.94495952245622
0.14318600372335 0.262374406737487 0.948630566181033
0.134399534961348 0.262374406737487 0.969115154823253
0.146592241367365 0.262374406737487 0.975075942758875
0.150938927713471 0.276134884172266 0.975855737237879
0.170867448789869 0.304870131476963 0.968261146767427
0.19037326991762 0.318516396025289 0.96082764366465
0.208832914840404 0.338385544329989 0.951860679148476
-0.264259612484462 -0.1512764165749 0.331642063599755
-0.264259612484462 -0.147005039505389 0.33654332187959
-0.264259612484462 -0.146576997770837 0.340584709410191
-0.264259612484462 -0.155835199639652 0.360595451449232
-0.264259612484462 -0.147128022087596 0.369476268105616
-0.264259612484462 -0.14254762225591 0.368612377742642
-0.264259612484462 -0.143480810664608 0.374790332950708
-0.264259612484462 -0.143727488114973 0.385428412574788
-0.264259612484462 -0.155530462360541 0.403764265759037
-0.264259612484462 -0.145769612294117 0.406139003745881
-0.257893325734115 -0.141438674310977 0.40846196754728
-0.252558447710226 -0.137425862689332 0.40846196754728
-0.245558772906319 -0.130721552376179 0.40846196754728
-0.236357166141732 -0.118840094564269 0.40846196754728
-0.232057458115203 -0.120548318887666 0.40846196754728
-0.228610031062808 -0.112471898326484 0.40846196754728
-0.216396014550231 -0.102914473849406 0.40846196754728
-0.205110196779665 -0.0906699281925653 0.40846196754728
-0.204206240605095 -0.079867286614988 0.40846196754728
-0.196363311833033 -0.0812475384924456 0.40846196754728
-0.189406244261066 -0.0699609640096366 0.40846196754728
-0.187101122758243 -0.0654907761693043 0.40846196754728
-0.18161633123055 -0.0537420507149346 0.40846196754728
-0.165305699754084 -0.0433071514777689 0.40846196754728
-0.161920446470755 -0.0414143512193245 0.40846196754728
-0.153275643407106 -0.0327561205333181 0.40846196754728
-0.139094563774606 -0.020369272230715 0.40846196754728
-0.137423360134918 -0.0178893748999064 0.40846196754728
-0.133477773386277 -0.00542692461314943 0.40846196754728
-0.123744017767275 0.00650616800779676 0.40846196754728
-0.119349925584839 0.00945639695142499 0.40846196754728
-0.111663878442962 0.021004553367098 0.40846196754728
-0.0973828686331768 0.028176934212395 0.40846196754728
-0.0948535579972092 0.0358535769597428 0.408461967547279
-0.0908496516965588 0.0411614081546483 0.40846196754728
-0.075819874562584 0.0449826426852132 0.40846196754728
-0.0726698222211704 0.0580829633505582 0.40846196754728
-0.0676742896340442 0.0623373182639083 0.40846196754728
-0.0585010405853734 0.0706518772584104 0.40846196754728
-0.0446585049915299 0.0831305021048629 0.408461967547279
-0.0401502696346745 0.0915489258276546 0.40846196754728
-0.0237216200693501 0.106692947585876 0.40846196754728
-0.0197218066824224 0.10338245655056 0.40846196754728
-0.0132073619199603 0.118641562980009 0.40846196754728
-0.00670684610309177 0.125210752658177 0.40846196754728
-0.00428146078712023 0.128763722111376 0.40846196754728
0.00624996863634002 0.139698075164353 0.419880778429256
0.0127788199541035 0.141865875396403 0.426709349160214
0.00340260274393591 0.143988044065603 0.433394180468192
0.00991757802526734 0.146075181201332 0.439968662445741
0.0154500342641973 0.148982324233936 0.449126162998443
0.0140479472071934 0.149859184381943 0.451888272464665
0.0139968207058927 0.154325440464547 0.465956979124866
0.0159239559399958 0.156184844919389 0.471814103157619
0.0197331743327982 0.156050926882656 0.471392261341909
0.0248464191767767 0.159477348797384 0.482185490373301
0.0241387049543571 0.164100269102602 0.496747689334737
0.039743056799976 0.164901797618656 0.499272504160312
0.0350582710520474 0.167306641162891 0.506847761324649
0.0372141302983887 0.170199393926238 0.515959932529193
0.0398869979484734 0.171039181753129 0.5186052641839
0.0412843784661289 0.173757809468276 0.527168941486612
0.0374144690965933 0.179093634030378 0.543976788857231
0.0462385881510675 0.177623840711051 0.539346939901356
0.0462105895605011 0.182756312578566 0.555514226284027
0.0547473498337742 0.185818115075708 0.565158904150022
0.0574140942570269 0.187538259399015 0.570577358768442
0.0615307558263407 0.187970037809434 0.57193746076126
0.0569316353939539 0.189959327787308 0.579500453526114
0.0584188496109864 0.19457813335155 0.598800462490984
0.0588214827553474 0.195416253529888 0.602302607521895
0.0606373315498282 0.196976698195049 0.608823037015602
0.0664864882630758 0.198191559459853 0.613899421586392
0.0677362474649598 0.200462706767208 0.623389572834979
0.0638963777399414 0.204135613912949 0.638737077693971
0.070004592678335 0.205790818424792 0.6456534679756
0.0715954394905038 0.20944288659759 0.660913895697649
0.0752097683950462 0.210142314660298 0.663836505816824
0.0800676279485321 0.211174623166644 0.668150080646912
0.0802446383295712 0.215637204690306 0.686797296299354
0.0863916930568084 0.215965365845726 0.688168541127359
0.0793496910065004 0.2179800399106 0.696587000612725
0.0835882237090062 0.219763765229074 0.704040424264923
0.0789311381667149 0.222436680196163 0.715209390377399
0.0864867117859994 0.224555834588798 0.724064428375198
0.0923193911053582 0.226797517396316 0.733431460106613
0.0978788081126852 0.228570998516285 0.740842077643627
0.0905947671370099 0.231529522655195 0.753204482081214
0.0934706158002717 0.232979778891499 0.759264481354337
0.0981333794920341 0.235471258127952 0.769675305306661
0.0974236187938999 0.238106301198276 0.780686020993373
0.104332787526655 0.239183390179666 0.785186714237038
0.0986727218052398 0.240862173434069 0.79220162997865
0.104390413864512 0.241818323007573 0.796196969267934
0.108693691061403 0.246046116403344 0.813863105957407
0.109457049598156 0.248259976128059 0.823113876949966
0.107234553211734 0.251533452535983 0.836792331940221
0.118935599047305 0.250570181730307 0.832767236073646
0.108997424858392 0.254329908088765 0.848477521214343
0.113170642595194 0.257290341716053 0.860847904585515
0.127300656771154 0.25799556528933 0.863794731659561
0.122655642893207 0.260013654232764 0.872227460458913
0.123327228251024 0.262374406737487 0.883452370079181
0.123775977479376 0.262374406737487 0.898962581823244
0.120872778851683 0.262374406737487 0.909315760140488
0.114693873957034 0.262374406737487 0.918201881753264
0.123634487930469 0.262374406737487 0.930724636643871
0.128129283719665 0.262374406737487 0.937074655583573
0.13236181384237 0.262374406737487 0.941797171888834
0.129142805406711 0.262374406737487 0.954159257066117
0.123441062801319 0.262374406737487 0.970209627224642
0.116660004317236 0.262374406737487 0.978059447659662
0.140171592353836 0.278350742051529 0.978968918981133
0.159356104731619 0.292199203579162 0.97264802241925
0.194531143268954 0.336274503107668 0.958859857461686
0.201407452767738 0.34738036415543 0.955494643853123
-0.264259612484462 -0.132528721297586 0.337555661747482
-0.264259612484462 -0.140629369441924 0.346825724254469
-0.264259612484462 -0.137369170834865 0.359457820836588
-0.264259612484462 -0.136626700878732 0.35986703641165
-0.264259612484462 -0.136127789011938 0.379861934609281
-0.264259612484462 -0.134813696102301 0.377533719906116
-0.264259612484462 -0.135405116691044 0.391116284206253
-0.264259612484462 -0.14097068295964 0.405340818783336
-0.264259612484462 -0.131080978046941 0.407941905961807
-0.262380069992563 -0.133729796841969 0.40846196754728
-0.252336452315497 -0.121582764254222 0.40846196754728
-0.245472426512261 -0.120640618552793 0.40846196754728
-0.2438478125418 -0.111197524661041 0.40846196754728
-0.231068342892523 -0.0935785901332129 0.40846196754728
-0.221460445471888 -0.0944795804059707 0.408461967547279
-0.209949054562722 -0.0835747971474086 0.40846196754728
-0.206538632584204 -0.072907031280528 0.40846196754728
-0.200871911784129 -0.0717871527568102 0.40846196754728
-0.194899758959292 -0.0672873367334719 0.40846196754728
-0.18377731430265 -0.0582713002218885 0.40846196754728
-0.183220179536409 -0.0521515127297429 0.40846196754728
-0.175563667765791 -0.0364822371696136 0.40846196754728
-0.165846098493715 -0.0359834521861632 0.40846196754728
-0.164720361693387 -0.0241508511797244 0.40846196754728
-0.154977828261374 -0.021373978219004 0.40846196754728
-0.139567035427419 -0.0032461782723579 0.40846196754728
-0.140084076191132 -0.00634255263148857 0.40846196754728
-0.125244294446669 0.0126732195129633 0.40846196754728
-0.12195152464754 0.0195524243466622 0.40846196754728
-0.114162483888639 0.0266165269673558 0.40846196754728
-0.105863836218243 0.030623892629367 0.408461967547279
-0.0981380070978542 0.0364217409230378 0.408461967547279
-0.0881720448620347 0.0501789265142359 0.40846196754728
-0.0857859229285238 0.0519073582751525 0.408461967547279
-0.0786566623717744 0.0663121646060219 0.40846196754728
-0.0700539681383068 0.0714454686486692 0.40846196754728
-0.0604306325385289 0.0780252692816895 0.40846196754728
-0.0530565108131788 0.0894210021499815 0.40846196754728
-0.0453592564090565 0.0955105269648188 0.40846196754728
-0.0380047675220142 0.109086401322736 0.40846196754728
-0.0206586376763984 0.117361314118487 0.40846196754728
-0.0195567257440588 0.119973370457994 0.40846196754728
-0.012585597298582 0.13350758878059 0.408461967547279
-0.00590161731420282 0.138774970621058 0.416972999117875
-0.00618833831743414 0.140629405988323 0.422814470524761
0.00212868299658893 0.140787883141026 0.423313673555775
0.00648965148289442 0.143817946013194 0.432858371603107
-0.00111836825243382 0.148592011461591 0.447896677765556
0.00327712368946901 0.148969777659677 0.449086641289527
0.0034345011855129 0.15257666687216 0.460448342308845
0.0130591889137637 0.152921826418079 0.461535594878493
0.0179125997514285 0.154846177675641 0.46759730133981
0.0164076527075152 0.158716976859434 0.479790318768762
0.0104972213295915 0.162802383130647 0.492659348523081
0.0194563865001364 0.165117679581512 0.499952532343308
0.0201956033312582 0.165496601714335 0.5011461370617
0.0190993473145868 0.167375299472377 0.507064034999531
0.0322765744100392 0.170850559077131 0.518011102754506
0.0293484841563036 0.174646822767319 0.529969333378598
0.0306484172894065 0.176894916419797 0.537050828383903
0.0398118493608479 0.178465580651905 0.541998420715042
0.0399621256756133 0.180807765071637 0.5493763016372
0.0340573382583255 0.184473486009594 0.560923322591767
0.0351346487239917 0.187417321695502 0.570196405002376
0.0414897908508509 0.187505352824383 0.57047370305835
0.0458625690666949 0.191322183769244 0.585195244593488
0.0416443805758059 0.193348621062383 0.593662857568391
0.051207003260876 0.194271410852728 0.597518800620905
0.0532245462759337 0.196041393182175 0.604914798211807
0.0449595051156975 0.199895247110519 0.621018402126675
0.0571264796801374 0.200930229274291 0.625343149025296
0.0536150989334389 0.203574518540773 0.636392500603094
0.0576710563051051 0.205386775480167 0.643965145671273
0.060200530473151 0.20848420252468 0.656907965821563
0.0588321965260014 0.208348365437142 0.656340360848634
0.0653424095007766 0.212151498926121 0.672232025784725
0.070734275414669 0.213787101306756 0.679066507160952
0.0646226987801199 0.21568451010069 0.686994965335602
0.0668182254348368 0.218874428037881 0.700324265287437
0.0721136174752002 0.220523253248843 0.707213999204671
0.0722849533807986 0.22158505099507 0.711650796929977
0.0663563889948902 0.225153842399227 0.726563246725917
0.0753249956961885 0.225490808979024 0.727971285648641
0.0796307439639322 0.229039488829301 0.742799697880154
0.0722396367022099 0.23108547267683 0.751348987528759
0.0819343768713112 0.232789275940967 0.758468451168186
0.0854857862740385 0.234358009926617 0.765023518179654
0.0936344942270059 0.236393093035388 0.773527258312733
0.0906494762045581 0.236874570805749 0.775539147567453
0.0859488110660371 0.239794564925906 0.78774055156954
0.0865383556143211 0.243477133020909 0.803128425395087
0.0859863133188195 0.244590329405855 0.807779996003613
0.0921220451960453 0.247127975473789 0.818383731358911
0.100553064493091 0.249430874848219 0.828006560887778
0.0969121695375449 0.252240403214636 0.839746375847447
0.103565059664791 0.252160766851489 0.839413609615725
0.0950285327813439 0.256860299071927 0.859050940679699
0.103468761400701 0.257427244023086 0.861419960654185
0.112129767142451 0.259775339792953 0.871231646549703
0.111318578332664 0.26198038077134 0.88044556778082
0.0998682284140982 0.262374406737487 0.894029416768039
0.11179741770649 0.262374406737487 0.90195158170739
0.108749470828098 0.262374406737487 0.916942525897721
0.11267329481753 0.262374406737487 0.923905283669475
0.105782901292487 0.262374406737487 0.934583748643214
0.111930873796412 0.262374406737487 0.943226923414086
0.103917461050891 0.262374406737487 0.961440001539236
0.110412517780475 0.262374406737487 0.971782920087509
0.109830897317372 0.262374406737487 0.981397441367107
0.116770850551084 0.268822121170207 0.985522808451213
0.131649221938787 0.285492512611898 0.981355795183354
0.132700190907448 0.291640740218374 0.981061448341056
0.165579309232362 0.324259842284943 0.970276411931154
-0.271785983414598 -0.124563418221325 0.339177566968447
-0.264806039575548 -0.125741295186452 0.334613293728579
-0.26765715145833 -0.122190000652705 0.348374560046851
-0.267183794893633 -0.120882085291975 0.353442732069678
-0.264259612484461 -0.125143157130606 0.364255695403892
-0.264259612484462 -0.12613950041017 0.379710769414957
-0.264259612484462 -0.123645102852645 0.376035996714089
-0.264259612484462 -0.116493332502474 0.386979287481708
-0.264259612484462 -0.123286687703656 0.407768112910934
-0.2611558186898 -0.117159357522505 0.40846196754728
-0.258341539891843 -0.11821484329485 0.408461967547279
-0.246976484424823 -0.108260165199225 0.40846196754728
-0.239762188860971 -0.099524850213483 0.40846196754728
-0.235229868709993 -0.08985908348303 0.40846196754728
-0.234256246298706 -0.0878460027299998 0.40846196754728
-0.226025575975147 -0.0802013585878708 0.40846196754728
-0.210120483952931 -0.0730948581245252 0.40846196754728
-0.205249814112014 -0.0619523169013645 0.40846196754728
-0.198051473641256 -0.053468097746137 0.40846196754728
-0.199043459833016 -0.0486285373734366 0.40846196754728
-0.188559585348785 -0.0440206176191002 0.40846196754728
-0.181728946259573 -0.0397307349756312 0.40846196754728
-0.180782446878851 -0.0332828080820044 0.40846196754728
-0.161294829031223 -0.0164243829227949 0.40846196754728
-0.163405498466328 -0.0104071241306727 0.40846196754728
-0.150661090786011 0.00497796591176744 0.40846196754728
-0.148820589610462 0.00550496004489058 0.40846196754728
-0.141033399664532 0.00742748073665303 0.40846196754728
-0.131245574934487 0.0172297335944021 0.40846196754728
-0.124184118849504 0.0350179303009492 0.40846196754728
-0.110081847757149 0.042759957746387 0.40846196754728
-0.10878079965587 0.0465286582565702 0.40846196754728
-0.102063425443989 0.0485126535799301 0.40846196754728
-0.0847454407697599 0.0688096049551921 0.40846196754728
-0.0794520724647427 0.073646569239874 0.40846196754728
-0.0767599144105826 0.079418348298157 0.40846196754728
-0.0627450512149037 0.0880795224468305 0.40846196754728
-0.0605039500886602 0.093842169491883 0.40846196754728
-0.0508784497317713 0.113082826714067 0.408461967547279
-0.0427356046229797 0.111936012625332 0.40846196754728
-0.0320361864040544 0.119317656028656 0.40846196754728
-0.0270576932323092 0.123496763151186 0.40846196754728
-0.0241350189257755 0.137361626673275 0.412520965682358
-0.0138926980805782 0.138541204613445 0.416236636193895
-0.0198125701079382 0.143401850139845 0.431547669602055
-0.0162897512510807 0.144714663997763 0.4356830332545
-0.015316910533533 0.146342957486878 0.440812157745209
-0.0176452146391001 0.150304691447138 0.453291619720027
-0.00953827935855452 0.151552540163126 0.45722234317539
-0.00542669844896143 0.155342892431744 0.469161952821539
-0.00935378336029712 0.157920738186794 0.477282166949944
-0.00294338520043016 0.158523649189267 0.479181336607737
0.000805660861456707 0.160695352730697 0.48602220276324
0.00499060687884832 0.163543021125136 0.494992358205722
0.0124115374524974 0.165493635399484 0.501136793169918
0.00716414895766673 0.170221684825344 0.516030148861379
0.00501162129139885 0.171159726761534 0.518984980960374
0.00735144719717806 0.174429126657102 0.529283590631416
0.0132818795879087 0.176028769076447 0.534322464252352
0.0212400821260977 0.177635923808072 0.53938500165697
0.0183107459081328 0.181553927801652 0.551726714236747
0.0234818291172952 0.184112361337747 0.559785779875446
0.0218841952469577 0.185689421887287 0.564753520606498
0.0226785210334815 0.188133737446638 0.572453114618453
0.027444164444284 0.18908648458379 0.575853215854269
0.0220676657056102 0.192263350847329 0.589127978455485
0.0326173913361442 0.194844964326121 0.599915434777584
0.0264525428292458 0.196307064624908 0.6060249253118
0.0312383419160464 0.198393066051897 0.614741431274577
0.0338081307201322 0.200949205831215 0.625422443923871
0.0311936184813293 0.203524108728314 0.636181859601031
0.0424991214051267 0.204552303134583 0.640478243370087
0.0442469235699467 0.208023127758236 0.654981331976062
0.0502438276181835 0.208875496016497 0.658543013626656
0.0466832792451766 0.212639182093238 0.674269844733037
0.045365761466561 0.213159252950677 0.676442997958763
0.0433361730893042 0.215032235651381 0.684269389958132
0.0536289972431343 0.217042449585827 0.692669212469926
0.0542725020570789 0.218646004309724 0.699369780423355
0.0571983286928987 0.221401161430851 0.710882401250921
0.0543646608166539 0.223915595919469 0.721389145364073
0.0654513769150577 0.223528053587698 0.719769772049171
0.0594971318365806 0.22784536900066 0.737809982881905
0.0630565006707016 0.230244262491205 0.747833930681682
0.0664689645878806 0.230303790904067 0.748082674406855
0.0683929999527999 0.234952354459583 0.767507029263833
0.06416381525463 0.235962100388832 0.771726324753912
0.0687863713436055 0.238511625056739 0.782379695687665
0.0759789616597381 0.241321213377205 0.794119761169612
0.0793752171543166 0.241054192298135 0.793003994517784
0.0815140427458962 0.244110148692504 0.805773526594254
0.0790190398424879 0.245958524706684 0.813497097796364
0.0846146953723885 0.249392480541554 0.827846127534925
0.0843330228651726 0.251940940539046 0.838495049667305
0.0823138386287777 0.25253600851306 0.840981583701576
0.0951166027839506 0.254607014133696 0.849635428616378
0.0894141030619566 0.256651522162129 0.858178551449472
0.0916762095878991 0.25904925612301 0.868197654071725
0.0914353956676878 0.26090846386057 0.875966486403674
0.0932957730750707 0.262374406737487 0.884008800586257
0.08899235403566 0.262374406737487 0.902929004124223
0.0942979903869315 0.262374406737487 0.904312468656733
0.0872221226777974 0.262374406737487 0.923205249906059
0.101583276596034 0.262374406737487 0.927922072849181
0.0913053546990792 0.262374406737487 0.938699793830017
0.090805920642037 0.262374406737487 0.952288617538522
0.0926387840611805 0.262374406737487 0.967442635095764
0.0993881514793102 0.262374406737487 0.966627039685089
0.0859355187095592 0.262374406737487 0.99139701588919
0.095255639554838 0.272349175881969 0.990353872988683
0.112482091792416 0.285925302436799 0.986723969128301
0.121758514709663 0.294411825509836 0.984125904033193
0.144703617265604 0.319613667027171 0.977699626298117
0.154470578346985 0.332103060588951 0.974509855115296
-0.274097565442367 -0.126247853681114 0.332650379561765
-0.277105242839601 -0.12411892354886 0.340899983824245
-0.27536270931233 -0.12217518668756 0.348431964161787
-0.271052432090892 -0.121231678088406 0.352088059983509
-0.27105188216104 -0.120195675837516 0.356102568705706
-0.272743671889153 -0.116264407836615 0.371336232209197
-0.271391553092116 -0.115074066239375 0.375948805898502
-0.270679099726067 -0.114302464894983 0.378938761108019
-0.267683095355375 -0.110906597762224 0.392097746247463
-0.269863684393753 -0.10937348291454 0.39803856628224
-0.266771472879564 -0.10727543236295 0.406168512169648
-0.265213513155323 -0.106187177641646 0.410385499214704
-0.25073243440834 -0.0996507654108795 0.408461967547279
-0.247951636410898 -0.0909028371418557 0.40846196754728
-0.247396137997735 -0.0860567025036699 0.40846196754728
-0.235546754174089 -0.0804921633771382 0.40846196754728
-0.236756720957281 -0.0759307984826654 0.40846196754728
-0.21829221236409 -0.0660371159211677 0.40846196754728
-0.21833769875329 -0.0559899108232435 0.40846196754728
-0.210287153706653 -0.0431617180733798 0.408461967547279
