ply
format ascii 1.0
element vertex 837
property float x
property float y
property float z
end_header
-0.213612705684833 -0.196016388956877 0.659945462056958
-0.212800955961111 -0.193543570337268 0.665822560870175
-0.212140328389098 -0.198157052354625 0.670605531923841
-0.209795197960699 -0.195986655456761 0.687960810435718
-0.209093727351037 -0.197549185191693 0.697697123421272
-0.208687025013893 -0.195275710926782 0.703342092251051
-0.207980630525518 -0.196067616371058 0.713146763998268
-0.208184748930699 -0.190908947643301 0.723933904835147
-0.208290701919058 -0.19849294956767 0.725634186932283
-0.209462183008987 -0.193926433538759 0.744433608198381
-0.210426350028267 -0.196527384493237 0.750198022885292
-0.212385013500153 -0.190781122948889 0.760826218491285
-0.215953763284147 -0.193979216626357 0.77771139967799
-0.216839502309597 -0.191531710297179 0.780778857209792
-0.219668925311287 -0.193047223484848 0.79057760678253
-0.222071152294686 -0.197377849878296 0.798896907436108
-0.230125402178115 -0.193790557967295 0.823397787574728
-0.234702433797777 -0.196257158582608 0.83714214715468
-0.295861135252828 -0.192382758065059 0.896384588498247
-0.300456128405517 -0.187387626226707 0.905781641781488
-0.299657405040926 -0.187719622705601 0.908393951481837
-0.249018761272396 -0.192566722873722 0.880132619807359
-0.252399483965439 -0.191760827078965 0.890222621361181
-0.324248819650383 -0.190722168850511 0.9609672379562
-0.324545144251625 -0.191678602032563 0.962425903239517
-0.325051146134461 -0.188948078744363 0.980268709914175
-0.323261034329017 -0.183883598179906 0.984927168691174
-0.320232372444613 -0.184893550734478 0.986311943657745
-0.315556234638261 -0.184025429350598 0.993425402327251
-0.305727222245057 -0.190939641440005 0.998998620368291
0.0220131648089632 -0.20221120001295 0.135174069115589
0.0223727081189648 -0.205176588351263 0.140997429765796
0.0229927565616379 -0.202958741262748 0.15196809165928
0.0248750783730827 -0.20659314040054 0.153745081454989
0.0269638707023944 -0.202553574337594 0.159719683000848
-0.0732621781030372 -0.193164571443261 0.402328294729277
-0.0764523264272723 -0.193238318189958 0.414180375439775
-0.203423721400334 -0.188521697296822 0.533439410287139
-0.211296824270238 -0.189668299744194 0.550769318725403
-0.210490734375091 -0.187929295091434 0.548264374509541
-0.215042072371685 -0.187309133855368 0.562407771078751
-0.217221861214014 -0.181746546387104 0.57458643107182
-0.219370307801321 -0.18094452659774 0.590494085940531
-0.219847471515976 -0.189553338497547 0.596850065960603
-0.219383555217343 -0.189368038382107 0.605737497316521
-0.218769435276176 -0.184670215262185 0.617502436247506
-0.218444040275991 -0.187316243826941 0.623736226774524
-0.217024092658534 -0.188530545495428 0.63524689017858
-0.215527903184829 -0.180964044854478 0.646079352032864
-0.214727256217978 -0.182282827143718 0.651876067800654
-0.213702619047987 -0.185319431997706 0.659294481994878
-0.212282716354339 -0.186604363668454 0.669574633389743
-0.211368474208674 -0.184745606643859 0.676193781557648
-0.211071022134888 -0.190704078666096 0.678347348303078
-0.209216305713635 -0.182137248748885 0.695995742744881
-0.208780212728805 -0.190755498769673 0.7020486569911
-0.208254750820985 -0.185522752010249 0.709341989691194
-0.207953702209751 -0.189331632149779 0.72022617927388
-0.208550768339598 -0.189229492593259 0.729807606538109
-0.209111107601169 -0.182165004297928 0.738799658858033
-0.21058139150172 -0.189625628265374 0.751039316517683
-0.212435577718134 -0.187052174224439 0.761100592525964
-0.215092510452538 -0.181079061824629 0.774728741796612
-0.216132099005585 -0.183541644778119 0.778329005130835
-0.22114387396271 -0.18966829591428 0.795685592565961
-0.226710344129703 -0.18758015207002 0.81314271623064
-0.227183819043109 -0.183647587403265 0.814564513151155
-0.298369263502144 -0.177143983734859 0.887999833986942
-0.301330882056669 -0.179751959264017 0.895742250528363
-0.301567176451261 -0.183508286502276 0.907698839371349
-0.245800039141603 -0.184666292261572 0.870467125218349
-0.247552063512262 -0.183217262919707 0.875728275881966
-0.256118077422316 -0.182005476986793 0.900744680128428
-0.323225759284833 -0.17839520708624 0.958928088140666
-0.32424005425021 -0.175310446658842 0.960924090053961
-0.324933317375984 -0.177038025185028 0.981181867786163
-0.321933523414062 -0.181338840210252 0.985654546787709
-0.319509445604105 -0.175384177083819 0.987496968547344
-0.311781461430172 -0.178401559852274 0.996856853784412
-0.312029921193125 -0.180822102616834 0.996706844307908
-0.295354844411651 -0.177187837385864 0.99944907240433
0.0189800482197191 -0.19096135758584 0.131079885622717
0.0174823165720492 -0.190007681361751 0.148477292832034
0.0183347275003889 -0.189061415322694 0.15313267928425
0.019137111590103 -0.188526117290534 0.155874795905533
0.0264201903206528 -0.195657343599418 0.161759458080505
-0.0731803045195917 -0.18602689658133 0.405337849089257
-0.202106612472613 -0.181362219507135 0.531369671452577
-0.20479456529063 -0.181385281440169 0.535593590709207
-0.212519483399398 -0.175755210973199 0.554568764538453
-0.21692351120183 -0.172326470145246 0.572377373711046
-0.217951253255594 -0.178454001544436 0.579987039695536
-0.219863554688077 -0.174448469307256 0.596541940263859
-0.2196350783566 -0.178862740248523 0.600918957497311
-0.219404961306408 -0.174135619685366 0.605327398236725
-0.218804967720034 -0.172481231070427 0.616821715692797
-0.218076635865338 -0.179987088704246 0.627626462347713
-0.216772497349613 -0.173612415781758 0.637068443803959
-0.215719100866885 -0.172910895811401 0.644695070487364
-0.214316579715168 -0.177565953392986 0.654849380038009
-0.214036201007383 -0.176367953840202 0.656879332403126
-0.212520728493745 -0.173062785897575 0.667851411394333
-0.210997400464609 -0.177036659385945 0.678880367211912
-0.210971418838577 -0.178940840971186 0.67906847587564
-0.209358326167306 -0.178757099094725 0.69402451681919
-0.208906614222049 -0.180440401457816 0.700294215280438
-0.208295890915345 -0.176565212880829 0.708770964950331
-0.207743726285018 -0.181236374605621 0.716435005541262
-0.208630143617984 -0.174419071607703 0.731081382454072
-0.208875108594166 -0.17508267712198 0.735012461415415
-0.210080128105165 -0.177478136389739 0.748319349175742
-0.211245435048039 -0.176879974977341 0.754642582113063
-0.21677605038649 -0.17654753438155 0.780559112935407
-0.218971596895466 -0.177575194317396 0.788162645671201
-0.222821327213944 -0.174345319475271 0.801464394701659
-0.22617508475942 -0.176536533941223 0.811535386881612
-0.229869157228292 -0.179427467708565 0.822628310100336
-0.233479722635335 -0.17984982394733 0.833470470121288
-0.303821414300351 -0.173627306889351 0.894945566553609
-0.306078805600309 -0.166225665425223 0.908746736194288
-0.247116327976634 -0.172594735745911 0.874419806467488
-0.24703275897379 -0.17496077084614 0.874168857267159
-0.253300198125915 -0.173392962620545 0.892771264400256
-0.257568634428912 -0.175423638386375 0.904849147649722
-0.32496634945834 -0.171560500375885 0.964499296436066
-0.325408670182249 -0.167707690596 0.976876735875191
-0.324641929530403 -0.171599759940585 0.983440086479402
-0.316696195088462 -0.172845212594164 0.992108461294482
-0.312179209947573 -0.167590206737036 0.996616710084014
-0.308067247903845 -0.165843881390261 0.998675443497417
-0.303033293585554 -0.172079091593859 0.999370674166618
-0.293093316066385 -0.167718915565626 0.999049949600408
0.0158630747871822 -0.182803258093037 0.134725167902978
0.0134955974053586 -0.178455729767502 0.141690761702115
0.0173439885052473 -0.185008623582603 0.155036658657491
0.0179867687268491 -0.176813182464362 0.161536744374941
0.0267297371781346 -0.18385303850022 0.165024880895543
-0.0513182305337258 -0.177218002175195 0.376602977588309
-0.0665937037263495 -0.179285341678758 0.402580940227594
-0.198447046595841 -0.164080640745117 0.525618935313189
-0.208300139569149 -0.168032761589871 0.541457049393921
-0.213895770867884 -0.164730526000711 0.558845613825927
-0.216506608646125 -0.16670879887297 0.569290521151171
-0.218259833863245 -0.167296139457593 0.582271854344534
-0.219640355879102 -0.169388866077251 0.592493595906904
-0.219705351200724 -0.163430502437056 0.599572698110125
-0.219073984955746 -0.170395306265264 0.611668042156351
-0.218907240362475 -0.16218874871911 0.614862427995947
-0.217831544138032 -0.163525249162092 0.629400929949429
-0.217356619046605 -0.164721428996556 0.632839394385756
-0.216562847477099 -0.170571355581678 0.638586311871434
-0.214707650858027 -0.166314281397404 0.652018005695831
-0.213779961649372 -0.167021483306803 0.658734512036891
-0.212284277636513 -0.17007378340267 0.669563323769759
-0.211394339159802 -0.166693746726724 0.676006511884788
-0.210115067232893 -0.169943602646235 0.685268491736398
-0.209685279121968 -0.167512440822417 0.689486448821145
-0.208527570901575 -0.169658854244664 0.705555275109444
-0.208559014578151 -0.164207650315609 0.705118837652622
-0.207975358716733 -0.167812585407142 0.72057371237962
-0.208649929921228 -0.168754008283287 0.731398903438566
-0.209168919917664 -0.164136222103522 0.739727411974105
-0.210194854717517 -0.171811063742369 0.748941882413911
-0.21210145878749 -0.171082476970035 0.759287580029682
-0.215379205962139 -0.162749649754204 0.775721614725308
-0.215157692270948 -0.164889839241784 0.774954476978276
-0.222135795355696 -0.170333234253222 0.799120776813743
-0.222267963642705 -0.165220671142071 0.799578496972619
-0.226628445761061 -0.165254877186989 0.812896783774593
-0.231534889954176 -0.162760667463358 0.827630335747328
-0.309002705859484 -0.165181656675203 0.907644614612131
-0.241937920397227 -0.164571335290182 0.858869576157263
-0.244651307830944 -0.163917059586023 0.867017602141728
-0.251063144212989 -0.16509262965926 0.886271693466786
-0.251348338825911 -0.166285287482091 0.887128103829656
-0.318130025342349 -0.16497680398554 0.951884203847198
-0.325885411732878 -0.157843325762486 0.971234821467855
-0.325714776534639 -0.161460871751847 0.973254173844574
-0.322275261738104 -0.157390942202145 0.98554939516065
-0.319508213707189 -0.164954603622536 0.987498987878243
-0.314514499279522 -0.157460883360779 0.99463165700779
-0.309729502759089 -0.15842467160252 0.998095739479224
-0.30293848634345 -0.163521559614537 0.999383767829811
0.0138189081008589 -0.175649266422249 0.133098851330859
0.00970730703639488 -0.166216003329665 0.138920841385106
0.0122291165332445 -0.172977351958806 0.151694603396366
0.0132963097301638 -0.172546109313813 0.156631766131919
0.0208510517069186 -0.169906509487166 0.166643779179468
0.0245047481747342 -0.171845381878703 0.166267248146808
-0.0616244734500271 -0.16981134906139 0.388808020205926
-0.0573774185009543 -0.165170075109265 0.389332579044633
-0.203045048764465 -0.157721332964731 0.532844356509759
-0.208109140406915 -0.162650890779586 0.540863515521385
-0.213941634692366 -0.157953522899382 0.558988137802806
-0.216609665489347 -0.154020844587997 0.570053585206616
-0.218370679078023 -0.158686106674842 0.583092584062441
-0.219044124067518 -0.160351045347878 0.588078944471108
-0.219671743373497 -0.158573142972614 0.600216532337398
-0.219234260830405 -0.154981761743833 0.608597558452364
-0.218802204072668 -0.153727354506309 0.61687464275871
-0.218393409273952 -0.159898593613735 0.624706202560839
-0.217012150279536 -0.161111349051719 0.635333353172874
-0.216457556063971 -0.154256914521619 0.639348623204371
-0.215307930681893 -0.156963977080984 0.647671953011069
-0.213903622904791 -0.158576471311262 0.657839196717722
-0.212214342654586 -0.153794971366533 0.670069649982726
-0.210845112929747 -0.156573361948076 0.679982927635899
-0.209744684701323 -0.160866152081731 0.688661903331167
-0.209999756046242 -0.155547389222588 0.686103344112359
-0.208970932638664 -0.154962435584218 0.699401467477474
-0.208283716462695 -0.159385439122549 0.708939932907648
-0.207831368667508 -0.153662720194255 0.718263030003824
-0.208692723074592 -0.154252036766365 0.732085627179653
-0.209018559985793 -0.15699839582493 0.737314499675699
-0.211727908188011 -0.159225533684608 0.757260601481811
-0.21256873204454 -0.156345553578279 0.761823121049701
-0.215141136774808 -0.158050124937022 0.774897142616949
-0.216655855773988 -0.160654191663752 0.78014285954834
-0.220516382700747 -0.159300409533522 0.793512488816049
-0.223413150212181 -0.157420326319844 0.803241578861917
-0.229663212059464 -0.158808385753105 0.822009877743003
-0.308995349183807 -0.157007279243652 0.893423843641677
-0.312017889185759 -0.154375656257575 0.903971174569477
-0.308871519640993 -0.156691828194889 0.907939682716155
-0.245724786417871 -0.151517786507141 0.870241148956813
-0.251588375505857 -0.151334224312379 0.887848909521142
-0.25440886858338 -0.154361364520909 0.89590833647932
-0.324293142054529 -0.147999183474394 0.961185416102496
-0.325707264006151 -0.147258002782956 0.968146466884497
-0.325635919946996 -0.153175718502229 0.974187388323892
-0.322445437334547 -0.148762146249224 0.985497032754702
-0.315361302514312 -0.153902197120202 0.99365111971788
-0.31404583482861 -0.150294297549072 0.995174336761119
-0.305285373924959 -0.151018366423174 0.999059643270733
-0.295602172805961 -0.154678187125311 0.999492721825056
0.0138406840506479 -0.161236055461751 0.12503743466781
0.00804111588970565 -0.162885588081737 0.14720664561403
0.00863254302220112 -0.162728164186739 0.151983779352077
0.00840200069269962 -0.15799642762215 0.15777601835952
0.015209215117235 -0.15702716633128 0.166953609188623
-0.0512253726305242 -0.152474721621329 0.376417261781906
-0.0561263088519882 -0.161016586382716 0.382693348400661
-0.201949938610573 -0.153363178198586 0.531123472137755
-0.208150374898454 -0.147647841428851 0.540991654941233
-0.214330370836911 -0.149617050045622 0.560196146325364
-0.216084391160166 -0.150772553288994 0.566164319067519
-0.217762406109008 -0.151249592554843 0.578588776211638
-0.219582592783407 -0.150411301774762 0.5920659097393
-0.21990673138212 -0.14487677500993 0.595714759747032
-0.219463997950848 -0.151477847095283 0.604196388613411
-0.218987942986734 -0.151740992294993 0.613316365689025
-0.217630999357277 -0.146775090165837 0.630852877022687
-0.217208846905136 -0.148471674429608 0.633909266797826
-0.215738798377873 -0.152027674509326 0.644552452315461
-0.215222016080332 -0.148105581390421 0.648293974931789
-0.214387468440502 -0.153141781948372 0.654336134216927
-0.21349815851674 -0.152676854135483 0.660774772620299
-0.211892417748631 -0.151427321910229 0.672400398028863
-0.210647547793045 -0.148942451522731 0.681413304226458
-0.209275617867245 -0.149246343330736 0.695172476106063
-0.208960504538229 -0.145188355383036 0.699546201362103
-0.207962742991274 -0.144955964890727 0.713395043780347
-0.208015605096521 -0.145642541286418 0.721219566735298
-0.208627131234688 -0.14863108674784 0.731033041190018
-0.209253783078016 -0.14901795321457 0.741089288946669
-0.209925955731893 -0.151130834879388 0.747482783261251
-0.212924156965914 -0.15212690432421 0.763751745155794
-0.215999263446481 -0.151897886535146 0.77786897410075
-0.216774953323216 -0.150383394967584 0.780555313627817
-0.220720946997826 -0.14628840409862 0.794220928069354
-0.226570002603564 -0.151330921708458 0.812721284927658
-0.227020197405043 -0.148182765805985 0.814073174044172
-0.312635886136716 -0.145274987137349 0.895235653047216
-0.313097579765024 -0.14580485071233 0.896923979306212
-0.311525497048585 -0.145310352438527 0.907133151828012
-0.24717175106225 -0.151005858987401 0.874586236346287
-0.249826851231399 -0.145093126722665 0.882559231614404
-0.253719200400461 -0.142682951025181 0.893956864979482
-0.255625112426159 -0.150373194408346 0.899349796089634
-0.325933543715294 -0.143212324980652 0.970665211949472
-0.325600074137025 -0.141645458162205 0.974611599285679
-0.322885940190089 -0.144150763755157 0.985208511190657
-0.317674979027844 -0.145889495955183 0.990504034311397
-0.314516825346218 -0.140463752608717 0.994628963589719
-0.308977578846168 -0.145901541252293 0.998549719275422
-0.294517489172169 -0.148800213426505 0.999301292885333
0.00951064739019339 -0.153066479454935 0.128094391230406
0.00229628767451685 -0.145844934594169 0.149165945383919
0.00500501275896512 -0.152087782188911 0.152686464806508
0.00447195867636188 -0.14716925844609 0.157402361962221
0.0145573384368547 -0.153490807412127 0.167710029208371
0.0187789583415755 -0.15171373103473 0.168444636984967
-0.0519591669263696 -0.146679746466786 0.382099851702171
-0.0505026976240612 -0.148703171473022 0.389326465520559
-0.200153115906914 -0.137875685416115 0.528299899157387
-0.208703063578771 -0.136507132622249 0.542709150451837
-0.212158025595776 -0.136285435858826 0.553445531199415
-0.217431117222691 -0.14000765707529 0.576135831549011
-0.217382633687406 -0.139945112704369 0.57577684692769
-0.219342690428134 -0.142549080259524 0.590289613403936
-0.219735670072662 -0.141502868074155 0.598991847101305
-0.21903294386375 -0.139768842337708 0.612454254743147
-0.218695373957887 -0.137767806342729 0.618921240384649
-0.218005079380012 -0.137959131520113 0.628144532322166
-0.217278005204825 -0.142471119837033 0.633408559721595
-0.215839185769456 -0.142113612678025 0.643825640156924
-0.215306136482394 -0.141992176211796 0.647684937763491
-0.214499660586493 -0.136941450040891 0.653523852941025
-0.213108974138243 -0.140511507756286 0.663592478390835
-0.21187626345149 -0.138019775304123 0.67251735100491
-0.210446246638149 -0.140726051171924 0.682870729526472
-0.209316517802645 -0.141679187801102 0.694604785684788
-0.20888589623413 -0.136517220913458 0.700581748062898
-0.207937435264165 -0.139393156955319 0.713746316174044
-0.207889081567944 -0.142187524741197 0.714417467658434
-0.208854383078229 -0.144041455580122 0.734679868401781
-0.209088840088171 -0.135933777140325 0.738442331454363
-0.210310224429043 -0.140760445057978 0.749567912111277
-0.213425924172924 -0.138728040298421 0.76647445893553
-0.214514417918643 -0.135746128975366 0.772380896979363
-0.218996878014875 -0.13833242491714 0.788250198277461
-0.224039034273082 -0.137318763688858 0.805121044922722
-0.222888903214173 -0.135025271033915 0.801667318544733
-0.227767894939617 -0.137631721728017 0.816318433554303
-0.317149188507604 -0.13057296100842 0.902185223481325
-0.314660576821142 -0.133328916496947 0.906171096336094
-0.240306014315092 -0.136972819683769 0.853969128474701
-0.246520521869241 -0.139820028072237 0.87263066143629
-0.252880669515538 -0.133654765932442 0.891584174511533
-0.256531490046042 -0.133784536203961 0.901914464341844
-0.320849477717125 -0.13159733739006 0.955643330223442
-0.325756196766298 -0.133583618916971 0.972763993365347
-0.325436285642079 -0.133931160030081 0.976549925551077
-0.323813299868121 -0.133379060375274 0.984512937299571
-0.319907896028916 -0.129456390816635 0.986843826840307
-0.314110231667856 -0.138540268125315 0.995099769849186
-0.302387985405486 -0.133313757717795 0.999459796556196
-0.294143987999359 -0.136242136527841 0.999235376030622
0.000266083131075405 -0.138832752003823 0.143917946114963
0.000820391522964286 -0.141633643450341 0.150668908913453
0.00365833181177592 -0.144288945272709 0.158289553999406
0.00614286994924398 -0.141359834694733 0.16494286438755
0.00901788682616892 -0.142695102670113 0.167395914907495
-0.0519591669263691 -0.141848748125988 0.384508600151418
-0.0501073721446798 -0.137965772117946 0.39038066679891
-0.205813302575721 -0.131221019224745 0.537194464818301
-0.209197782458277 -0.129358807880481 0.544246502771737
-0.214773938981675 -0.129048884730898 0.561574548483183
-0.216702989654121 -0.131900191322624 0.570744589315575
-0.218025270668889 -0.12732701662327 0.580535101946347
-0.219429408700412 -0.127679237188301 0.59093170321932
-0.219630564182432 -0.127905160555329 0.601005390505561
-0.219138240326238 -0.131599885707915 0.610437040459007
-0.218441080866087 -0.128350629496676 0.623792922392492
-0.218067831561559 -0.125723364692843 0.627690205632665
-0.217994751572325 -0.129896738566871 0.628219305797141
-0.21592416565911 -0.129146105870488 0.64321037782849
-0.214533959359409 -0.13073664046996 0.653275526280399
-0.213768125394962 -0.128457153953375 0.658820193272544
-0.212931085814045 -0.132185652290778 0.664880393843597
-0.21189498290599 -0.133151833056891 0.672381819693083
-0.210737443404231 -0.13490328256902 0.680762451501275
-0.209659710178593 -0.126820158627319 0.689841314374544
-0.208880870045895 -0.127020878964985 0.70065150436661
-0.208195706540691 -0.129676801519571 0.710161499207329
-0.208002659109247 -0.133526292180704 0.71284100626259
-0.208424967893219 -0.131040167167036 0.727788822074321
-0.208656964596927 -0.12818069924021 0.731511792497523
-0.210239195316592 -0.128528745248126 0.749182495909479
-0.211214504468963 -0.13027786501553 0.754474745090857
-0.212751691510486 -0.126495889979229 0.76281590465952
-0.218681801041968 -0.128285843341119 0.787159035750043
-0.21960055535931 -0.130827988163921 0.790340830578578
-0.223648741208769 -0.12935510236425 0.803949034619269
-0.227679340539435 -0.133475705820233 0.816052513713753
-0.317032572993433 -0.126597501288435 0.904976770357376
-0.316638826316864 -0.123134243293074 0.905580814166834
-0.243677791938497 -0.129518685049963 0.864094233112528
-0.244897011240111 -0.129219003892372 0.867755424443655
-0.252120709538523 -0.126908009318738 0.889433806736287
-0.25331016606746 -0.131476040950703 0.892799469491223
-0.325136572025481 -0.121510300664754 0.965337221293083
-0.325960866483553 -0.120540545575336 0.970341865432507
-0.325107226494796 -0.126496160173508 0.979834094263759
-0.320211793662297 -0.122262377290008 0.986345676489168
-0.318743782673065 -0.125034235589484 0.988752046626461
-0.315413999307719 -0.121833948656834 0.993590100618198
-0.309110853152919 -0.126861864071063 0.998469253896441
-0.286570533004764 -0.122260390035172 0.995959605424399
-0.00285119958655047 -0.130048894660971 0.147757989569634
-0.00166254546710433 -0.133538707565371 0.147136328908648
-5.59820914006529e-005 -0.132909099453786 0.159668336137972
0.00375784669135719 -0.134566929269972 0.165394694268623
0.00478859397662518 -0.128814882825096 0.169115302526818
-0.0509189813314689 -0.125496734657818 0.388216375634137
-0.201824450239828 -0.120805185786841 0.530926278857704
-0.20504393459951 -0.118792317493085 0.53598546081221
-0.210554140167972 -0.116559867446287 0.54846142009738
-0.216843826336348 -0.123822275372294 0.57178738346536
-0.21753749664607 -0.122129850003541 0.57692349868451
-0.218726761832511 -0.124207663065968 0.585729125186949
-0.219695023477681 -0.123215676909331 0.599770513493387
-0.219323166474623 -0.12123104755848 0.606894326162972
-0.218842512643085 -0.118103151160263 0.616102402478114
-0.218464441268534 -0.118871914040713 0.623345389777705
-0.216670411604296 -0.120629727442531 0.637807546056221
-0.216499981453397 -0.116600634458865 0.639041462779768
-0.214338602043742 -0.116598002984954 0.65468991584718
-0.213618816535704 -0.123343974342944 0.659901193425344
-0.212883077584454 -0.125064854155501 0.665227972768969
-0.211740719747448 -0.118057440971038 0.673498685618125
-0.2102061812484 -0.123675286952182 0.684608806259924
-0.209274050241342 -0.118529013243681 0.695194213596958
-0.208780740608679 -0.117288891578183 0.702041280028745
-0.208238469638686 -0.120209774241696 0.709567945478462
-0.208175345735965 -0.118387893781603 0.723783006933072
-0.208561286437793 -0.123500583547252 0.729976395869438
-0.208750992845627 -0.119703758287001 0.73302071216432
-0.210950052362039 -0.117548453810218 0.75303976477482
-0.212179336472528 -0.122869667526373 0.759710163736276
-0.214405038623346 -0.121404339840747 0.771787377693204
-0.21846626430818 -0.122575543880229 0.786412597173395
-0.220814092354868 -0.12133751251971 0.794543505508985
-0.224557298593897 -0.124598096394449 0.806677339869897
-0.226806645906511 -0.118180279252469 0.813431900653781
-0.319268383785032 -0.117504749264105 0.903469703470935
-0.317579817196246 -0.119331888240402 0.905293367219859
-0.24234261913511 -0.115122169675233 0.86008484523059
-0.245924501975761 -0.11782437022594 0.87084087442726
-0.250161525814935 -0.119696109553761 0.883564225287296
-0.254869468799362 -0.120766144311127 0.897211641773908
-0.323223540254699 -0.115680150212313 0.958925020752987
-0.324980347574305 -0.117106324120388 0.964568202513065
-0.325380560206156 -0.113959303325711 0.97720939846543
-0.324125297905584 -0.118573926159638 0.984278920559281
-0.318261060980952 -0.116318500391644 0.989543326169353
-0.314669453717482 -0.114942030182805 0.994452230904517
-0.308767018685709 -0.119573258944339 0.998578799372698
-0.291331573360542 -0.118322904399216 0.998416115427819
-0.0053384764968715 -0.123149337329623 0.151476401024187
-0.00678851956505657 -0.117118962630611 0.15548061885102
-0.00305150924795385 -0.115436961155488 0.166506226912277
3.7147512885709e-005 -0.123579382349461 0.166363391107812
0.00649222982883367 -0.122231803136486 0.171818050589277
-0.0507419091994036 -0.121034761733314 0.375450334919665
-0.0519152965575027 -0.122882356580756 0.38555953503138
-0.0502435333272982 -0.113966087093943 0.390017570311925
-0.20806922270917 -0.107466835600498 0.540739478400764
-0.20979551551263 -0.115139895327219 0.546103975252143
-0.217053846336134 -0.114116578398758 0.573342429404974
-0.2180472617723 -0.109170554232546 0.58069793621881
-0.219266570913897 -0.108191389008993 0.589726017027237
-0.219814148646561 -0.115199567021661 0.597488377247417
-0.219452787380413 -0.113608513567546 0.604411119216266
-0.218951490793807 -0.115747755532959 0.614014661952941
-0.218458038369785 -0.108231907248206 0.62346805487416
-0.21711898034155 -0.107315087385553 0.63455990200006
-0.21577552774991 -0.114549727937254 0.644286517926709
-0.215365064565133 -0.109775123956662 0.647258284691649
-0.213491273662397 -0.113447708940158 0.660824605289828
-0.211890699323941 -0.115732182692848 0.672412826802223
-0.211522713805221 -0.112614979153461 0.675077055216654
-0.211265929649886 -0.113651961594425 0.676936182895307
-0.209114476590246 -0.110184374490514 0.697409067406978
-0.208469826026624 -0.108022092602158 0.706356723726752
-0.208395588860234 -0.10878895044149 0.707387125520801
-0.207905750786105 -0.110181887541334 0.719456678116616
-0.208101034007805 -0.11036186662264 0.722590488411837
-0.208904406370911 -0.112259035962916 0.735482617907047
-0.209281965669272 -0.115284456534415 0.741541583795196
-0.213768261291923 -0.109009787900036 0.76833206536775
-0.213548470582825 -0.111306775671769 0.767139426263477
-0.219568581584418 -0.113944887324943 0.790230100223703
-0.221440280292237 -0.114417601672559 0.796712095634987
-0.319609403767515 -0.108782150488961 0.888244696429603
-0.3220305968917 -0.10891995611916 0.895099407916522
-0.323109667282086 -0.103832909993052 0.896357333960082
-0.318720724616119 -0.104900066748424 0.904892542568391
-0.239988399217935 -0.111233001563283 0.85301536270114
-0.248177768927811 -0.107617151415782 0.877607205488982
-0.250180183105847 -0.114017889403728 0.883620251230831
-0.253746599470654 -0.109430917368147 0.894034392848579
-0.321532869127375 -0.104584951758236 0.956587989044975
-0.325925150484478 -0.105942663405182 0.970764540169979
-0.324891426764525 -0.10514347834905 0.981506514689946
-0.323691619495583 -0.109554862786496 0.984604204681796
-0.318046663848991 -0.106325290929122 0.989894766900829
-0.314276656355001 -0.108319315938207 0.994907062021674
-0.307804770935986 -0.109269488316338 0.998711693734601
-0.170122259168282 -0.107220959927309 0.163868299396086
-0.167116193717597 -0.100800641366459 0.167576248196025
-0.00684983391445721 -0.112763079390918 0.135702891936239
-0.0112207214670908 -0.105325454876006 0.151228876455374
-0.00746163008571395 -0.114624310278417 0.156316801168316
-0.00613829259536885 -0.112660076528621 0.163080049494255
-0.00229281461514459 -0.110777184138521 0.170191291273942
0.00496952371854313 -0.109909031442997 0.173057006447829
-0.0519591669263696 -0.11010210564479 0.37882397300908
-0.0519591669263696 -0.109360642385211 0.381189164261891
-0.0510574265400455 -0.10918391479571 0.387847188411267
-0.210301721500008 -0.10587809722927 0.547677024357555
-0.214207524154013 -0.10191345710389 0.559814404245862
-0.216353564032183 -0.100532263531741 0.568157362504525
-0.218336372570232 -0.100743962235078 0.582838590387115
-0.219718546655343 -0.100861161426249 0.593072564999738
-0.21978691801797 -0.100234445642823 0.593578804486878
-0.21928258531373 -0.103306082833158 0.607671739340902
-0.218797436036442 -0.103822578351908 0.616965961189827
-0.218460235004156 -0.100158636642486 0.623425972314752
-0.217204691409539 -0.102625351305712 0.633939352645224
-0.216198755928412 -0.0976149238923164 0.641222339877373
-0.214880910526713 -0.100936579457804 0.650763575690417
-0.213393450988022 -0.103432771417292 0.661532841711524
-0.212768155042437 -0.097835600993482 0.666060006780862
-0.211600883447137 -0.105105820992308 0.674511101288001
-0.210093192042165 -0.101623469079011 0.685426844685699
-0.209939181645312 -0.107069320076561 0.686541887907642
-0.20885620521728 -0.105386541565191 0.700993833923575
-0.208488076981639 -0.101019819493535 0.706103398304813
-0.208063671918348 -0.0984916362944661 0.721990919746521
-0.208792858224849 -0.0992616744999806 0.733692547436596
-0.209436111558216 -0.102049424411164 0.744015292887074
-0.209796024738013 -0.106762758246376 0.746777761248323
-0.211747100794533 -0.100850275183789 0.757364745342781
-0.21329829352991 -0.105914376780955 0.765781903293002
-0.218465885113515 -0.103384375277852 0.78641128396093
-0.220287773119383 -0.102462479953181 0.792720776853444
-0.224574886104644 -0.10145245093398 0.806730153372602
-0.324136297950375 -0.0981685915974331 0.899747646321823
-0.320392592986304 -0.0957560327560112 0.904358249428582
-0.236833968250261 -0.103144421868374 0.843542927924064
-0.241710952034954 -0.102056715359417 0.858188013292162
-0.246513743167908 -0.100362756534997 0.8726103056869
-0.248214286149062 -0.0996789244980634 0.877716862983498
-0.254519035320772 -0.101681399077803 0.896220062108508
-0.256623643363894 -0.096404952064099 0.902175219554072
-0.325947324677831 -0.0989846230789096 0.969328171563089
-0.325832012434371 -0.0968532515734871 0.971866766116249
-0.324643370822269 -0.102170370236089 0.983428916650998
-0.320922228249242 -0.0953304752938808 0.985965718595307
-0.312036310015141 -0.102753566007456 0.996702987007898
-0.312512252423598 -0.102226145637706 0.996415633149509
-0.170225434646616 -0.0957564416199865 0.16638944306041
-0.163214026546815 -0.0970916031290527 0.168135007443679
-0.158082194180591 -0.0970801430594702 0.166391169608533
-0.153864737648828 -0.0918076190775342 0.168823259400563
-0.0126871956736377 -0.0956324158475006 0.137428802938095
-0.0133657584188331 -0.094991608887863 0.139834710979681
-0.0141457496729449 -0.0964919582814252 0.151283854047546
-0.0118905141316669 -0.0990743277463832 0.160646338613877
-0.00872597913835123 -0.0982637155549294 0.168264730013637
-0.000807371495403253 -0.101761394598543 0.174102030226587
-0.0519591669263696 -0.101954178311721 0.383921274147585
-0.0519591669263696 -0.099203749163781 0.384421968276103
-0.201184594554683 -0.0918832199065985 0.529920795070706
-0.205507941301895 -0.0911628339988195 0.536714615118872
-0.213230381369461 -0.094490718224645 0.556777909686684
-0.216991937415049 -0.0919248655366635 0.572884047534706
-0.217556312043275 -0.0881965989288779 0.577062824811957
-0.218753527710028 -0.0904328034390129 0.585927318672051
-0.219476711108968 -0.0879982375681191 0.603952779161473
-0.219179657884183 -0.0967713385495617 0.6096435555888
-0.219155001156184 -0.096206375898831 0.61011591394624
-0.218557996345952 -0.0946915825211046 0.621553085534701
-0.217535158440127 -0.0927773266652012 0.631546766629942
-0.215410048955961 -0.08838329474576 0.646932589608132
-0.214752757282279 -0.0918068265933664 0.651691406938169
-0.214042464086169 -0.0892260181560061 0.656833956492005
-0.213006402676657 -0.0884070503786221 0.664335081255857
-0.211706637428406 -0.0911430954524087 0.673745433371446
-0.210117027673769 -0.0894632995549951 0.685254269459736
-0.209150607100163 -0.0910005598148676 0.696907568014155
-0.209062114880494 -0.0911890904273024 0.698135827518568
-0.208112010651724 -0.0890117812187838 0.711323201921041
-0.207862752223733 -0.0918394816455047 0.718766658071519
-0.208834272473369 -0.089500826660863 0.734357143182461
-0.209372273400221 -0.0943255170206844 0.742990838680352
-0.211077877944444 -0.0910607248808422 0.753733381519937
-0.211185734538166 -0.0940717295612124 0.754318634187447
-0.214733929585861 -0.094779208848189 0.773486918247414
-0.215932395631475 -0.0949265301382685 0.777637400040127
-0.220143346381708 -0.0887601711654582 0.792220603696852
-0.325762505846517 -0.0913266710464517 0.892546840032785
-0.327032469811504 -0.0853396980686522 0.898162745909624
-0.235072843167454 -0.0900113227784597 0.838254448749181
-0.237165843222371 -0.0958747675313421 0.844539514649112
-0.24507127297251 -0.0948213625326315 0.868278714669755
-0.248014261882758 -0.0870020167297937 0.877116210493138
-0.247500588364157 -0.0887535463904287 0.875573701257236
-0.252869840983035 -0.0912871923626228 0.891553534309349
-0.257291505283051 -0.0897279648276849 0.904064988479679
-0.324529398792028 -0.0877725088077901 0.962348395819657
-0.325713810788139 -0.0911927401646237 0.973265602802436
-0.324509881677821 -0.0861489203931665 0.983990460280881
-0.319160183468123 -0.0897951971745957 0.988069480592743
-0.315924479064988 -0.0940364004042722 0.992999001745188
-0.303150799297316 -0.0910701084973916 0.999354445657288
-0.292222796922874 -0.0908597134252492 0.998783087348421
-0.286627202431263 -0.0896348604697572 0.996026838358495
-0.165335575712739 -0.0821968450544408 0.151278539163313
-0.16221969885647 -0.0812908845041572 0.158181996280838
-0.157298035072395 -0.0824655480664351 0.164929641637194
-0.152443956000129 -0.0812284765601074 0.167550876093811
-0.149214129592884 -0.0860421430167718 0.16999813787372
-0.0114068655863309 -0.0864669602959538 0.129545502608795
-0.0171878150957041 -0.0864288760707719 0.146084210828139
-0.0142703976892877 -0.0931840517550988 0.159628001703131
-0.0135852248997931 -0.0856205923922015 0.168376610142399
-0.00852894507117422 -0.0922909975696758 0.172040330279079
-0.000207537736687809 -0.0929726257120608 0.174905852654808
-0.0498849241152413 -0.0931849138778717 0.390973861544078
-0.0493704863077189 -0.0933431743542943 0.392345695697471
-0.208536647374841 -0.0873064391810249 0.542192015184844
-0.211907125025691 -0.0819677624097999 0.552665859408672
-0.217233448317616 -0.0860528885728946 0.574672258928598
-0.216763455714333 -0.080765983963442 0.571192313736275
-0.219932232308634 -0.0846159965118893 0.595226172820614
-0.219641685511822 -0.0860850638300606 0.592503470450354
-0.219340128447253 -0.0841996699498202 0.606569344773022
-0.218512758350216 -0.0867544942341311 0.622419743485721
-0.217753711049615 -0.0854599633664575 0.629964442619795
-0.217113275794079 -0.0849178448678068 0.63460120300512
-0.215288926777075 -0.0874157701246222 0.647809517301739
-0.214943920817313 -0.0835010520823033 0.650307372528645
-0.213030996340024 -0.0799632844111402 0.664157019171403
-0.211887125240078 -0.0853751432629197 0.672438692517972
-0.211406939393825 -0.0818771434746713 0.675915255548924
-0.210158394722392 -0.079697465940093 0.684954766941203
-0.209210067247504 -0.08723502228666 0.696082267091454
-0.209148079854354 -0.0820749788025966 0.696942639742709
-0.207807393638085 -0.0824487410001639 0.717878290376029
-0.207735226291669 -0.0791482272566356 0.716720183851507
-0.20896042639735 -0.0796004709737688 0.736381622505125
-0.209019880774881 -0.0801619161531974 0.737335732516916
-0.210026484269488 -0.0807407010969037 0.748028292136245
-0.211646945545056 -0.0845093934569641 0.756821278025559
-0.215722122215713 -0.0794078578375843 0.776909189185254
-0.215706105398191 -0.0864217884308496 0.776853720355122
-0.220848423686995 -0.0813274545312796 0.794662400465946
-0.328416724488181 -0.0788139260214622 0.891267068107444
-0.327849787674569 -0.0814866281427787 0.896991820350082
-0.325147055379492 -0.0787491523705092 0.902948277431456
-0.238229613939939 -0.0858115704723258 0.847733909721691
-0.239743043837111 -0.0862882992412363 0.852278585492867
-0.247674174510689 -0.0820940174878507 0.876094962767814
-0.251611983969085 -0.0854908794014514 0.887919803330645
-0.253788056339141 -0.0797336358158518 0.894151698386701
-0.32479345798446 -0.0843712696622631 0.963648233818678
-0.326000300640932 -0.0794373554413203 0.96987518880161
-0.325804935989439 -0.0773637488270051 0.972187197562929
-0.319771830952927 -0.0771450404420061 0.987066865317532
-0.318174770575015 -0.0762822849777125 0.989684773786234
-0.317501799107088 -0.076623617179828 0.9907879116071
-0.301272761581271 -0.0777673408949301 0.999613818177489
-0.293051317802589 -0.0846922161096852 0.999042537593018
-0.154450254655953 -0.0740505192126672 0.142544538079777
-0.158559578599972 -0.0791822324150658 0.159849833698184
-0.155369593063091 -0.0768689753620249 0.160253761229145
-0.150566713342701 -0.0776854071805136 0.165930042256474
-0.137653161012135 -0.0783861680922891 0.171444616258889
-0.127967404815957 -0.0785822126349635 0.167501975265367
-0.126727990417416 -0.0728549417545681 0.171762943193726
-0.0182337334239543 -0.0844489426710065 0.153176119116218
-0.0193967889917178 -0.077664063174297 0.16127641015916
-0.0174396129311943 -0.0746513422844372 0.169100973430598
-0.0149874984148797 -0.075666792054892 0.172669578301204
-0.0485121617958568 -0.0821835946070292 0.370990840112571
-0.0519591669263696 -0.0750775594622604 0.382536312926696
-0.198321777773839 -0.0784715507161296 0.52542209095949
-0.208139609566717 -0.0755877951146203 0.540958212009406
-0.213440597204203 -0.0750455100587562 0.557431163530399
-0.217081600901054 -0.0704405781480863 0.573547946804725
-0.218120462259728 -0.0717411960168621 0.581239944872175
-0.219253017773803 -0.0743310337910165 0.589625678101136
-0.21962091790471 -0.0769482030545251 0.601190141290777
-0.219050365136321 -0.0768043818562433 0.612120450518511
-0.218768773596985 -0.0763662863488935 0.617515068873476
-0.217656925902371 -0.0701091342626518 0.630665168466391
-0.216984883983654 -0.070745178348255 0.635530761543993
-0.216542700816567 -0.0784902666045512 0.638732173981055
-0.214509330420482 -0.0783210478939536 0.653453822127729
-0.213670709354556 -0.0749615811434121 0.659525470192448
-0.213036341795091 -0.0718661206213233 0.664118314989729
-0.211713729610207 -0.0780275661903438 0.673694081036161
-0.210645184515462 -0.0760242164430215 0.681430388528319
-0.209284398913185 -0.0733569442296353 0.695050544725883
-0.209273746648656 -0.0709011691158684 0.695198394963307
-0.208087323182782 -0.0767601766662575 0.71166586510341
-0.207922384915104 -0.0789824100789264 0.713955215697802
-0.208656260037536 -0.0700611959535649 0.731500486070633
-0.208615776714125 -0.073518174782634 0.730850829358763
-0.210931495820383 -0.0728199254332874 0.752939085010969
-0.211854654422498 -0.073811717217218 0.7579483581035
-0.215717541353711 -0.0727625167679677 0.776893324919092
-0.219346806968536 -0.0740942765498763 0.789462058852257
-0.218543789566373 -0.0767050169167229 0.786681079683838
-0.329811586141404 -0.0684606660792828 0.89095956297563
-0.329187771370057 -0.0751789907211915 0.896346907082032
-0.327595250112585 -0.0755906479851629 0.901471113736474
-0.237212623179627 -0.0702402212519412 0.844679990094136
-0.240199570009455 -0.0746992375984078 0.853649487070951
-0.244931195787822 -0.0763179225306285 0.867858077157218
-0.249252829888942 -0.0747819099445914 0.880835504012564
-0.255574093098204 -0.0708691064476691 0.899205432804638
-0.318180605436774 -0.0739312688636322 0.951954121220573
-0.324376987322945 -0.0692053723475205 0.961598146539644
-0.325512461516935 -0.0671041882762248 0.975648435497864
-0.3251722044356 -0.0670133603833721 0.979330523497862
-0.319151255354218 -0.0748129770771854 0.988084115596732
-0.313648708366089 -0.0709341466050487 0.995634180665008
-0.307025772428954 -0.0749963724834816 0.998819279862545
-0.150577256572486 -0.0711024445564216 0.142246906439275
-0.149339020231543 -0.0702167161619926 0.147807222500823
-0.144415044407416 -0.0665896158482115 0.147741658565392
-0.142525114540265 -0.067618412629298 0.161948191200411
-0.137284806839643 -0.0707456921746731 0.169847741176762
-0.134759604975194 -0.0670842212507134 0.168914989612463
-0.126079824225503 -0.0655173497363332 0.173117459101706
-0.122693972579137 -0.0684221657365566 0.17331988485064
-0.0238723993268838 -0.0666611288304649 0.148726819579566
-0.0223592088454927 -0.0724975826559895 0.157070953959479
-0.0225038210343787 -0.0713843366747989 0.152241953458752
-0.0217819711568532 -0.0699549238712171 0.162705500568636
-0.0148381729426428 -0.0717733737111953 0.174539882775935
-0.0519591669263696 -0.0669759739526529 0.384372702580257
-0.201721881095028 -0.0631375042899399 0.53076510331268
-0.208484215486286 -0.0625741561058413 0.54202908542221
-0.215005084061355 -0.0638456822160753 0.562292847257394
-0.216898913156852 -0.0669849241731124 0.572195280612789
-0.217252229802856 -0.0610826245285302 0.574811330721962
-0.219317082738626 -0.0668507126899603 0.590100034339522
-0.219891851115106 -0.0615036610619947 0.595999750374313
-0.219411950348581 -0.0674222764654507 0.605193408235975
-0.219055604388116 -0.0611322496522402 0.612020065652517
-0.218128175908134 -0.0626623223084351 0.627253311702696
-0.217200683383112 -0.0646895764847704 0.633968370813726
-0.21648936747559 -0.0696494867874138 0.639118308130483
-0.215622794088949 -0.0619470584147545 0.645392311810672
-0.213618481913213 -0.0613483224247091 0.659903594067765
-0.212004006837651 -0.0649319061849451 0.671592457921314
-0.211398077433129 -0.0679117776000972 0.675979411526113
-0.210087340715872 -0.0618062849444458 0.685469194362769
-0.209913179846173 -0.0690198649732134 0.686730128423208
-0.208776862736515 -0.069363330484661 0.702095071681102
-0.208575157361979 -0.061825027261 0.70489470834727
-0.207899120736455 -0.063200614708391 0.714278123546724
-0.208741320074317 -0.0628188599444638 0.732865488228283
-0.209349261051174 -0.0684765202364439 0.74262156235276
-0.209329292919548 -0.0658327462433462 0.742301120387307
-0.212451262969382 -0.0658499040110045 0.761185704604069
-0.212935806713938 -0.0650424777685132 0.763814959588764
-0.215515262015927 -0.0679062551507392 0.776192798849465
-0.220293422527208 -0.0665733592542251 0.79274034166665
-0.329998721122821 -0.0609752668226214 0.891550781325743
-0.328797872513751 -0.0582179243125037 0.900832536434156
-0.234937402601322 -0.0652806833494424 0.837847734529721
-0.239375707332061 -0.0651628688054653 0.851175511397732
-0.242611653728847 -0.0622530821380918 0.860892728702461
-0.245813794440006 -0.0599681134493533 0.870508430977865
-0.250101616690253 -0.0604411628426924 0.88338432429028
-0.255219749684935 -0.0667830266088959 0.898202789665117
-0.255605317558633 -0.0655907481454959 0.899293784922561
-0.325908833679437 -0.0624002142877501 0.97095763854229
-0.325757358003053 -0.0634102182633537 0.972750250912291
-0.324101498289689 -0.0653734243609602 0.984296771660452
-0.316817748864376 -0.0609215036653974 0.991909209804828
-0.312646237731622 -0.0665522137507325 0.996334738498088
-0.308712505080348 -0.0642325118936398 0.998586328151853
-0.299024542188412 -0.0613704515825443 0.999924315844766
-0.133342394515235 -0.0586365241737987 0.141754881406476
-0.127353944687999 -0.0540831013666211 0.145970197674041
-0.126063517541661 -0.0532796264124208 0.15613384343213
-0.131373213558418 -0.0592687747845021 0.163080086950839
-0.126664667193867 -0.060712910775832 0.169483727233785
-0.11433574995778 -0.0585954451022087 0.174634723817594
-0.0257757972859326 -0.0568565467554614 0.140610261722806
-0.0279739612352674 -0.0550378822695309 0.153383987898708
-0.0259546104001134 -0.0586490120358287 0.162247519688791
-0.0205286814389932 -0.0601705435812884 0.173526150175671
-0.0156536987582212 -0.0632322314881525 0.176903623176303
-0.011913250395763 -0.0590244517191086 0.178674673316622
-0.0654444369593464 -0.0545340030342708 0.375662559146972
-0.0519591669263696 -0.0639210022072224 0.380676609377912
-0.0645460753192822 -0.0554323646743351 0.398426366815599
-0.0646432340489591 -0.0553352059446572 0.400206778234565
-0.210927363159541 -0.0544908299599238 0.54962122899542
-0.21070084632211 -0.0604870480444724 0.548917321386024
-0.216495789258533 -0.0570312233628652 0.569210450290716
-0.219104615043001 -0.0535918169436261 0.588526873242194
-0.219428431218316 -0.0579069761510261 0.590924490479664
-0.219676236803512 -0.0523869375170977 0.600130352269297
-0.218978918443014 -0.0578701380899039 0.613489167665551
-0.218436812905164 -0.0577998744331594 0.62387468689617
-0.217489979521562 -0.0531342756555778 0.631873862644788
-0.217272019098365 -0.0577947348251344 0.633451899217754
-0.216507531601646 -0.059370153802756 0.638986799598743
-0.215699675718756 -0.0589743391085505 0.644835687714223
-0.213991766442832 -0.0583018833660238 0.657200998416572
-0.212900423657592 -0.0518520085924708 0.665102360497388
-0.211048100617915 -0.0525886793587466 0.678513251885251
-0.209955484879292 -0.0581106057266579 0.686423834453853
-0.209299522103885 -0.0530269536648055 0.694840623143728
-0.209096932230885 -0.0592325385307991 0.697652545888298
-0.208055208254425 -0.0559514787141308 0.712111621757449
-0.20806000559569 -0.0552246124678058 0.721932084381194
-0.20856018513027 -0.0534751791397433 0.729958722621201
-0.209061399504647 -0.0546382984603354 0.738002036148646
-0.210395313491529 -0.0512229097459544 0.750029648191893
-0.212782529777557 -0.0533571322675244 0.762983240773803
-0.216013490758014 -0.0582262429157144 0.777918245582153
-0.216437737250012 -0.0513707635362764 0.779387479814614
-0.328727771336797 -0.053553949200853 0.886397546341499
-0.33009664864667 -0.0570581658686515 0.89232198931728
-0.328586166755272 -0.05352218171035 0.901713981525517
-0.234745346088699 -0.050793618284419 0.837271008391798
-0.237324087880092 -0.0507473824242302 0.845014707232002
-0.242614074089751 -0.0586102892614686 0.860899996799637
-0.245995423801633 -0.0553560781914609 0.871053845443815
-0.251901317862787 -0.055962934432679 0.888788643531929
-0.255856875369985 -0.0532038851078499 0.900005587948381
-0.256762993834214 -0.0515805392747147 0.902569522898858
-0.324665226864777 -0.0498141432690669 0.963017012915191
-0.325481540188938 -0.0570633622828476 0.97601436853998
-0.320065538306838 -0.0547873378391874 0.986585418917786
-0.31775825554445 -0.0491712502531343 0.990367527075301
-0.315662181943767 -0.053341993621128 0.993302722961436
-0.308089733057945 -0.0563404905447423 0.99867233811192
-0.294403117526904 -0.0566885276088271 0.999281108158556
-0.12110713893725 -0.0502803601452633 0.139730328236561
-0.124978483517824 -0.0520516799890033 0.153063493631479
-0.118016789142344 -0.0481905769767751 0.160867472153709
-0.115082505255649 -0.0452347896139809 0.157674004171869
-0.111419951294316 -0.0439632875033903 0.164662096252916
-0.105648922412102 -0.0448030074791701 0.171424212046255
-0.101899009709564 -0.0479010724191892 0.176257533937419
-0.0306207420610468 -0.0481034646947672 0.154834275868555
-0.0313351545930767 -0.0460396062689034 0.160340925958615
