ply
format ascii 1.0
element vertex 859
property float x
property float y
property float z
end_header
0.208935377470588 -0.0722275042063797 0.487676879016368
0.202983305415154 -0.0649475291338286 0.487676879016367
0.203962558462922 -0.05141713983061 0.487676879016364
0.206164507887857 -0.0371715360320045 0.487676879016362
0.20893136808403 -0.0186797511940108 0.487676879016358
0.212017534510782 -0.0048650393191544 0.487676879016356
0.214302119138517 0.00552413614281262 0.487676879016354
0.207774024374607 0.0095714384671899 0.487676879016354
0.211626951484669 0.0288608793694854 0.48767687901635
0.209325319814097 0.0360555175865949 0.487676879016349
0.214017753194349 0.052050040177245 0.487676879016346
0.211629291801278 0.0620941011413302 0.487676879016344
0.212505341671712 0.0711633226793402 0.487676879016342
0.211603599842025 0.0810138227438127 0.487676879016341
0.219046977644746 0.0969452433629473 0.487676879016338
0.216524998919506 0.111804498453178 0.487676879016335
0.218721005294606 0.123739404391944 0.487676879016333
0.222845086690512 0.135794585497822 0.487676879016331
0.223025640734057 0.14059442642869 0.49312928433338
0.220367316186373 0.140503134488389 0.514718058998277
0.221764506059679 0.140504719520664 0.514343229582675
0.215012019615691 0.140464295198518 0.523902798356541
0.220496660050913 0.1406902415562 0.538114427651214
0.218407049958391 0.141236172705645 0.553522007107435
0.222066017684827 0.141400394284906 0.558156761935859
0.216360478698455 0.141987049715189 0.574389654168581
0.216327177392228 0.14246466882102 0.580740499657157
0.219133995973807 0.143501252531043 0.594523832229016
0.220676639719464 0.144245949158881 0.604425976346654
0.224170742389785 0.144865903598367 0.612669438149302
0.218938048902359 0.144965212070815 0.613989931313266
0.21810055371866 0.146086542403528 0.624838812001054
0.219184448591784 0.147447961437981 0.636654986658975
0.218282782207703 0.148484350466751 0.645650125897949
0.220928832021548 0.150251290035928 0.660768167764393
0.223235352616824 0.15178091301092 0.670598969419854
0.225857886695392 0.152231371237464 0.673494039349903
0.225659772511953 0.154765244830644 0.689779103788554
0.220350703374383 0.15648488702098 0.700831148356373
0.222803996978523 0.158375093199838 0.710873605187199
0.222951306406358 0.160398203088832 0.721170648200176
0.222533064901285 0.160504932101834 0.721713867944979
0.224542367711309 0.163005913993595 0.734443140958885
0.225143116927305 0.163994633700259 0.739475437722732
0.22599242786094 0.165223061539521 0.745648530702083
0.224202758914526 0.168061607746242 0.757575348091261
0.225812737187533 0.171562833666579 0.772286569663513
0.219991144564588 0.173251285425766 0.779380995589918
0.220564066186485 0.173773471393473 0.781575082360568
0.226063255194622 0.177029598716871 0.794059159801837
0.217589456286551 0.180637298807255 0.806929529147231
0.228224988501344 0.181238144638412 0.80907302987426
0.221719575316025 0.184619374029564 0.821135471323211
0.228292694567986 0.185951457395059 0.825887641537827
0.2284117859444 0.190091683031964 0.839091848827797
0.220064149967139 0.19211908720426 0.845357474864334
0.221011929615927 0.196871972699996 0.860046111455751
0.220041446135304 0.198473316875413 0.86499501305912
0.221913288365943 0.202746244538791 0.877219864295755
0.227142404145528 0.204442104169724 0.881828605511996
0.222331987286028 0.207620166324068 0.890465444181507
0.230159446952779 0.213138521337388 0.905462363579701
0.22881687553442 0.215020925130171 0.910578065249321
0.223111209589861 0.217571832847014 0.916751346119539
0.22426503868393 0.222945366751227 0.929741213627735
0.223196625563193 0.226272550401774 0.937784277199394
0.230756105750841 0.229870298038555 0.94648139644397
0.227791012981166 0.234258697100751 0.956422983423915
0.22692343556115 0.237779903050093 0.964062807127485
0.228823483666696 0.240766736313488 0.970543223181692
0.224135634826936 0.242558380886694 0.974430484783447
0.230489784491261 0.247251897536658 0.984613825454612
0.231069065119725 0.314661971731024 0.961876339810892
0.220053685465859 -0.0134579405812009 0.0667444427596385
0.219980403998118 -0.0134817511734385 0.0725421035737372
0.214262854863648 -0.0153394955014079 0.0925716011744843
0.222089961141651 -0.0127963145071765 0.0893392224972634
0.219772115502745 -0.0135494282080848 0.106234973402792
0.222477281923382 0.000619530008760853 0.106615356682321
0.217829260624539 -0.00280496794768548 0.107006696611599
0.219157410522693 0.0170165360370945 0.106478958954412
0.217744037181145 0.0291680349584503 0.106306757401027
0.219509434191454 0.0292946535863627 0.106184034569718
0.203993095241854 -0.278276815634663 0.412635319109144
0.199997547474753 -0.279200555183724 0.427676689228293
0.200724391215259 -0.279032514567453 0.432526909538004
0.203351350836139 -0.27842518194697 0.441292757680837
0.202914474265668 -0.278526184410134 0.452013217006004
0.198756002870161 -0.27948759063416 0.463744354362398
0.203612155765678 -0.278364885876901 0.474998667756055
0.199334732119226 -0.279353792935621 0.484093639850174
0.201394573185905 -0.275029394445293 0.487676879016404
0.204029006171493 -0.274703241007304 0.487676879016404
0.197496334582347 -0.253806750980032 0.4876768790164
0.200172313861513 -0.242608186614455 0.487676879016398
0.199997746167574 -0.236398259641278 0.487676879016397
0.20467866887247 -0.227128391093373 0.487676879016395
0.206147909349317 -0.221819971390602 0.487676879016394
0.202009867586125 -0.209153179580289 0.487676879016393
0.206962003470591 -0.196055152744838 0.48767687901639
0.211244473145639 -0.178877712679107 0.487676879016387
0.206530681583195 -0.176569222787693 0.487676879016386
0.204479293953979 -0.175766203649601 0.487676879016386
0.210859870286568 -0.149164131464042 0.487676879016382
0.209772368966506 -0.149396753716016 0.487676879016382
0.211450876960372 -0.134520542477198 0.487676879016379
0.21093302088864 -0.121266388902681 0.487676879016377
0.207361290389278 -0.109020411649508 0.487676879016374
0.210578717078665 -0.103128988087241 0.487676879016374
0.21326511609266 -0.0941546294997417 0.487676879016372
0.217995798332142 -0.0791567940098429 0.487676879016369
0.218450333413079 -0.0670394609835131 0.487676879016367
0.213106120243914 -0.0544631888840243 0.487676879016365
0.220482686856078 -0.0441693392120306 0.487676879016363
0.220294554668083 -0.0361148185692876 0.487676879016362
0.218496882316117 -0.0211697116272081 0.487676879016359
0.217546396620351 -0.00764840969812174 0.487676879016357
0.21530702462283 0.00429474125871119 0.487676879016355
0.225776327069851 0.0181859967299071 0.487676879016352
0.21701628513912 0.0258510852215711 0.487676879016351
0.219673625443572 0.0410637861922956 0.487676879016348
0.219056673693641 0.0536151812510879 0.487676879016345
0.222793364974779 0.0631751746349389 0.487676879016344
0.227782712755431 0.0762184896830711 0.487676879016342
0.22511105881376 0.0830844079384922 0.48767687901634
0.229615003086633 0.0942601328275254 0.487676879016338
0.227585129375678 0.116318177414902 0.487676879016335
0.230235634292677 0.12901876023478 0.487676879016332
0.23503160818882 0.135669057666398 0.487676879016331
0.234661894444301 0.140561006288569 0.501032499797611
0.234506799986452 0.140554426201706 0.502588562820052
0.230165208799066 0.140499748448654 0.515518791775055
0.23164638519894 0.140461850176804 0.524480998607894
0.229540817180444 0.140635453686485 0.536568173225689
0.229797155012974 0.141246809627247 0.553822208359766
0.230431456150084 0.141276309481202 0.554654770019249
0.225647697052819 0.141919941739858 0.572819725757566
0.230601078262974 0.142028457087468 0.574940243163487
0.231994311688639 0.142782051838324 0.584960704584031
0.2303132065061 0.144045963891551 0.601766795595076
0.23420183086912 0.144745470164569 0.611068048840603
0.230707032950083 0.145754906925475 0.621960445655146
0.229954812944247 0.146448980799412 0.627984526347713
0.23470890698029 0.147746349354 0.639244787184948
0.226098111012062 0.148279304430386 0.643870468263313
0.234645427562017 0.149804239121785 0.657105845615558
0.234688566142932 0.150310876786134 0.661151128488788
0.235303421064733 0.152587909173328 0.675785488803424
0.229162496802005 0.154211326409382 0.686219100950099
0.2308310312765 0.155831320177003 0.696630710655858
0.227666252868328 0.157306895068105 0.70543678627357
0.231396520156106 0.158796311477742 0.713017484147518
0.233003571146976 0.159725195464561 0.717745234438479
0.231231371878116 0.162053849957618 0.729597410935571
0.231368333929103 0.164574229101308 0.742425410340235
0.237718437113499 0.166227311266937 0.749868121379754
0.236898405414586 0.169029731232985 0.761643145898892
0.233700092309978 0.171292349786174 0.771150068224616
0.236216447302402 0.173002820157744 0.77833701051325
0.231170621518123 0.174953817357998 0.786534582664492
0.228085604212229 0.178102013090418 0.797884968137637
0.237144981795692 0.178635547844706 0.799788338477259
0.233952211388247 0.183716537070674 0.817914625679596
0.236049752383129 0.184576953111411 0.820984135882091
0.236184534252404 0.188295077667662 0.833539498930436
0.229524074811871 0.191721189369879 0.844127784669825
0.237912887483892 0.194670288295803 0.853241878084005
0.238787679506942 0.194834125832345 0.853748212612045
0.234251047304763 0.19809642882498 0.86383025291217
0.233433994919188 0.200749817821594 0.871794289012913
0.231372190364096 0.204655238057876 0.88240782735146
0.238875695698505 0.208496958347341 0.892848251969383
0.233296426158507 0.211042808076725 0.899766962907578
0.231715338861007 0.217114850093062 0.915646645649943
0.240284508390855 0.216371519363181 0.913849733623698
0.23255103535261 0.223596952976034 0.931316344422716
0.231972954492941 0.227292810182969 0.940250631672614
0.232567086990043 0.230581260763807 0.948200062738609
0.238820585741953 0.233738689470106 0.955294743076779
0.235190437725601 0.236350306850543 0.960961067811755
0.232923743238769 0.240993074847762 0.971034301103306
0.241746744710633 0.246655937034254 0.983320793113372
0.234586020438174 0.246552570055187 0.983096521796045
0.23401440781799 0.265722195252194 0.984156750615635
0.227185138341348 0.0145030842772926 0.0126364647200263
0.22600761449245 0.00960567509208399 0.0259118377942634
0.228752026678245 0.0100329246484075 0.0352752521882143
0.225950783511511 -0.0115418572755516 0.0655928190283181
0.231249001344121 -0.00982036194680404 0.0683494971261705
0.225488597808169 -0.0116920305138844 0.0759005841413591
0.231237822338623 -0.00982399422587517 0.0890445821071412
0.228560654151202 -0.010693858900097 0.095795824064523
0.226967794636577 -0.00632972802150166 0.106463692928911
0.232451330273337 0.00837107348634081 0.105766696514873
0.226964727066677 0.00724394045307163 0.106164294585888
0.234281907888546 0.0218949735718489 0.105343832391575
0.2281776679828 0.0312135444323376 0.105552823847304
0.205840564367951 -0.27784969515032 0.421183311258667
0.208515812194576 -0.277231198672471 0.421504206999869
0.204848193642523 -0.278079123539076 0.426068223383346
0.211561543048298 -0.276527049401966 0.435491967368037
0.204759874118889 -0.278099542325585 0.451604760374247
0.207830087573048 -0.277389732868396 0.460303779425185
0.20490981320125 -0.278064877576607 0.464602273974578
0.210462047653305 -0.27678124418061 0.47890848380721
0.206654029981437 -0.277661628231083 0.485145094035045
0.205179376533621 -0.273543624766657 0.487676879016404
0.213763835629258 -0.262989101181904 0.487676879016402
0.208450887199107 -0.248372775274629 0.487676879016399
0.215363532948675 -0.24661289527327 0.487676879016399
0.21350625762097 -0.224560979362257 0.487676879016395
0.216968959649061 -0.218821784896961 0.487676879016394
0.210509132679883 -0.208911008788371 0.487676879016392
0.21955400346904 -0.188464996979075 0.487676879016389
0.211009882863824 -0.186216262406605 0.487676879016389
0.220656403854271 -0.177115416774543 0.487676879016387
0.213930777701744 -0.172776106929584 0.487676879016386
0.214602855259996 -0.151273218726577 0.487676879016382
0.220313840467574 -0.136366928208472 0.487676879016379
0.218997995403739 -0.132169846826687 0.487676879016379
0.219031937806343 -0.119351151382125 0.487676879016376
0.222330191927931 -0.110460101483141 0.487676879016375
0.222070600623146 -0.0995250378192456 0.487676879016373
0.222873391567395 -0.0906102182669287 0.487676879016371
0.226107731349255 -0.074784500030887 0.487676879016369
0.226052426242671 -0.0700215091570395 0.487676879016368
0.221961288328685 -0.0495333265366593 0.487676879016364
0.228460994933097 -0.04312020791295 0.487676879016363
0.232026966416009 -0.0326994041131635 0.487676879016361
0.225046996379552 -0.0164906016928441 0.487676879016358
0.224897265724383 -0.00785062250235189 0.487676879016356
0.230510882834513 0.0043678503198191 0.487676879016354
0.231355555105597 0.0203092087748563 0.487676879016351
0.236117520143014 0.0324297659957393 0.487676879016349
0.235505771741361 0.0360025446477852 0.487676879016349
0.231783440495602 0.0478983598039324 0.487676879016347
0.231428904877873 0.0624054947013879 0.487676879016344
0.231281272923012 0.0797503609285475 0.487676879016341
0.237382117190695 0.0888390435333309 0.487676879016339
0.241453969166127 0.0949770020529855 0.487676879016338
0.240156527535069 0.118786494661453 0.487676879016334
0.245053743193971 0.125818961262259 0.487676879016332
0.242646341939382 0.140268265994541 0.48767687901633
0.242832820080177 0.140569592562267 0.499002012467951
0.242429866199733 0.140559104137899 0.501482321567847
0.235894164058017 0.140493251342867 0.517055231381105
0.235802747854385 0.140440585974979 0.529509570244314
0.236796358962645 0.140464644409115 0.531747496633768
0.240629723337146 0.140975904590802 0.546176572315079
0.237745603491759 0.141435115026463 0.559136670455213
0.243187193069952 0.141718279200238 0.567128290847333
0.243004011015495 0.141947480920607 0.573596952182501
0.23844196343469 0.143401265658586 0.593194318459346
0.236542399501575 0.143727593485995 0.597533461481884
0.23910981368751 0.144831133564453 0.612207105067728
0.245385232617962 0.145315355074752 0.618145439908995
0.242766865446262 0.146990085659058 0.632680941902382
0.241061376723118 0.147855610056948 0.640193094441281
0.241354587130047 0.148955192932953 0.649736712522805
0.23784816280165 0.150553374390758 0.662709647085834
0.242892459597491 0.151834118013878 0.670940915010174
0.243976167832123 0.153217868794543 0.67983420419824
0.240932882532407 0.154163749441365 0.685913326426842
0.242366798491015 0.156080342188342 0.698231161251419
0.238061386372782 0.157725707586964 0.707568420617568
0.241229426582511 0.15880204785239 0.713046680632004
0.237854993747976 0.161282455369413 0.725671236041197
0.237645249624497 0.16179326630265 0.728271115652115
0.244117042148236 0.164547637056034 0.742290064536488
0.244546366676283 0.165785047899208 0.748009848150898
0.24740353886985 0.16904739196161 0.761717351590799
0.247995932574092 0.171055537095667 0.770155044184338
0.247834458055328 0.17327731545728 0.779490366870104
0.240062527557648 0.176858393831713 0.793448391154078
0.240993304303966 0.177871650362985 0.797063155539249
0.242931389099293 0.179683915546912 0.803528360984434
0.24198708456796 0.183003145637695 0.815369621660345
0.248857300513961 0.186233093676602 0.826892371108938
0.245642017939242 0.187938546508032 0.83243765108621
0.249319056327956 0.191641072621047 0.843880186487725
0.243995436264153 0.194068679647703 0.851382626307348
0.245949450319561 0.195898846393363 0.857038696552005
0.247716619346588 0.197837093747298 0.863028786368344
0.246587836004505 0.200875499526124 0.872135847029409
0.249855691835385 0.205368251171072 0.884345542515246
0.246797725230812 0.207438770071847 0.889972473909183
0.244389928824551 0.212608667168767 0.904022409056942
0.243299875590334 0.214813236203356 0.910013640871437
0.250743071873584 0.218727982916119 0.919546198908222
0.244921621944011 0.223703517752394 0.931573951865162
0.24751730439772 0.225697764850816 0.936394802733305
0.250300226578217 0.226715010356087 0.938853870559491
0.247892761688682 0.234304232335538 0.956521779453196
0.251167174646548 0.236115626562431 0.960451891111024
0.244248211727651 0.243882219608557 0.977302766209891
0.246207340816809 0.245752708582586 0.981361093443978
0.248378665506646 0.304474648048218 0.964949633774877
0.237435269377837 0.00984106400195535 0.0241238815140165
0.242989068952296 0.00970232254825057 0.03276407992627
0.237144227351901 0.0101577422548376 0.0362233360356003
0.23709479754937 -0.00792094761955499 0.0650944509489922
0.241733513937314 -0.0064137372998738 0.0776054781049409
0.23414224291963 -0.00888029077296227 0.0970605201052957
0.240109824430218 -0.00694130600129704 0.0953732132194027
0.238054864721941 -0.00717631355937097 0.105729205719418
0.243814368870075 0.00276947351625122 0.105118417778023
0.240284898703778 0.0142698924261278 0.105104339257677
0.246966553469658 0.035119096518514 0.104190239994215
0.24522758201897 0.0420363824398406 0.10415569008173
0.213776545899529 -0.275977682923665 0.415205891648515
0.222301924264833 -0.27354748703534 0.419161822929781
0.219010068319622 -0.274485844776199 0.436395276017063
0.215963154173447 -0.275354380800384 0.439025779643493
0.219029706622046 -0.274480246793343 0.449216783205962
0.221213402225068 -0.273857774939491 0.452384350791162
0.22078450066372 -0.273980035180158 0.47063997374997
0.222563166721979 -0.273473018745664 0.471983061417662
0.215437388196561 -0.275504252660626 0.479078535429887
0.218424933617713 -0.263156446934503 0.487676879016402
0.215119328800478 -0.260559941272886 0.487676879016402
0.220940624950221 -0.243901820506262 0.487676879016399
0.224334919151115 -0.246712314232586 0.487676879016399
0.225888238762208 -0.229187315923257 0.487676879016396
0.219094029179968 -0.217465071568913 0.487676879016394
0.219389590597767 -0.213777235171099 0.487676879016393
0.22363049623301 -0.207082567733383 0.487676879016392
0.221836448622205 -0.192030729480929 0.487676879016389
0.228245568223418 -0.180450755932606 0.487676879016387
0.223783264300535 -0.172638728583662 0.487676879016385
0.226439938116368 -0.159938324573343 0.487676879016384
0.227245999619428 -0.148937805008736 0.487676879016382
0.233208681185439 -0.135389229308048 0.487676879016379
0.225675557800823 -0.128845410546645 0.487676879016378
0.226541688967472 -0.11637859086092 0.487676879016376
0.231662045935853 -0.0978354743063624 0.487676879016373
0.232900345302607 -0.0926914356424819 0.487676879016372
0.235204667798586 -0.08051179875049 0.487676879016369
0.238328783116961 -0.0706324809531974 0.487676879016368
0.239416050855572 -0.0531426308870042 0.487676879016365
0.233682801107645 -0.0485590954961488 0.487676879016364
0.235550522729026 -0.0235556557873325 0.48767687901636
0.243495833837671 -0.0175264916046113 0.487676879016358
0.235662837381282 -0.0127481104186712 0.487676879016358
0.244776845652893 -0.00360673139634565 0.487676879016356
0.245937671099504 0.0155434629042092 0.487676879016353
0.240759185501697 0.02657587066 0.487676879016351
0.247077049988957 0.029754283570305 0.48767687901635
0.240699949276677 0.0488680060013443 0.487676879016347
0.248792051017724 0.0667128653709753 0.487676879016343
0.250685513346504 0.0772282653817774 0.487676879016341
0.249260922584752 0.0845455556257579 0.48767687901634
0.24526246987011 0.101130194580515 0.487676879016337
0.249868143862999 0.119720995511322 0.487676879016334
0.244943273115364 0.126150577818966 0.487676879016333
0.250986378858063 0.138621602941196 0.487676879016331
0.253600535856062 0.130960514984653 0.510031986768894
0.249618539727356 0.140551820862085 0.503204675149504
0.251703889083156 0.140452506187746 0.526690670935791
0.250746457686553 0.140444144674095 0.528668006870118
0.246672557365501 0.140548517035999 0.534114597621167
0.246984016165176 0.141386293100845 0.557758790297743
0.247997718049596 0.141582363590642 0.563292403196801
0.247643076917131 0.141834050877971 0.570395664993785
0.25290583902386 0.130960514984653 0.595914868766498
0.252066810104683 0.142951428538959 0.587212886797785
0.25237450208968 0.135036954955639 0.60594439264207
0.249929039457431 0.144721681287126 0.610751730914577
0.253996766097505 0.130960514984653 0.637692204433267
0.255360467280704 0.130960514984653 0.641228584862972
0.24863944588166 0.147913188358678 0.64069283423669
0.246752806536617 0.14904070694156 0.650478914912974
0.253786270422357 0.107332484333615 0.690473204943915
0.252374502089681 0.133032568790794 0.688335763104126
0.251578274549547 0.154010400539649 0.684927761577534
0.249041047129603 0.15322267078519 0.679865066324648
0.251396028715837 0.155241754142513 0.69284160259287
0.247553297478894 0.15690465018213 0.703389476379443
0.250177232763757 0.159943947964329 0.718858621265148
0.248611784610168 0.161700055436605 0.727796699357594
0.250518083142952 0.167764574472091 0.756327293149998
0.250753011901177 0.170956105316131 0.769737258250683
0.251172964371372 0.176312753510194 0.791501834541345
0.251025938864021 0.187298100168092 0.830458372697929
0.25142510437438 0.195146347163153 0.854713122384946
0.251302540252536 0.197857194360445 0.863090906653388
0.251765818601007 0.197713246587274 0.862646040786085
0.247435486940389 0.00969251111083812 0.0252522527476789
0.252270764805189 0.00935829872108763 0.036836626073484
0.251433896063469 0.00946847458108742 0.0454497738824078
0.251942420579585 -0.00309666245479705 0.0770119887261801
0.245132772907221 -0.00530925110795585 0.088713259491224
0.246955030018709 -0.00471716388083243 0.0973284007061904
0.25216388145263 -0.00302470545520083 0.0995062549268576
0.254559904960478 0.00480660950546417 0.104343480509425
0.254934453162385 0.0156380144028237 0.104078958745545
0.249694531951245 0.0288250762471756 0.104143846959613
0.257507085669322 0.0422691365681994 0.103316373871393
0.259354012249896 0.0491566417835171 0.103038881891396
0.225755041169 -0.272563161162303 0.418369491721998
0.225661205480933 -0.272589909430059 0.42756928248583
0.230437473207023 -0.271228413706094 0.436128668255616
0.226750866651945 -0.272279296811574 0.445027518254375
0.23164213575182 -0.270885019449799 0.458065885971579
0.226473922864913 -0.272358240833005 0.462495135159697
0.226303140861678 -0.272406922979906 0.473034697002776
0.232284025445723 -0.27070204602291 0.474151644050282
0.230926271357073 -0.270808251173046 0.487676879016403
0.226553187144636 -0.258232009468839 0.487676879016401
0.228232969434068 -0.251267563878934 0.4876768790164
0.23120729256921 -0.239301848590815 0.487676879016398
0.233487474532651 -0.225367404305205 0.487676879016395
0.229505115632174 -0.219480939952903 0.487676879016394
0.228490486535146 -0.21145184676072 0.487676879016393
0.23463251780017 -0.191537704443109 0.487676879016389
0.236838129571407 -0.190361063742116 0.487676879016389
0.235668229781772 -0.178951182825227 0.487676879016387
0.23945916434808 -0.170148128511648 0.487676879016385
0.241704110924002 -0.153745441059767 0.487676879016383
0.2369207675728 -0.148413425856949 0.487676879016382
0.238034067176882 -0.131324472799727 0.487676879016378
0.238167656805645 -0.124255788095259 0.487676879016377
0.241024557049834 -0.113973861351233 0.487676879016376
0.237576793440837 -0.0963981232660253 0.487676879016372
0.239936906966682 -0.0937307416350519 0.487676879016372
0.246429390385039 -0.0704295378044306 0.487676879016368
0.240405702368221 -0.0630333516845479 0.487676879016367
0.24174090415374 -0.0578078399482781 0.487676879016366
0.247348948150027 -0.0508935558800893 0.487676879016364
0.250485595876888 -0.0323395028562184 0.487676879016361
0.251918504952039 -0.0227857070588224 0.487676879016359
0.249899364379888 -0.0113491726237482 0.487676879016357
0.252349910053873 -0.00110908631082361 0.487676879016355
0.249571887940013 0.0164493965553966 0.487676879016352
0.254562622409365 0.0265670820097058 0.487676879016334
0.255719926899461 0.0378152233019002 0.487676879016334
0.256821285833532 0.0507733179084327 0.487676879016334
0.259394491021903 0.0712322278222831 0.487676879016334
0.257635666252171 0.0687474233298618 0.487676879016334
0.255663346216425 0.0890141938618115 0.487676879016334
0.255710143834654 0.0964960767263393 0.487676879016334
0.26127555541054 0.113940783282791 0.487528415197185
0.260644407332559 0.12412997661663 0.490791061459979
0.255950937547827 0.13088023022856 0.501680234956106
0.260750030267348 0.130960514984653 0.510174265916697
0.263457233848961 0.130960514984653 0.512764662778838
0.265703299717418 0.130960514984653 0.530991806012369
0.257645389614124 0.130960514984653 0.539764457136749
0.256104909206741 0.130960514984653 0.548657710513485
0.262299937742238 0.130960514984653 0.56063763056461
0.257595095924036 0.130960514984653 0.570660092121696
0.260431043558197 0.130960514984653 0.581718172805898
0.253078509468203 -0.00424256305214113 0.690473204943915
0.259612790314204 0.130960514984653 0.594400749300503
0.25237450208968 0.0277888478900147 0.686761554998614
0.256467066156124 0.130960514984653 0.621363242730881
0.25237450208968 0.0764108634954976 0.673461561738166
0.256588189042604 0.0650053539348183 0.690473204943915
0.260946315987721 0.0808720612703893 0.690473204943915
0.256633017634392 0.0957688398345365 0.690473204943915
0.255269126009001 0.10303999543336 0.690473204943914
0.257779750984354 0.131960436208694 0.690473204943915
0.260867944107818 0.142687743070243 0.690473204943915
0.258310826055441 0.150259402367537 0.690473204943914
0.268148465070756 0.161800921412619 0.690473204943914
0.262938739082094 0.00942143868046742 0.0273112522755195
0.261254253419001 0.00954858279781586 0.0315963105846191
0.262916015046808 0.00996134148846959 0.0347315241067147
0.260688834833902 0.0111400085580821 0.0485443556492341
0.262481400179717 0.000327659595482805 0.0678179023686519
0.256700628116752 -0.00155062710720889 0.0882020158555763
0.254817042214194 -0.00216264126649603 0.0941997823856845
0.258809589249393 -5.26156736675415e-006 0.104160999080931
0.257989551690198 -0.0011318304512574 0.103941143292744
0.264544231942308 0.0136295092774363 0.103470474423275
0.267283029960479 0.0329686518928083 0.102857554749934
0.261554131036086 0.0380695879537412 0.103134142658733
0.263642080717405 0.050948640197361 0.102708028075531
0.238428273738519 -0.268950601535923 0.411923293512029
0.232657263196716 -0.270595652991597 0.425482318191231
0.23667994732285 -0.269448969524364 0.431792097865149
0.232909993890116 -0.270523611016948 0.438687013102959
0.233721781598601 -0.270292207427932 0.448997989165136
0.239923201917552 -0.26852446580812 0.462261208424979
0.234212451331716 -0.270152339903343 0.469714648070396
0.23958979675346 -0.268619504388697 0.484260388190658
0.237437209959041 -0.26656287320165 0.487676879016403
0.232647871836226 -0.261348053098234 0.487676879016402
0.233853228856909 -0.246156514741785 0.487676879016399
0.238305358007395 -0.24752388494547 0.487676879016399
0.239927212291247 -0.228447682599976 0.487676879016395
0.238761732017371 -0.215775798783436 0.487676879016394
0.242010508000609 -0.213099989991286 0.487676879016393
0.239086605528873 -0.203980564906223 0.487676879016392
0.24769294879292 -0.19126895698143 0.487676879016389
0.240885409953577 -0.177313510164234 0.487676879016387
0.245219005009464 -0.160145679070837 0.487676879016383
0.243873123570034 -0.154319977102033 0.487676879016383
0.246321816488888 -0.145571618821951 0.487676879016381
0.245780154050334 -0.131523746237249 0.487676879016378
0.247379971961852 -0.120957987371525 0.487676879016376
0.249160232930705 -0.109081744307494 0.487676879016374
0.250639183266136 -0.0960401514205692 0.487676879016372
0.255910498887221 -0.0920405885451604 0.487676879016333
0.25562856493277 -0.0791566184196777 0.487676879016334
0.255210075089596 -0.0623547462885423 0.487676879016333
0.253132349960544 -0.0518841269582019 0.487676879016334
0.253164925523355 -0.0445081713496252 0.487676879016334
0.257770201068503 -0.0378848856679213 0.487676879016333
0.254328576714758 -0.0157910536552054 0.487676879016334
0.262226130266191 -0.0178201556028887 0.487676879016334
0.257465512910424 -0.00472625557913141 0.487676879016334
0.261996617967198 0.00554169964994342 0.487676879016334
0.263098270229022 0.0322706310989472 0.487676879016333
0.261423986622694 0.0371301770151283 0.487676879016334
0.260108011010259 0.0558591195042411 0.487676879016333
0.262789019325531 0.0694355696356106 0.487676879016333
0.266327634037738 0.0680944787623083 0.487676879016334
0.268775628517588 0.0887177873147531 0.487676879016333
0.252822158076403 -0.133700971089886 0.68416032531817
0.266910650423002 0.11532082745532 0.487600810031638
0.25237450208968 -0.114890018618597 0.686058795307974
0.255070837595945 -0.108480121513571 0.689653787728007
0.256516006036905 -0.0933823381029293 0.690473204943915
0.253314371010017 -0.089785156619282 0.690473204943915
0.25484085405779 -0.0827466611339641 0.690473204943915
0.25779857362463 -0.0612142629935071 0.690473204943915
0.260131211815448 -0.0572552065410339 0.690473204943915
0.257046212502119 -0.0385148488277044 0.690473204943915
0.255815829517704 -0.0351678386506499 0.690473204943915
0.258839674561262 -0.019701264899417 0.690473204943915
0.262188466028539 0.00549669578215736 0.690473204943915
0.262377209701042 0.00761675124427684 0.690473204943915
0.258707764349147 0.0236013302373781 0.690473204943915
0.267430251624502 0.0462995954926076 0.690473204943915
0.268322654831561 0.053631232859628 0.690473204943915
0.269718608896631 0.0616536550235343 0.690473204943915
0.269449178290774 0.0782200090305862 0.690473204943915
0.271408487052361 0.0983279806057308 0.690473204943914
0.272731643598807 0.105526118065726 0.690473204943915
0.275559001168157 0.128322780912483 0.690473204943915
0.267070080451817 0.134859813178103 0.690473204943915
0.269508933398906 0.142057134287065 0.690473204943915
0.278010925382581 0.163895954395352 0.690473204943915
0.266822422726484 0.00946345339760648 0.0269921188150147
0.266064850345219 0.00948855710367975 0.0268014372363601
0.269933582027949 0.00966093447197504 0.0324497062756867
0.268566068162037 0.0136175301615459 0.0441512660951891
0.275066373053066 0.0044167651585908 0.06707088991603
0.266402485992614 0.00160169760671167 0.0784771028266422
0.270106750641686 0.0028052861512546 0.0921639481585166
0.275212277286079 0.00446417231765908 0.0877634511330912
0.268225674582243 0.0100090582534771 0.103300297343391
0.273698501905063 0.0177775282696182 0.102757043247448
0.276042608316336 0.0205533621424148 0.102536531996192
0.27856068722714 0.0366883806154017 0.102009329834095
0.275834342744465 0.0477939316500173 0.10194940866869
0.241734994684133 -0.26800800646254 0.41200648510382
0.244899396025966 -0.267105980206287 0.420826152752195
0.242335090316132 -0.267836946613327 0.430571843432286
0.242921483720747 -0.267669792643161 0.441192272168266
0.243144971742063 -0.26760608641837 0.449638765850208
0.246716999976303 -0.266587864357613 0.452809201424388
0.244256137621895 -0.26728934378985 0.463826454024675
0.244618390032309 -0.267186082177206 0.472229467199353
0.241657240797342 -0.268030170543382 0.485612945355794
0.250708834819864 -0.259385194502718 0.487676879016402
0.246461473478753 -0.250219689309251 0.4876768790164
0.249500290104463 -0.236297331150779 0.487676879016397
0.251272786125906 -0.231568817621921 0.487676879016396
0.251575361088616 -0.218334076114028 0.487676879016394
0.250375901143287 -0.208793997706765 0.487676879016392
0.250422844117101 -0.194626919247209 0.48767687901639
0.253410726595256 -0.216690329462629 0.50653426967035
0.250021478628971 -0.178059949217663 0.487676879016387
0.252997302577215 -0.216690329462629 0.530703169214193
0.254004311431999 -0.147752066578472 0.487676879016334
0.253944607190733 -0.143634251448856 0.487676879016334
0.253421877260997 -0.137932782799904 0.487676879016334
0.254560186722922 -0.115292367153997 0.487676879016334
0.259635559060637 -0.103892370008869 0.487676879016334
0.252374502089678 -0.205991518827604 0.579559397764996
0.257828634147047 -0.0864288874877411 0.487676879016334
0.252374502089678 -0.201818573671762 0.598913679113556
0.26266889589474 -0.068041735661171 0.487676879016334
0.26281120047394 -0.0455923094122304 0.487676879016334
0.263344341455235 -0.0465296380054416 0.487676879016334
0.262447263997171 -0.0425421265586757 0.487676879016333
0.264726235825373 -0.0237095340381143 0.487676879016333
0.266218477498839 -0.00991745232450758 0.487676879016333
0.267292055492378 0.00259151337503894 0.487676879016334
0.255910515168672 -0.183288094598373 0.652889886818039
0.252787644042966 -0.177838936198871 0.658183042128888
0.253567598529733 -0.170861919096221 0.66430172190981
0.252374502089679 -0.152333668670755 0.659861416435183
0.253085924719793 -0.160778973982768 0.671331000735045
0.257237940080756 -0.154413405033725 0.675248120996114
0.257083289978088 -0.141920378512192 0.681370212463335
0.25911811988934 -0.13411006478583 0.684021456720808
0.258795694404004 -0.13065266655057 0.685195085276353
0.256987100336183 -0.12458668033154 0.686884003044347
0.259771159066447 -0.110226637158671 0.689539315044766
0.264530000905586 -0.100052301513844 0.690206176234772
0.259035839360063 -0.0889603525470902 0.690473204943915
0.267156707054666 -0.0827889283887629 0.690473204943915
0.268234269878175 -0.0618251014935483 0.690473204943915
0.26551465494858 -0.059219279271252 0.690473204943915
0.266199443830814 -0.039251606123494 0.690473204943915
0.270599250637827 -0.0236564692356995 0.690473204943915
0.274032135050383 -0.0159721639639388 0.690473204943915
0.27104179753772 -0.00263077471538126 0.690473204943915
0.273525809938005 0.0143241464280195 0.690473204943915
0.271480622235674 0.0348440626591287 0.690473204943915
0.271989920049472 0.0343109759564098 0.690473204943915
0.275447778011997 0.052049609830176 0.690473204943914
0.274384035530426 0.0568721077799257 0.690473204943915
0.277013272939274 0.0871902516624196 0.690473204943915
0.280618647713099 0.0923836996634863 0.690473204943915
0.284687693670204 0.1045454033588 0.690473204943914
0.284769294723463 0.112422310046888 0.690473204943915
0.278926033684235 0.135474591644051 0.690473204943915
0.280586142468217 0.150591440170032 0.690473204943914
0.282312935315388 0.164486699774764 0.690473204943915
0.28112025750388 0.0099515674246561 0.0346572827213041
0.277782586615708 0.0146564780819087 0.0455052493860651
0.281454509721176 0.0176759185815067 0.0494469081839364
0.283405307974362 0.00712624936012403 0.0689930950460604
0.275178025446098 0.00445304322021764 0.0871423514952592
0.28194401760014 0.00665144733562259 0.0943015409469076
0.280566794881465 0.00692291536427678 0.102530052180597
0.285899459948557 0.0199015714453015 0.101881317098135
0.278272504675651 0.0236674018570932 0.102316314235037
0.287022363785025 0.0322425261632043 0.101532637830602
0.251579672481982 -0.26520173857843 0.440664183820991
0.251047623535374 -0.26535340142632 0.462625844801726
0.259208662361851 -0.216742840430568 0.479223502092639
0.260057415042169 -0.216690329462629 0.49074979794932
0.260629738390301 -0.216690329462629 0.491569250138545
0.260576242381268 -0.216690329462629 0.503701265142289
0.255673378087688 -0.216690329462629 0.515640273504533
0.262211029448789 -0.216690329462629 0.526411335473908
0.257894410992861 -0.216690329462629 0.532167887823907
0.25870761828815 -0.216690329462629 0.539359580459768
0.260027758415257 -0.216690329462629 0.557254638889988
0.260728443346451 -0.216690329462629 0.558789555651057
0.255455649425374 -0.216690329462629 0.569048819800812
0.259104404777045 -0.216134743019936 0.578237717250963
0.262097663260773 -0.214674068122428 0.590461849619948
0.264288382549168 -0.214088687572474 0.593404756376655
0.264432235657015 -0.212709890345694 0.600336438126482
0.256303470691363 -0.210071169705054 0.608386118744322
0.260937205707807 -0.207893000837574 0.614802797311778
0.256975243809954 -0.204255188038847 0.62253883673322
0.262325354550577 -0.200271803703298 0.630485576600824
0.259116224528072 -0.196159842853801 0.636639560904036
0.26406718326692 -0.191651575155693 0.643353165012783
0.26399728757222 -0.190900579702512 0.644209511203211
0.260430851441722 -0.182596995798625 0.653677933965154
0.263959434796432 -0.179842144478816 0.656426275616904
0.261670150456599 -0.170944349897389 0.66422943203736
0.264740359396627 -0.16283179471184 0.6699593497764
0.261023252069251 -0.15972538152282 0.672034988709854
0.268097223193751 -0.156376999280743 0.674272306195599
0.267216156612987 -0.147636562470534 0.678590089909085
0.264635225615901 -0.137742142191571 0.682788532576908
0.270893378441252 -0.130262501768486 0.68532752837329
0.271044980136184 -0.120401325189204 0.687716521944033
0.268823073546704 -0.119656496286768 0.687864677624309
0.26574794586373 -0.102853441395178 0.69002257982712
0.269019183309949 -0.0912568598866769 0.690473204943915
0.273419257187903 -0.0813086131896475 0.690473204943915
0.271238330860009 -0.0621888014176314 0.690473204943915
0.27041869337342 -0.0480507588055276 0.690473204943915
0.271799382617441 -0.0431545401123502 0.690473204943915
0.27306393010557 -0.0226144797175824 0.690473204943915
0.283208177017096 -0.0194689827621389 0.690473204943914
0.285028901973797 0.00208847862018848 0.690473204943914
0.281904671979285 0.0192373781147716 0.690473204943914
0.282709992810927 0.0235244317734568 0.690473204943914
0.281347173024327 0.0343164827036809 0.690473204943914
0.28457759015323 0.0549377121000314 0.690473204943914
0.281874562203532 0.0615705523887058 0.690473204943914
0.29139068056678 0.0731166078959834 0.690473204943914
0.288436245221225 0.0837843175100628 0.690473204943914
0.287359305583226 0.109773229441911 0.690473204943914
0.28616808506852 0.119003228792094 0.690473204943914
0.291766495581731 0.138204046794055 0.690473204943914
0.292619706222816 0.154907972103125 0.690473204943914
0.296626944094939 0.155974492703964 0.690473204943914
0.289112387409726 0.00898059187663832 0.0723162139055618
0.290403753308809 0.00940018209229489 0.0782370797471067
0.285984105481856 0.00796415146290421 0.0965059903996562
0.2904482101684 0.00941462700160734 0.0980712111098507
0.287574537901327 0.0152851866669345 0.101869420494336
0.265173872682835 -0.21147149807824 0.464343543667606
0.270650690723314 -0.21700803248581 0.482767429813273
0.270542275559548 -0.216690329462629 0.497460264251184
0.268677351156934 -0.216690329462629 0.505976489324049
0.269040517449517 -0.216690329462629 0.509479007303432
0.266146697621795 -0.216690329462629 0.525847038210691
0.273284269242525 -0.216690329462629 0.530649862507524
0.266553496994646 -0.216690329462629 0.540290865459521
0.271165671969664 -0.216690329462629 0.55037792055263
0.264109064792833 -0.216690329462629 0.566300478015322
0.27315414313524 -0.216690329462629 0.566219677901755
0.266219527480073 -0.216102623863566 0.578727760879889
0.271493132180917 -0.215083056692388 0.588405725230365
0.266577501199164 -0.214601591137532 0.59082621602839
0.271720629138328 -0.212405159533212 0.601510406428995
0.266193409235477 -0.211413930363356 0.604430473401125
0.26946044527083 -0.207484967048325 0.615989492789242
0.267084044544343 -0.202969810297338 0.625145324948782
0.273424140570903 -0.199364637984947 0.631843246042603
0.268004850092247 -0.199698026322484 0.631344295135437
0.2705681456601 -0.193497416161262 0.640624164034766
0.269068895904783 -0.186991001655025 0.648667530560021
0.268419387226223 -0.180652186484807 0.655715887843614
0.276934578608318 -0.177222313033735 0.658723806131248
0.271347002734579 -0.170981255783758 0.664197066443668
0.276484923658813 -0.162799137354945 0.669981170724649
0.278206453163245 -0.157469642726623 0.673542225186198
0.273179351539702 -0.155768386209216 0.674579918227062
0.272545202317043 -0.145413771007032 0.679686249352333
0.280687964750517 -0.142174623954267 0.681283907765226
0.280496243218569 -0.135528768035602 0.68353987186061
0.278681332162991 -0.12155069798735 0.687487897479752
0.278462011300748 -0.112546150516728 0.689279013334317
0.279137279191565 -0.0956776481035715 0.690473204943914
0.28110073608601 -0.0934506489677384 0.690473204943915
0.278769983853647 -0.0767748365992088 0.690473204943914
0.285507132581455 -0.0657631054518862 0.690473204943914
0.283254326380501 -0.0561674999843625 0.690473204943914
0.284675229727078 -0.0350289728970836 0.690473204943914
0.284408615698242 -0.0330169448616889 0.690473204943914
0.29236324573201 -0.00683927319173887 0.690473204943914
0.293448112522345 -0.00410894384320012 0.690473204943914
0.293106482586214 0.0213574728273217 0.690473204943914
0.292899681497268 0.0262418999295898 0.690473204943914
0.292235490832725 0.0312056824984286 0.690473204943914
0.298932850722735 0.0422500460994849 0.690473204943914
0.297368737427838 0.0596017956704219 0.690473204943914
0.292351815106227 0.0715811266503329 0.690473204943914
0.300083956846843 0.0869916874057318 0.690473204943914
0.304247452648621 0.108123828590912 0.690473204943914
0.302553914054886 0.121128396567891 0.690473204943914
0.300628527365487 0.138247834825737 0.690473204943914
0.308544635242347 0.145058789299734 0.690473204943914
0.304509513110018 0.164385943506689 0.690473204943914
0.277329505848639 -0.216690329462629 0.517765850014451
0.282719455545813 -0.216690329462629 0.526134519733606
0.281590303002908 -0.216690329462629 0.53034847312387
0.282955662564876 -0.216690329462629 0.543902164577504
0.275200050109336 -0.216690329462629 0.554827955549911
0.280227307809811 -0.216690329462629 0.554830119687947
0.278068346164997 -0.216690329462629 0.565452330014918
0.278766339153977 -0.216064486479588 0.579309624918507
0.276300468241697 -0.214935585653648 0.589147112207367
0.281456813025564 -0.214100484069624 0.593345451380666
0.276927662293286 -0.21150098474482 0.604174019463104
0.277393001329924 -0.210912327551467 0.605908147634963
0.283404354198187 -0.20545653254815 0.620102751055672
0.277758176762229 -0.203690575913438 0.62368375686348
0.28354500723335 -0.201072894888103 0.628991888881253
0.277825846783296 -0.198273840887737 0.633475739264185
0.280540109193187 -0.192565317624008 0.642019148076992
0.282065712827155 -0.186782748800391 0.64890499742877
0.283381919700504 -0.184751667960028 0.651221001251076
0.287213219162333 -0.17705038375779 0.658874584059551
0.283216809824534 -0.171997959161694 0.663305441511372
0.279791234207231 -0.162943436900594 0.669884752850784
0.279776977454587 -0.160234264707546 0.671694963836624
0.281364820917346 -0.15254411045808 0.676169955065998
0.285626398208525 -0.149944098005943 0.677452139314394
0.284500020535223 -0.138427979021554 0.682555722344084
0.285066931267138 -0.13194133565679 0.684757641059981
0.284697280547644 -0.119678686884189 0.687860263640043
0.284087077749866 -0.113481768641557 0.689092907318143
0.292463342041368 -0.0949432761785471 0.690473204943914
0.291290528774614 -0.0834222600102594 0.690473204943914
0.295874485969116 -0.0806680235883539 0.690473204943914
0.296753552414555 -0.0658288504162818 0.690473204943915
0.29778722865419 -0.0503694185227268 0.690473204943914
0.295580375788542 -0.037158461236171 0.690473204943914
0.300197961449368 -0.0216752117868954 0.690473204943914
0.302146345383972 -0.0148988249886223 0.690473204943914
0.302229473000268 0.00173019687712896 0.690473204943914
0.299598582789961 0.0063327548040394 0.690473204943914
0.298039519917513 0.0230310186676813 0.690473204943914
0.306155361199607 0.0349622882521345 0.690473204943914
0.304776902119632 0.0535470107983659 0.690473204943914
0.308385584636536 0.0628215702028613 0.690473204943914
0.306523029496174 0.0737314687794701 0.690473204943914
0.283084875513422 -0.216690329462629 0.538963888975558
0.286882423340106 -0.216690329462629 0.537399125933502
0.286196560599596 -0.216690329462629 0.550025139597832
0.284170131847047 -0.216690329462629 0.559879799122524
0.283665189059167 -0.216690329462629 0.562854884656628
0.286222842781486 -0.215721619797842 0.584540759604077
0.292480966655282 -0.216041212343433 0.579664719616813
0.288045339846585 -0.213254148197111 0.597600269136155
0.286850375975646 -0.211074920120727 0.605429165371476
0.284106881882011 -0.209042630823211 0.611416096583714
0.284253338590696 -0.208969613421333 0.611631198913324
0.289330701904875 -0.206081583997938 0.61883527209958
0.286472591840494 -0.20111847086131 0.62889946995004
0.286157019938526 -0.195436377969442 0.637722302619055
0.287148597153052 -0.191845599956924 0.643096281685041
0.294336715930001 -0.189342759692447 0.645985864475852
0.295971573546446 -0.184314467006313 0.651719533392089
0.295985897553273 -0.178388068418955 0.657701466096802
0.287786002671903 -0.176551893198081 0.659311748547439
0.296825498043819 -0.168578030779629 0.666119837587462
0.295513952501537 -0.157731138083611 0.673367499574745
0.29482876792933 -0.152730458089133 0.676078058584093
0.297493983020669 -0.144194247158426 0.680287651960208
0.297405072084519 -0.143519461307693 0.680620419516048
0.300610172416074 -0.135316514781269 0.68361192213175
0.300394460559549 -0.122261688647471 0.687346472644362
0.302509926025209 -0.107939259563633 0.689689237693111
0.297164029911747 -0.0976477361356811 0.690363779776223
0.2975119214196 -0.0826030418848035 0.690473204943914
0.297917641343697 -0.0852827418964694 0.690473204943914
0.306611053105257 -0.0623128153623679 0.690473204943914
0.302089809694296 -0.0458518413844218 0.690473204943914
0.308426639522509 -0.0422983968606905 0.690473204943914
0.302959546365783 -0.0273795705115888 0.690473204943914
0.305049853170397 -0.00787083361733739 0.690473204943914
0.294369061011738 -0.216690329462629 0.550165894918764
0.297682144541921 -0.216690329462629 0.555908836285948
0.30055264977674 -0.216261381176967 0.576305592343451
0.2941473674203 -0.215729743131321 0.584416821485309
0.299074402964612 -0.21590795734026 0.581697798087951
0.293023717836069 -0.214143483566862 0.593129278310061
0.295048082238942 -0.212236696175819 0.602006683476621
0.297515092505437 -0.209368634673514 0.610455720209606
0.298172814352282 -0.208273176676419 0.613682835405516
0.300453627947749 -0.203848077847448 0.623364374535882
0.297579743529108 -0.20086174792937 0.629420052557904
0.301501426400068 -0.198539427016156 0.633078261533909
0.295182012851249 -0.194853071710843 0.638595282127074
0.300116362077359 -0.189916443181176 0.645331703830797
0.301164737134674 -0.183231437722518 0.652954491603053
0.302212371983782 -0.179203897221514 0.656986003439127
0.302623296016999 -0.170772168537358 0.664380431037473
0.304765811723841 -0.163772457019548 0.669330819316895
0.300351187593564 -0.15704502175151 0.673825947850982
0.30277689261588 -0.151337316068058 0.676765080199597
0.307501666757081 -0.147958798014578 0.678431180924435
0.307891332854386 -0.143804558657077 0.680479825062226
0.307564889416586 -0.130129574253178 0.685372651184482
0.303837148101687 -0.119782668520279 0.687839580406644
0.303550148059086 -0.109528418439954 0.689585078717393
0.305581968966729 -0.0984797300526048 0.690309248013866
0.307138224292647 -0.216690329462629 0.566100198075243
0.302994727361005 -0.216690329462629 0.568245750423857
0.303253600717288 -0.216179381022379 0.577556672940429
0.305869517979295 -0.215661448116233 0.585458802060568
0.305762105865519 -0.213317600014886 0.597281275306808
0.305102144087011 -0.21159081072081 0.603909400670897
0.30800588017408 -0.209439702944452 0.610246359834586
