ply
format ascii 1.0
element vertex 852
property float x
property float y
property float z
end_header
0.271688437892301 -0.199004407582964 0.462867212097014
0.271688437892302 -0.202193943058277 0.472963359980791
0.271688437892303 -0.2013854825041 0.477223117241133
0.271688437892304 -0.210526190720941 0.487589682369484
0.271688437892304 -0.201936004888632 0.491384031963654
0.276068585081606 -0.197376393660002 0.515724061244096
0.270442912416263 -0.197376393660002 0.52702141657673
0.274735309906614 -0.197376393660002 0.538737985073051
0.273035508301566 -0.197376393660002 0.544396769219668
0.276846227101141 -0.197376393660002 0.559759886044279
0.272594005888969 -0.197376393660002 0.565775669911434
0.275384750587716 -0.196335753919886 0.583654811978927
0.281326267261966 -0.19608944966279 0.584893067097702
0.288985069841374 -0.1897132389421 0.608272885016239
0.28080755800497 -0.189940957954398 0.60760204643828
0.310316309497559 -0.157296596249198 0.652523656609602
0.310316309497559 -0.150786248764508 0.663865034968545
0.310316309497559 -0.155186805677608 0.672619693900945
0.252374502089685 -0.236567024936942 0.411706575562216
0.252374502089683 -0.237399219542548 0.422792986004135
0.252374502089683 -0.239138125495677 0.425144233102723
0.271688437892302 -0.212608800713869 0.46857432223352
0.271688437892302 -0.213936148966161 0.475174285317107
0.271688437892304 -0.212958296969027 0.483535041066335
0.252374502089676 -0.241220298915705 0.465543572194961
0.252374502089676 -0.242523515234233 0.467851945721639
0.283521302523329 -0.197376393660002 0.531506791473017
0.286936562694841 -0.197376393660002 0.549549823927102
0.287187895260475 -0.197376393660002 0.549086613574674
0.286145854169081 -0.197376393660002 0.567760197186106
0.291606117273383 -0.197130122222091 0.572886209443145
0.295135716909347 -0.195343010660818 0.588645669370783
0.284067805045645 -0.196067624716133 0.585002788513947
0.297504084854941 -0.187695373728324 0.612450652609708
0.310316309497559 -0.172503396019938 0.636571468673514
0.310316309497559 -0.166769328412141 0.646863845589841
0.310316309497559 -0.170344823324556 0.65422136159071
0.252374502089685 -0.247166466631099 0.412421570554677
0.252374502089682 -0.251813921581458 0.429112720513217
0.252374502089682 -0.261487509161129 0.42998731396328
0.25237450208968 -0.263262330651324 0.444236667779342
0.252374502089678 -0.255471831173631 0.453202578925871
0.252374502089674 -0.248313948987724 0.477701626893734
0.252374502089674 -0.24811027452427 0.482035041697079
0.296339710744923 -0.197376393660002 0.54723859935714
0.300189106199783 -0.197376393660002 0.56210024367098
0.295264978530754 -0.197261474754635 0.570882157064741
0.296150803073063 -0.196447716348226 0.583091938841301
0.30416035782277 -0.195219398736375 0.589267108480232
0.296270694032733 -0.193706738561785 0.596508414500957
0.310316309497558 -0.187768736522777 0.617562028872771
0.310316309497558 -0.186596978991013 0.623845632303312
0.310316309497558 -0.189089149759482 0.639563727993411
0.306272566017242 -0.196634182579696 0.580452786201433
0.310316309497558 -0.20404806186803 0.579728772633092
0.310316309497558 -0.208139916222784 0.583962633636675
0.310316309497558 -0.19902349392637 0.602443823045687
0.310316309497558 -0.198045761602199 0.615025188306942
0.310316309497558 -0.201917286856825 0.614942384795397
0.310316309497557 -0.215535933798048 0.573085206716851
0.310316309497558 -0.212735465733298 0.588718089733551
-0.301043156153086 0.0612444116065581 0.0503546681062355
-0.300767675275678 0.0567396061380728 0.0538113269178002
-0.304185564454697 0.0224970540414107 0.0502644795636191
-0.301547956570866 0.0381556521270479 0.071390883748412
-0.304628007807745 0.0286762291416463 0.0928807541358726
-0.289875625236178 0.0621764270221261 0.0496395075246572
-0.293740906659939 0.0621832811118132 0.0664666129660691
-0.292472332514119 0.0650549210081634 0.0755276173108539
-0.295251577857407 0.0575339132372793 0.0812641603330036
-0.297207756771665 0.0515134135970994 0.0766298880933748
-0.293629430679447 0.062526368901761 0.0972069486887607
-0.300024887718971 0.042843176058507 0.0877545295349199
-0.292501779953373 0.0384264431307466 0.102006716263625
-0.297340337918767 0.0293423657373721 0.101878529992933
-0.297100839318462 0.016186466453932 0.102185185218599
-0.293700970308338 0.0181198836821496 0.102373471561163
-0.280829531732419 0.169588386589906 0.674362188140158
-0.281605302914764 0.169588386589906 0.683644486057076
-0.281424379241869 0.155507402348976 0.690473204943908
-0.285113352486429 0.155070614436612 0.690473204943909
-0.284101968640885 0.13343820942153 0.690473204943908
-0.287652592472796 0.119650870779559 0.690473204943909
-0.28676722339645 0.11431744082138 0.690473204943909
-0.287297419141365 0.100530137059429 0.690473204943908
-0.286420230882894 0.0624037774126633 0.0494710820810647
-0.288509394018918 0.063767284236113 0.0643737805948724
-0.286104717373361 0.0629859574309002 0.0776544538679904
-0.287674937831094 0.0634961529850448 0.0844479704205159
-0.285825490982359 0.0628952312767553 0.0838432028095588
-0.28181120766519 0.0615909115607474 0.101506209035609
-0.289716763963295 0.0521129384798364 0.101893812545701
-0.284601093540014 0.0409204574011481 0.102488381013829
-0.2894073453809 0.033022932237985 0.102336199039307
-0.283625248884829 0.0236554683486727 0.102935756616909
-0.286713999567723 0.0130912926249264 0.102959109000196
-0.272430477044685 0.169588386589906 0.675390430948245
-0.27840565023223 0.165892910236841 0.690473204943909
-0.274643674012803 0.157645892827613 0.690473204943908
-0.279467835688389 0.155773358634965 0.690473204943908
-0.273839347370474 0.135853359467135 0.690473204943908
-0.281912123649917 0.130833085311732 0.690473204943908
-0.277448901197057 0.109631398501543 0.690473204943908
-0.276210213320287 0.100592379063522 0.690473204943909
-0.284546659923111 0.0969676101462046 0.690473204943909
-0.285026309826637 0.0762353205819975 0.690473204943908
-0.284638427555458 0.0639724833811673 0.690473204943908
-0.286777197567217 0.0608575443740132 0.690473204943908
-0.283935357511161 0.0364234737149793 0.690473204943908
-0.285646109096908 0.0281807652376258 0.690473204943908
-0.287234922983913 -0.00415077068498288 0.690473204943908
-0.273183241328874 0.0605004366567003 0.0509255401636424
-0.270242619235125 0.0592684461758648 0.0518708797085198
-0.277658372042142 0.0602415734716019 0.0668435757157299
-0.27603527008425 0.0597141956764892 0.080897727458004
-0.2708910089413 0.0580427239085787 0.0865124159865108
-0.273216111877576 0.0587981956483434 0.0981729129122403
-0.272529282496206 0.0585750312543851 0.100962869858699
-0.274939804736716 0.0442713210718481 0.103070735146123
-0.27400751307858 0.0329981454064708 0.103382896925961
-0.273707826227227 0.0243665442071723 0.103593777682537
-0.275816215813155 0.0118041193618589 0.103727835190621
-0.275630807598422 0.00430586645175971 0.103905936709774
-0.26592249019826 0.169588386589906 0.673633421137878
-0.26639765638021 0.166630685440059 0.690473204943909
-0.269449383901917 0.157014594199253 0.690473204943908
-0.268418844735929 0.148201385729964 0.690473204943909
-0.27032780031394 0.130594850772098 0.690473204943909
-0.271966054574394 0.115105658704328 0.690473204943908
-0.273077635446788 0.107122928926823 0.690473204943908
-0.271020583965588 0.107089758691645 0.690473204943909
-0.273056191037797 0.0925416306746136 0.690473204943908
-0.269254175352812 0.0837613794651159 0.690473204943909
-0.270459559741019 0.0638574469848947 0.690473204943909
-0.273632392185408 0.0537633213693054 0.690473204943909
-0.279005366024112 0.0378839645926016 0.690473204943908
-0.281733652907388 0.0315440992980333 0.690473204943908
-0.281061124623958 0.00454053505726618 0.690473204943908
-0.279034766871229 -0.00179726232793538 0.690473204943908
-0.280755002921042 -0.0203051303250729 0.690473204943908
-0.286011636637274 -0.0317322327359846 0.690473204943908
-0.284025875954362 -0.0440252562178327 0.690473204943908
-0.284313658861675 -0.0492678609162045 0.690473204943908
-0.281949966093531 -0.0675413074694315 0.690473204943909
-0.2861430484454 -0.0884555991044038 0.690473204943908
-0.268553643483479 0.0640391051120923 0.0473398815302585
-0.26431925790255 0.0527352538642151 0.0555846234348098
-0.264971707438215 0.0511949755912299 0.0562226275853095
-0.268391518015642 0.057230590076277 0.0832969556973382
-0.264308007261819 0.0559037770025809 0.0843708313457514
-0.268693964666023 0.0573288609500448 0.0951031832265644
-0.267721462263125 0.051456300645214 0.103402504492834
-0.264060894190731 0.0493351139909092 0.103697996624478
-0.267266381149646 0.0332813737155697 0.103834588003633
-0.263366668038108 0.0185528121518647 0.104424603960226
-0.26407089509418 0.0159694433987522 0.104433785754284
-0.265667011677172 0.00546781979511116 0.104557155974644
-0.255050684695088 0.169588386589906 0.675252219815322
-0.255999186109234 0.169588386589906 0.682414074731807
-0.257741195620836 0.169588386589906 0.68874976082836
-0.254259582014774 0.1614951672868 0.690473204943909
-0.257684770702035 0.153787601148917 0.690473204943909
-0.26089805088024 0.140611531013229 0.690473204943909
-0.261287480748646 0.126914143480052 0.690473204943909
-0.256996187343379 0.113538667026609 0.690473204943909
-0.265443328463867 0.0993594553686922 0.690473204943909
-0.263573677001574 0.0918905471916433 0.690473204943909
-0.262786813056678 0.0739667700476204 0.690473204943909
-0.266377440454448 0.0659296840913898 0.690473204943909
-0.264937463775305 0.0580521667824538 0.690473204943909
-0.267953258025805 0.0372523479734942 0.690473204943909
-0.268408800824119 0.0264871507845119 0.690473204943909
-0.264971627772791 0.00861077066540622 0.690473204943909
-0.270671839760721 -0.00787458250819677 0.690473204943909
-0.273053255320017 -0.00338678570009911 0.690473204943909
-0.272761662502479 -0.028471232247422 0.690473204943909
-0.278010464284715 -0.0373231836346907 0.690473204943909
-0.271402360436469 -0.0533637851670834 0.690473204943909
-0.278035713951443 -0.0668544592817867 0.690473204943909
-0.273554068067075 -0.074719325873128 0.690473204943909
-0.276877649160841 -0.105131138291325 0.689873291685297
-0.279349993448011 -0.113164645712832 0.68915598699064
-0.280804613143823 -0.129979125080353 0.685423721796934
-0.256495845249258 0.0642058248043466 0.047122608197161
-0.255871877066507 0.0543756947092201 0.0549051305885389
-0.256840808476735 0.0489235913313992 0.0570210179240349
-0.252858965373851 0.052183757790185 0.0746394181542676
-0.252568835781376 0.0520894889711299 0.0793620502308981
-0.252456608203952 0.0520530240207639 0.0948988984327117
-0.254561112219186 0.0500998089409168 0.104326462753932
-0.252086764433336 0.0503775320197798 0.104488421570662
-0.257070858825359 0.0390341484396418 0.104400217488562
-0.257331961276914 0.0219383159578875 0.104759830315839
-0.260442174504227 0.0121266457764973 0.10476511490672
-0.259431147568008 -0.000567426155660355 0.105113988314627
-0.257378906066021 -0.00568930012276552 0.10536645572551
-0.242047656659693 0.168799921840991 0.474538761492145
-0.247178668730771 0.169612837709926 0.478912313610615
-0.241955102050027 0.169588386589906 0.496294285703474
-0.243658968073227 0.169588386589906 0.512205088666871
-0.243712947118025 0.169588386589906 0.530753323351435
-0.245654014531711 0.169588386589906 0.529773267478982
-0.243134203636258 0.169588386589906 0.546815129924086
-0.248868220700559 0.169588386589906 0.555123111799664
-0.247775779081081 0.169588386589906 0.566415852749423
-0.246440124566909 0.169588386589906 0.567916694280204
-0.242825692255536 0.169588386589906 0.58114660318218
-0.245370574709385 0.169588386589906 0.58731446603458
-0.242539489997885 0.169588386589906 0.608426529330172
-0.247580169428115 0.169588386589906 0.614780305622327
-0.242929225250707 0.169588386589906 0.62676704987584
-0.249787828778632 0.169588835623194 0.627310033563041
-0.248423303363389 0.169588386589906 0.635862717379907
-0.245282756720587 0.169588386589906 0.652230679540305
-0.247947050737114 0.169588386589906 0.660148232299169
-0.249857194486624 0.169588386589906 0.677180448451119
-0.240770293272533 0.169588386589906 0.689929448724542
-0.248879289956148 0.160129599342165 0.690473204943909
-0.248951079472404 0.142880054359568 0.690473204943909
-0.246301055600463 0.137985323544106 0.690473204943909
-0.244773291189779 0.121457315522694 0.690473204943909
-0.254399553208737 0.10940349951262 0.690473204943909
-0.248166815020343 0.108972631097652 0.690473204943909
-0.25175887773245 0.0916156691131968 0.690473204943909
-0.256806733077626 0.0800752730882646 0.690473204943909
-0.251502798757684 0.0659538929831401 0.690473204943909
-0.254522855885542 0.0540668784125464 0.690473204943909
-0.252102121204457 0.0411980364366701 0.690473204943909
-0.253593439366826 0.0289241349698193 0.690473204943909
-0.258630112614961 0.013461815108125 0.690473204943909
-0.228924221365886 0.307143768583679 0.930094989910079
-0.262775749415636 -0.0169226743684572 0.690473204943909
-0.261453715449171 -0.0326060519216648 0.690473204943909
-0.26084286749263 -0.0367916669882624 0.690473204943909
-0.26935028738636 -0.0583307507348612 0.690473204943909
-0.26486366795498 -0.0676031625473107 0.690473204943909
-0.268677343820992 -0.0837798267203348 0.690473204943909
-0.26927200158747 -0.0912449545714432 0.690473204943908
-0.270710596789613 -0.111665454157097 0.689445009996327
-0.266924407616856 -0.116335804639134 0.688525204261272
-0.272623990360654 -0.144127670685988 0.680320483843067
-0.248985907292539 0.0633445590534099 0.0482450315765406
-0.247880363040629 0.0546570255650433 0.0547885995325416
-0.241951888687369 0.0486398337464246 0.066736475064516
-0.246985889607918 0.0502754797963654 0.0769645919405282
-0.248497441405654 0.0507666127473257 0.0825815059815093
-0.244305370959365 0.0494045264913301 0.0881766022102743
-0.244945795452349 0.0496126130230503 0.0976316165506876
-0.242608378837709 0.047204980892887 0.105202339613406
-0.249748136291683 0.029130967602525 0.10511625849997
-0.250118218876659 0.027515622541263 0.105126772758663
-0.251619965747923 0.0134806639263796 0.105334543800063
-0.245038043520009 0.00342702667673772 0.106003581285065
-0.247233520438615 0.000338998274783853 0.105922597758314
-0.238478017666617 0.16663784880723 0.468395404702688
-0.238940429628985 0.169859468861559 0.483487857995364
-0.237382370145102 0.169588386589907 0.492181462119515
-0.235726120185384 0.169588386589906 0.492215174303133
-0.237192598715088 0.169588386589906 0.501504136610141
-0.230191471400034 0.21887162705305 0.56453089250218
-0.234766745760859 0.169588386589907 0.526005338425325
-0.228057589274079 0.219839459572229 0.579769625463252
-0.229725282727538 0.220334057470174 0.586447711977203
-0.237525065639927 0.169588386589906 0.554250489913682
-0.228312941234162 0.222555181220298 0.613775245997743
-0.23650337302199 0.169588386589906 0.571376774683399
-0.237992378468555 0.169588386589906 0.58722487990107
-0.236939638576879 0.169588386589906 0.595814659805067
-0.22785635775526 0.227120711627157 0.652484838090623
-0.227318959407365 0.22842192621949 0.660879178687982
-0.236072549402171 0.169588386589906 0.627500476496665
-0.238509201669966 0.169588386589906 0.626819231674117
-0.237539616955919 0.169588386589906 0.64404431296738
-0.239246887423304 0.169588386589906 0.654726836249514
-0.228798543943218 0.238959714834035 0.720503188355112
-0.229063943919777 0.239273578545633 0.72210309208104
-0.226107464422018 0.243830549978092 0.742414056540129
-0.237857302861788 0.169588386589906 0.685898552430667
-0.228490250786122 0.248490893239005 0.761995933488648
-0.225253350298725 0.253349776524746 0.780234105209641
-0.228288370075296 0.254982373255469 0.786052101078866
-0.230304887728023 0.255861929738801 0.789186528516137
-0.226133411532106 0.262687129614524 0.812635947552784
-0.228837037818167 0.265620197538981 0.821683131190186
-0.245871598197002 0.0892189971259207 0.690473204943909
-0.225628819992933 0.274271802957164 0.848020207700977
-0.248253457215224 0.0676018313901961 0.690473204943909
-0.22967516326483 0.285320761918394 0.877969200376437
-0.224506344489174 0.28761053143391 0.884093611786361
-0.222282332193508 0.29024328301044 0.890437694869711
-0.227412478140938 0.299801737763429 0.913470491295313
-0.220174999761286 0.308243236898596 0.932471633604941
-0.22735121577457 0.310415255209315 0.937166733548485
-0.222863287682782 0.316443357825403 0.950197261013565
-0.220068232295489 0.319569619814691 0.958592994808197
-0.223326702801827 0.308060729890396 0.963592112335536
-0.228368588489631 0.30055173982515 0.966580548807383
-0.228466016365011 0.29578569378757 0.968768096585814
-0.225008978709115 0.2883370639951 0.972525135148602
-0.226979955463799 0.273328856398275 0.979257742563392
-0.227141118128606 0.271010222172234 0.980311302150529
-0.266869724616344 -0.138744497900604 0.682448278662575
-0.22544862568331 0.257940628749373 0.986493698028406
-0.237897686461358 0.0473225435906819 0.0629120420853747
-0.237714431805077 0.0472630005434298 0.0628714017557732
-0.238052950472476 0.0473729919260098 0.0790172342726005
-0.234425575968785 0.0461943865041476 0.0876458431566975
-0.238239905444795 0.0474337372788249 0.0990597897975637
-0.234796041606492 0.0463147580866157 0.102262813100032
-0.23465869508164 0.0385161604728016 0.105934167592661
-0.235262967062868 0.0324993272757145 0.106025925228721
-0.237892380695987 0.0177516383983573 0.106172822765938
-0.242507599391254 -0.00207108175929119 0.106296838736595
-0.239552820685065 -0.00448352159838524 0.106550813483089
-0.237608135215889 -0.0114356384731871 0.106836372629431
-0.224367880094558 0.142618447344978 0.414572691024401
-0.224757486693698 0.217803603221094 0.499414964682277
-0.225419815455475 0.217793139309078 0.501179130482129
-0.224717383846548 0.217700427178814 0.516809954710054
-0.220366520621309 0.217740154714832 0.531263427531232
-0.220218527794902 0.217805789179701 0.533193207153022
-0.218988160079343 0.217956099492154 0.537612619705503
-0.224502262137144 0.218551963877712 0.555132179755207
-0.223336059196806 0.218793647534137 0.562238144525696
-0.21883986057567 0.219543237840698 0.575770024254479
-0.221758240181575 0.219811519567021 0.579392378061368
-0.225654647376456 0.221100995275231 0.596802946065881
-0.221583211543432 0.221721588102107 0.605182222656072
-0.224572535571557 0.222478262426731 0.613102596528872
-0.222848424518725 0.223130840311354 0.618809344478645
-0.218126247439209 0.225067112070839 0.635741905562961
-0.225781003853674 0.225483016469398 0.639378960433652
-0.223467787250681 0.226193470834442 0.645591834155946
-0.223521561769993 0.22894398568163 0.664247066631372
-0.221705777909638 0.230946025638057 0.677162542205344
-0.22141170353017 0.232178225536499 0.685111658125579
-0.221525650999034 0.234115527244529 0.695810197457604
-0.225355440045626 0.236079418285187 0.705821028519497
-0.217882004884342 0.237778810870778 0.714483592648556
-0.224939164808646 0.24102899109417 0.730642438387219
-0.220323747667777 0.242310887384988 0.73602872304957
-0.218027736421728 0.247011458365457 0.755779629232663
-0.216269022597361 0.249144843136198 0.764743706710574
-0.218417993220719 0.251882888113161 0.775006635033686
-0.224022560767213 0.253063238217129 0.779212984280803
-0.223496282148132 0.256200041038624 0.790391437302667
-0.222912745673034 0.261881366944605 0.81015053533913
-0.215585534543509 0.263857018883558 0.816244525098543
-0.220975454697106 0.272154824834128 0.841839491241795
-0.2190238021522 0.275754481031074 0.852039112552681
-0.218396195898865 0.281291336179713 0.867047154022792
-0.219710488024565 0.282697536004091 0.870858759115027
-0.215680674562385 0.288308900082226 0.885776455229403
-0.212825305961134 0.295504082673976 0.903114527142021
-0.21688305657633 0.296342941265717 0.905135906085872
-0.213085853012102 0.30204982686459 0.918887661743023
-0.212923676677302 0.314630744241097 0.946279061109197
-0.212579041078026 0.3167920736953 0.950951055699818
-0.219279124651247 0.315910244479123 0.960353552441655
-0.219116256980083 0.310537900781153 0.962844935632839
-0.214519959528403 0.306565097280876 0.965106719203336
-0.220177179550588 0.289917356042318 0.972249557373071
-0.212845920775997 0.291788907027533 0.972073958793459
-0.2196046939906 0.281853711071999 0.976019749987585
-0.216769050958866 0.269415186550407 0.982018408327246
-0.214727236226498 0.261873898204379 0.985685534790888
-0.217564075681161 0.253794091381347 0.989143693344472
-0.223228125865072 0.251647752695978 0.989602173765168
-0.221961800027341 0.0421446602113392 0.0790361607520529
-0.227712205197681 0.0440130801125015 0.0854077497332068
-0.22475013265279 0.0430506444009956 0.0918558767827716
-0.231207559531359 0.0384607770443713 0.106169834690825
-0.226787424685561 0.0366110292340632 0.106510934802018
-0.225100361933662 0.0269048196125392 0.106839783069703
-0.223826397192121 0.018185894049428 0.107118776544037
-0.226148697697857 0.00728318569868448 0.10720166819663
-0.234124897942332 -0.00484773017494249 0.10692758547838
-0.226711396529538 -0.0156019745876816 0.107668578557837
-0.21569276178575 0.217868435555159 0.488484541498367
-0.21599302096923 0.217856937034387 0.490423137414015
-0.209240114740617 0.217752908919762 0.507961782787131
-0.208820097896461 0.217689626706812 0.518630862923137
-0.209300697812234 0.217637709961316 0.528251354558746
-0.214083714964193 0.217984105639612 0.538436054356148
-0.210247764200535 0.218182797579968 0.544277979909718
-0.213818950155752 0.218512532612849 0.553972824658061
-0.214318866639683 0.218803894825303 0.562539434613309
-0.217400042872201 0.218943989817919 0.566658497096825
-0.217121027288409 0.219961023787077 0.581410991807774
-0.209128101138417 0.221179029286014 0.597856565333576
-0.217366096492916 0.221366199373336 0.600383745576658
-0.208387691431147 0.222033920464569 0.609216857153824
-0.213829723672985 0.223441028159246 0.621521915509188
-0.21676934332112 0.223943030141263 0.625911887724258
-0.211500659748107 0.225525142755937 0.639747351862477
-0.209216332075212 0.227338885241934 0.653892310495706
-0.213517669106099 0.228332432844113 0.660301842806145
-0.212632458184855 0.229719847286329 0.66925227223284
-0.208346126256871 0.23253821747521 0.687434022909721
-0.217126536083908 0.232379290306073 0.686408758671394
-0.212830054633667 0.23747486140327 0.712934226259289
-0.209018426104862 0.237412581341103 0.712616756925214
-0.207378892442341 0.240455344270332 0.728127080571125
-0.212274234514243 0.242371944718254 0.736285274363474
-0.21538296872281 0.246775250370641 0.754787128116374
-0.215219747206796 0.249624994186576 0.766761210198798
-0.208405314017593 0.253967118855 0.782434094380097
-0.210131989064721 0.253175614806185 0.779613454598197
-0.212166491242536 0.258497419754001 0.798578480449683
-0.213656554171294 0.26031823895523 0.805067234464688
-0.210277431880793 0.26524933510191 0.820539188854444
-0.209662088557668 0.271642768214506 0.840260028921187
-0.207828417210615 0.275137636564102 0.850367111553488
-0.203541876625678 0.282262904119131 0.869680658337855
-0.207518167221457 0.283841551344607 0.873959694431554
-0.211232758020231 0.288211604150434 0.885542003380446
-0.206995539800975 0.294447777359747 0.900569171653643
-0.20342875704638 0.299333714275003 0.912342705475338
-0.203269193879837 0.310249981435294 0.936809472800156
-0.205996971207385 0.314679496094139 0.946384444577347
-0.205370113842875 0.318417638250632 0.954464924811467
-0.208996176488643 0.314527994917125 0.961954233993717
-0.202658432917321 0.30686880643719 0.966078266289869
-0.207381829503719 0.29954256047826 0.96901232090371
-0.204552525163913 0.289390433340892 0.973956581345852
-0.210984174216024 0.288645517460334 0.973697213323312
-0.209441544207878 0.282036759780632 0.97688775713233
-0.213398716426285 0.278529336047734 0.978133512796327
-0.207124620195619 0.261767021536857 0.986447224927193
-0.215043013455802 0.252713796199001 0.989877848196269
-0.21215048419077 0.0389567704500762 0.0658485761674074
-0.217245491447716 0.0406122386603067 0.0732354339389052
-0.22001919612206 0.0415134699405347 0.0789810934413337
-0.219250517464955 0.0412637111047668 0.0870574499939288
-0.219735150502342 0.0414211779240588 0.0930798422852243
-0.219066000035056 0.0336208272814277 0.10710147297694
-0.215442847664769 0.0274015520155386 0.107484879007022
-0.220012785239507 0.020888162748048 0.107318198940245
-0.220171544621618 0.0110401378780971 0.10752478593317
-0.218529828736146 0.00367190568558802 0.107798948330082
-0.220354658964829 -0.00841114090443777 0.107941687620083
-0.217031941743937 -0.0155392559226329 0.108324744801741
-0.20877702488206 0.141225356865119 0.411682338811714
-0.209335448768536 0.14520029496832 0.420804503993393
-0.206730348425748 0.217807766306485 0.498713088284689
-0.200001652568538 0.217760029724179 0.506761249028513
-0.206181448378541 0.217747538543368 0.508867202705808
-0.207306536051054 0.217691028540076 0.51839452050192
-0.203102880063457 0.217749802321575 0.53154708574233
-0.202787068798731 0.218336604638874 0.548800203539607
-0.202242879654502 0.218285778267771 0.547305810381976
-0.199717583205532 0.218898985052598 0.56533527035648
-0.204094652738811 0.218984976042504 0.56786357100326
-0.206020956512121 0.21959086260241 0.576413056261373
-0.204647905981772 0.221117012423185 0.597019210429689
-0.207085811037029 0.221047980192431 0.596087133663602
-0.200312395236931 0.222842769282032 0.616290183479307
-0.201065341384715 0.222857658479226 0.616420388467196
-0.204996386912658 0.225411825532061 0.638756400666823
-0.199791952894336 0.226021256651235 0.644085833171088
-0.202257019357759 0.228076960719044 0.658653751827456
-0.206747460847955 0.229291923951495 0.666491671296358
-0.200988427015049 0.229540183659747 0.668093233836427
-0.205749412885382 0.231564712167883 0.68115378660497
-0.204330435828323 0.233105472316502 0.69066149570258
-0.19889133948602 0.235554828470992 0.703146959593079
-0.207009204365443 0.239224602650392 0.721853440036599
-0.199734982365803 0.242044140333776 0.734907902620524
-0.205367458981495 0.242222993034687 0.735659407688941
-0.205137392058417 0.245700847043333 0.750272689464426
-0.20351800221467 0.248764955981018 0.763147493060511
-0.202928267569379 0.25078963234753 0.771110659126867
-0.205433477888491 0.2539036660844 0.782207971204491
-0.199401480155681 0.258469699784397 0.798479696306843
-0.201994021963548 0.261654048031201 0.809449359639559
-0.198032324927791 0.268013033558828 0.829063944537617
-0.203021841088586 0.26800466117628 0.829038119536508
-0.200858381171473 0.271186375584732 0.838852264751155
-0.196074240771265 0.280109729910948 0.863844325809501
-0.203133497513226 0.282857073881889 0.871291197931245
-0.196606869129142 0.286707271098189 0.881727432569699
-0.196465130031244 0.295905921200696 0.904082828527664
-0.199801443230058 0.2957639900508 0.903740820183587
-0.193236205909747 0.304530395230058 0.924445843664627
-0.198556960835791 0.310537757741001 0.937431538696199
-0.196639973333903 0.319039544944138 0.955809256978078
-0.199473373581067 0.319475448283699 0.960566314033493
-0.201117027031676 0.30742877930999 0.965964616962965
-0.20193635701029 0.303359249578971 0.967763490916981
-0.19475086055739 0.297101535198298 0.971321023483207
-0.195480748717533 0.283814246905886 0.977376757344498
-0.202337731327201 0.280791678531469 0.978127305283452
-0.203019670204416 0.274926759778057 0.980766551399065
-0.198018604395146 0.261853678400929 0.987260596666344
-0.20276423444159 0.25640377714633 0.989327757787692
-0.203391749316279 0.0361108849752714 0.0741383386904063
-0.203987019101379 0.0363042998530221 0.0882609090815846
-0.204359483230782 0.0364253207848051 0.094851186483804
-0.20424499932831 0.0363881227099904 0.106430478916761
-0.207400880715483 0.0247739310047054 0.108089189336885
-0.204231539417756 0.0120931923322932 0.108584388368639
-0.204437004254123 0.00890987262305164 0.108640694884152
-0.205395397236387 0.00157725293694774 0.108737439041676
-0.211069914691228 -0.0121627574686505 0.108655232607102
-0.20412792823844 0.144579335731743 0.419191426351491
-0.193444800946092 0.217840780428189 0.493147064379021
-0.194800529184966 0.217776097247036 0.504052341091162
-0.194459624783525 0.217745088936296 0.50928019480791
-0.197498965414185 0.217639642812575 0.527057909770488
-0.194603098582247 0.217772117033429 0.532203181229488
-0.190759679521736 0.218212744117504 0.545158465764145
-0.189762116910365 0.21852312014492 0.554284118483306
-0.196293480295551 0.218948244507158 0.566783593151248
-0.197845813723101 0.219341028649266 0.573039785246382
-0.193901010310212 0.219696276441485 0.577836359393131
-0.190352773918001 0.220820538444864 0.59301620337166
-0.190809354279846 0.221693380867666 0.604801367111187
-0.196112792435144 0.22176291963045 0.605740283099053
-0.190453551622432 0.223622259733859 0.623106772951078
-0.19698592229544 0.224445006285739 0.630301633991832
-0.190663438023106 0.226260947559112 0.646181913392838
-0.190408929283192 0.228212420136405 0.659527621897119
-0.192638463726975 0.229624733208753 0.668638676314476
-0.196858753804656 0.229949120491932 0.670731349849267
-0.196763332811236 0.231686076755664 0.681936728705597
-0.191690744241305 0.235729270363983 0.704036167947666
-0.196103871729896 0.23745517540944 0.712833877943404
-0.190316892361976 0.238160718331654 0.716430345799807
-0.191610990713956 0.239909749532154 0.725345940151883
-0.191795576372042 0.243608543983892 0.741481229532149
-0.19169363510574 0.24462372763338 0.74574683834924
-0.190110776735865 0.249462144199959 0.766076945495432
-0.193863524196355 0.251219218392027 0.7726415514687
-0.191832106534971 0.253805102813962 0.781856726656787
-0.18793542781936 0.257499640279901 0.795022748192311
-0.191158242534807 0.262127309912912 0.810909157797222
-0.18715307174258 0.26536414117622 0.820893313499262
-0.189617378309722 0.269130190977611 0.832509868252964
-0.191761782607602 0.272853896896663 0.843995811343624
-0.187091577240758 0.276603710252294 0.854341009031378
-0.193456786490358 0.282508900362091 0.870347448730005
-0.192785221328947 0.286668979418843 0.881623640237019
-0.186992454121408 0.294320221447153 0.900261803000072
-0.190654093945592 0.295683803973457 0.903547597571421
-0.189974632868388 0.300260551885237 0.914576085508802
-0.190558465038797 0.308261960234104 0.932512106528696
-0.187051425186841 0.318490802308001 0.954623078432881
-0.183219300006615 0.31704464449685 0.963088330378763
-0.192528496375679 0.311132331121313 0.96506246370679
-0.193687050421961 0.30231049542088 0.969019894238403
-0.188085406213124 0.29378211269689 0.973437274801343
-0.189254174247522 0.284592469683784 0.977583255855685
-0.192563132343054 0.283068455158965 0.977993899607459
-0.193721303408237 0.275597320073287 0.981328826133452
-0.193929414319366 0.264071393814389 0.986621640667146
-0.192697398517439 0.258672904128532 0.989225262959676
-0.196142058142535 0.251517416592894 0.992200443419384
-0.199886476782447 0.0349719528883648 0.07366919554139
-0.196442448128663 0.0338529201443598 0.0817069549934614
-0.199358554598114 0.0348004205725961 0.0921151429647167
-0.193368559669686 0.0328541532400147 0.103406169290245
-0.200633964239613 0.0352148262858847 0.107053494572157
-0.200499969846986 0.0171419317553699 0.108726444602524
-0.194388279911596 0.00624992173744963 0.109382043083743
-0.200511502384717 0.000575670498847197 0.109091322328693
-0.199136994432518 -0.00557252345827471 0.109320403125985
-0.197361039359086 -0.020569197014215 0.109772064599779
-0.191989184009362 0.141741768925984 0.412753778724886
-0.18611016025755 0.142203619268633 0.413712015235082
-0.184379822054625 0.21781958489348 0.496720530725998
-0.184405291715947 0.217768025038746 0.505413277017865
-0.184985884086093 0.217716874155351 0.514037072687063
-0.185112179806572 0.21764474963523 0.526196923758684
-0.186398619814935 0.21782526017015 0.533765691756344
-0.181554556514406 0.218064125925736 0.540788804817362
-0.189851372191121 0.218259174223621 0.546523600267823
-0.189351068737582 0.218755427347422 0.56111439745759
-0.188679520335335 0.218850361776012 0.563905652418902
-0.189847411907053 0.219728029810087 0.578265095025691
-0.181516563983631 0.220645745037133 0.590656133699416
-0.182499594871003 0.221540416983129 0.602736040795233
-0.183983806775681 0.222863352429422 0.616470181663334
-0.188432860137338 0.224034750278941 0.62671397391194
-0.182048149530995 0.224328697322137 0.629284520241543
-0.18085469404719 0.226118789998534 0.644938755470248
-0.184295109014738 0.226387416092247 0.647287871867967
-0.181587034325447 0.229010526481086 0.664676331825253
-0.179773171440495 0.230423476492187 0.673791495234967
-0.181440930206422 0.231581235574273 0.681260381706101
-0.1815314899782 0.233019992212641 0.69022576537885
-0.179348155661704 0.237259159050461 0.711834694885644
-0.185378461140508 0.237904613474624 0.715124864790534
-0.187378602235489 0.241745017353578 0.733651044689081
-0.181649658105437 0.243975988856431 0.743025163074505
-0.188219991241242 0.245342398179772 0.748766555442612
-0.18502473610382 0.248862942739793 0.76355921480406
-0.184239545271521 0.251040402738361 0.772004315882707
-0.178470767309081 0.254962104051173 0.785979868821724
-0.185169486584152 0.255497051765353 0.787886232795616
-0.182181885521931 0.262341709465616 0.811570483131329
-0.180696443698742 0.265139517506051 0.820200451402076
-0.185403717796709 0.270332456926136 0.836218313163704
-0.185143701301115 0.274488674480198 0.8486080534589
-0.176515522775303 0.279920853041799 0.863332361561054
-0.181334551400927 0.281122004261882 0.866588167761313
-0.181615414433238 0.288158245288527 0.885413425714331
-0.184084905614529 0.293395759107405 0.898034146603217
-0.180486088537162 0.301865365781252 0.918443169961583
-0.182989571433547 0.306298120366697 0.928267011353814
-0.178335582103313 0.312509335857061 0.941693361101528
-0.182525090902088 0.319511171291415 0.956828738639694
-0.182933873062945 0.319609172618272 0.957040581247984
-0.181753027659538 0.315164496647263 0.964067223863266
-0.177371638101468 0.308875380296741 0.967301543449379
-0.176878237508567 0.295389768772202 0.973554880815961
-0.184441570864438 0.289657160398698 0.975617624246111
-0.176754272774525 0.284375081370213 0.978641063285895
-0.183859008121436 0.271459915764483 0.984049390902303
-0.181004887697856 0.263169292504799 0.988089204433584
-0.182633032216397 0.260160739795747 0.989351119238891
-0.184491362755512 0.254698923598832 0.991726112317578
-0.191042540087459 0.0320983836639269 0.0703165092937757
-0.185060144949224 0.0301545856528664 0.0694284384616189
-0.19016736170744 0.0318140209705404 0.0837465112291847
-0.188085153721618 0.0311374705842942 0.0956697776540947
-0.188446231219683 0.0312547917752812 0.0938186624454923
-0.184587395507657 0.0300009800479174 0.105658878641864
-0.191072813650727 0.0167805906819541 0.109374831664169
-0.187986754884125 0.0131955613705628 0.109663606755755
-0.194598021066104 0.00407227124238623 0.109415861320817
-0.186102750889922 -0.00977939800504911 0.110298710124865
-0.189927314691078 -0.0193720357656933 0.110250632393711
-0.20359823802662 -0.247498597432137 0.0128559834499198
-0.184148831960657 0.141670269786889 0.412605433949097
-0.181677138169875 0.145382264175558 0.421277208870652
-0.17275250031728 0.217817565006762 0.497061074020112
-0.171602539865195 0.217774905500835 0.504253263832845
-0.172659718312947 0.217743947216102 0.509472683402667
-0.176165550705123 0.217651593204104 0.525043130594348
-0.180049834642761 0.21792610485263 0.536730719559999
-0.17851604220276 0.218151738289872 0.543364776987837
-0.17375734921467 0.218653547768917 0.558118941718462
-0.172979191400742 0.218895223198023 0.56522466458995
-0.173048882837392 0.218887198903152 0.564988734872972
-0.175149413765909 0.219611861895924 0.576696589813383
-0.179726181804006 0.220796489027527 0.592691486889336
-0.178170175247579 0.221021043286399 0.595723430158911
-0.172899391065716 0.222804538320076 0.615955856391458
-0.17293621970427 0.22418839682632 0.628057602220396
-0.177808282730804 0.224671392903286 0.632281369125347
-0.171608430435031 0.225890770159666 0.64294473793054
-0.179108317486445 0.226617195304493 0.649236574865111
-0.179896773452464 0.228425348053198 0.660901253477019
-0.178247537690273 0.230757119156262 0.675943876691922
-0.17254184060337 0.230953142240338 0.677208452529278
-0.171169384572864 0.232796863097051 0.6890883764734
-0.172348928357995 0.236832977618081 0.709662257498368
-0.175141917316583 0.238234795221218 0.716807948839722
-0.172337152698578 0.241645193514195 0.733231603881852
-0.177223406605578 0.243892406796866 0.742673967140244
-0.173137017863546 0.244708724144771 0.746103977541341
-0.17273882747633 0.246860145094296 0.755143839615747
-0.177596487206436 0.248995870048161 0.764117750098525
-0.176067897514371 0.255830178776893 0.789073379346015
-0.177811017762745 0.258882352589624 0.799950244588031
-0.172225584312422 0.261200849588755 0.808051448088041
-0.176723428571921 0.265048157497003 0.819918647229701
-0.17206661581696 0.270209700955629 0.835839666696466
-0.170360898138425 0.273058264247852 0.844626191888265
-0.169569672944725 0.27675148748392 0.854741569775888
-0.174157523041014 0.282730649096175 0.870948514516939
-0.17595344107236 0.287609521654517 0.884091178543355
-0.170438222041474 0.295313367096856 0.90265496404563
-0.175431934152297 0.296725587180001 0.906057959458988
-0.173151488192939 0.303588272616538 0.922409323158461
-0.170721464216815 0.313750791992848 0.944376929929784
-0.169390398614882 0.320819809712641 0.959665541387003
-0.16927188218249 0.320042773095682 0.962774995041585
-0.170576879073131 0.315574093074289 0.964734640887021
-0.173018093149643 0.303856891961408 0.969948095554818
-0.171897758891811 0.294966696191891 0.974131428217044
-0.174908943689101 0.291280885926169 0.975599537818245
-0.168287756032744 0.282948250627189 0.97994730839019
-0.168768861238901 0.274440891377584 0.983831505452746
-0.170996783763309 0.2669466820044 0.987114917221463
-0.172012589120237 0.253476612095646 0.993245471723826
-0.180237592355112 0.0285876433289204 0.0691953101429191
-0.175091432482224 0.0269155546262544 0.0814755825289119
-0.175464438125359 0.0270367515065155 0.0877763702743056
-0.181605746618849 0.0290321835966925 0.0942963656704622
-0.179451523958984 0.0283322342244309 0.103566810722959
-0.183154547886183 0.0161294841743132 0.109927111751965
-0.174935357342401 0.0142839253548791 0.110526199163726
-0.179776386199736 -0.00772120811209744 0.110683046889758
-0.17867275097526 -0.0107393989898455 0.110824639157282
-0.183294231846927 -0.0232918149230837 0.110787754896274
-0.179463878399094 -0.0284159066614853 0.111161063041572
-0.196087029124912 -0.244635080839617 0.0183800165357654
-0.197775556952599 -0.24292329571725 0.0331971698363449
-0.195451908884671 -0.247605070502546 0.045224582364841
-0.190331556003683 -0.250848064811607 0.0494531929214886
-0.170004995727282 0.217865457029707 0.488986706723967
-0.170476016803208 0.217800506173701 0.499937112143197
-0.165476340377141 0.217750862880795 0.508306735225998
-0.164915206948311 0.217720749191559 0.513383760011914
-0.164236171484769 0.217682423402587 0.519845305756918
-0.16587136160027 0.21763449622234 0.527925600407257
-0.162393374043153 0.21826926845511 0.546820390106273
-0.164457853219166 0.218378903337865 0.550043866720306
-0.169880293526348 0.218793128406336 0.56222288116897
-0.165347499640302 0.219194044068173 0.571055191796148
-0.170726161866621 0.220384117328318 0.587123622782621
-0.164415297929193 0.220440301238528 0.587882220857209
-0.169781492581007 0.221034896489073 0.595910476821121
-0.167474979762132 0.222392076629125 0.61234890775796
-0.170126733207554 0.223732129943628 0.62406758024951
-0.166853632794573 0.224710914067371 0.632626978940544
-0.16675379705095 0.225648544173778 0.640826488628931
-0.164401600187886 0.227695786565032 0.656194737230986
-0.16883138182921 0.228719560151657 0.662799262135142
-0.16282266403371 0.230003686433267 0.671083363344408
-0.168215317322792 0.232105890867921 0.684645015768033
-0.161121973040882 0.233647461893059 0.693424259000484
-0.168914688182381 0.235755491664521 0.704169829645018
-0.168980957481455 0.238701969731408 0.71918934628037
-0.167642455707372 0.241332543724391 0.731917908866449
-0.161209731034189 0.243140895965404 0.739516261408437
-0.164467982531998 0.245000148686572 0.747328488097287
-0.169253872621393 0.247568716297842 0.758121121189291
-0.166899046224127 0.251288599764719 0.772888802080021
-0.166756151355568 0.25526505191966 0.787059467607067
-0.165646353116211 0.257269573394142 0.794202871387586
-0.162598644944892 0.25993226273428 0.803691752070996
-0.167154115583171 0.267254719779863 0.826724890622135
-0.162861318463507 0.266601475391664 0.824709928100858
-0.164942782522953 0.273132543635616 0.844855310094487
-0.16136481862901 0.277768107756536 0.857497191658919
-0.161317282432975 0.282835121859553 0.871231695406304
-0.162806911469373 0.287253649645242 0.883208430658401
-0.166504612801759 0.295286514865414 0.902590258819068
-0.162755592432931 0.300548600066814 0.915270188823458
-0.162550128106999 0.30431139411218 0.923972444277934
-0.160928422577589 0.312034550769633 0.940667051412434
-0.162204548284048 0.31828067202972 0.954168854519196
-0.164948959049434 0.321764890867267 0.961716047239488
-0.162264437789421 0.31268726962898 0.966701995105016
-0.158328418382276 0.30982755963391 0.968321576629568
-0.162085032669591 0.293901390965174 0.97537417829203
-0.164235371634213 0.292914004078416 0.975664529681902
-0.16666589460694 0.281277336901823 0.98084168518187
-0.164458177969449 0.273177279040616 0.984744146086073
-0.164549928864027 0.270835964736862 0.985816232280217
-0.168547925093404 0.260383704626435 0.990327409278791
-0.166118321520667 0.255910331674868 0.992575324465547
-0.171956030757759 0.0258968008503735 0.0652333902838114
-0.167675886953073 0.0245060978255217 0.0694578404578413
-0.166029438224656 0.0239711342048219 0.0852981116867416
-0.164841952236695 0.0235852966183323 0.0915474478157201
-0.17171510708354 0.0258185200033309 0.0966251285713361
-0.166524086519158 0.0153728589301025 0.11107356308846
-0.170334290376423 0.00855279672609321 0.110965262796808
-0.172391995065027 -0.00598543222776819 0.111146374679819
-0.168652357284842 -0.0157246819823296 0.111615389005964
-0.172430600204699 -0.0198143939125507 0.111448993858783
-0.167854753020223 -0.032438601061781 0.112038492703924
-0.169077950034843 -0.0345786573763594 0.112002634438114
-0.185149015927194 -0.249422849607502 0.0103482491912389
-0.181558065576099 -0.242531834173168 0.027718083204967
-0.18258013602385 -0.244377218712249 0.0389392566270008
-0.188466711004844 -0.245354937697307 0.0412996790609169
-0.187138620901636 -0.25408068921014 0.0519336728644832
-0.181536365988302 -0.253455790710262 0.051454171380779
-0.158986393899415 0.217825031764869 0.495802214114851
-0.159153868949381 0.217769205031752 0.505214335809086
-0.154344097955018 0.217740336628714 0.510081411264508
-0.156660538782201 0.217687889366559 0.518923770227178
-0.162069990179346 0.217854069314171 0.534612736051807
-0.155381954001171 0.218223089947573 0.545462653085216
-0.153702848257682 0.218370900047013 0.549808554561884
-0.154504684789121 0.218896970498777 0.565276038595882
-0.153091039472202 0.219263820345297 0.571997314714974
-0.155289796213986 0.219416307296815 0.574056201456539
-0.15398800651943 0.220714633619965 0.591586270923789
-0.157352953720038 0.221360696635746 0.60030944732784
-0.154237221081508 0.222208311682023 0.610741896150882
-0.159546686128789 0.222996532048757 0.617634828117804
-0.156237272516957 0.22441280136542 0.630020004216544
-0.153686701778521 0.225151250429784 0.63647768962601
-0.157464070002815 0.226544731851208 0.648663587175014
-0.161568090574394 0.228428913022151 0.660924251654092
-0.152740958163496 0.230257240406197 0.672719080021061
-0.154541430355016 0.231723666565047 0.682179226495592
-0.153408613772819 0.232714091489551 0.688568613919763
-0.157682143674027 0.236406688602371 0.707489271710729
-0.153824472526197 0.238983464001453 0.720624248484192
-0.155913728390786 0.239195785183246 0.721706544516808
-0.159579861484044 0.242251367349854 0.735778631170345
-0.151651937281414 0.245460081132804 0.749261036852287
-0.156140749666782 0.248865729016488 0.763570922209358
-0.151008202675797 0.251488701577893 0.773601893990944
-0.157872284052154 0.25396914169375 0.782441303060156
-0.158134014818195 0.256514670982693 0.791512666863209
-0.159758381000027 0.263061107267759 0.813789498916832
-0.155292241705301 0.264306215164836 0.817630091798881
-0.157726780178249 0.268529328566633 0.830656480362558
-0.159476407235093 0.271169278429026 0.83879952778381
-0.153698945914881 0.277711918053221 0.85734488545352
-0.153083040799253 0.285386134275723 0.878146396821611
-0.149489661637114 0.286698771827467 0.881704394689162
-0.150476328922533 0.293113102625436 0.897353035547526
-0.151424131391188 0.298751172682902 0.910938967920779
-0.15622589686933 0.305295238287589 0.926099151363977
-0.152482250567971 0.306878940381344 0.929522529322755
-0.14974905686899 0.316786518162681 0.950939046693838
-0.155960612190187 0.321620859465568 0.963067424199754
-0.148468105796633 0.30890430785893 0.969474193400847
-0.154340667543085 0.309988208567266 0.968553033420345
-0.156138116106351 0.299964761280279 0.973035153104106
-0.148757398606829 0.293004094829271 0.976785398284579
-0.15388390693657 0.284546166668235 0.980314300105675
-0.153800415005108 0.277186528100844 0.983712764600882
-0.151013390218005 0.267689115359689 0.988303649002075
-0.154365981657431 0.264677553839825 0.989434841330645
-0.159019375552002 0.253378733251956 0.994285989521616
-0.163294059356333 0.0230823557338443 0.0685352741636724
-0.154799607989766 0.0203223411761542 0.0821749859960544
-0.158896197027821 0.0216534036419901 0.0976084904164473
-0.156013357704533 0.0207167123647789 0.0944013299361821
-0.162953703368742 0.0212632025209289 0.111186093080504
-0.154230932652299 0.00905589496732478 0.112048101181906
-0.163954855067152 -0.00153197439295609 0.111621232024046
-0.161242716733196 -0.0154716666143898 0.112113160497501
-0.160415201383147 -0.0242516097914573 0.11236317232017
-0.160072978698996 -0.0325229609483917 0.112568990976435
-0.174319067163936 -0.242880499050397 0.0250697105297923
-0.170333174064293 -0.242546634817818 0.0303361462603841
-0.170191316099815 -0.249045622417931 0.0471019461718674
-0.171609240271268 -0.248870392453003 0.0468735820354895
-0.155186025533856 0.143144808016829 0.415664772087731
-0.150632719334932 0.217790167785719 0.501680115188143
-0.146596335435533 0.217747202819004 0.508923804236904
-0.150959403135807 0.217709444141312 0.515289737717326
-0.152401086822657 0.217653914942365 0.524651696565533
-0.151914897685871 0.217700138244956 0.530086866280099
-0.144146437546718 0.218238679341809 0.545921011287322
-0.146010349835324 0.218375787385126 0.549952251711141
-0.144698468031174 0.218857113629464 0.564104169908586
-0.149293199584929 0.219676357430189 0.577567411867767
-0.147382124955155 0.220040673835308 0.582486430897052
-0.150053012491063 0.220620788283895 0.590319166320621
-0.147895595396696 0.221692459523684 0.604788927076876
-0.149761766406145 0.223086311199409 0.618419940509734
