ply
format ascii 1.0
element vertex 838
property float x
property float y
property float z
end_header
0.224293868230677 -0.0412309167587958 0.519140050246563
0.241192395684508 -0.0459243960438338 0.690637653481718
0.232204573706211 -0.0458427726304322 0.702139928716444
0.230617882911873 -0.041247804102898 0.711638966055899
0.232817151942058 -0.0469245714502613 0.72305376806604
0.247284251058456 -0.0403976009031613 0.727706838623306
0.262359627013115 -0.0439909403904943 0.7279311062902
0.28043224767003 -0.0433099624461871 0.727881258102053
-0.152730811676827 -0.0243244124193087 0.138719836567619
-0.137851388590102 -0.02922113664682 0.143460828976677
-0.134159409337469 -0.0256549517704885 0.144637203635982
-0.129640047511066 -0.0307042173821784 0.146077189759886
-0.115355713055026 -0.027337671912231 0.15062858542115
-0.110523148231117 -0.0245282782767717 0.152168381234663
-0.108251014810507 -0.0263642868211074 0.152892343279311
-0.0939884301374276 -0.032210451586715 0.157436791930473
-0.093461059939725 -0.0296169865105132 0.157604831625453
-0.083983042662854 -0.0335503378945683 0.160624786461844
-0.0757285463527777 -0.0327233619992084 0.163254901954184
-0.0595635596711858 -0.0266601742943072 0.168405531173512
-0.0500098043297819 -0.0268932456059656 0.171449625110856
-0.0445729472418121 -0.026539024632866 0.173181960911874
-0.0386644668933023 -0.033542715288422 0.175064555411053
-0.0267137362750277 -0.0249977618170645 0.178872409250237
-0.0223654819953938 -0.0266134845225612 0.180257881978221
-0.0131684464118956 -0.0259678327166658 0.18920018222388
-0.0102266566993533 -0.0345152897516046 0.192398404222673
-0.0107166887490355 -0.0275278594241586 0.192554589186948
-0.00447869775760846 -0.0320639848779141 0.201089183760875
-7.45923846410148e-005 -0.0250687229297272 0.209943953924119
0.00382466410245761 -0.0317569012031238 0.219599649240814
0.00382466398698898 -0.0284042104669852 0.223508213526984
0.00382466391653366 -0.0263585041697512 0.2351633207928
0.00382466407915776 -0.0310803805215578 0.248215148112329
0.00382466403424315 -0.0297762704419143 0.260511028770849
0.00382466391818826 -0.0264065497150256 0.272697892445778
0.00382466390693101 -0.0260796974150569 0.279471194547202
0.00382466406067639 -0.0305437849746597 0.28332272752045
-0.216885976445557 -0.0233910638968251 0.500827422349918
-0.216627671965482 -0.0296761693797975 0.501475264919926
-0.213846642535336 -0.0319563606068025 0.506419649575144
-0.208586269368071 -0.029445313395865 0.51558671085008
-0.188662946287957 -0.0302578854479496 0.513822174910379
-0.177749995122192 -0.0302164156527298 0.509686225622028
-0.166291199278159 -0.0298832671128196 0.505577443447193
-0.155141434308788 -0.0243035034702762 0.501535371545217
-0.143302749145558 -0.0245798340490074 0.497453366235293
-0.112811896406266 -0.0284569407793594 0.489187436295719
-0.105202391412217 -0.0291567054321853 0.487550416641348
-0.0867414341864311 -0.0319954778994944 0.483610662654676
-0.0654141040114083 -0.0314659976166978 0.481003903020274
-0.0540187849149639 -0.0314221269051186 0.479876287342412
-0.0501772175463465 -0.0276452585155027 0.479371343709262
-0.0385827284664157 -0.0342759948391606 0.478425610069132
-0.0157587810967931 -0.0329370545247962 0.477558351153641
-0.0109056947690651 -0.0298814842425108 0.477334939924031
-0.275836809851804 -0.028537718027546 0.705260647062501
-0.272343360426406 -0.0308529131283149 0.725436945842832
-0.273504710454235 -0.0272970272660692 0.72524741953871
-0.258418477943346 -0.0311305309786876 0.728682451698536
-0.25587757199003 -0.0313974578797189 0.728864742375563
-0.250827257868715 -0.0231156414026532 0.729742206645793
-0.231855895431438 -0.0260250852245992 0.729488160136059
-0.209130720072138 -0.0308544384209149 0.725194551688781
0.104292284456286 -0.0297119531610648 0.482578957564731
0.100910530108282 -0.0304688837776381 0.482270274258691
0.12029231671084 -0.0319489627134906 0.486048656242103
0.120907802126036 -0.0322650798285549 0.486191311731412
0.132945251082627 -0.0341577805822426 0.488868250151514
0.142608906152831 -0.026801532418569 0.490751398021155
0.163061182610465 -0.0265808372185907 0.496617121803874
0.165664781058325 -0.0275464955159347 0.497549579588609
0.173136765402874 -0.0293808011087591 0.500193905145823
0.187415188421571 -0.0281837465904593 0.505087910040609
0.196474015273389 -0.032166481846728 0.50836114904666
0.204997000895269 -0.0351647415889869 0.511669241723544
0.218460012026951 -0.0343239339654923 0.516747752870188
0.223861220237043 -0.0372680432338168 0.518871684028273
0.237655614877096 -0.0274040269785308 0.695807691859886
0.231050386678449 -0.036769272319762 0.714663180172943
0.238331917316293 -0.0272160470739254 0.727005833128558
0.253656062044375 -0.0364196909874026 0.728505794011239
0.261566468730615 -0.0343553178466747 0.728790511669786
0.26377994810162 -0.0314116392856971 0.729086423099523
0.286079384831664 -0.0373529708451574 0.727973711622766
-0.149171307960122 -0.0232732218242386 0.139853996187815
-0.143366889401813 -0.0222095864782879 0.14170344864494
-0.130184298052979 -0.0239422341535963 0.145903788695478
-0.127389575747584 -0.0228414595048689 0.146794267605261
-0.119683711003113 -0.022896486119569 0.149249572077806
-0.114399184707057 -0.0198232669938272 0.150933376052411
-0.105942215884569 -0.0218664446913933 0.153627999656421
-0.0941884431161216 -0.0173712352225036 0.157373089699085
-0.0917225960102084 -0.0187377157094587 0.158158775178816
-0.0852827591495818 -0.0201344574403325 0.160210685182883
-0.0735153992525932 -0.0149813046240831 0.163960105698126
-0.0667091230540177 -0.0218315753484529 0.166128763336543
-0.0578862327079569 -0.0234796810669008 0.168939980539749
-0.0574964849368916 -0.0169308394060739 0.169064177376206
-0.0479519025159609 -0.0165446601182966 0.172105349723764
-0.0370862333680788 -0.0166542488655575 0.175567456421996
-0.0311153886834693 -0.019167184418601 0.177469930275787
-0.0200741982406747 -0.0157354037174907 0.180987969614181
-0.0164273199557228 -0.0229792260449445 0.184741510063753
-0.00849071176470964 -0.0200078652518614 0.195600108932912
-0.0075355248988868 -0.0181844091773107 0.196924908755871
-0.0031730056235778 -0.0242931416654824 0.202875602090491
-0.00440541075396414 -0.0156935467422338 0.206995428288865
0.00247469413707031 -0.0241765908456176 0.217172044326955
0.00367111346281053 -0.0232403010747052 0.221007757839885
0.00382466385211892 -0.024488173669617 0.238231011606036
0.0038246635693941 -0.0162791163202514 0.246424607251826
0.00382466364651184 -0.0185182826807649 0.252504751004688
0.00382466378318857 -0.0224867613950817 0.271674308415931
0.0038246638560974 -0.024603717189999 0.271125884082027
-0.235336860493127 -0.0147422775337818 0.503886691485497
-0.24153365524652 -0.021879964704795 0.517406974836624
-0.243712167110397 -0.0151324206244562 0.528474947039246
-0.243622308657947 -0.0180211738088725 0.543700663792318
-0.210128759789367 -0.022454965689432 0.512644955564604
-0.24356069914734 -0.0183474326962659 0.554139848223042
-0.2434932209996 -0.0210261432008207 0.565573421097793
-0.157442403470946 -0.0237314485481462 0.50231121164321
-0.243379798067022 -0.0167855004203525 0.584791929736803
-0.243319011325489 -0.0216320205786474 0.595091703254934
-0.243279179635546 -0.0202573204767661 0.601840829378594
-0.0983484107432435 -0.0232917671037809 0.485856153488925
-0.243174606339811 -0.0141845139725123 0.619559845646564
-0.243106208919081 -0.0176485853436622 0.631149181165518
-0.243068198570805 -0.017119171655675 0.637589697118649
-0.243019256888104 -0.0155755144064007 0.645882430611098
-0.242990180613408 -0.0186258933778046 0.650809147137886
-0.242879850627174 -0.0180700469806563 0.669503583486958
-0.275409360350737 -0.0214693141374095 0.703345404805633
-0.276989498274007 -0.0202699962303923 0.712462069951319
-0.275811165618521 -0.0225848508538563 0.720822912818498
-0.275195230475337 -0.0214450139612461 0.724408632794456
-0.262714215865868 -0.0192824327334479 0.729065717934533
-0.254019383715008 -0.0179182187045113 0.7297975974677
-0.243696000220046 -0.0200362903045898 0.729908969696166
-0.22882313490978 -0.0181433545527092 0.729806384209435
-0.224640568435252 -0.0175245727358976 0.729553407469905
-0.212897416466179 -0.0229746390793213 0.727479289350086
0.100916258378921 -0.0201768301960119 0.481922585930203
0.118055269860794 -0.0225144359712584 0.48524775246795
0.120475219948071 -0.0209331978154422 0.485722378020231
0.138441150579538 -0.0226409235053993 0.489701045373371
0.152135632093943 -0.0190311102914035 0.492585879230869
0.157399851470651 -0.0214534757166501 0.494487116874827
0.165316254348544 -0.0215360260111519 0.497225756017159
0.177939635428526 -0.0209449265795525 0.501568295202841
0.186013112184838 -0.0223623876073613 0.504406387037763
0.192136316667237 -0.0197660480506363 0.506434661820372
0.203842656930834 -0.0187760275472546 0.51070795405972
0.217636822078064 -0.0180715898452616 0.51591025369139
0.255559905745323 -0.0185715965092464 0.501121704967619
0.256874235706226 -0.0197555669914168 0.503989338915057
0.259029662598608 -0.0165034999938608 0.50869209660276
0.26567730273178 -0.0166096479062876 0.54577934180371
0.265638562061219 -0.0211279007244267 0.552351412998417
0.265536590860967 -0.0216972350949031 0.569650080732838
0.265483052693663 -0.0171619714195145 0.578732438938068
0.265268465011564 -0.017308259485728 0.61513566851043
0.265232094696087 -0.0195189313936868 0.621305626315072
0.265073598905874 -0.0178358225826411 0.648193276998952
0.264983008817383 -0.0204187103295785 0.663561222428485
0.23212962559394 -0.0180247713964559 0.704489870961587
0.230895679912929 -0.0186968117157245 0.71495137740907
0.232039316955573 -0.0190378422419115 0.721556805293227
0.250256316047759 -0.0198439991127243 0.729519381315181
0.256094773262801 -0.0259860326864276 0.729471994810811
0.275316673741407 -0.0171999158740836 0.729868877653396
0.289898201919111 -0.0268787705863791 0.72853890397332
-0.14755409508276 -0.0110039131235156 0.140369308341666
-0.147259143228689 -0.00568676278730321 0.140463298233463
-0.136376980036876 -0.0112632992342959 0.143930650156494
-0.129760419950953 -0.00647586273310187 0.146038880719698
-0.12565272901951 -0.0071923429954439 0.147347704903049
-0.113443895832226 -0.00521944876747841 0.151237785232154
-0.105069406169095 -0.0105195882806161 0.153906122562357
-0.0931142507633968 -0.0105503430606473 0.157715370283159
-0.0951239045722369 -0.0117657476725776 0.157075035945065
-0.0800244038551655 -0.00500807172479029 0.161886172976403
-0.0753947246039863 -0.00754760200661927 0.163361313862119
-0.0620147219817028 -0.00727338479508759 0.167624558435282
-0.0542173543565361 -0.0068110670304538 0.170109019293251
-0.0486649187916356 -0.0118663481158902 0.171878171505712
-0.0457003391372599 -0.00566721285808201 0.172822781332834
-0.0391931696255281 -0.00809721668067835 0.174896143472389
-0.0271017124616691 -0.00665304680604824 0.178748823518426
-0.0219328137796092 -0.0121688282299218 0.180395769261678
-0.0143610883153187 -0.00588207735304058 0.190158810773259
-0.0145651738897474 -0.011767299256016 0.187289256285587
-0.00998419623163955 -0.00993877918071802 0.197780833241323
-0.00594355600298058 -0.0127654533127438 0.20560412867771
-0.00297579202962723 -0.0100154579389155 0.215485023299134
0.00110815121111031 -0.0115730089306908 0.22450545279065
0.00036398205836167 -0.00724127352779484 0.226329877934319
0.00382466344571689 -0.0126880623996848 0.238109405875019
0.00382466352005157 -0.0148464359245696 0.254713961582316
0.00382466333084173 -0.00916856615911219 0.254081864354845
0.00382466341683988 -0.0118496190479649 0.262119467263783
0.00382466337176303 -0.0101731487565336 0.271343056814232
0.00382466341287877 -0.0114166809393117 0.279095348022431
-0.236133378207897 -0.0061889290574461 0.505624548817626
-0.243687526513442 -0.0109163360306534 0.532650077365219
-0.243697286893957 -0.00558730814346558 0.530996267566958
-0.243606780509043 -0.0110965286782895 0.546331770721714
-0.243549438265824 -0.00733958182565427 0.556047904590291
-0.243489903606254 -0.00716740043845965 0.56613552393922
-0.243432375502993 -0.00464345527527813 0.575883151568833
-0.24338539362759 -0.00555440862993496 0.583843813143317
-0.243372690039597 -0.00971541797375646 0.585996321859156
-0.24327815300088 -0.0104918546352605 0.602014783505371
-0.243215769928696 -0.0105925526309649 0.612585041456864
-0.243213164864845 -0.013113420531757 0.613026446010045
-0.243116704224204 -0.00950717677658172 0.629370847339586
-0.243058088080625 -0.00642140911636262 0.639302835133839
-0.243055586684596 -0.005177401357916 0.639726675332598
-0.242918505974121 -0.00828301804859634 0.662953784110484
-0.242930929590792 -0.00528624181171111 0.660848714413722
-0.242882907124355 -0.00516633131380847 0.668985695593379
-0.277081948565041 -0.00684664899727066 0.71360824327998
-0.273153550463445 -0.00737499538558958 0.725964209639491
-0.270123199883048 -0.0126907142981131 0.72720630957104
-0.264382288154149 -0.0122170592250238 0.729003232165738
-0.254806920664915 -0.0135738336294883 0.729845810171143
-0.244263785680349 -0.0113201740578583 0.730025736715164
-0.234378245976681 -0.00754680398596715 0.730033426259099
-0.219414829745906 -0.00463954186261749 0.729247600405911
0.0974691179987747 -0.0104855710087048 0.481253901242673
0.102663346265106 -0.011511273806231 0.481802069175058
0.116342564007984 -0.00760584668364615 0.484369505344312
0.133060733408145 -0.00745779264350276 0.488013073847843
0.137944710146655 -0.0118829073544015 0.489228684594788
0.147113310238394 -0.00684148616045914 0.491059053194836
0.159140459017567 -0.0117091949062109 0.49475894098344
0.165590095233113 -0.00534333316060386 0.49677248310959
0.180120940872877 -0.0146308037552875 0.50210848683167
0.187217307692756 -0.00983428347998266 0.504398629027005
0.188998321547454 -0.0123018148767562 0.505097627072904
0.200989630896846 -0.0138546889425656 0.50946051241337
0.21392715006215 -0.0122570633622951 0.514308040945913
0.220803481351978 -0.013627396864726 0.51695961453792
0.25739361536089 -0.0125950944432353 0.505122532841718
0.259160640559607 -0.0104953201192623 0.508977867191957
0.26371725347737 -0.00878620466589694 0.518919585236135
0.265804483215041 -0.00620695808544061 0.524204103728815
0.265678706602953 -0.00751604024498587 0.545541185335148
0.265673814895217 -0.00824485475369216 0.546371027747271
0.265549200462775 -0.0130580972751596 0.567510954083328
0.265532407156759 -0.0154142668420342 0.570359815528693
0.26549254528216 -0.0143118213018167 0.577122090781484
0.265367050885195 -0.0140842044380524 0.598411296657925
0.265284473956741 -0.00578693964468755 0.612419871639228
0.26525491887366 -0.00818610619536599 0.617433673963188
0.265153727592729 -0.00717951939571442 0.634600036120117
0.265146589996454 -0.00776525331394291 0.635810876792562
0.265086459766976 -0.00583972886262714 0.646011532176437
0.265001154985142 -0.0103044697209452 0.660482862212014
0.264967543604109 -0.0140650014186372 0.666184784946937
0.231941296563332 -0.0151887058080188 0.705593171908962
0.23089988257866 -0.0101992647630351 0.715034337025664
0.235984420217373 -0.00746442305673547 0.726575302106775
0.247807955773554 -0.0160426630101765 0.72934950097072
0.254558760743339 -0.013310984925548 0.729873744221233
0.281805868596886 -0.0145814774544404 0.72970898930132
0.288091266220132 -0.00593541024949676 0.729251941630496
-0.12854984024107 -0.00414275013076879 0.146424609734494
-0.116574449432003 -0.00373017421261099 0.150240305852689
-0.107404061862508 -0.0032831796776641 0.153162249340705
-0.102200078623633 -0.00443804829366513 0.154820382176092
-0.0925959099983196 -0.00371618297128294 0.157880540988156
0.00297791568162362 -0.000119825527612503 0.153425669549761
0.00332564305094318 -0.00119001859839267 0.150783105190705
-0.0138183955410003 0.0017165236650832 0.185081165440099
-0.0109281850135314 -0.00175394906576614 0.195953489445261
-0.00780867633625414 0.00224161479021918 0.196388567630189
-0.006916992356236 -0.00376785690154453 0.206951830811616
0.000184652921544945 0.00298131933460115 0.211367888744871
-0.00135689989776181 -0.00469349046196578 0.219473481150526
0.0088412378516198 0.00193579227033361 0.219546561365819
0.0125918406354058 0.000993694583604005 0.223376892953251
0.0225933603149666 -0.0020745118681252 0.234489594246644
0.0277611440841338 0.00154604596838537 0.230824032955374
0.0291999863913364 0.000166329558701161 0.244307443990139
0.0270936971025941 -0.00014748574929084 0.25803164382538
-0.232449446137904 -0.00101653822691971 0.497586876534653
-0.242055115296513 -0.0013327537250584 0.518544706182064
-0.243684373011599 -0.00164602459229894 0.533184410296168
-0.213419763816448 0.000825859256587435 0.506105822734288
-0.208149903688918 0.0015474907442227 0.515303310454809
-0.243551133342488 -0.000418262829817685 0.555760691541543
-0.243496850860832 -0.00234067451956714 0.564958375438976
-0.243441735414369 -0.00102634507622077 0.574297199977222
-0.243387874387114 -0.00276601198233041 0.583423472284294
-0.124013570961602 0.00156007522987556 0.490616406427441
-0.121243985910867 0.000723699364652382 0.490040272847514
-0.0905833969612961 0.00255329203125279 0.48328698564236
-0.24318471172575 -0.00135079984131003 0.617847584651405
-0.0699836006864379 0.00301517075091269 0.480291794786227
-0.243094257992907 -0.00232991857786843 0.633174166939092
-0.24299685025336 -0.000852458342719808 0.649679045623145
-0.242947435055439 -0.00115184702836562 0.658052012525462
-0.242924320274837 -0.00162251849490652 0.661968606817665
-0.275466679799364 -0.0018074692654678 0.703804995310106
-0.276960806329943 -0.00429501609490419 0.71432578971278
-0.275961089424406 -0.0044705396550088 0.720107327967274
-0.274732406595403 0.00223142431744496 0.725368440686491
-0.261939690214116 -0.00279366169013027 0.72932996808538
-0.254713515144558 0.00287668912467678 0.730074107502418
-0.235273502344434 0.00242425117124413 0.730186009437656
-0.227275485547332 0.00204442288606645 0.730061835504192
-0.221930928575973 -0.00416435334988989 0.729477900211052
0.103603331595022 0.00487846079037109 0.481340402197533
0.104840994281498 0.00441286053889234 0.481478502568746
0.121182497233888 -0.00507677591168006 0.485340197528301
0.125123895478013 0.00186245604592702 0.48596556452983
0.140329872396788 0.00449057831893893 0.48919519460718
0.149316542650285 0.002070898247956 0.491238319212395
0.153185276378496 -0.000249056221446677 0.492313101916087
0.167033539722435 0.00428992172667146 0.496945365247318
0.171764903154747 -0.00239444838903011 0.498806665810317
0.183232781843284 8.09665099369644e-005 0.502686104379942
0.195806594208656 0.00353929201439549 0.506914484934064
0.199756504153033 0.00179514081333767 0.508463771635149
0.220857699064478 0.00391924452560886 0.51638643223824
0.259889028621357 -0.0041949275600136 0.510567080247215
0.265723472091255 -0.00532975611881043 0.537947047909955
0.265612722591899 -0.00389941928911633 0.55673489016734
0.265538298577594 -0.00401638617169092 0.56936038036371
0.265521293575277 -0.00469337865807816 0.572245154317841
0.265446182264615 -0.00529141870156243 0.584987239001599
0.26537430265336 -0.00146077358531387 0.597181092421333
0.265312465919443 -0.00255476529664521 0.6076712418183
0.265001157814971 -0.005053993249492 0.660482385624992
0.23761057240131 1.0955717660885e-005 0.696511923879381
0.232224504042532 -0.00482364543135414 0.704019573577691
0.230840228321476 -0.00451023741303378 0.714728946472276
0.23359530919108 0.000227969605487705 0.725609002208737
0.240427338257284 -0.00232116261891703 0.728527876680979
0.255040587156102 -0.00423636009789108 0.730006078983043
0.27773272039324 -0.000318967447091975 0.730069724829362
0.0002663895706594 0.00822539099905521 0.149351247610629
0.000285242301629616 0.00816736238698176 0.157943947616801
-0.00111546052164615 0.0124782706688546 0.173907693076325
-0.00463081474787254 0.0142547131197999 0.185237958888662
-0.00389106995347892 0.00994531142419669 0.193014433711189
0.00433388577731841 0.00998939365174814 0.202123056753246
0.00816786623173109 0.0104870301789121 0.203492498094371
0.0074580255173302 0.00565048464253277 0.211923880885804
0.0156713904745162 0.0107035196553161 0.207544927487497
0.0281637448392338 0.00610047464569517 0.22281794462117
0.0831593735719249 0.0132954348157317 0.174533017461442
-0.216889917396171 0.0138204657341094 0.499626637005406
-0.213222855742815 0.0119330248790491 0.506093451767547
-0.208110367109576 0.00694086058926385 0.515190155024914
-0.206718892164626 0.0111935557625453 0.517486629523013
-0.193423905316855 0.00882719705041825 0.514303417877432
-0.174584349020579 0.00717968823105401 0.507221481571597
-0.137451702471298 0.00565132955154513 0.49440836288688
-0.138027364762497 0.00727246986954447 0.494552452874203
-0.10898736968101 0.0100262007254774 0.487050614284625
-0.0896530094673288 0.00808010137695511 0.482896923882012
-0.0725208816161604 0.0139798946134342 0.480171591958902
-0.0655079403682158 0.0112442144720786 0.47957091589939
-0.0577032985057462 0.00641780625201811 0.478962723467111
-0.0482656356708572 0.00787495670943139 0.477980483567809
-0.0352349604941271 0.00985318965062171 0.476661978628739
-0.0180369029421863 0.00698111476592767 0.476284460151809
-0.00922709883971158 0.0123598471397856 0.475859292553038
-0.275622716671481 0.00618738124890925 0.704749242437705
-0.275982220519585 0.00939900017785592 0.720115595855574
-0.270733165229107 0.0123663052535721 0.727203763197165
-0.25936740014991 0.00832786073870468 0.729719993580009
-0.254744746378265 0.00517114593802087 0.730105291398148
-0.239508050152421 0.00556977038089746 0.730290456573571
-0.227822674477983 0.0105991354308172 0.730187974262013
-0.227512016234592 0.00518502013507796 0.730108673528065
0.104283105562288 0.00861706264625071 0.481281094638793
0.107302019489882 0.00581119657551385 0.481942494364881
0.114892255807771 0.00612541978501951 0.483588358770611
0.124464883292355 0.00924645413768736 0.485571885958736
0.1403617415865 0.00826770805538669 0.489074342372622
0.147673898670632 0.00551783881747668 0.490763195022222
0.161162827557439 0.00760604092994764 0.49480428823271
0.165232950483603 0.00627084707434454 0.496256067624272
0.172515127275705 0.00681542461210259 0.498754298210124
0.188393859923026 0.00729967261659752 0.504225465999532
0.203938743151338 0.0138483120207847 0.509640433489604
0.210549035697317 0.00631940739012852 0.512399611082259
0.216516295702431 0.00842026707717689 0.514589318502592
0.221741258279361 0.00961278907258043 0.516528530094752
0.231183604362921 0.016168357899554 0.710099344071023
0.23130593836421 0.0102476343799346 0.717544543496816
0.23531805539776 0.0146054001370369 0.726468366132113
0.249224664555622 0.011513814511705 0.729844733986931
0.259940766688248 0.0102526745013021 0.730278799839929
0.266598437542114 0.00777092297921589 0.730340934000615
0.295060297439361 0.0157215508980405 0.727773962340133
-0.00419122750084244 0.021944519988274 0.146460525951245
-0.00348050078269338 0.0197571311214333 0.14382913016419
-0.00273619888301903 0.0174663929581441 0.163794380081318
-0.00291087582790861 0.0180039893533775 0.169122907602894
-0.00257110950949773 0.0161070884608266 0.186672172142112
0.00518345816784816 0.0221581646560941 0.18119594080907
0.0039493898056348 0.0151306172221234 0.192483047383945
0.0181529656807419 0.0233784148079222 0.185833037552873
0.0141786192777208 0.0151154049090595 0.1985950884622
0.0340944721461443 0.0177028847357913 0.198810259055312
0.0644353808382887 0.0244934527149688 0.177262387220275
0.0921612740856281 0.0207797077203393 0.170810857297307
0.0978063797046378 0.0192975026027886 0.169633281437616
-0.216661841997363 0.0205198871823489 0.499810133277349
-0.214712830292944 0.0185046589872418 0.503279661062327
-0.211973950926637 0.0186712671417844 0.508059063967557
-0.208328803005495 0.0210242903894015 0.514373296868463
-0.198061864144698 0.0192491364540581 0.515768367947668
-0.175962375611214 0.0195378375244841 0.507410587232533
-0.153640419630034 0.0182901050923596 0.49957538277953
-0.137478449281001 0.0226343002996399 0.494191931694624
-0.122691267689539 0.0164767873534847 0.489823088833902
-0.12052244425038 0.0160657014084146 0.48936367372171
-0.0908723658684509 0.0221965439139164 0.48305475912342
-0.0869251561344027 0.0159206388271207 0.48203629137276
-0.0680901567908302 0.0147751786450044 0.479706694718141
-0.0542553291566618 0.015870457024675 0.478302030303545
-0.0513548629245877 0.0198836490431078 0.478014979979871
-0.0354556573643088 0.022190716675894 0.476625878279986
-0.0124770333982436 0.0213001088411467 0.475934235229506
-0.0121702770018776 0.0211204245849885 0.475913086510511
-0.276845768191251 0.01680009714567 0.711812385966625
-0.27569534525308 0.0174627189775927 0.721770516410669
-0.271661716183123 0.0151977418872262 0.726786129781178
-0.263899687555656 0.0163952829028265 0.729330688317541
-0.247856534755537 0.0156786353346667 0.730295664784503
-0.244077724742191 0.0169626331695194 0.730336530937543
-0.231767560672055 0.0142654841212008 0.730276578403999
-0.21919823626676 0.0202516917974425 0.72938372192032
0.097909150194092 0.0243932915766352 0.480708748879663
0.109721941847748 0.0189954224112832 0.482070127970875
0.120775377301786 0.0183623645285044 0.484458227489102
0.136869091592282 0.0160299154983683 0.488049451664515
0.147676617205539 0.0205733984972902 0.490459574351163
0.154699249238102 0.0166671312136227 0.492263927289744
0.159332042926714 0.0180264107197166 0.493818986413347
0.164183196332293 0.017919274046534 0.495499128560652
0.180618272910049 0.0258425908915977 0.501533577056655
0.184035520588206 0.0253293017253723 0.502688120265003
0.192826225056043 0.0233454980810871 0.505623970152613
0.202456648281557 0.016869492433699 0.508976688296084
0.217899256760425 0.0185758886963489 0.514772346630899
0.23079584695744 0.0233167216428566 0.712219672166154
0.232143644914992 0.0232264469935075 0.722313466024376
0.236450320703541 0.0211541097365012 0.726863476290168
0.239076490377921 0.023764508777229 0.727967364940684
0.260926807820458 0.0220007657924772 0.730235845904644
0.272906364920125 0.0220037529497594 0.73022966677369
-0.00701300645984183 0.0306290621806819 0.140279929243841
-0.00839003743510305 0.0348671128646537 0.158256872829703
-0.0066220579651654 0.0294258291018754 0.166256807765824
-0.00693776294641518 0.0303974618687703 0.176025708741104
0.00154651750950755 0.0277337895126467 0.179148242175491
0.0122068035275313 0.0264923609416064 0.18057406437554
0.0242084753939818 0.0326657414796087 0.179885027521352
0.0239553443553456 0.0349347332366723 0.179172523830643
0.0642854379161761 0.0293766395710722 0.158066528327042
0.0661710531836621 0.0307466241280453 0.171345305197873
0.0736131579521747 0.0322050700082142 0.173452312229147
0.0962062879649215 0.0285694795690925 0.168309246080579
0.100815233653197 0.0338944513451209 0.166123886494535
0.116266724395519 0.032842321608304 0.162337917630782
-0.21649324068665 0.0251943547089209 0.499968023425364
-0.212099603181344 0.0249230020116533 0.507695668642443
-0.20805605948584 0.028632950491045 0.514758471030615
-0.18645118249499 0.025836650656238 0.511711353549861
-0.178851343358706 0.0306678116626491 0.509082760779046
-0.159856513261233 0.0264608785639905 0.50212262096319
-0.148396064300669 0.0286551842939814 0.498274968652236
-0.127072198259111 0.0289331576718254 0.491340954269452
-0.108502319988032 0.0283802010015252 0.487318499976912
-0.0986726089113214 0.0307712500620904 0.485334179701732
-0.0790513882435321 0.0282720598503821 0.481317395273024
-0.0675016359166483 0.0301285151444765 0.480300619360942
-0.0583216590876171 0.0336464370357539 0.479629920247741
-0.0532648780808147 0.0265327865115423 0.478651286542995
-0.028173150276372 0.0318143505688104 0.477100873969823
-0.0189652877836504 0.0304440736846025 0.47675868047455
-0.275382243434991 0.0228967289751152 0.703244687320574
-0.276992392185968 0.0239477307211346 0.712541365963937
-0.276855656362137 0.0272125710663543 0.714857651441858
-0.275579537238138 0.0249223160961282 0.722333897089581
-0.263052731264433 0.0255783485503174 0.729298107288495
-0.261165917529447 0.0238022004159175 0.729498748036501
-0.243298868220493 0.0267140099664057 0.730233767812201
-0.226989186866637 0.0260226167466843 0.730045764203574
-0.217569128733136 0.0294783039019068 0.729107729215553
0.098117310867915 0.0327729968414525 0.481293288514354
0.0989975492189993 0.0347267832057809 0.481511793758654
0.119700556546912 0.0272963131340325 0.484806523952872
0.123403476915777 0.0328905802687929 0.485991150857751
0.140340693342031 0.0303573372836868 0.489517047529771
0.155205005867029 0.0287741197585003 0.492953490811476
0.161856696812135 0.0304704830696322 0.495293436898447
0.169468611444988 0.0283888881720182 0.497811453560735
0.180246539867564 0.0283393176694859 0.501533660690369
0.18504415634398 0.0311134261755601 0.50333450890153
0.192208553611978 0.0305792912860609 0.505782961493126
0.198744880870517 0.0288716802420583 0.508049740226902
0.222681530035519 0.0307711840531135 0.517193171872569
0.224587028611638 0.0302419506993022 0.517873071528707
0.232525577057615 0.0332392442465417 0.702036768659737
0.231343968242187 0.026871276341886 0.71760570840579
0.235490560876099 0.0329755772649968 0.726271092132163
0.237845834583802 0.0292701923110527 0.727351563547471
0.255707266762654 0.0303732447459273 0.73005828488183
0.280392667838002 0.0361781189312319 0.729949139635557
0.290214189742101 0.0328251901638527 0.729058417597428
-0.0116237510942678 0.0448194681121515 0.138687390953546
-0.011624310497904 0.0448211910949965 0.136980669880895
-0.0095524751412662 0.0384447356123429 0.144639851841454
-0.0115098878598375 0.0444690217355513 0.155418228414607
-0.0115138259558701 0.0444811352767316 0.16511773163553
0.00196640821649677 0.0413572991324174 0.175061208401532
0.0113369422073178 0.0426565878188115 0.175590117756346
0.0124424897757715 0.0379461515442219 0.177126390627709
0.020109379851102 0.0452179431528297 0.175677689432134
0.0735780209522578 0.0361280899839252 0.140282115831581
0.0809083863770125 0.0414539120813357 0.139639272573753
0.082554099450016 0.0426495981928802 0.154849232495553
0.083678167707342 0.0434662831032378 0.158961400615039
0.0839963165669599 0.043697434570524 0.166594379227597
0.104584785149606 0.0394630725883809 0.164109270388598
0.126140123858222 0.0462441875131939 0.157282831397888
-0.214389710732685 0.0325670968866651 0.503574755886254
-0.210669953582902 0.0388165988294309 0.510036838733841
-0.209876304579063 0.0376003596888403 0.511447199685441
-0.195226474726488 0.0340606026890877 0.515462839548192
-0.172423556294499 0.0415308850340671 0.507241606953096
-0.159679056464046 0.0388687700684574 0.502700150486937
-0.159311834588871 0.0364763657558817 0.502450061737174
-0.124461574915881 0.0406237065562551 0.491479748255213
-0.114242357470285 0.0390600241653381 0.48925212256056
-0.0892090145530065 0.0349285508803353 0.483548632459373
-0.0840790689648947 0.0400737434577556 0.482775349808953
-0.0661783353984228 0.0424708734767257 0.481000468302161
-0.0617857542170273 0.0405488603221734 0.480436897546895
-0.0405924397230788 0.0424445822792707 0.478500262285838
-0.0238944817592053 0.0348160447089947 0.477197089079103
-0.021590485241793 0.0372831835410323 0.477307551006342
-0.275606909647987 0.0355870762185713 0.704314806209477
-0.27637187802831 0.0327990494369814 0.708793248152132
-0.27600893295305 0.0386625269483702 0.719621846323352
-0.269033995004476 0.0382556515761934 0.727608527925804
-0.260432045203866 0.0399786909868869 0.729364234984013
-0.255319222400374 0.0337387126241343 0.729928660096101
-0.239274215011912 0.035194676033896 0.730143216984138
-0.223025085828105 0.0339986876048173 0.729578649604199
-0.222962824897013 0.0369094502313886 0.729537071291813
0.0933322090403204 0.040069458276871 0.481311329884793
0.111739960359988 0.0364643517533463 0.483686217642531
0.113977545697548 0.0429443946084573 0.484610662696318
0.131522893048043 0.0445755493837874 0.488510362881005
0.138511044891949 0.043295097257362 0.489896095172496
0.150065039837637 0.0370802257402864 0.49194729607454
0.15033114230953 0.0438347051651749 0.492398391939574
0.16988043139131 0.0394680257025056 0.498528524207553
0.182293509268343 0.0388753249564378 0.502783553279928
0.188801565760641 0.0394309253494917 0.505061288392136
0.193526031876715 0.0424696891930971 0.506850483031987
0.202537715134795 0.0374772906110478 0.509933344500844
0.212399700032353 0.0459907201197699 0.514089085483656
0.223808415648774 0.0406191256394343 0.518059229678489
0.237975535712735 0.0432814322866662 0.695704802374682
0.237589022140122 0.0475486381212106 0.696030057154674
0.230962792068971 0.0445034211803299 0.715081425335809
0.234699195712129 0.0456786460991538 0.725746250805992
0.240720552618997 0.0403769135575284 0.728473529750115
0.257494207256775 0.0449113278689404 0.72991338733312
0.269730654401167 0.0467306479502792 0.729988882960037
0.279714103407472 0.0425657846381817 0.729882980187513
-0.0144806350737579 0.0536120515121504 0.133942360256438
-0.0137071685383237 0.0512315586813334 0.146457920038331
-0.0126656364570774 0.0480260475375167 0.156348681626629
-0.012464848441017 0.0474080851621683 0.15743934549593
-0.0120668637846607 0.0461832092648648 0.165817664267705
0.00668778003808759 0.0550775940790986 0.171368375844724
0.0111219691794521 0.0479864846941048 0.173953815032985
0.0171523897135541 0.0534567226151601 0.17288991527933
0.0905595071737558 0.0484658584797842 0.130086153859121
0.0926354989415573 0.0499741583062457 0.139770405279612
0.0982897053273606 0.054082180929425 0.1428956171257
0.0958010745501488 0.0522740879770139 0.151606582692
0.10098375100041 0.0560395265840111 0.161696280783373
0.107932047666179 0.0480034286178374 0.161646949449962
0.123792150752573 0.0531457810058847 0.1565955182615
-0.213391398100421 0.0502400550918883 0.505110756224361
-0.211656433309421 0.0430269690948049 0.50825035106674
-0.207981814613496 0.0454680629422141 0.51493676586382
-0.19840488768677 0.0472766170857181 0.517243886581015
-0.182701069376065 0.0500139944841321 0.511545350394674
-0.156305994819978 0.0440856651486215 0.501803056682707
-0.153358543688598 0.0447502460608931 0.500818660826399
-0.127736299542599 0.0500356008531558 0.49271531251186
-0.104054699522852 0.0507800874288165 0.487808854630315
-0.102880294597664 0.0530954494504257 0.487698938642135
-0.0842712152563017 0.0525844309992249 0.483659272833273
-0.0692830375216317 0.0529277526650283 0.482011139278828
-0.0601017517499515 0.0508003205253919 0.480971196775348
-0.0380211507736219 0.0537077035063112 0.479026988683249
-0.032832106010913 0.0522078274156246 0.478627342930612
-0.0176159517319845 0.0452091989421327 0.477751114778887
-0.011938012367934 0.0544738631034309 0.478242884815689
-0.276305004307141 0.0410474213351614 0.717849547873555
-0.276571095809483 0.0499652184427202 0.716133107716431
-0.269428301366937 0.0500835651654941 0.727268919332935
-0.264306097641092 0.0487051054245109 0.728870139495977
-0.254236630366058 0.0412583814129313 0.729895440808803
-0.24855570923373 0.0442155757202472 0.729947736006504
-0.231651946610596 0.0467911126693492 0.729889087008647
-0.216444989722611 0.0501257906766964 0.728714757608385
-0.215331434875456 0.0449769083763977 0.728545132044839
0.106321724867993 0.0533265628117895 0.483638582838439
0.118180936241364 0.0534170186213794 0.486232830728153
0.127009515893404 0.0574858873502036 0.488322849693019
0.138853303862708 0.0549727864498226 0.490651362802036
0.144130624967102 0.0567716862726981 0.491859783233035
0.154226760718664 0.0577094693663376 0.49434115737101
0.173752507058072 0.0538053938082097 0.500682818679596
0.174598281915604 0.0547804841504884 0.501025408812775
0.185707580183155 0.0511534607675033 0.504595603051105
0.1981028452687 0.0543648173472286 0.509129573721212
0.205525131573183 0.0493877903649013 0.511683324787126
0.218939806596796 0.0485833165742694 0.516623985146902
0.216672651485227 0.0552194836212805 0.516089315098667
0.230860344920117 0.0530926663603643 0.714221188036114
0.231459736084656 0.0511487997156652 0.717826715065796
0.232833473175009 0.0518980705693947 0.724804952580197
0.247215756589469 0.050056566338047 0.729213810577176
0.260697936267957 0.056071641197725 0.729711134948092
0.268298757536297 0.0571773128461686 0.72974666060761
0.290698854919079 0.0513243445708176 0.728735583275825
-0.0169048755485374 0.0610730934470584 0.13235823147301
-0.0177633433028366 0.0637151834967064 0.13301561081986
-0.017925504492979 0.0642142559921803 0.144347470927745
-0.0170399267080117 0.0614887159864144 0.163789787641031
-0.00856694099084319 0.0625840239870215 0.167591674638025
-0.00950986094844359 0.0627012202261794 0.16746331893938
0.00231965030217584 0.0572944846097215 0.170266491510472
0.103919738656412 0.058172634364891 0.128292416933158
0.114268078372562 0.0656911426596382 0.126235820562229
0.10902348238704 0.0618807259380412 0.141072776308862
0.112958134777621 0.0647394190279358 0.14309689214622
0.115570127794698 0.0666371454166992 0.149512217067415
0.131499617815122 0.0634628270313934 0.152676496197511
0.132227952027772 0.0662565261387452 0.151965531945327
0.158888088209396 0.0602273867569538 0.146222366459509
-0.213261341469802 0.0535239828287078 0.505298692416279
-0.210446841768543 0.0602352917761317 0.510436781507213
-0.209380666397857 0.0558025538091948 0.512391822171096
-0.199435383389886 0.0575103320126701 0.518091944946616
-0.19260568074401 0.0519236874018153 0.515313323537858
-0.163153734463538 0.059298352029235 0.504972916735553
-0.137721680141196 0.0563072910286335 0.496233752339254
-0.127008434881493 0.0597220665322506 0.493130311481255
-0.115072414657986 0.0592014780608386 0.490604903984318
-0.0999824210991439 0.0562349607269346 0.487277028360788
-0.0787145619203681 0.0585762062744977 0.483323615879546
-0.0805094398499954 0.0629813886491842 0.4837975191758
-0.0618132608567235 0.0544610893036661 0.481389802237578
-0.0509005259685558 0.0611616887537526 0.480791805773386
-0.0350133012323574 0.0580664424288951 0.479087673726983
-0.0233955974563647 0.0627161758772276 0.479107590976127
-0.0146419086136591 0.0645947572769339 0.479010579486167
-0.276832753353451 0.0500072108378704 0.714600305347602
-0.276292435015685 0.0525186987768833 0.71763293789196
-0.27022120379552 0.0572649329998398 0.726699812071488
-0.269241185291817 0.0520027794109528 0.727292884580256
-0.251741959139378 0.0545667214039958 0.729683255489791
-0.244768777395043 0.0538047007660571 0.729815199196665
-0.230396984812686 0.0585133217795579 0.729565172621078
-0.223080203438362 0.0519634260425503 0.729307504659286
0.0938723953325962 0.0602807604420869 0.482731671953685
0.108697902308321 0.0602080136336742 0.484620289456303
0.121615608493579 0.0660772469059185 0.487698407689902
0.131156423741927 0.0580300286586025 0.48922151892746
0.130674785592054 0.0669848068901052 0.489645144995968
0.154939007538286 0.0652159334758105 0.495026359965603
0.156343664367898 0.0632622879326406 0.495383309235129
0.161526370671816 0.065488830246855 0.497260183209885
0.179883751132052 0.0623610087825741 0.503254577266927
0.185103425273961 0.0665700178409519 0.505261533832891
0.193188279151797 0.0633843159531767 0.50781061013711
0.209746173784514 0.0595184972531503 0.51372634359599
0.213585751788007 0.0652106094538313 0.51540495251528
0.22182107739495 0.0697153084360243 0.519023891468315
0.231852906674382 0.068541185426118 0.705585171384512
0.231102456202476 0.0644713715599429 0.71505682392999
0.238306076183057 0.0656128117703672 0.72679629072249
0.253975874900885 0.0649035005252335 0.729339094532319
0.263015417911778 0.0644260966432521 0.729494046577538
0.277661259687657 0.0625265622172156 0.729438641326668
-0.0181387171307963 0.0648704665993795 0.130531916058504
-0.0193533063948463 0.0686085800420452 0.138381223903071
-0.0180576272191724 0.0646208811582164 0.153873012835178
-0.0193818968566973 0.0686965580105627 0.159301346662528
-0.0141429384994503 0.066504365210294 0.16585465999109
-0.00768328702158043 0.0693381218855792 0.165631964092274
0.00630062912024249 0.0691165471348944 0.167075986332675
0.0121246549508318 0.0656468329701429 0.168700867676974
0.12073080857813 0.0703865900982964 0.123479616285033
0.117450587612913 0.0680033709949824 0.126196577391965
0.121592337675555 0.0710125332606519 0.139009404658992
0.130756284141092 0.0776705302138165 0.138982419687585
0.131519975422798 0.0757505065548898 0.150369951466503
0.14566967548445 0.0755145757542983 0.14676669226805
0.17248487216084 0.0771751912089935 0.139543382473936
-0.212643213066522 0.0644051340284365 0.506387208080803
-0.210125575700835 0.0679438961640214 0.51106616528154
-0.207700767750024 0.0654397116459869 0.515546269887851
-0.189318997850683 0.0626970198091547 0.514590859327153
-0.182046658462203 0.067929555960358 0.512142719552909
-0.162379156991185 0.0616906558993907 0.504854112616503
-0.149011217433054 0.0712384955937924 0.501867757895121
-0.134798270538233 0.0630651175845683 0.495650591151672
-0.128019294558634 0.0693310343301861 0.494297111224851
-0.0992788290257014 0.0692286795900333 0.488254171080817
-0.0885636428836437 0.0714383275843659 0.486780011554658
-0.0650970771990909 0.064909901406333 0.482429084459759
-0.0727949464942589 0.0691471098911648 0.483849668336535
-0.0522909016442658 0.0735859750170221 0.483595802943959
-0.0378126884437295 0.0728353155568358 0.481895710885321
-0.0249028977093014 0.072667120463826 0.48134868658594
-0.0169140614096857 0.0726963556787128 0.481153403856181
-0.276094939802592 0.0675087389808584 0.718023362411147
-0.275531214770101 0.0650723151702332 0.721556013429623
-0.268496213824897 0.059544867022841 0.727391319094624
-0.265782110478427 0.0658386133977359 0.728216921475757
-0.252886095608394 0.0632834115494858 0.729401584233916
-0.239326560290622 0.0619605236199781 0.72960001007885
-0.224865250261465 0.060990044973345 0.729207578471355
-0.229035432491959 0.0648008009999946 0.729353794020604
0.0919437285940035 0.0690086802935445 0.48348219167082
0.103850623040223 0.0693574122215675 0.484772413694316
0.113572136435281 0.073056188254074 0.487891190756039
0.13052890447702 0.077391561303377 0.49293767788927
0.134209182137372 0.072001330379896 0.491839381838776
0.149881600652999 0.0725737827309845 0.495313657489631
0.151250383743893 0.0725272619247965 0.495583649987519
0.169266990193828 0.0790617306677093 0.503883982674516
0.173673123274341 0.0688184014935036 0.501793629357098
0.183326592217955 0.0742644425389047 0.506943465846114
0.194770317264688 0.0703113184750927 0.509329822294612
0.206472324332627 0.0777497612995091 0.515420976107519
0.212285117824212 0.0770841354129667 0.517397401816166
0.222106391615749 0.0801264557462417 0.521809469632712
0.231688677419323 0.0712480647191651 0.706543852243656
0.231860745241818 0.0717798718117882 0.719235168006721
0.233486105559345 0.0799837480105558 0.724311927028715
0.240177845732268 0.0757943114176106 0.727311319881773
0.26138681030079 0.0800847908069799 0.728994370642524
0.271239857915195 0.0802160060957741 0.729002684136403
0.279837374021083 0.0755673224453003 0.72901025609838
-0.0223031301289597 0.0776872026635149 0.132993931199692
-0.0223575159147851 0.0778545744262186 0.148023715151904
-0.0244318965453516 0.0842388529252844 0.155367684359567
-0.023866834938467 0.082499772408179 0.156364199720014
-0.0172801170285738 0.0787959003667766 0.161821024547674
-0.00511937156633102 0.0774530965732143 0.163425303693816
-0.00091683075770198 0.0797098691000531 0.16315521508389
0.132482077247829 0.078924389022975 0.129935153314823
0.146176921012985 0.0888742732686628 0.123452622677446
0.13868587326337 0.0834317138167289 0.138330994843906
0.14831342203764 0.0826578983447144 0.144747362591682
0.167773543810203 0.0859111864223151 0.139121728858804
-0.213938810398104 0.0751933481987633 0.504035534179403
-0.210832543609477 0.0723544554862138 0.509776354046234
-0.206793473290764 0.0754573274149961 0.517358094527423
-0.200404933828118 0.0793263064977422 0.521852028001612
-0.178963383856904 0.0779329485623738 0.513570852878857
-0.170824399647346 0.0785082141214427 0.51132415228588
-0.169103564897894 0.0794594194122238 0.511124655203048
-0.131638902032401 0.0720268116506033 0.496294409799652
-0.11630855674913 0.0741939321896244 0.49353413511714
-0.118161952129907 0.0804836655937309 0.496100762087209
-0.0942142472990429 0.0816418718256731 0.49153285145173
-0.0700671312617024 0.0756710794641115 0.486138608875665
-0.0697242641679187 0.0816497249459893 0.488440701041418
-0.051679060798018 0.0782643824291167 0.485367795693305
-0.032246928304059 0.0741627058998727 0.482124193271448
-0.0278028327598719 0.0772698633571223 0.483225527959064
-0.276897156373975 0.0700358395659858 0.71156042701715
-0.276207540124363 0.0749606748003201 0.717051796276729
-0.276039328413186 0.0719930491182125 0.718190294123481
-0.271593962989261 0.0745001291500745 0.725600553234075
-0.264845269272305 0.0685351588189932 0.728226205939932
-0.246961600015361 0.0745597289536442 0.729152031654973
-0.243230643719323 0.0724662040698477 0.729273492516048
-0.226930299168682 0.0771255893967237 0.728922843935537
-0.22481505339249 0.0728167611782126 0.728844681891961
0.0896233435970231 0.0801237887410583 0.487607963470565
0.103663771314911 0.0823095290667683 0.489573028009306
0.106013506031248 0.082287445696741 0.489854643176786
0.117711314113848 0.0786815750306843 0.490705428158006
0.133138169700642 0.0793374999074487 0.494157295830645
0.140530843071324 0.0838513379887013 0.497266475724785
0.153647692027125 0.0810051513818706 0.49930377713566
0.156453351488377 0.0878504973110774 0.502636491688453
0.172958777866212 0.0879727339921463 0.508235674281784
0.185287855570111 0.0840558482342349 0.510756052749797
0.185291420914286 0.0824157879113153 0.510269926980898
0.204696816147924 0.0867023801901521 0.517143112713305
0.203421193680469 0.0822783321728062 0.515459405404813
0.21708358745173 0.0899573208070273 0.522484359374382
0.222536674054006 0.0905136522051982 0.524642446642655
0.231912567070247 0.0865252568105286 0.705281416740861
0.231620686809113 0.0904892078309141 0.715966146161024
0.233146183772129 0.0884684175794552 0.72374726911243
0.255602377680282 0.0849280529779563 0.72875241957247
0.257923418593619 0.0903280812678442 0.72802620822375
0.279199971140368 0.0838864353198643 0.728768340395871
0.289588056393549 0.0840280636865283 0.727847462026938
-0.0261592349432822 0.091130399450286 0.117643477296626
-0.0247204391532438 0.0851269174382697 0.124099632972835
-0.0259013193500103 0.0887612777354822 0.142322344628617
-0.0258171885723124 0.0885023481879338 0.144916805652374
-0.0263009807535872 0.0899912990668442 0.155860013959223
-0.0226868410974164 0.0928028713947813 0.15704409253974
-0.0111683881772871 0.0918865819107767 0.158455881835491
0.00143146221116041 0.0881474672586209 0.160829558516739
0.148487615221661 0.0905530892561012 0.118824696449004
0.149977142336916 0.0916352948790363 0.121086194673563
0.156140934340208 0.0961135516145146 0.120058905024093
0.150855806868919 0.0901090219080086 0.142696514995845
0.172223851668927 0.0988672775696749 0.135548068042331
0.184400034748038 0.0967752449723308 0.1328011529961
0.19429494198181 0.0973296070399935 0.130146664685342
-0.211245150467571 0.0802632826124207 0.509151082612832
