ply
format ascii 1.0
element vertex 839
property float x
property float y
property float z
end_header
0.0293288057522325 -0.0248476861644525 0.48767687901636
0.0326635039099661 -0.0239180415797503 0.48767687901636
0.0448281004796117 -0.0159781238761463 0.487676879016358
0.0636624325317381 -0.0235784206722197 0.48767687901636
0.0824028255716326 -0.0183448446914198 0.487676879016359
0.0878845979866 -0.0169830091803388 0.487676879016358
0.100633383970194 -0.0154492997726625 0.487676879016358
0.106730761199802 -0.0232645575646326 0.48767687901636
0.13162005488698 -0.0216694574446496 0.48767687901636
0.145217895714489 -0.0161301462939462 0.487676879016358
0.158673444561557 -0.0241325333892214 0.48767687901636
0.17468200734998 -0.0254421731871651 0.48767687901636
0.188834334831985 -0.0254184224625204 0.48767687901636
0.189827774294769 -0.0235434697383519 0.48767687901636
0.206287704075485 -0.0265523842638216 0.487676879016361
0.230494576836619 -0.0163328148727477 0.487676879016359
0.238557132361248 -0.0196674369084453 0.487676879016359
0.250601235717592 -0.0234038541150721 0.48767687901636
0.257970629738932 -0.0269104001117144 0.487676879016334
0.25237450208968 -0.0188198035202372 0.671439343948092
0.25237450208968 -0.0249067171793609 0.672634228349613
0.255433507378896 -0.0232654439578299 0.690473204943915
0.261840646386875 -0.0246856456519317 0.690473204943915
0.277682198307479 -0.0182913900182901 0.690473204943915
0.306551439188399 -0.0209704435439267 0.690473204943914
-0.122494541624122 -0.00886802130563181 0.114599665197988
-0.114232206518498 -0.00842088755725238 0.115151077749059
-0.107372466058532 -0.00923020801430872 0.115634941651893
-0.0932764530608585 -0.0124557774636354 0.116663717422721
-0.0865171800173464 -0.00804174646680168 0.117025463142845
-0.078770097492776 -0.00930627815600042 0.117579654221356
-0.0356147918123189 -0.00719325790956541 0.0848067586937021
-0.0609004943926747 -0.011755604577009 0.118847646075701
-0.0356147918123189 -0.00501058507294109 0.10366219001669
-0.0356147918123189 -0.00722471746453323 0.106049091314687
-0.0317092100887672 -0.00792236231791758 0.119963470854006
-0.0233257993713943 -0.0105707571591086 0.120152641914091
-0.015603520171923 -0.00866818730613262 0.120016744067449
-0.000454427662058136 -0.00561953076449943 0.119798982885904
0.0190646514428129 -0.00828526820761357 0.11998939270327
0.0183797399595297 -0.0146978404264445 0.120447433576043
0.0419801526323844 -0.0116341948637907 0.108076934438333
0.0440894815810665 -0.0141461210812831 0.119059622186817
0.0525504521526932 -0.0133968896096513 0.11846830886869
0.0727192628013145 -0.0131368060331001 0.117092448223089
0.0748576754602816 -0.00519302254841666 0.116771839980929
-0.230473892975992 -0.0119266531529042 0.413251969865888
-0.230473892975991 -0.00586521982494975 0.425515112835577
-0.230473892975991 -0.0115377294483357 0.429643677445032
-0.249787828778615 -0.0136109404934083 0.458622301041119
-0.249787828778617 -0.00847703990048226 0.475833493879157
-0.249787828778618 -0.00489935841302856 0.479348517349988
-0.249488764011983 -0.0134501163602379 0.487676879016328
-0.238995081574421 -0.00892233711496613 0.487676879016328
-0.230005257345744 -0.0137637077911269 0.487676879016357
-0.220438583769389 -0.00460961932218057 0.487676879016355
-0.209998853562062 -0.00863521773225684 0.487676879016356
-0.206588018527976 -0.00897416189223066 0.487676879016357
-0.189545951865987 -0.00623647050230402 0.487676879016356
-0.176831083921017 -0.0104847345702781 0.487676879016357
-0.171411848703125 -0.00789631384884132 0.487676879016356
-0.15449964001311 -0.00631369582732793 0.487676879016356
-0.14705607584497 -0.0128442730587176 0.487676879016357
-0.128178152733886 -0.0119995240576355 0.487676879016357
-0.122490701870347 -0.00821085614995762 0.487676879016356
-0.104750918027597 -0.0122585981655512 0.487676879016357
-0.097336464307747 -0.00523179230124092 0.487676879016356
-0.0914802743352788 -0.00913679026579033 0.487676879016357
-0.0847079938812015 -0.0138386987851446 0.487676879016358
-0.288415700383874 -0.00936186979024179 0.672675034178148
-0.288415700383873 -0.0123224100775614 0.68095621827067
-0.286999985056534 -0.00821697358093615 0.690473204943908
-0.277188704104278 -0.00865106071116083 0.690473204943909
-0.255985049556508 -0.00961302296266014 0.690473204943909
-0.25021062979183 -0.0124235163077764 0.690473204943909
-0.239785476436411 -0.00616178618167978 0.690473204943909
-0.232671712161447 -0.0115480656992486 0.690473204943909
0.0255186895553679 -0.010924866474007 0.487676879016357
0.0358708201388779 -0.00914267133238069 0.487676879016357
0.0581341719744364 -0.00579871647788842 0.487676879016356
0.0651227420508898 -0.00664755026401486 0.487676879016356
0.0785359469532606 -0.0144861837615738 0.487676879016358
0.0869017296483999 -0.00727140105747151 0.487676879016357
0.103189970674746 -0.0123076289767201 0.487676879016357
0.116351781413071 -0.0127434498672812 0.487676879016358
0.126975350891736 -0.0148646752649464 0.487676879016358
0.144369431783993 -0.00672500297671583 0.487676879016356
0.158613478076339 -0.011231202932996 0.487676879016358
0.166916625766243 -0.00541809459698644 0.487676879016356
0.177098441849126 -0.0113557898692896 0.487676879016358
0.195845125185649 -0.0075780174260016 0.487676879016357
0.206627314553254 -0.00978821099246485 0.487676879016357
0.224927528402813 -0.00642088548213048 0.487676879016357
0.236120595599939 -0.0070310818887809 0.487676879016357
0.245582058839346 -0.0157954023263637 0.487676879016358
0.251111474933521 -0.0159273253202721 0.487676879016358
0.25237450208968 -0.00871490677698705 0.672317382103915
0.25237450208968 -0.0132013459440621 0.682139058042821
0.25237450208968 -0.0148562492294461 0.689111306002769
0.262642889781559 -0.00859070566886416 0.690473204943915
0.281330266282906 -0.0153497914281176 0.690473204943914
0.298719953534903 -0.00907854292793115 0.690473204943914
-0.120182238287093 -0.00147896842450247 0.114593650072539
-0.117796967268582 -0.000277381625484967 0.114729165558552
-0.0356147918123186 -0.00196459293334297 0.0669175321341944
-0.0838679302415541 -0.00362915227437327 0.117108035976261
-0.0356147918123189 0.00218255333599635 0.0857769737478757
-0.0356147918123186 -0.00291213463628744 0.0957270349040247
-0.0356147918123189 -0.00461222847037136 0.10551299153773
-0.0356147918123186 0.000193817097225954 0.11041429021703
-0.0356147918123189 -0.000133700723678518 0.118655685173618
-0.021298144672379 -0.00331618593446922 0.119634458255188
-0.01493443343727 0.00451453940499363 0.119075120730941
0.00801844653135533 0.00402957071301917 0.119109761351796
0.0151106247297385 -0.00147080115233005 0.119502645056464
0.078675493361643 0.000288844099123939 0.0683547825347834
0.06786136541603 -0.00322487906798893 0.0839583653694037
0.0646913393313388 -0.00425488298047758 0.105492902014321
0.0661017392516275 -0.00379661626681052 0.106338988430882
0.0711450676224392 -0.00303017188174034 0.116976307285524
0.0801620943800141 -0.00414874985579134 0.11638844711039
-0.230473892975991 0.00107453629716266 0.413396221043345
-0.230473892975991 -0.000908453504028706 0.417225359388827
-0.230473892975991 0.00451472977191856 0.430900512690026
-0.249787828778615 0.000351094334812802 0.460199457791379
-0.249787828778617 0.00353726786801276 0.473179264726108
-0.249787828778617 0.00453261258854023 0.47914788610028
-0.249787828778618 -0.000299480883981684 0.487371809424721
-0.245443790902703 0.00144566883052012 0.487676879016328
-0.227834084070638 -0.00147476147953596 0.487676879016355
-0.224359793094964 0.0021009737014208 0.487676879016355
-0.208074943094057 -0.00394983085636302 0.487676879016355
-0.193700008556497 -0.00225702842761852 0.487676879016355
-0.18718725356839 0.00330459246383822 0.487676879016354
-0.176932860637381 -0.000984285130492248 0.487676879016355
-0.167499080621675 0.00458396768941831 0.487676879016354
-0.157469536846058 -0.00161874274979545 0.487676879016355
-0.144263980998793 0.00330946277963548 0.487676879016355
-0.138773276349778 -0.00014541276206715 0.487676879016355
-0.126684414469324 -0.0048373743364991 0.487676879016356
-0.119790789597621 -0.00249217231392962 0.487676879016356
-0.0984551938884098 0.000599442882629078 0.487676879016355
-0.084754587102347 -0.00125180413768629 0.487676879016355
-0.0761585583831438 0.00430519076614601 0.487676879016354
-0.288415700383873 -0.00371114058714366 0.679493865549044
-0.288415700383874 0.00365681948496248 0.685912864530796
-0.287473041173527 -0.00212327505451122 0.690473204943909
-0.274920065715477 0.0026550914776444 0.690473204943909
-0.265715455115895 0.00341342668402676 0.690473204943909
-0.247369190022638 -0.000653657062260094 0.690473204943909
-0.242564663382897 -0.00448651185861297 0.690473204943909
-0.231154212608999 -0.00141006270337537 0.690473204943909
0.0340040031570877 0.00301010281675565 0.487676879016355
0.0414063843173833 -0.00409553197982965 0.487676879016356
0.0531429071778932 -0.00070228472114512 0.487676879016356
0.0541260555320813 0.000601631554949959 0.487676879016355
0.0779889800623156 8.5591405848191e-005 0.487676879016355
0.0877665632018736 0.00103431732940885 0.487676879016355
0.0997372247407577 -0.00122905200621637 0.487676879016355
0.121535484041001 0.00023442570364465 0.487676879016355
0.130240150737575 -0.000298578844129245 0.487676879016356
0.136333932162053 0.00217496684337624 0.487676879016355
0.1621912569188 0.0027560182256717 0.487676879016355
0.168528832883242 0.000315681115199786 0.487676879016355
0.173938114407241 -0.00449146565529043 0.487676879016356
0.186932824904705 -0.00323749133611944 0.487676879016356
0.203021406343328 -0.00487939189362684 0.487676879016357
0.227570908321023 -0.0012908672100148 0.487676879016356
0.236805987211707 -0.000651872173585439 0.487676879016356
0.247826686990107 -0.000573134515361668 0.487676879016356
0.266251748260477 -0.00028678450593606 0.487676879016334
0.25237450208968 -0.00138687765341656 0.671442628963035
0.25237450208968 -0.00347836613203519 0.685271921821723
0.25237450208968 -0.000525954081955382 0.688292406767489
0.259575419329203 -0.0028965108176498 0.690473204943915
0.281286744003597 -0.00116984085945049 0.690473204943915
0.310153538987339 -0.00173588031633137 0.690473204943914
-0.128885309833675 0.0064023210375384 0.113828466837717
-0.122039980645599 0.00490570067314874 0.114326522270376
-0.0356147918123186 0.0103973076053511 0.0653710491753689
-0.0356147918123186 0.0135455020337878 0.0744658109930348
-0.0356147918123189 0.00608836220168532 0.0842569299504691
-0.0356147918123193 0.00854850579146914 0.0901767438263491
-0.0356147918123189 0.00886857065452637 0.103098753660897
-0.0356147918123193 0.00618672541048074 0.116378318989492
-0.0258837540527599 0.0089818597522815 0.11875602642042
-0.0156100160583005 0.011591294330192 0.118569638236284
-0.0117515727463246 0.0139610948382791 0.118400366771421
-0.000370027420769269 0.0126199263572551 0.118496164520065
0.0137024961964415 0.00495029157178177 0.11904399557617
0.0958351792863508 0.00586436403723195 0.0719987469023457
0.113964315783849 0.0117548775609642 0.0640165645537728
0.122426321673245 0.0145043499440676 0.0745165362727734
-0.230473892975992 0.0135343652013608 0.415017522920062
-0.230473892975992 0.00578716872159971 0.427615699039546
-0.249787828778615 0.00503770857745169 0.452162430408427
-0.249787828778616 0.00751016397920558 0.461301583253406
-0.249787828778617 0.00557776714730163 0.474792375678205
-0.249787828778617 0.00831393178314057 0.478231415478401
-0.247886669201458 0.0130043265142817 0.487676879016328
-0.2399963634052 0.00597179979108587 0.487676879016328
-0.22418061913741 0.00571305409270171 0.487676879016354
-0.222900385901288 0.00527979383356353 0.487676879016354
-0.212317637904811 0.00869358375738534 0.487676879016353
-0.206979463709693 0.0091218119478241 0.487676879016353
-0.183054732052507 0.013160199811023 0.487676879016353
-0.170485408549797 0.0116076831651144 0.487676879016353
-0.168976523439361 0.00593001485591067 0.487676879016354
-0.152082601219072 0.00878265587702815 0.487676879016353
-0.14420040182251 0.00835692862661937 0.487676879016353
-0.142245403614926 0.00542246164550828 0.487676879016354
-0.127392527486967 0.00800442719285507 0.487676879016354
-0.113675318905419 0.00616915827399997 0.487676879016354
-0.104257949279138 0.00957986225555585 0.487676879016353
-0.0904534718875601 0.00720400226273068 0.487676879016354
-0.0801790653550786 0.00850013922774383 0.487676879016354
-0.288415700383874 0.00882373035583145 0.674332377398461
-0.288415700383874 0.0084314586884458 0.684573328530017
-0.283148116196095 0.0095181956755094 0.690473204943909
-0.268050681201412 0.0111336882384756 0.690473204943909
-0.264031497534334 0.00930500949165844 0.690473204943908
-0.252917045587736 0.0047743716839523 0.690473204943909
-0.245824022565854 0.00677741504675185 0.690473204943909
0.0139016509579018 0.0104890762198379 0.487676879016353
0.0346406263450141 0.00959761692636364 0.487676879016353
0.0364157106947627 0.00776095136735621 0.487676879016354
0.0586130262979087 0.0122759005334911 0.487676879016353
0.0567653445823969 0.0118754730748237 0.487676879016354
0.0753349726653627 0.0143209878884734 0.487676879016353
0.0875213043034802 0.00528683291957338 0.487676879016355
0.09215366990882 0.0109996046812516 0.487676879016353
0.117398265255091 0.00619155008668513 0.487676879016355
0.118581369192691 0.0107134282483981 0.487676879016354
0.144625367400603 0.00597737002160519 0.487676879016354
0.147720059375992 0.0104203096144976 0.487676879016354
0.164747727008152 0.00545094726360023 0.487676879016355
0.186463265348487 0.0127321562833583 0.487676879016354
0.195167128730909 0.00585329503804768 0.487676879016355
0.20776209267135 0.0110266798283983 0.487676879016354
0.216655207024393 0.0135049414313381 0.487676879016353
0.243020210630257 0.00634806408403372 0.487676879016354
0.251788885361529 0.00667193373602978 0.487676879016355
0.254273901176072 0.0057380943796021 0.487676879016334
0.25237450208968 0.0159103048844934 0.676055826941285
0.25237450208968 0.0110935578729932 0.681625250800062
0.25237450208968 0.00988559689367439 0.689977226395302
0.270740059266721 0.0124929875303057 0.690473204943914
0.276549261914746 0.0148994983512783 0.690473204943915
0.296024112935397 0.00777653463303179 0.690473204943914
-0.0356147918123186 0.0179174646082936 0.062941912095361
-0.0356147918123182 0.0161776929640895 0.0763531983783335
-0.0356147918123189 0.0196084788361326 0.0930265046581982
-0.0356147918123189 0.0210234942565017 0.101684043496425
-0.0356147918123189 0.0246996118856377 0.107990759712366
-0.0329272939078943 0.0243402799740534 0.11765899640458
-0.0277337142041846 0.0158483059976705 0.118265565974321
-0.0199009611788517 0.0204015472448833 0.117940334456664
-0.0013017119887754 0.0186197884766712 0.118067602940107
0.00425767251519752 0.022754391824954 0.117772274129516
0.00614704610430544 0.0204759155823887 0.117935022432556
0.135543538382378 0.0187663920126204 0.0665790096180411
-0.230473892975991 0.0209214053395624 0.412759285165501
-0.230473892975992 0.0142731037561012 0.421015825571576
-0.249787828778615 0.0217286841228897 0.452505494022655
-0.249787828778615 0.0154344340774506 0.454891768214369
-0.249787828778616 0.0157311360596241 0.464097350463658
-0.249787828778617 0.0208940076253798 0.477630889686889
-0.249787828778617 0.0225880437652965 0.481694705035631
-0.231714180348617 0.018671294687731 0.487676879016328
-0.230575774428226 0.0210395290984051 0.487676879016328
-0.218630859037627 0.0220198170732189 0.487676879016351
-0.216927637207755 0.0214007931210901 0.487676879016352
-0.200444285700772 0.0229909398004803 0.487676879016351
-0.188308466790591 0.0162953424170776 0.487676879016352
-0.181253625047848 0.0197044108893327 0.487676879016352
-0.165181934668134 0.0192925117129191 0.487676879016352
-0.15345719707639 0.023268770404083 0.487676879016351
-0.151704129445917 0.0231322337752541 0.487676879016351
-0.133362782284817 0.0184423256792758 0.487676879016352
-0.119864369683331 0.017318919748383 0.487676879016352
-0.109387077700444 0.0176869071557182 0.487676879016352
-0.101596402914722 0.0153189556662994 0.487676879016353
-0.0837869111680953 0.0202224525145619 0.487676879016352
-0.0799545584203337 0.0237494115647907 0.487676879016351
-0.288415700383873 0.015459194167235 0.679135368728372
-0.288415700383873 0.0143574886339527 0.687497060854757
-0.28697962883239 0.0143682027299586 0.690473204943909
-0.269124608023971 0.021816516049396 0.690473204943908
-0.257591699760551 0.0170665782397985 0.690473204943908
-0.251817455625829 0.0219430342985688 0.690473204943909
-0.239559027264379 0.0180156787874567 0.690473204943909
0.0147598038739182 0.0230924082635572 0.487676879016352
0.0340957162062688 0.024132409333963 0.487676879016351
0.0457252564617084 0.0176341902092548 0.487676879016352
0.0523918966635952 0.0160098350781791 0.487676879016353
0.0659642145992912 0.0202950070067884 0.487676879016352
0.0722619502563227 0.024695691489442 0.487676879016351
0.0869860855331299 0.018461601014657 0.487676879016352
0.0976499919023158 0.0230343502107286 0.487676879016351
0.122172260224909 0.0169711757251818 0.487676879016353
0.135042626627697 0.0223576451256488 0.487676879016352
0.138705832472634 0.0219210971889718 0.487676879016352
0.143917285633204 0.0218200557952006 0.487676879016352
0.158016887407051 0.0228918501090717 0.487676879016352
0.181534795472753 0.0263192373720673 0.487676879016351
0.189910081466428 0.0227065722800976 0.487676879016352
0.200348882367845 0.0223515452198241 0.487676879016352
0.217728654913235 0.0262881580646833 0.487676879016351
0.244388196496425 0.0216075293473867 0.487676879016352
0.252543199421824 0.0217238514195074 0.487676879016334
0.259477961150835 0.0237478735107698 0.487676879016334
0.25237450208968 0.0176453413658581 0.686497798414769
0.25237450208968 0.023388877686028 0.6894340641471
0.269751876003776 0.0182160398705558 0.690473204943915
0.27344713352701 0.0239373748138613 0.690473204943915
0.295299196488634 0.0233016732984269 0.690473204943914
-0.0356147918123186 0.0296604791257111 0.0634205034545185
-0.0356147918123186 0.0272914936977797 0.0673984799854491
-0.0356147918123182 0.0270446527813749 0.0826008093092429
-0.0356147918123189 0.0296938275685101 0.0901699582017115
-0.0356147918123189 0.0314467672636003 0.101004088861457
-0.0356147918123189 0.0333002977647787 0.110962589828067
-0.0335391212665994 0.0309869391239376 0.117184235036731
-0.0352342729928167 0.028788845530556 0.117341241721972
-0.020573532939783 0.0264445248054513 0.117508693202337
-0.0106754172175356 0.0300180226098121 0.117253443359168
0.00299606754130605 0.0301527702094033 0.117243818530627
0.0106522000641951 0.0276683346127939 0.117421278216098
-0.230473892975991 0.0293810553791756 0.411262723371815
-0.230473892975992 0.0274626404606904 0.422802397479118
-0.249787828778615 0.0276502833385234 0.452689985120563
-0.249787828778615 0.03068140002711 0.461080399960693
-0.249787828778617 0.0229436126840791 0.469603030006134
-0.249787828778617 0.030057847638108 0.479681843826684
-0.249787828778618 0.0292854529470245 0.482758790200497
-0.239449385480457 0.0319690834754818 0.487676879016328
-0.223016316587026 0.0237340155522015 0.487676879016351
-0.224143319565959 0.0314287350721047 0.487676879016349
-0.206510043645424 0.0279493181528948 0.48767687901635
-0.205270424926736 0.0269694634571631 0.48767687901635
-0.18902830806851 0.026801443242332 0.48767687901635
-0.184304996996385 0.031332090542643 0.487676879016349
-0.161796602530465 0.0274537535978071 0.48767687901635
-0.153911531625572 0.0263148108902439 0.487676879016351
-0.142931462003575 0.0277139184573809 0.48767687901635
-0.139241372171427 0.0275863146195465 0.48767687901635
-0.122463269261314 0.0281925160422238 0.48767687901635
-0.112989822188982 0.026850152337985 0.487676879016351
-0.108450583362693 0.0250097736911166 0.487676879016351
-0.0890419265505159 0.0326781079484592 0.487676879016349
-0.0786267776805218 0.0285684243009212 0.48767687901635
-0.288415700383874 0.0291752763867287 0.67185693588672
-0.288415700383873 0.0292230109294957 0.683146846531816
-0.282644681085028 0.022934043027094 0.690473204943909
-0.271434023516132 0.0312914103696756 0.690473204943909
-0.26544897815054 0.0253263417743184 0.690473204943909
-0.249510732069718 0.0268521808979347 0.690473204943909
-0.239068425123783 0.0275743594395241 0.690473204943909
-0.231185131415492 0.0282698354576405 0.690473204943909
0.0267138275940353 0.0264413207515275 0.487676879016351
0.0408662212709077 0.0310407287991077 0.48767687901635
0.0508131945684513 0.0347817064304216 0.487676879016349
0.0598582696893518 0.0345293892742872 0.487676879016349
0.0728756585340196 0.026181076111297 0.487676879016351
0.0943214512173684 0.0326245978655919 0.487676879016349
0.0953777215823462 0.0332051807136368 0.487676879016349
0.122125147578185 0.0276432038185027 0.487676879016351
0.131003793487089 0.027285456831352 0.487676879016351
0.145339895503991 0.0342584765703911 0.487676879016349
0.143552878559285 0.0302269028140608 0.48767687901635
0.171042536435654 0.0328205733499688 0.48767687901635
0.181336526630932 0.0329545893466819 0.48767687901635
0.201829399669456 0.0324411635806461 0.48767687901635
0.212548922035352 0.0285106469478183 0.487676879016351
0.226618608105637 0.0363308744666565 0.487676879016349
0.243359652259925 0.0376496932961172 0.487676879016349
0.249813064241816 0.0292747159209981 0.487676879016351
0.25237450208968 0.0362250097028537 0.67795413021695
0.253020594839472 0.0295434255132994 0.690473204943915
0.270604294697758 0.0303662693189237 0.690473204943915
0.288291072935029 0.0323694904138191 0.690473204943915
0.306078078114493 0.0365632769297637 0.690473204943914
-0.0356147918123186 0.0367236821355349 0.0700117290999405
-0.0356147918123186 0.0387859111089269 0.079913583203355
-0.0356147918123189 0.038085563980167 0.088074121545443
-0.0356147918123189 0.0408202760773674 0.0928703749509948
-0.0356147918123189 0.0410812006141535 0.10966292231892
-0.0356147918123193 0.0409240261193562 0.113129767566235
-0.0271450017744145 0.0414231305483719 0.116438792792128
-0.0202343975954097 0.0435681387477708 0.116285577920744
-0.00566614439816634 0.0378702081948504 0.116692572960238
0.00846794789404738 0.0394770955315059 0.116577795293334
0.0201051519453714 0.0369972322287984 0.116754928386385
0.0187018578304547 0.043241796934364 0.116308888050273
-0.230473892975991 0.0354517461761957 0.416094433391338
-0.230473892975991 0.0357191536661168 0.423155475540333
-0.230473892975991 0.0328777639581575 0.430351776050941
-0.249787828778615 0.0353437019309167 0.463822873835975
-0.249787828778616 0.0411106513141209 0.466932935762082
-0.249787828778617 0.0381870753664088 0.477461072788505
-0.249787828778618 0.0339088113400917 0.48437837076521
-0.243981538415203 0.0353559330948559 0.487676879016329
-0.232272621145043 0.0407387797136774 0.487676879016329
-0.217718805429064 0.0404717428519517 0.487676879016348
-0.210031938035906 0.0358911306574379 0.487676879016348
-0.194739667184141 0.0387649682625123 0.487676879016348
-0.190135529263327 0.0329228028921241 0.487676879016349
-0.179920174977506 0.0381984762469039 0.487676879016348
-0.174454910957704 0.0413016904864629 0.487676879016347
-0.157947068933947 0.0384485798154524 0.487676879016348
-0.149215317444745 0.0356383619523213 0.487676879016349
-0.13478833908241 0.0348786011452858 0.487676879016349
-0.12482079489727 0.0360408021720191 0.487676879016349
-0.109842944948647 0.0415479873517307 0.487676879016348
-0.099768759868238 0.0403569341202086 0.487676879016348
-0.0985530367271116 0.0396846695481679 0.487676879016348
-0.0804459806127997 0.0400019638521651 0.487676879016348
-0.288415700383873 0.0400151161540839 0.673873483205585
-0.285200225016398 0.0364945375860791 0.690473204943908
-0.287851392537127 0.0342023032599191 0.690473204943909
-0.27736507100682 0.0368995844964759 0.690473204943908
-0.267217077001307 0.0342354013988999 0.690473204943909
-0.255909370780039 0.0398598875307255 0.690473204943909
-0.232513446152848 0.0347474137060271 0.690473204943909
0.0160500087429371 0.036606744974617 0.487676879016348
0.0335143477452181 0.0383218407475246 0.487676879016349
0.0414518008893624 0.0407573175204685 0.487676879016348
0.0504908929990803 0.0383190800464378 0.487676879016349
0.0612883164091311 0.0458012825021101 0.487676879016347
0.0765277249932915 0.0427785759739426 0.487676879016348
0.0889739003221471 0.0457149662417204 0.487676879016347
0.0964852040414588 0.0446214852461776 0.487676879016348
0.11560689423815 0.0374280555569377 0.487676879016349
0.138724724907417 0.0371411827166339 0.487676879016349
0.139188194576888 0.0404625918387072 0.487676879016348
0.152839253900924 0.0388661040558912 0.487676879016348
0.172409987364003 0.0386824616764473 0.487676879016348
0.180636979031175 0.0446729106068728 0.487676879016348
0.194574179171011 0.0404954101800148 0.487676879016349
0.211429684421375 0.0402904486622743 0.487676879016349
0.223469934570738 0.0479438459999412 0.487676879016347
0.230937005628799 0.0406259063610799 0.487676879016349
0.256348340786551 0.0453953484543845 0.487676879016334
0.266076916446092 0.0474124815563833 0.487676879016334
0.25237450208968 0.0486512622220451 0.679718869960676
0.25237450208968 0.0447751411366577 0.68863403355211
0.273744557519701 0.0435217181663684 0.690473204943915
0.289992118821597 0.0436923790669872 0.690473204943915
0.296709039940613 0.0448208917525108 0.690473204943914
-0.0356147918123186 0.0480092805185465 0.0638802122610787
-0.0356147918123182 0.0483611600679698 0.0669038033984719
-0.0356147918123182 0.0520445138994064 0.0784500296215351
-0.0356147918123189 0.0502457996313972 0.0935796266569547
-0.0356147918123193 0.0491938214904645 0.106540028668492
-0.0356147918123189 0.0504069673559496 0.109662609173819
-0.0251987041372942 0.0518424511838138 0.115694555603883
-0.0223033654379159 0.0518231430853834 0.115695934753772
-0.00485571032513435 0.0482165229199496 0.115953550479874
0.00334979091649256 0.0472238026400341 0.116024459071296
0.0154753947430742 0.0465549289358384 0.116072235764453
-0.230473892975991 0.0430397981854077 0.411251070710838
-0.230473892975991 0.0470908088216903 0.427144075999055
-0.249787828778615 0.0438508015251099 0.454591460487267
-0.249787828778616 0.0501865692478212 0.460734717396168
-0.249787828778617 0.045665191193641 0.470906723915834
-0.249787828778618 0.0431589374884402 0.481017113869876
-0.248314075600227 0.0427696465435121 0.487676879016328
-0.232543415111757 0.0475903470259912 0.487676879016329
-0.228005860111214 0.0441944165161535 0.487676879016347
-0.211601840127664 0.0487769379694768 0.487676879016346
-0.200572569487908 0.0443769571605172 0.487676879016347
-0.201668172018401 0.0470907986242846 0.487676879016347
-0.188500372320301 0.0458337877787495 0.487676879016347
-0.185692799259701 0.0489886883663071 0.487676879016346
-0.163945621835285 0.0431252709233102 0.487676879016347
-0.156368691741223 0.0452976707029017 0.487676879016347
-0.142285485501018 0.0508474466673711 0.487676879016346
-0.132086022157123 0.0448560873174004 0.487676879016347
-0.122831289249566 0.0453769868964013 0.487676879016347
-0.120199443111576 0.0519822777113404 0.487676879016346
-0.106747217405732 0.0519946428599424 0.487676879016346
-0.0981538647574556 0.0491865919021478 0.487676879016347
-0.0759738255299053 0.0511744190073788 0.487676879016346
-0.288415700383874 0.0486246208542532 0.678920847273667
-0.2878397023867 0.0489337526470602 0.690473204943908
-0.274525467996169 0.0415363083086434 0.690473204943909
-0.276364781086399 0.043221283168799 0.690473204943908
-0.259109045337822 0.0492166484401907 0.690473204943908
-0.254835221378451 0.04979722159157 0.690473204943909
-0.238812306670542 0.0459329863180096 0.690473204943909
0.020169459511831 0.0514620023676722 0.487676879016346
0.0288411516863362 0.0471554349172534 0.487676879016347
0.0290209233023134 0.0504008835212857 0.487676879016347
0.0520512907539668 0.0501646967642162 0.487676879016346
0.0667994895170211 0.0546622579503257 0.487676879016346
0.0767036130841046 0.0526664715545877 0.487676879016346
0.0864878927852773 0.0541478856756479 0.487676879016346
0.105590306935956 0.0476260824105558 0.487676879016347
0.118129518723709 0.0499235160671376 0.487676879016347
0.126356503060229 0.0505660378318173 0.487676879016346
0.142726145515988 0.047833653200295 0.487676879016347
0.153927995265309 0.0497457132304917 0.487676879016347
0.169531776284903 0.0491890956262463 0.487676879016347
0.181507115266477 0.0564043286308149 0.487676879016346
0.187103484147399 0.0519880602369923 0.487676879016346
0.212768751484357 0.0486140786816539 0.487676879016347
0.229144754548611 0.0587546351984241 0.487676879016346
0.236521716480961 0.0587462631536867 0.487676879016346
0.256528775578904 0.0528814553281804 0.487676879016334
0.257470374380607 0.0568192659168302 0.487676879016334
0.25237450208968 0.052506921161498 0.672236631115672
0.25237450208968 0.0559281504858481 0.685384203595492
0.25237450208968 0.057387751226648 0.68730542424766
0.268040417437923 0.0498502646365945 0.690473204943915
0.29541197201219 0.0542391854271177 0.690473204943914
0.305770184422081 0.0496264976221684 0.690473204943914
-0.0356147918123186 0.0587825951203865 0.0654950146868191
-0.0356147918123186 0.0601821373922644 0.0692332579940717
-0.0356147918123189 0.0597166483675037 0.0838871834284138
-0.0356147918123193 0.0580669966771256 0.0930573702779995
-0.0356147918123189 0.0614317724041138 0.109108298262595
-0.0356147918123186 0.0547680932029137 0.11343419000458
-0.0308087835037296 0.054883144504361 0.115477363223844
-0.0117858670465836 0.0635073810145676 0.114861346330258
-0.00810059227785914 0.0633989349104108 0.114869092480555
0.00269916372620054 0.0610792048383088 0.115034787485706
0.0120044965688364 0.0582158557278026 0.11523931242217
-0.230473892975991 0.0537926485204628 0.413104349401532
-0.230473892975991 0.0530400758524226 0.41905451530601
-0.249787828778615 0.056242615821931 0.450030473215454
-0.249787828778616 0.0510646835424578 0.464334451526124
-0.249787828778617 0.0515718157212256 0.474287714921885
-0.249787828778618 0.0548439011644347 0.480407792447446
-0.249787828778618 0.059200219617559 0.481860008745938
-0.240342099769629 0.0574663592992749 0.487676879016328
-0.230226328170103 0.0542393397298197 0.487676879016345
-0.216237345133105 0.0521249376418537 0.487676879016346
-0.208316748306715 0.0604878311931786 0.487676879016344
-0.200209788196009 0.0599857918858103 0.487676879016344
-0.187520486047095 0.0581685244113304 0.487676879016345
-0.177442694450771 0.0608141018580206 0.487676879016344
-0.165621545499581 0.0569328865895037 0.487676879016345
-0.155224243632913 0.0521911536094145 0.487676879016346
-0.139545017168825 0.0531303078746422 0.487676879016346
-0.133588439616083 0.0611379977759906 0.487676879016344
-0.126744190460362 0.0549537505118999 0.487676879016345
-0.104643427016415 0.0579647671003265 0.487676879016345
-0.107128636752326 0.0622309085837115 0.487676879016344
-0.0947849994533291 0.0586711716329232 0.487676879016345
-0.0830826798847188 0.0547200089553835 0.487676879016345
-0.288415700383874 0.0534287033264471 0.671373658737759
-0.288415700383874 0.0572029275446688 0.685660485629368
-0.283553299988636 0.0556790413568426 0.690473204943909
-0.268380309976402 0.0516332931099083 0.690473204943909
-0.261870604777761 0.0527162753857797 0.690473204943908
-0.249691877497123 0.0516872740382023 0.690473204943909
-0.237274612245576 0.0595453217023226 0.690473204943909
0.0134681278235836 0.0617695741870759 0.487676879016344
0.0277201919675207 0.0645339707036866 0.487676879016344
0.0368489675409852 0.0616519226925905 0.487676879016345
0.057752711213784 0.0633378506622649 0.487676879016344
0.0589837898405473 0.0579123100779031 0.487676879016345
0.075610573133168 0.0586922029528695 0.487676879016345
0.0798021920432519 0.0569877179749513 0.487676879016345
0.100632153230922 0.0658081376521137 0.487676879016343
0.106378335725223 0.0569302917927932 0.487676879016346
0.123183244327868 0.057298373002025 0.487676879016346
0.138991459798393 0.0600021888733976 0.487676879016345
0.155226940936904 0.0589798157091516 0.487676879016345
0.169778436154285 0.0629821278034701 0.487676879016345
0.182171187418411 0.0688514660536282 0.487676879016343
0.196801161704029 0.0679472794002308 0.487676879016343
0.206363242833145 0.0606344134037181 0.487676879016345
0.21915441740272 0.0640860088428568 0.487676879016345
0.237709697300221 0.0652713774455178 0.487676879016344
0.254036652601964 0.0679654297560522 0.487676879016334
0.270845869116518 0.0639479355927519 0.487676879016334
0.25237450208968 0.0611664946374692 0.674425506949174
0.25670550893768 0.0614703377132495 0.690473204943915
0.272173914754207 0.0684395478290539 0.690473204943915
0.282904255238068 0.0701500873462926 0.690473204943915
0.296816263825071 0.0609720122001195 0.690473204943915
-0.0356147918123186 0.0724844342830954 0.0738244404045026
-0.0356147918123189 0.0703788261190169 0.0893477365081085
-0.0356147918123189 0.0703128655574343 0.0994896697725437
-0.0356147918123189 0.0670099939737948 0.110570527331189
-0.0331576476626428 0.0654452143982618 0.114722929659995
-0.0229555747420727 0.0704624836989706 0.114364553281373
-0.015710931170694 0.0726198015124777 0.114210459151837
0.00415965059395668 0.0719693231699015 0.114256921890592
0.000935300068454257 0.0689545620048149 0.114472261973813
-0.230473892975991 0.0684255194942203 0.413813786024587
-0.230473892975991 0.0679362749253485 0.423063663941444
-0.230473892975991 0.0625845216211131 0.427011242432564
-0.249787828778617 0.0656876543110068 0.466938099775356
-0.249787828778617 0.0628233326238358 0.473404508515928
-0.249787828778618 0.0598624773285739 0.475893890913178
-0.249787828778619 0.0625423804688063 0.487481335169224
-0.23865635153451 0.061654843132415 0.487676879016329
-0.23016917884281 0.0600832609353531 0.487676879016344
-0.22071014680639 0.068879483250085 0.487676879016342
-0.204529835339361 0.0613385022421465 0.487676879016344
-0.194625453110474 0.0675794639070619 0.487676879016343
-0.187891180329526 0.064842887940267 0.487676879016343
-0.185000137363891 0.0617089434996953 0.487676879016344
-0.166427202338626 0.0668659717210053 0.487676879016343
-0.165224523262315 0.0622524658958027 0.487676879016344
-0.144212081005835 0.0619104707667931 0.487676879016344
-0.128255727580928 0.065914855283345 0.487676879016343
-0.121174959500558 0.062930082613573 0.487676879016344
-0.11312712931268 0.0673641354889089 0.487676879016343
-0.0924000004666153 0.0638961783692039 0.487676879016344
-0.0929133706211889 0.0714428623742482 0.487676879016342
-0.288415700383874 0.0634844762751218 0.671546565712527
-0.288415700383874 0.0618831008433967 0.6764018516672
-0.288415700383874 0.0629279664641694 0.689159242797428
-0.281119401944524 0.058939518657577 0.690473204943909
-0.27809981938103 0.0606589352684145 0.690473204943908
-0.264193318412759 0.0604418919611804 0.690473204943909
-0.246019271679719 0.0608319452076292 0.690473204943909
-0.247637563455765 0.0607099163134276 0.690473204943909
0.0213929366244116 0.0713423632050502 0.487676879016342
0.033717327670606 0.0656881128042546 0.487676879016343
0.0370844346004737 0.0715839691515956 0.487676879016343
0.0516036448076597 0.0761325611310534 0.487676879016342
0.0548847918590809 0.0761068121049114 0.487676879016342
0.0734259363808789 0.0728622697430164 0.487676879016342
0.0961145388168443 0.0767461023370211 0.487676879016342
0.107841652755098 0.0672931175471842 0.487676879016343
0.109558607190711 0.072502847689344 0.487676879016342
0.119181027902642 0.0741809218030621 0.487676879016342
0.129439699739513 0.0681458221108067 0.487676879016343
0.15433029300518 0.0689282320422359 0.487676879016343
0.168928384050847 0.0723619563702188 0.487676879016343
0.182170804456126 0.0720851913030227 0.487676879016343
0.202440036784566 0.0781527101241716 0.487676879016342
0.215685389714945 0.0724893281821792 0.487676879016343
0.214674434876787 0.0739849838592451 0.487676879016343
0.233105999842742 0.0739861069356706 0.487676879016342
0.254415039769699 0.0751997581009395 0.487676879016334
0.25237450208968 0.076014420649488 0.674738541903146
0.25237450208968 0.0743060194186598 0.67807738828182
0.25237450208968 0.0764984062404275 0.689774058149005
0.270002164299472 0.0763666987418835 0.690473204943915
0.28464403205544 0.0730527281979648 0.690473204943914
0.303922459965086 0.0751101270421129 0.690473204943914
-0.0356147918123182 0.0767816586155157 0.06746202606344
-0.0356147918123186 0.0755591304392031 0.0666639970310234
-0.0356147918123189 0.0825386750948649 0.0849331803830725
-0.0356147918123189 0.0775851839282006 0.0946261349789767
-0.0356147918123193 0.0769090276139093 0.0958769039423943
-0.0356147918123189 0.0763389622442291 0.106945013051253
-0.0309546648058809 0.0753278863222387 0.114017024522568
-0.0116947822389677 0.0772607731014234 0.113878961181198
-0.0104231177946371 0.0773803931236964 0.113870416893892
0.00639951790551449 0.0834243495259384 0.113438705722304
0.0173539933781782 0.0841917646743812 0.113383890354558
-0.230473892975991 0.0727061613369109 0.412076476139535
-0.230473892975991 0.0712309432875527 0.428685443495498
-0.249787828778615 0.0752928744809898 0.450260682566405
-0.249787828778616 0.0697615639354419 0.459066442589642
-0.249787828778617 0.0759725057366858 0.465830381727236
-0.249787828778617 0.0694035079756223 0.472797130443452
-0.247698628932593 0.0749870348649711 0.487676879016328
-0.240888854519876 0.0744812595238063 0.487676879016329
-0.230013409832218 0.0714724955065177 0.487676879016342
-0.218923721590134 0.0781594648387981 0.487676879016341
-0.202195223207149 0.0777636242913597 0.487676879016341
-0.200500465348344 0.0771053067422941 0.487676879016341
-0.186637193567093 0.0774601202154128 0.487676879016341
-0.172807233212195 0.0746475456471331 0.487676879016342
-0.1676627131773 0.0769656842646715 0.487676879016341
-0.159623114606411 0.0794986675897786 0.48767687901634
-0.149730221854594 0.0793049692246719 0.487676879016341
-0.13256963037252 0.0802197683632405 0.487676879016341
-0.127839161423107 0.0729762004539298 0.487676879016342
-0.116668192720738 0.0772743797504681 0.487676879016341
-0.099576235648076 0.073894088521122 0.487676879016342
-0.0887774368529902 0.0788821886245273 0.487676879016341
-0.0853655943888602 0.0787519347926838 0.487676879016341
-0.288415700383874 0.0741465786798482 0.681269975114305
-0.285590610383295 0.0703785685803203 0.690473204943908
-0.275077500531974 0.075313060228809 0.690473204943909
-0.278546293696998 0.0682445195818919 0.690473204943908
-0.261483984135083 0.0773726685499507 0.690473204943909
-0.252056545262546 0.0749034175183016 0.690473204943909
-0.240398771115911 0.0781720845128522 0.690473204943909
-0.232441319281485 0.0700908116986107 0.690473204943909
0.0235682216503456 0.0799058221947926 0.487676879016341
0.0312540300149361 0.0800585856988352 0.487676879016341
0.0502958737753295 0.0847002743515749 0.48767687901634
0.0619775175976507 0.0788120303305226 0.487676879016342
0.0847739323383035 0.0778540935564963 0.487676879016341
0.0829524602091129 0.0806595747507668 0.487676879016341
0.0990990242999662 0.081401142413951 0.487676879016341
0.114603676556754 0.0879121397156571 0.48767687901634
0.13033107791808 0.0804882716160061 0.487676879016341
0.133581968765394 0.0845668379082872 0.487676879016341
0.159187788655019 0.0793264492846041 0.487676879016341
0.1649837528709 0.0795144326645471 0.487676879016342
0.181996163866572 0.0863414107346639 0.48767687901634
0.193549738183209 0.0864055874009992 0.48767687901634
0.204696528436782 0.0832947753051932 0.487676879016341
0.215363073915229 0.0805825447313484 0.487676879016341
0.229870226826821 0.0908240786853268 0.48767687901634
0.245311470066351 0.0815467652020805 0.487676879016341
0.271688437892305 0.0926144413434193 0.487677812632929
0.25237450208968 0.0901526941714463 0.685011111644579
0.258272804907595 0.0825866509072347 0.690473204943915
0.2743639087414 0.0895067542803369 0.690473204943915
0.279158987361611 0.0911237352184971 0.690473204943915
0.300094831264374 0.0856935398747736 0.690473204943914
0.306566164778346 0.0845015248996321 0.690473204943914
-0.0356147918123182 0.0849200858737439 0.0697042093875838
-0.0356147918123186 0.0869351179408437 0.0709451163295311
-0.0356147918123189 0.0882105426045428 0.0876892688479534
-0.0356147918123193 0.0933573103383092 0.0955880352026844
-0.0356147918123189 0.0850217640468647 0.110605003427823
-0.0356147918123189 0.0848742202685472 0.111918547943534
-0.0211151294420169 0.0872398856743141 0.113166167425992
-0.0136382326781066 0.0864856971710369 0.113220038033369
-0.00468944922386662 0.0880497951263299 0.113108316750848
0.0040211227756717 0.0901744467260556 0.112956555922296
0.0194291559485434 0.0866931801271887 0.113205217822215
-0.230473892975991 0.0809159038183899 0.417921125920668
-0.230473892975991 0.0866115394889915 0.421145957690027
-0.230473892975991 0.0854117463020765 0.430377274837017
-0.249787828778615 0.0833698658403215 0.456644929717051
-0.249787828778616 0.0815012093724805 0.462433585600612
-0.249787828778618 0.082875804418384 0.475779272769809
-0.248390882910749 0.0795847887278413 0.487676879016328
-0.247700850002388 0.0820351013083422 0.487676879016328
-0.232805167808789 0.0823708751230986 0.487676879016328
-0.214747596310787 0.0827925872538174 0.48767687901634
-0.206656424806454 0.0792069178435295 0.48767687901634
-0.200768076454187 0.0818085172267635 0.48767687901634
-0.188528960519608 0.0821653250540323 0.48767687901634
-0.177814592632285 0.0814932004684931 0.48767687901634
-0.158198700958488 0.0806923993239735 0.487676879016341
-0.15571355590945 0.0832151512302204 0.48767687901634
-0.148669644213067 0.0821350997508394 0.48767687901634
-0.12957658564314 0.0886867547239698 0.487676879016339
-0.12318098007584 0.0878984218066526 0.487676879016339
-0.113419598110576 0.0833913005056079 0.48767687901634
-0.106039229640144 0.0870995973428819 0.48767687901634
-0.0904184053618392 0.0920494827272668 0.487676879016339
-0.0767173209926717 0.0855995218142622 0.48767687901634
-0.288415700383874 0.0811679996410234 0.671874012299358
-0.288415700383874 0.0802046061313738 0.682973927923157
-0.274745119538362 0.0790024293115576 0.690473204943908
-0.269551318917711 0.0787665073594748 0.690473204943909
-0.262527337833504 0.084108415437241 0.690473204943909
-0.247987770193691 0.0860936364973341 0.690473204943909
-0.241754923017961 0.0816674789640354 0.690473204943909
0.01718610246608 0.0947208840774582 0.487676879016338
0.0250642113864727 0.0886724753265968 0.487676879016339
0.031911799412817 0.0961957194266247 0.487676879016338
0.0509974842488915 0.0881423370481986 0.48767687901634
0.0674301035504692 0.0911102694714498 0.48767687901634
0.0798998730831199 0.0943010663299021 0.487676879016339
0.0852621781761432 0.0922013260355395 0.487676879016339
0.101486407707074 0.0934223576589679 0.487676879016339
0.106357528456391 0.0934133399576571 0.487676879016339
0.125101249860219 0.0985197148091564 0.487676879016338
0.146464590453306 0.098360457000534 0.487676879016338
0.157519639275564 0.0951579157439045 0.487676879016339
0.166828849518069 0.0951123032362149 0.487676879016339
0.171485280198526 0.100519454134282 0.487676879016338
0.195564497685939 0.10094972417954 0.487676879016338
0.210916099592198 0.0957185575013945 0.487676879016339
0.2240192316714 0.0930101935856188 0.487676879016339
0.22418353679318 0.0968797944004942 0.487676879016339
0.251538845059066 0.0955460124225562 0.487676879016338
0.256794138302426 0.102529264462112 0.487676879016334
0.25237450208968 0.102004033075765 0.678604215105324
0.25237450208968 0.0989705005752833 0.68856498889533
0.270189378215573 0.103249361622346 0.690473204943915
0.282766459063141 0.098205101766425 0.690473204943914
0.300281133966092 0.101977270057749 0.690473204943914
-0.0356147918123182 0.101671872260384 0.0669061221169062
-0.0356147918123182 0.0947156295704587 0.0734988349557035
-0.0356147918123186 0.0986484148662708 0.0864637989566665
-0.0356147918123186 0.0993880933424953 0.0958366324755238
-0.0356147918123189 0.103593749346443 0.110244476309753
-0.0304629488768003 0.094809368455087 0.112625490084508
-0.0252808304246436 0.097839283543979 0.112409067578159
-0.016455105894816 0.0999679114842073 0.112257022725285
-0.00178417304677709 0.10387798306357 0.111977731898188
0.0135895436975936 0.102019680243681 0.112110467813894
-0.230473892975991 0.0886932818536372 0.416783984833625
-0.230473892975991 0.0900354770308742 0.423441024242998
-0.249787828778615 0.0903631010496392 0.452231358885092
-0.249787828778616 0.0871955952069625 0.46059935339784
-0.249787828778617 0.0892437721078575 0.472191217347142
-0.249787828778618 0.0918722375310901 0.482907304193367
-0.249787828778618 0.0945116952056211 0.485303421690187
-0.233504965527323 0.0922232751202346 0.487676879016329
-0.22929151250813 0.0953953280203803 0.487676879016338
-0.221930192773909 0.0899324519556318 0.487676879016339
-0.21544559234452 0.0963066857151023 0.487676879016338
-0.199760160677995 0.0964057267329722 0.487676879016338
-0.191539905828019 0.0976386330336055 0.487676879016338
-0.178060105229606 0.0939665402239789 0.487676879016338
-0.160686382695118 0.0973642682878701 0.487676879016338
-0.14986902235478 0.0948909063128249 0.487676879016338
-0.143977733989852 0.0967946774847088 0.487676879016338
-0.131550269576987 0.0983430366640602 0.487676879016338
-0.128837814744729 0.0940179111415832 0.487676879016338
-0.113223517959709 0.0922775927156354 0.487676879016339
-0.103377624635212 0.0994258147540241 0.487676879016338
-0.0965752452164097 0.0967298762707176 0.487676879016338
-0.0752221774382497 0.101900962296903 0.487676879016337
-0.288415700383874 0.0909631809685927 0.681506061561483
-0.288415700383874 0.0897084391007079 0.682515333858092
-0.285402770303252 0.093119422608928 0.690473204943908
-0.272729718622763 0.0879452737273634 0.690473204943909
-0.26595033596884 0.0898316299192522 0.690473204943909
-0.248085039144323 0.0889695268830193 0.690473204943909
-0.241074123679399 0.096286293982415 0.690473204943909
0.0201352356573152 0.105612064236636 0.487676879016337
0.0352109585728273 0.103032004303111 0.487676879016337
0.0376434786976757 0.0975047477565111 0.487676879016338
0.0533485117537678 0.105139883394087 0.487676879016337
0.0605186421406777 0.10068276910464 0.487676879016338
0.0740835834340401 0.105485267868367 0.487676879016337
0.0871156175372354 0.0992252105310222 0.487676879016338
0.10723661006615 0.100582965494294 0.487676879016338
0.109317828277562 0.102536531375882 0.487676879016337
0.122818625923559 0.101523373253617 0.487676879016338
0.138964005046885 0.107758157420994 0.487676879016337
0.162652124643507 0.100703519192611 0.487676879016338
0.164354166318645 0.106974695156011 0.487676879016337
0.173142635832795 0.110397593081413 0.487676879016336
0.192275098244982 0.102131136646288 0.487676879016338
0.212773389337502 0.111432211589629 0.487676879016336
0.219508934608804 0.102015789567047 0.487676879016338
0.238499427912546 0.104373645419294 0.487676879016337
0.246691963520363 0.104613212851625 0.487676879016337
0.257507586748592 0.110382892571494 0.487676879016334
