ply
format ascii 1.0
element vertex 851
property float x
property float y
property float z
end_header
0.287379511736712 -0.0926149875565482 0.462977735794454
0.298228767211764 -0.0921142430864798 0.464918120615971
0.289859949829093 -0.0904197359205585 0.471484335883917
0.302812658761924 -0.0894100468512139 0.475396881027627
0.299478687086854 -0.0874499984209772 0.482992068694795
0.305340743116359 -0.0845497344837444 0.49423059145157
0.299952355811704 -0.0812654857116294 0.506957055443517
0.306891734422221 -0.0800907185256155 0.511509278289321
0.306574082956359 -0.076745367451576 0.524472513701224
0.310139046823233 -0.0743151578711913 0.533889575825214
0.310122140418916 -0.0723427838783031 0.541532525047658
0.320701415409344 -0.0724280926644989 0.541201953501147
0.326443978870865 -0.0668590267347386 0.546901686151316
0.332991016673462 -0.0556733051453303 0.554420766413023
0.256211690359319 -0.111551493989322 0.0351717916147333
0.259694973578399 -0.101155197619258 0.0402901334096838
0.263725448740914 -0.103249173774259 0.0523149781676795
0.262954086832766 -0.0953192076685318 0.0460192820621186
0.271200715688931 -0.103524907979423 0.0608266299613354
0.274027577830715 -0.0966363788097206 0.0615537904034765
0.281086958251071 -0.0857418279187118 0.0646224149280191
0.265748032042733 -0.102141055726154 0.0962291705313053
0.264588469187773 -0.101845013972272 0.102109297699913
0.264771339861267 -0.101891701700051 0.113331086138627
0.261994818408028 -0.100544338189382 0.121335871102732
0.13975634536452 -0.200730546565246 0.343927632617366
0.14721893687836 -0.200730546565246 0.338288296334862
0.147967648780684 -0.200730546565246 0.350212077542346
0.157685436480827 -0.200730546565246 0.362446433577128
0.150843284857704 -0.200730546565246 0.370429566273845
0.154056315206204 -0.200730546565246 0.376508283885001
0.150290495910891 -0.200730546565246 0.386627363969634
0.157022541530153 -0.200730546565246 0.391320420401914
0.151241476333143 -0.200730546565246 0.406315156827661
0.162432266360235 -0.194891224547306 0.408461967547279
0.174261976037824 -0.181128883161645 0.40846196754728
0.175005783805189 -0.176889547638074 0.40846196754728
0.190404419601391 -0.172108738520999 0.40846196754728
0.192949396361991 -0.156650077676762 0.40846196754728
0.201973578229194 -0.149595987620424 0.40846196754728
0.20446236714368 -0.153127497776892 0.40846196754728
0.220235452790948 -0.137322517312865 0.408461967547279
0.23814274642333 -0.131632945991088 0.40846196754728
0.245519809992125 -0.121909311306841 0.40846196754728
0.252508482160795 -0.111829265487535 0.40846196754728
0.253556477707995 -0.10582845834035 0.40846196754728
0.264839652075517 -0.105270473593869 0.413937727399836
0.261996016268645 -0.101424608224549 0.428644057128374
0.269176438562307 -0.100548314729705 0.432236092998473
0.265207929030907 -0.0979003016114123 0.442497143831857
0.275230091016536 -0.0970734242039737 0.445701293785682
0.277133006414438 -0.0947908226508982 0.45454637480385
0.273689863719338 -0.0928856780880565 0.461928809984862
0.279680036287812 -0.0889390267540878 0.477222083903991
0.287270890482143 -0.0896966326983946 0.4742863608698
0.280278426085732 -0.0872953357078316 0.483591386708234
0.285401357020794 -0.0845857459545666 0.494091047002134
0.296990043858137 -0.0827208348579958 0.501317577501347
0.298488142089225 -0.0819526988217055 0.504294104641971
0.292637450540231 -0.0775410519683594 0.521389236198687
0.300146522697741 -0.0760856498655452 0.527028919347093
0.300466880534863 -0.0739275649623966 0.535391498346794
0.29977421389625 -0.0692074765662059 0.545323050152533
0.306438784669872 -0.0653750230621063 0.547899238489267
0.309049378976239 -0.0607987037922539 0.550975455934711
0.313066620954043 -0.0538185822095956 0.555667517505973
0.33211525657376 -0.0454725252329201 0.561277765514991
0.330691862468983 -0.0414431339907357 0.563986336071985
0.260015229790598 -0.0985223247277688 0.0374637628928811
0.263120492046185 -0.08878633002985 0.0411066743578646
0.266286884416019 -0.0840295124036037 0.0467368927749348
0.271256354256701 -0.0861302313284983 0.0560208382547358
0.276997198383864 -0.0842802261002756 0.0613008997391576
0.25096193292321 -0.0983660963113324 0.106558482126137
0.247784930500279 -0.0975549929154738 0.115058559518879
0.258292397612681 -0.100237597812225 0.115969914777069
0.262062873779928 -0.0962576560208679 0.12139378338706
0.127540077201276 -0.200730546565246 0.33238815636655
0.125979955827331 -0.200730546565246 0.345755206142666
0.138368099373407 -0.200730546565246 0.350723336090803
0.13593189289339 -0.200730546565246 0.367030060812065
0.131800489819143 -0.200730546565246 0.371553040854524
0.130878203772477 -0.200730546565246 0.383790067820673
0.129876413441131 -0.200730546565246 0.390660766594845
0.14168789974104 -0.200730546565246 0.401083870822351
0.137461586988594 -0.195089278067573 0.40846196754728
0.143099970687353 -0.196394362653957 0.408461967547279
0.153639033281383 -0.180640226247473 0.40846196754728
0.162274443135534 -0.173719554178249 0.408461967547279
0.176613680143723 -0.166553804672693 0.40846196754728
0.179893936250945 -0.165039051953556 0.40846196754728
0.187129314852866 -0.14856590501581 0.40846196754728
0.198663361616414 -0.140828658358833 0.40846196754728
0.206674200488023 -0.137098384668373 0.40846196754728
0.211262827061564 -0.134132250287776 0.40846196754728
0.223234644181687 -0.1235241389713 0.40846196754728
0.236358614476986 -0.110714506576788 0.40846196754728
0.25073215623903 -0.101729441357388 0.40846196754728
0.255876829064116 -0.0943122246315004 0.40846196754728
0.261996016268645 -0.0893935242102841 0.415519462169579
0.261996016268645 -0.0872039395896943 0.421188503366201
0.261996016268645 -0.0902538819402216 0.431075552675021
0.261996016268645 -0.0891822428598215 0.432493587554783
0.261996016268645 -0.0908931505127288 0.458474777254045
0.261996016268645 -0.0877672608053019 0.466749329017998
0.262802986346893 -0.0899993227383413 0.473113436965007
0.273448453877799 -0.0890854814369759 0.476654572007801
0.269829358887264 -0.0867360568331945 0.485758592347451
0.276311887168083 -0.0844220754451433 0.494725270226149
0.267329232758097 -0.0822605087633287 0.503101341118182
0.271563105299753 -0.0789608986874701 0.515887330162134
0.270445129916575 -0.076577561292242 0.525122762568643
0.274881918995707 -0.0772775210060902 0.522410418677481
0.283053405790144 -0.0751811558158119 0.530533833789809
0.287431232508737 -0.0732458566575 0.538033118028268
0.291313587959779 -0.0641454660591811 0.548725750906677
0.296327899950814 -0.057510305213642 0.553185928692095
0.308143581912455 -0.0555750531558491 0.554486811735971
0.305010522703556 -0.0469261925405151 0.560300605385243
0.317876739055931 -0.0413250557731227 0.564065708653208
0.330406884583724 -0.0383346118866766 0.566075895248735
0.327008019145711 -0.0357032775428219 0.567844687183049
0.265417851383128 -0.0791612930046281 0.0390401149128482
0.266378068957955 -0.0733256964322756 0.0346127613518442
0.270952741478056 -0.0742932725350407 0.0515337596909914
0.241762596916334 -0.0960174633291956 0.106102907993752
0.236268194612082 -0.0946147170375879 0.121720653310686
0.248370495485807 -0.0895551337268329 0.12222387665021
0.117104766671576 -0.200730546565246 0.35216222723312
0.112374328430241 -0.200730546565246 0.360880489702681
0.108286680210624 -0.200730546565246 0.366334996313013
0.119314123187665 -0.200730546565246 0.381018120551544
0.11799062568022 -0.200730546565246 0.375976099607943
0.112139831036368 -0.200730546565246 0.401669270905808
0.124475967292484 -0.200730546565246 0.392367294477011
0.122789231661091 -0.199185002110661 0.40846196754728
0.132908097323323 -0.187094072381333 0.40846196754728
0.142860801662574 -0.184719792791752 0.40846196754728
0.14183562281069 -0.174499211064009 0.40846196754728
0.157404649199496 -0.161122109664597 0.40846196754728
0.161027253223753 -0.158913600299903 0.408461967547279
0.166086923986425 -0.152322721143458 0.408461967547279
0.182445365994122 -0.148833874777353 0.40846196754728
0.19149850137581 -0.139154979395707 0.40846196754728
0.206914227110888 -0.128471601180056 0.40846196754728
0.203002669250867 -0.122824388024866 0.40846196754728
0.216764827029645 -0.111110991081868 0.40846196754728
0.222411546780353 -0.111855279738048 0.40846196754728
0.238428529722458 -0.106199948592752 0.40846196754728
0.246485012554042 -0.0892921307759291 0.40846196754728
0.252396557498835 -0.0821365491082306 0.40846196754728
0.261996016268645 -0.083234381344303 0.414931094582589
0.261996016268645 -0.0846536170953561 0.427397633560612
0.261996016268645 -0.0840574013861777 0.434351488891418
0.261996016268645 -0.0789568387121599 0.442045845792921
0.261996016268645 -0.0822132531395238 0.454282528924249
0.261996016268645 -0.0805153866339609 0.470716587550657
0.261996016268645 -0.073848722206674 0.466600783443512
0.261996016268645 -0.0832892303651089 0.486992154441695
0.261996016268645 -0.0698397783751922 0.487121680517508
0.26790571259593 -0.0807278459612256 0.509040409476331
0.261996016268645 -0.0776214868820343 0.515820555716382
0.261996016268645 -0.0721434329644999 0.526126173529336
0.271807494255689 -0.0740293321862969 0.534997150354181
0.27437894581457 -0.0738241625348518 0.535792182753531
0.270833324006706 -0.072153749452337 0.542265033448275
0.279173709090297 -0.0622152385773498 0.550023256413429
0.286454729580466 -0.0589795511843418 0.552198296531794
0.29715516447238 -0.0470883305543085 0.560191615658524
0.301341253457934 -0.0473600075952174 0.560008993423603
0.306619931551619 -0.0356162388774273 0.567903194871242
0.316319926916322 -0.0340634409055716 0.568946990972127
0.323110072257747 -0.0226714111205995 0.574232490604508
0.325912989457401 -0.0269830581440748 0.573706448450285
0.225109564490838 -0.0917658672164014 0.091272094818106
0.226949944313489 -0.092235724687409 0.10016304558537
0.231110619182128 -0.0932979642030791 0.107160740112597
0.226285116561658 -0.09206599109096 0.119391299643158
0.232823735970173 -0.085320909718692 0.123117908668246
0.0964469318972249 -0.200730546565246 0.337574727729987
0.102338900599106 -0.200730546565246 0.344489676910636
0.106823568243267 -0.200730546565246 0.342913849270312
0.105183371396934 -0.200730546565246 0.358064294287156
0.1047313730341 -0.200730546565246 0.367327238050491
0.107874571034381 -0.200730546565246 0.383979025333815
0.104319594022996 -0.200730546565246 0.399695823354583
0.10624550082702 -0.200730546565246 0.402148496154723
0.105258931959701 -0.200730546565246 0.405045719134652
0.12173253636046 -0.189684435503212 0.40846196754728
0.121279460954924 -0.185726117327065 0.40846196754728
0.131123565470404 -0.179299788329468 0.40846196754728
0.140882691745441 -0.168887873903695 0.40846196754728
0.150139640746892 -0.166272315729293 0.40846196754728
0.153497134462735 -0.151839307704182 0.40846196754728
0.170770164938853 -0.145060915634597 0.40846196754728
0.172099905559752 -0.142749560936012 0.40846196754728
0.176089837442148 -0.137243079396587 0.40846196754728
0.191525299924262 -0.122625830366154 0.40846196754728
0.199120373384505 -0.118350064298222 0.40846196754728
0.207221045957235 -0.105920152785208 0.40846196754728
0.219183208677239 -0.0970979800113752 0.40846196754728
0.234795891277108 -0.0849670550070323 0.40846196754728
0.235382261280153 -0.0831941132762139 0.40846196754728
0.250428945513416 -0.0812378669419696 0.40846196754728
0.249639119660061 -0.0675999983047038 0.40846196754728
0.261996016268645 -0.0678311306392734 0.421322806907338
0.261996016268645 -0.0615001505068931 0.41904165583158
0.261996016268645 -0.0639568640088787 0.43749817365976
0.261996016268645 -0.0587184954472127 0.441947444786082
0.261996016268645 -0.0576943899335617 0.448192219905306
0.261996016268645 -0.0669813780253259 0.462132663983556
0.261996016268645 -0.0555189180744539 0.468863186154474
0.261996016268645 -0.0640729997694348 0.484010790527141
0.261996016268645 -0.0577890470016174 0.493179028038228
0.261996016268645 -0.0702034277310659 0.51024414402504
0.261996016268645 -0.0703139783381415 0.518943830730485
0.261996016268644 -0.0653694837949183 0.53184389891172
0.261996016268644 -0.0657720218311384 0.538628453076489
0.271931703387634 -0.0630963356365086 0.549430979960523
0.272970780436363 -0.0542707313177963 0.555363581330943
0.274978327717498 -0.054368818819667 0.55529764657713
0.285761393479392 -0.0405504660650644 0.564586390500886
0.288139040030151 -0.0417770887954325 0.563761850511512
0.299406306016275 -0.0366655462668328 0.567197846859755
0.307505025233347 -0.0239848722518784 0.574232490604508
0.309819904491283 -0.0208476346307859 0.574232490604508
0.316828665103929 -0.00944560910794098 0.574232490604508
0.329384897045925 -0.0100052036064577 0.574232490604508
0.212440285434951 -0.0885313417432242 0.106329658060926
0.216133215433122 -0.0894741638325521 0.101425830754494
0.2157194565551 -0.0884451870570856 0.123989742540824
0.223053831681717 -0.0906185595161679 0.123565446963737
0.0901674805975512 -0.200730546565246 0.346805313444068
0.0893941120890884 -0.200730546565246 0.351271443408395
0.0822147165623337 -0.200730546565246 0.366169039601112
0.0850377866014254 -0.200730546565246 0.377749007525562
0.0827111413318077 -0.200730546565246 0.386213803328243
0.0914060730870509 -0.200730546565246 0.391731079876211
0.082716276949733 -0.200730546565246 0.405641586994638
0.0845508764536331 -0.198428968942679 0.40846196754728
0.0952218696126058 -0.196254936014148 0.408461967547279
0.106994787223778 -0.187679443572643 0.40846196754728
0.118660955751709 -0.182890258928525 0.40846196754728
0.120018202651849 -0.171890137430537 0.40846196754728
0.138023189202576 -0.158341607405094 0.40846196754728
0.142519922189663 -0.149470067332873 0.40846196754728
0.148067491450497 -0.142960635441725 0.40846196754728
0.156684394640738 -0.14177877361772 0.40846196754728
0.165906023686621 -0.136557709994845 0.40846196754728
0.175170541323182 -0.124816353543843 0.40846196754728
0.178120429381311 -0.120059830920302 0.40846196754728
0.195141035685114 -0.11148718184639 0.40846196754728
0.209661518849037 -0.101881652771875 0.408461967547279
0.212036506752991 -0.0929320896989516 0.40846196754728
0.223846153266503 -0.088152169901557 0.40846196754728
0.222718797375892 -0.0758547958642552 0.40846196754728
0.249380102722688 -0.0664882648309445 0.40846196754728
0.246450103833804 -0.0630539029949194 0.40846196754728
0.252885191897662 -0.0544696331415563 0.40846196754728
0.261996016268645 -0.0515016928165288 0.41589557331348
0.261996016268645 -0.0545750983218118 0.432686385105601
0.261996016268645 -0.0533585050769503 0.437541696208533
0.261996016268645 -0.0540656209092997 0.449924302149986
0.261996016268645 -0.0476939578845695 0.458969009754625
0.261996016268645 -0.0540965245439173 0.474628340160058
0.261996016268645 -0.0516600151077064 0.484398103370131
0.261996016268644 -0.0472664500979968 0.489921647166246
0.261996016268644 -0.055210764229193 0.500298187041827
0.261996016268645 -0.0513098418421481 0.511587411748489
0.261996016268644 -0.0532095376294309 0.525754715809642
0.261996016268644 -0.0440446307129166 0.527776495132254
0.261996016268644 -0.0512056971144438 0.54933647177449
0.261996016268644 -0.0487032767624576 0.553052349545268
0.269209355033945 -0.0434287846643729 0.562651574906381
0.266281668471095 -0.039620164257588 0.565211742553689
0.273383057493916 -0.0381493762484416 0.566200411277502
0.288223148266915 -0.0236960735423409 0.574232490604508
0.292865197613149 -0.0163603130681556 0.574232490604508
0.298455018092216 -0.0112585192985412 0.574232490604508
0.310014723649117 -0.010101111478181 0.574232490604508
0.334306756920637 0.00509783910337154 0.574232490604508
0.332391875821432 0.0144915473142287 0.574232490604508
0.205097425587756 -0.0866566757013016 0.0878597100771297
0.206139941296003 -0.0869228347778861 0.0909468023286319
0.206944726497363 -0.0871283001577827 0.104332526961819
0.204230024551493 -0.0864352242094783 0.116554628938162
0.209770499597899 -0.0822597808321357 0.124397402451084
0.205504513269575 -0.0867606070671544 0.124510346044025
0.0708851751060139 -0.200730546565246 0.338044592521955
0.076000508043386 -0.200730546565246 0.338971196459161
0.0676230858120993 -0.200730546565246 0.355544244513613
0.0765295474079398 -0.200730546565246 0.356724374508716
0.0751372241943477 -0.200730546565246 0.373612834253533
0.0769736317170996 -0.200730546565246 0.377176033680723
0.0793024052989392 -0.200730546565246 0.386642235544508
0.0685780033117107 -0.200730546565246 0.396201680965422
0.0735184625103592 -0.200642450247029 0.40846196754728
0.079288576078989 -0.195979542357791 0.40846196754728
0.0904219233959642 -0.190057026555207 0.408461967547279
0.094897157955219 -0.178169453406862 0.40846196754728
0.10785480321585 -0.169650894465735 0.40846196754728
0.116080662133049 -0.160925605249676 0.40846196754728
0.124726367053874 -0.149852796732975 0.408461967547279
0.134774985179324 -0.147781142454793 0.40846196754728
0.144208773905404 -0.13953181026573 0.40846196754728
0.158087351277569 -0.132988110644289 0.40846196754728
0.166311043457049 -0.126708881878676 0.40846196754728
0.167356893653652 -0.12252315656113 0.40846196754728
0.183327470916396 -0.105873706736323 0.40846196754728
0.188737626778451 -0.0989772204570542 0.40846196754728
0.197424524580305 -0.0964750001676918 0.40846196754728
0.200711787260227 -0.093597910148686 0.40846196754728
0.219407504490971 -0.0773036537366877 0.40846196754728
0.222360958649733 -0.0675696251633634 0.40846196754728
0.232363657016741 -0.0629052848747357 0.40846196754728
0.243095536388171 -0.0515908644628468 0.408461967547279
0.245735954803016 -0.0457679952653714 0.40846196754728
0.261996016268645 -0.0400907503395935 0.409450833452946
0.261996016268645 -0.0383471823996864 0.420772173013788
0.261996016268645 -0.0384428655537633 0.428775569984638
0.261996016268645 -0.041834420595321 0.447624622078165
0.261996016268644 -0.0332272417333321 0.449490230232662
0.261996016268645 -0.0389295620394678 0.460257539384717
0.261996016268644 -0.034569407951562 0.474840753883479
0.261996016268644 -0.0407539911356973 0.485198308613378
0.261996016268645 -0.0343072356199576 0.4948323029514
0.261996016268644 -0.0420599783740488 0.510777236543741
0.261996016268644 -0.035531192882562 0.51916550065977
0.261996016268644 -0.0273950441365977 0.516162963636559
0.261996016268644 -0.0338781136968309 0.541293836512794
0.261996016268644 -0.0371991058422403 0.544277462566672
0.261996016268644 -0.0331992847864487 0.558248226585501
0.268975736538727 -0.036751304793459 0.567140199685215
0.267817596674863 -0.0255798838699344 0.574232490604508
0.278494624788562 -0.0274652613138604 0.573382309832397
0.29251975768227 -0.00578156570652826 0.574232490604508
0.302432635901432 -0.00227759664179111 0.574232490604508
0.306732086476043 0.00890480027128984 0.574232490604508
0.316631891065956 0.0166475962770409 0.574232490604508
0.332738004709067 0.0249122116432227 0.574232490604508
0.193087656561154 -0.0835905261854401 0.0945618229517507
0.193854094814443 -0.0837862014123375 0.111091213816658
0.189058696981919 -0.0825619141916599 0.113477473637723
0.18813438045989 -0.0823259319133788 0.124576860734806
0.203282035817237 -0.0785460161178723 0.124798482659008
0.0583434335933518 -0.200730546565246 0.339125708834065
0.0558814070917017 -0.200730546565246 0.341962216321006
0.057435956218609 -0.200730546565246 0.356033911911381
0.0535864320302262 -0.200730546565246 0.361467349881466
0.0513479527107405 -0.200730546565246 0.37500292059142
0.0556493953139157 -0.200730546565246 0.378694103261082
0.0579437987768012 -0.200730546565246 0.398734594151605
0.0588405817852359 -0.200730546565246 0.392375040963626
0.0636271637654939 -0.194039418681871 0.40846196754728
0.0703587446149582 -0.192387380805934 0.40846196754728
0.0738730190384323 -0.192149719478091 0.40846196754728
0.0839849911647604 -0.180297207365689 0.40846196754728
0.0946306530182717 -0.173112156722664 0.40846196754728
0.10002738653578 -0.169227902574648 0.40846196754728
0.109408228342315 -0.16026374912738 0.40846196754728
0.119373016011391 -0.143114988653516 0.40846196754728
0.128381870055168 -0.145510847280358 0.40846196754728
0.132306490801101 -0.133263342965247 0.40846196754728
0.147163825840414 -0.128761316483863 0.40846196754728
0.152969756309448 -0.112242791978214 0.40846196754728
0.163685357176831 -0.111401275870853 0.40846196754728
0.164959004945814 -0.104901748052903 0.40846196754728
0.185346207367979 -0.0948981683654794 0.40846196754728
0.1950821283858 -0.0812573575658025 0.408461967547279
0.197143270388877 -0.081399063279179 0.40846196754728
0.208295917288579 -0.0676036888574267 0.40846196754728
0.216994824619075 -0.0652241399490981 0.40846196754728
0.227818454386354 -0.0523179080743005 0.40846196754728
0.242109523560383 -0.0386258628991473 0.408461967547279
0.247226701147722 -0.0280341924745761 0.40846196754728
0.259963520201854 -0.0244530230847954 0.408461967547279
0.260573096390972 -0.0205259918344556 0.40846196754728
0.261996016268644 -0.0157772936225974 0.422774810971439
0.261996016268644 -0.0148297569933219 0.425080154009309
0.261996016268644 -0.0231543810642791 0.434780550419255
0.261996016268645 -0.0279685451608035 0.458942751279814
0.261996016268644 -0.0304719517926765 0.467096777863153
0.261996016268645 -0.0205997176300672 0.468934757961508
0.261996016268645 -0.0232606565115626 0.483154655122892
0.261996016268645 -0.0291265034971548 0.497662669681647
0.261996016268644 -0.0248976912629072 0.505079822766949
0.261996016268644 -0.0214080909926977 0.522014875852685
0.261996016268644 -0.0180497998605919 0.529342713371849
0.261996016268644 -0.0243776084189075 0.542365614551013
0.261996016268644 -0.026214141757206 0.552615837645838
0.261996016268644 -0.0177345796541969 0.553727260355522
0.261996016268644 -0.0182484154336403 0.560603034955143
0.267247818808093 -0.0156192054330815 0.574232490604508
0.276672701270866 -0.00519367378230695 0.574232490604508
0.291278680096117 0.00122219647890259 0.574232490604508
0.300995632425991 0.00811494997398702 0.574232490604508
0.315377037142397 0.0253007661284929 0.574232490604508
0.317755091088648 0.0305623516641234 0.574232490604508
0.327269668460235 0.0431921140193396 0.574232490604508
0.180931509480105 -0.0804870056760335 0.0968089547335508
0.179481092809913 -0.0801167075994217 0.117363225158768
0.172777995052493 -0.0784053757746245 0.12306847509974
0.181022725753761 -0.0769605684804808 0.126014234314607
0.0390832938321761 -0.200730546565246 0.341659550019671
0.0472476329345606 -0.200730546565246 0.332085236341165
0.0392801538652526 -0.200730546565246 0.351546243806683
0.0449102487034737 -0.200730546565246 0.356624110496519
0.0437096129723392 -0.200730546565246 0.361931267253561
0.0433354904811106 -0.200730546565246 0.378719819055113
0.0444268536735151 -0.200730546565246 0.38322828640907
0.0432289017220158 -0.200730546565246 0.405161633222588
0.0443596688458779 -0.200730546565246 0.405514701995887
0.0523491718954168 -0.194527078058757 0.408461967547279
0.0608236602362991 -0.188244117037626 0.40846196754728
0.0723307625345507 -0.177364791000099 0.40846196754728
0.0827815783506951 -0.169477685777912 0.40846196754728
0.0781520975864392 -0.167894750224453 0.40846196754728
0.0926933982630792 -0.154564912169318 0.40846196754728
0.100984474431722 -0.147783001021832 0.40846196754728
0.113585476933719 -0.139472999382807 0.40846196754728
0.123399877116557 -0.133608251336004 0.40846196754728
0.132394065787097 -0.126722564725047 0.40846196754728
0.135462037423537 -0.119995465038738 0.40846196754728
0.148121809988426 -0.114394128933861 0.40846196754728
0.155874663155679 -0.109220065483659 0.408461967547279
0.162937923128965 -0.0989982174894282 0.40846196754728
0.175978016542969 -0.0862980453172161 0.40846196754728
0.180343105139066 -0.0848877093383522 0.40846196754728
0.184938773038056 -0.0699618308522122 0.40846196754728
0.202849949329431 -0.0621044912459822 0.40846196754728
0.213488582239786 -0.0524613943491777 0.408461967547279
0.219329855129572 -0.0503785003958469 0.40846196754728
0.236191741245146 -0.0356347870933728 0.40846196754728
0.245579718664151 -0.0215880848279984 0.408461967547279
0.24426108853215 -0.0273073979057914 0.40846196754728
0.256991148275977 -0.00739388160389802 0.40846196754728
0.257813756708233 -0.0079735525889327 0.40846196754728
0.261996016268644 -0.00666503441177107 0.423909898112983
0.261996016268644 -0.00656715709681011 0.432587719613887
0.261996016268644 -0.000694773202734009 0.443261067305557
0.261996016268644 -0.00574163292852933 0.448605032621
0.261996016268644 -0.0134855638294906 0.469072568611689
0.261996016268645 -0.010483290041835 0.481926454182555
0.261996016268644 -0.00665203977570017 0.486420872195627
0.261996016268644 -0.00976664728568218 0.497590611532326
0.261996016268644 -0.00808838338241802 0.507574610217762
0.261996016268644 -0.00967103390925877 0.523283607111707
0.261996016268644 -0.0097812591320915 0.531814875133835
0.261996016268644 -0.00906109627383221 0.541387576318905
0.261996016268644 -0.0109884199383502 0.546949783244128
0.261996016268644 -0.0100347553592784 0.559384415688016
0.261996016268644 -0.0145786605320332 0.572917940415705
0.269946045886647 -0.00138231180463401 0.574232490604508
0.28391371962764 0.00510035711991891 0.574232490604508
0.290777571801004 0.0135826595575745 0.574232490604508
0.304848959198624 0.0316397582383192 0.574232490604508
0.312727530108105 0.033818832964407 0.574232490604508
0.332623713695282 0.0526629435896212 0.574232490604508
0.329483994027381 0.0526214968781839 0.574232490604508
0.167924185157811 -0.0771661756846236 0.0916906950843945
0.168333382924701 -0.0772706457649437 0.0989836225539873
0.162779959543614 -0.0758528311197521 0.114588108290958
0.170029441043921 -0.07770365723832 0.119944833775229
0.172385437002344 -0.0710670395618223 0.126561783303552
0.0210044997916974 -0.200730546565246 0.330636456596427
0.0216954109888112 -0.200730546565246 0.336221573491421
0.0241282089854248 -0.200730546565246 0.342581301179245
0.0349959162708949 -0.200730546565246 0.35439581661571
0.0296399305644483 -0.200730546565246 0.359710218953877
0.0307588065754888 -0.200730546565246 0.371340315628111
0.0254049789864213 -0.200730546565246 0.378674907905894
0.0300937086604185 -0.200730546565246 0.399615793234965
0.0321483567340144 -0.200730546565246 0.400655785152004
0.0289625680117776 -0.197342040363343 0.40846196754728
0.0359428719613316 -0.190336791989588 0.408461967547279
0.0491591419454553 -0.189226504704083 0.40846196754728
0.0598480094886137 -0.171947509578514 0.40846196754728
0.0598466623836441 -0.173475963703127 0.40846196754728
0.0649790037625625 -0.167506765184004 0.408461967547279
0.0841206460917871 -0.153403003406164 0.40846196754728
0.0843793702686592 -0.148724496906021 0.40846196754728
0.0916389350545503 -0.141991160704069 0.408461967547279
0.108933135097676 -0.130625759541468 0.40846196754728
0.114451006711896 -0.124338562046958 0.40846196754728
0.122526921801177 -0.11736264334923 0.408461967547279
0.138285915064267 -0.103591446436565 0.40846196754728
0.136111839811227 -0.105859587105068 0.40846196754728
0.147701402319343 -0.101511107849812 0.40846196754728
0.151695868419695 -0.0907856743500138 0.40846196754728
0.159236501501321 -0.0843953722741696 0.40846196754728
0.172531232342597 -0.0732431076851736 0.40846196754728
0.187726116701247 -0.0668353669446124 0.40846196754728
0.19329918812525 -0.0565750129373259 0.408461967547279
0.201152327563729 -0.0449496705140675 0.40846196754728
0.215690136089841 -0.0394368335390179 0.40846196754728
0.221842372100828 -0.0265642281975557 0.40846196754728
0.235609668152298 -0.0155214150008656 0.40846196754728
0.244031275518466 -0.0127085164491218 0.40846196754728
0.251602753918803 -0.00300305792241033 0.408461967547279
0.260924239536826 0.0119662692254287 0.40846196754728
0.261996016268645 0.00836261805165992 0.418900304682766
0.261996016268645 0.00342557016725617 0.433385816792818
0.261996016268644 0.00365297785007933 0.444778351252354
0.261996016268644 0.00758056362862715 0.443128008621172
0.261996016268644 0.0054037357258162 0.454579775650029
0.261996016268644 0.00416575444759563 0.476400131261023
0.261996016268644 0.00234070623773819 0.489986789716754
0.261996016268644 0.00702338364353102 0.486137790702786
0.261996016268644 0.00727905313873332 0.500196064774812
0.261996016268644 0.00630182195491217 0.515185719710924
0.261996016268644 -0.00250553376340699 0.52871804630074
0.261996016268644 0.0106365088036619 0.537759017743959
0.261996016268644 0.0130020599724506 0.542593102217241
0.261996016268644 0.0114654887372453 0.549967262101516
0.261996016268644 0.00843182403370702 0.560109654476512
0.26435703269911 0.00976826219300696 0.574232490604508
0.273476020422284 0.0259101398174191 0.574232490604508
0.27777444507669 0.0301618552552059 0.574232490604508
0.29284720951499 0.0425599898086964 0.574232490604508
0.302789849790834 0.0410908116636474 0.574232490604508
0.3123728747869 0.0521827194049991 0.574232490604508
0.331015018624446 0.071579002258878 0.574232490604508
0.335671804294079 0.0729742975552843 0.57425047941329
0.151336752108651 -0.0729313273956674 0.108101496089995
0.149321087972921 -0.0724167190297436 0.11805299946069
0.154701868265355 -0.0723464900191681 0.127491157059131
0.166510151356637 -0.0701719831016566 0.126889521758721
0.0161002397117769 -0.200730546565246 0.33337010032966
0.0140441485406701 -0.200730546565246 0.335561578171681
0.00791987446437548 -0.200730546565246 0.351995438147569
0.0133917235732108 -0.200730546565246 0.366460813475056
0.0201382597180485 -0.200730546565246 0.369599002101007
0.0173070862732079 -0.200730546565246 0.383264938681474
0.0128224767358056 -0.200730546565246 0.394449070905724
0.017434118274234 -0.200730546565246 0.394256736612504
0.0122282944777423 -0.200730546565246 0.408123785290458
0.0269407386810707 -0.198801157575605 0.40846196754728
0.0253273127095989 -0.187543966465838 0.40846196754728
0.0359114763950373 -0.175402047952186 0.40846196754728
0.0505059539882579 -0.174147120521667 0.408461967547279
0.0542864136997126 -0.164296403948822 0.40846196754728
0.0601946030687961 -0.158173857636941 0.40846196754728
0.0698345147534955 -0.147303680718808 0.40846196754728
0.0835357473994213 -0.14484440675309 0.40846196754728
0.084201297406264 -0.134761116988671 0.40846196754728
0.102310916200916 -0.122265760487509 0.40846196754728
0.106688144088096 -0.11550350267288 0.40846196754728
0.109921804256852 -0.113502633488468 0.40846196754728
0.126331532146056 -0.100824370186899 0.40846196754728
0.130912348858443 -0.0953401428605568 0.40846196754728
0.147724045807351 -0.0838571382449931 0.40846196754728
0.152941277923032 -0.0744915838567932 0.40846196754728
0.161598145947799 -0.0748857370120715 0.408461967547279
0.168191416653722 -0.0629770058682696 0.40846196754728
0.179003649334141 -0.0583722957811067 0.40846196754728
0.18057716752235 -0.0457202650158806 0.40846196754728
0.198707599382424 -0.035139759071998 0.40846196754728
0.199340079459539 -0.0343319810084375 0.40846196754728
0.210042198916803 -0.0291980867153882 0.408461967547279
0.225848223117746 -0.0137807360984631 0.40846196754728
0.226201545530716 -0.0134848176848063 0.408461967547279
0.242974656263586 -0.000489049817225043 0.40846196754728
0.255660770394943 0.0156949138889179 0.40846196754728
0.259704930892023 0.017452357713507 0.40846196754728
0.261996016268644 0.0175154082830346 0.413284843465821
0.261996016268644 0.0204635552128181 0.425393937071935
0.261996016268644 0.0135577842910225 0.438610688709624
0.261996016268644 0.0152699252563464 0.454982267253396
0.261996016268644 0.0195078859695746 0.455591681302111
0.261996016268644 0.0250979743197668 0.475968208266037
0.261996016268644 0.0213846530005025 0.479094235381202
0.261996016268644 0.0213814261831457 0.495255140826562
0.261996016268644 0.0238516017570867 0.497861740385175
0.261996016268644 0.0176972829491892 0.521754707434129
0.261996016268644 0.0178082211895671 0.528193111229205
0.261996016268644 0.0150551951014423 0.542520635752246
0.261996016268644 0.0113820849179133 0.553910235578757
0.261996016268644 0.0163735019112581 0.557233300779151
0.261996016268644 0.0271412408075479 0.560758182922761
0.270035618549527 0.0303620551127783 0.574232490604508
0.278461582408143 0.0386486672341366 0.574232490604508
0.289857903180274 0.0496979577385724 0.574232490604508
0.291634188017648 0.052505047628637 0.574232490604508
0.302777994254569 0.0591866831191056 0.574232490604508
0.319343735677759 0.0784737453754089 0.574232490604508
0.145475415409231 -0.0714349010577906 0.0915619499877932
0.14461889103359 -0.0712162264276728 0.0952986373276875
0.14969105430081 -0.0725111731424431 0.111623802326161
0.137494194855586 -0.0693972585783778 0.120684229961149
0.140377256381179 -0.0699626278291683 0.128293115838401
0.146863282835097 -0.0613001156279458 0.128069898092655
-0.00445694926980765 -0.200730546565246 0.337162230638082
0.00639167349512535 -0.200730546565246 0.336822347088987
0.00925873772025061 -0.200730546565246 0.347930759477434
0.000802063328017169 -0.200730546565246 0.368916002241646
0.00099499691651346 -0.200730546565246 0.375000172239335
-0.00105149474913241 -0.200730546565246 0.385235514632279
-0.00436865689003003 -0.200730546565246 0.39632178155996
0.00780837871927336 -0.200730546565246 0.391393877070832
0.00261687489733777 -0.200730546565246 0.402370227193337
0.0051004621210527 -0.193923545764617 0.40846196754728
0.0137859353387179 -0.191827653949226 0.40846196754728
0.0244807111385733 -0.186821686829699 0.40846196754728
0.0333203554433991 -0.172934872724637 0.40846196754728
0.036558894851415 -0.169355017392596 0.40846196754728
0.0464922273082439 -0.164754542433118 0.40846196754728
0.0526313750467739 -0.158248164557494 0.40846196754728
0.0652488909195065 -0.14466942278355 0.40846196754728
0.0724565273386718 -0.134562531754595 0.40846196754728
0.0853424245375004 -0.127417525487271 0.40846196754728
0.0917822921965287 -0.120795195402593 0.40846196754728
0.0976427951162664 -0.10644519924067 0.40846196754728
0.108739247562914 -0.104091512188178 0.40846196754728
0.118797570680938 -0.103073024427383 0.40846196754728
0.125424618894916 -0.0857564921055426 0.40846196754728
0.130552126587449 -0.0842093266836047 0.40846196754728
0.146239093697917 -0.0728426431996271 0.40846196754728
0.149652905101908 -0.0588503056679569 0.40846196754728
0.162745448102007 -0.0619145718805243 0.40846196754728
0.170679740059252 -0.0490198409454248 0.408461967547279
0.169098760354778 -0.0474397672661381 0.40846196754728
0.186982349906236 -0.0289643815186368 0.40846196754728
0.198087385498974 -0.0193252259857466 0.40846196754728
0.204124394381711 -0.0222096914723353 0.40846196754728
0.212544002524375 -0.0105222309935439 0.40846196754728
0.225501959546675 -0.0036134344439667 0.40846196754728
0.233884182092895 0.0120040251036679 0.408461967547279
0.239661418072031 0.0106668387120068 0.40846196754728
0.250671985725259 0.0264417854967578 0.40846196754728
0.261995581593752 0.0402409501920327 0.40846196754728
0.261996016268644 0.0398963968658496 0.419488557663968
0.261996016268644 0.041190141200319 0.425794491810678
0.261996016268644 0.0406919499493645 0.436164754576747
0.261996016268644 0.0341801026724984 0.452292118982231
0.261996016268644 0.038772861685109 0.465484378239295
0.261996016268644 0.0291766996910274 0.485193400853536
0.261996016268644 0.0381737447202033 0.489769031125209
0.261996016268644 0.0378976187450429 0.494748677438523
0.261996016268644 0.0302842602185006 0.502884153227704
0.261996016268644 0.0327947583978106 0.513516349633979
0.261996016268644 0.0352498253960318 0.528279193236665
0.261996016268644 0.0338492132275754 0.544071764089488
0.261996016268644 0.0343648341891081 0.547084964686186
0.261996016268644 0.0307678115702343 0.566560752720455
0.264217652655772 0.0341742385602714 0.574232490604508
0.265583784435833 0.0405816199992486 0.574232490604508
0.279396374512634 0.0530512393649806 0.574232490604508
0.297722761839031 0.0671728492836645 0.574232490604508
0.301436290286405 0.0708438665105228 0.574232490604508
0.317903568077399 0.0835045418025242 0.574232490604508
0.329022628751952 0.0983734152550299 0.574232490604508
0.334271199268781 0.101185225057436 0.574232490604508
-0.00291034625061446 -0.188053013614536 0.12875273182563
0.130744250413427 -0.067673966578542 0.1000727335718
0.134452361104561 -0.0686206643689157 0.103501188040044
0.137772145659552 -0.0694682207027219 0.117030127890141
0.129621225538194 -0.0673872531396853 0.125953583585159
0.140649534581056 -0.0609996203524884 0.12840723808086
-0.0189450052592083 -0.200730546565246 0.338808742954487
-0.0147339676318128 -0.200730546565246 0.342074080900397
-0.00902110273813165 -0.200730546565246 0.350292548456315
-0.00957639036008624 -0.200730546565246 0.3584022322501
-0.013407726664991 -0.200730546565246 0.36442949394018
-0.0105287088074347 -0.200730546565246 0.380112371495008
-0.0112000245524755 -0.200730546565246 0.393860279251068
-0.0124235312507837 -0.200730546565246 0.391630435347933
-0.00702499886913607 -0.200408556800057 0.40846196754728
-0.000245787739325777 -0.194170503908099 0.40846196754728
0.007637811421569 -0.181936226156754 0.40846196754728
0.00566415317144923 -0.18446317925195 0.40846196754728
0.0176991141454356 -0.167510732975965 0.40846196754728
0.0262250219793766 -0.157581792896675 0.40846196754728
0.0354860878147653 -0.151317809485895 0.40846196754728
0.040418667656373 -0.150003338378202 0.408461967547279
0.0488121578709179 -0.149745098300834 0.40846196754728
0.0605967403976064 -0.137546687699912 0.40846196754728
0.0668381616392008 -0.130227629155026 0.40846196754728
0.0708171651560233 -0.12421537018343 0.408461967547279
0.081401826714033 -0.111785618056754 0.40846196754728
0.0907846500236979 -0.108329358499792 0.408461967547279
0.104449343169087 -0.0972738328444731 0.40846196754728
0.110003684921326 -0.0935570090051755 0.40846196754728
0.112614849233625 -0.0832680415420206 0.40846196754728
0.128261928544567 -0.0748021388053639 0.40846196754728
0.128361033035515 -0.0658932133761817 0.40846196754728
0.149709630077976 -0.057241452980649 0.408461967547279
0.147542004230473 -0.0546285879698626 0.40846196754728
0.156745648558719 -0.0430148568472941 0.40846196754728
0.166755671669331 -0.0377595451079505 0.40846196754728
0.1749015337284 -0.0287952489369315 0.40846196754728
0.191654111766999 -0.00887397268520602 0.40846196754728
0.197943578721754 -0.00914263417618312 0.40846196754728
0.209560308054224 0.000458200622621862 0.40846196754728
0.217554339369823 0.0101352904318877 0.40846196754728
0.223893675816911 0.0181971953674472 0.40846196754728
0.232000556545189 0.0292436682277681 0.408461967547279
0.245792511941148 0.0433227132499733 0.408461967547279
0.257292064980876 0.0416321191782753 0.40846196754728
0.261996016268644 0.0556881911982836 0.410439956933999
0.261996016268644 0.0483812389248765 0.430370395078323
0.261996016268645 0.0522492488502266 0.434414152041126
0.261996016268644 0.0460486045763956 0.445828975412129
0.261996016268644 0.0400062738676806 0.460611042105979
0.261996016268644 0.0505381576238927 0.467460421220907
0.261996016268644 0.0498892339502441 0.477229155937938
0.261996016268644 0.0517163660209061 0.485893751453354
0.261996016268644 0.0495004179806579 0.499517992660864
0.261996016268644 0.0439528275220837 0.514694089817059
0.261996016268644 0.0558286849218827 0.522692878202904
0.261996016268644 0.050459601633331 0.525850869345029
0.261996016268644 0.0532130786223898 0.54161963410091
0.261996016268644 0.0519075235171037 0.557340878221235
0.261996016268644 0.0498533404865017 0.559874903566733
0.261996016268644 0.0491513887702269 0.56755357900521
0.263649563617279 0.0548468714613876 0.574232490604508
0.289956749869435 0.066334278308888 0.574232490604508
0.289146770722834 0.073171879605421 0.574232490604508
0.303283188430053 0.0913981022594545 0.574232490604508
0.313771482096588 0.0948407833183673 0.574232490604508
0.326645545545319 0.102655909895144 0.574232490604508
0.335011275362079 0.112980825013835 0.574232490604508
-0.011939421346865 -0.187531600173433 0.128781662675815
-0.00797745916340766 -0.1817919664903 0.129100128731948
0.117106288141552 -0.0641921318051488 0.0969426466632594
0.128062494014121 -0.0669893017804787 0.102302697418673
0.11527900494643 -0.0637256179636547 0.113228986511474
0.125245880362185 -0.0662702073027975 0.121669330765209
0.131079592616049 -0.056795770405015 0.128980507493316
0.133060790009021 -0.0575133790509113 0.128864020238561
-0.0194380974290714 -0.200730546565246 0.336188356111174
-0.0260985151609881 -0.200730546565246 0.352201997869508
-0.0279095938548792 -0.200730546565246 0.355149147922924
-0.0258311495690373 -0.200730546565246 0.364679401621718
-0.0254586249633607 -0.200730546565246 0.379921438532258
-0.023220201606641 -0.200730546565246 0.384625230050759
-0.0276187460786692 -0.200730546565246 0.403423833689768
-0.0245665311486181 -0.196332355030543 0.40846196754728
-0.021336055706882 -0.191375096279574 0.40846196754728
-0.0171097667913202 -0.19003279088316 0.40846196754728
-0.00715460801462504 -0.181050400855046 0.40846196754728
0.00345589392599614 -0.178839993558128 0.40846196754728
0.0100050534543776 -0.167176185776992 0.40846196754728
0.0241729112956642 -0.160039381455132 0.40846196754728
0.029246038464219 -0.149717241905458 0.40846196754728
0.035009505104482 -0.146003233114584 0.40846196754728
0.0451316163740535 -0.135265266094187 0.40846196754728
0.0513417810747483 -0.129063142285769 0.40846196754728
0.0629887138101825 -0.125352407859759 0.40846196754728
0.0643959083313717 -0.11767510320243 0.40846196754728
0.0760201335918698 -0.100867831143278 0.40846196754728
0.0883177092124188 -0.093968563345762 0.408461967547279
0.0863789942152834 -0.0935603843396612 0.408461967547279
0.0981641048583536 -0.0819142449175472 0.40846196754728
0.114757780776507 -0.0755525185229597 0.40846196754728
0.119956834246261 -0.0721142006926859 0.40846196754728
0.127430485660675 -0.0671510270780211 0.40846196754728
0.139874366608655 -0.0501090682717796 0.40846196754728
0.144030098611755 -0.0507513849027341 0.40846196754728
0.157616807007266 -0.0364755925631979 0.408461967547279
0.166875055287789 -0.024232628094267 0.408461967547279
0.169030362107397 -0.0126268516637447 0.40846196754728
0.181868916320843 -0.00924994679784969 0.40846196754728
0.188178284821739 -0.0027222497222698 0.40846196754728
0.203749337624574 0.0030699244515836 0.40846196754728
0.208533257451035 0.0153739457109609 0.40846196754728
0.221247441772685 0.0181898068110955 0.40846196754728
0.232841632754924 0.0328141103544288 0.408461967547279
0.238519901951868 0.0436297881220971 0.40846196754728
0.248244512376202 0.0453519719292058 0.40846196754728
0.255438634532147 0.0599934175677939 0.40846196754728
0.261996016268644 0.0592344598304053 0.420960202384004
0.261996016268644 0.0719931874378561 0.421184792044361
0.261996016268644 0.0613211370628575 0.430774827463253
0.261996016268645 0.0672739030688146 0.445154032305837
0.261996016268644 0.0613997664778173 0.46628925502966
0.261996016268644 0.0643623816140692 0.462244807580047
0.261996016268644 0.0686154249971576 0.481050992582845
0.261996016268644 0.0659796739762944 0.486927154140402
0.261996016268644 0.0628493065781257 0.499433441961816
0.261996016268644 0.0624393127854267 0.514889525516848
0.261996016268644 0.0642184940513015 0.519524791395457
0.261996016268644 0.0681435939912513 0.525060928128629
0.261996016268644 0.0590466516943672 0.546092832150585
0.261996016268644 0.0577059874407319 0.562192063887823
0.261996016268644 0.0695300524282897 0.562149462264
0.264064908254615 0.064677183023534 0.574232490604508
0.273164095998621 0.0747824808760173 0.574232490604508
0.285533341739304 0.0920917204098553 0.574232490604508
0.297640341113141 0.103713516138612 0.574232490604508
0.310549446496833 0.103253145105165 0.574232490604508
0.319728446939109 0.112139294458606 0.574232490604508
0.332246968734091 0.126539441024909 0.574232490604508
0.335671107327221 0.137310869281567 0.574232490604508
-0.0139590490930344 -0.175978026153286 0.119547091392935
-0.00886328554745397 -0.169660916911528 0.129773225262038
-0.00637201949585061 -0.160340676944364 0.130290362805725
0.106328069439789 -0.0614404027768007 0.0939055136489063
0.113429529713898 -0.0632534383924847 0.106433067295517
0.10867406022252 -0.062039345061765 0.123852908925258
0.111399516264066 -0.0627351665803793 0.123060080332213
0.12266042529415 -0.0574804558601719 0.129421898630208
-0.0384142124953299 -0.200730546565246 0.342548298541262
-0.0353989107160826 -0.200730546565246 0.34055107859539
-0.0408221515301063 -0.200730546565246 0.354586630308186
-0.0469886284062919 -0.200730546565246 0.366792991402076
-0.0385673029300637 -0.200730546565246 0.378796940930418
-0.0324448186298446 -0.200730546565246 0.380081617329304
-0.0444412869530654 -0.200730546565246 0.402425892043837
-0.0402413320976696 -0.200730546565246 0.406241612502494
-0.0389693809527984 -0.19712605235822 0.40846196754728
-0.0217860867768568 -0.187515047542792 0.40846196754728
-0.02540563493353 -0.185714243727343 0.40846196754728
-0.00796217734041181 -0.169850141991977 0.40846196754728
0.00315897902352092 -0.166452152202007 0.40846196754728
0.00373963629583444 -0.154163445846286 0.40846196754728
0.0128459680312852 -0.157320074913218 0.40846196754728
0.0236881833539115 -0.147192126323997 0.40846196754728
0.0282134095861589 -0.143352941470348 0.40846196754728
0.0426608504629079 -0.131978883447772 0.40846196754728
0.0373759247955606 -0.127432073171942 0.40846196754728
0.058278246835619 -0.115285866592909 0.408461967547279
0.0581385390693599 -0.107635964651222 0.40846196754728
0.0669498351996192 -0.0960041385160108 0.40846196754728
0.0796627996624971 -0.084760773755228 0.40846196754728
0.0805050911851186 -0.0879941594395615 0.40846196754728
0.0950497646228814 -0.0668173521432944 0.408461967547279
0.103229584732685 -0.0659047528725908 0.40846196754728
0.109720657992957 -0.0615655176337895 0.40846196754728
0.125463185524675 -0.0516236468662162 0.40846196754728
0.129825770285337 -0.0458284705358114 0.40846196754728
0.144530344600852 -0.0371403721214082 0.40846196754728
0.146697289780204 -0.035597139134809 0.40846196754728
0.153464999900165 -0.017307405937852 0.40846196754728
0.164293125956649 -0.00943421091694271 0.40846196754728
0.181130809431877 -0.00306104834475594 0.40846196754728
0.183081073329068 0.0124598902472824 0.40846196754728
0.195011976996048 0.0148000584537122 0.40846196754728
0.208377406631884 0.0267173473797707 0.40846196754728
0.21338344036627 0.0401556749511557 0.40846196754728
0.218466483567359 0.0470698335098636 0.40846196754728
0.231193015573699 0.0518567106625733 0.40846196754728
0.240729586790547 0.0672457284018981 0.40846196754728
0.247519684100819 0.0698119272419979 0.40846196754728
0.261996016268644 0.0762683278851176 0.408926893746501
0.261996016268644 0.0809355693285391 0.409208475718006
0.261996016268645 0.073039530574396 0.431704646441601
0.261996016268645 0.0847723723997152 0.431361780347943
0.261996016268644 0.0833959900797235 0.449200426127453
0.261996016268644 0.0816360860558811 0.465601421260212
0.261996016268644 0.0817640085183962 0.471927680808878
0.261996016268644 0.0814862215005541 0.487286796255141
