ply
format ascii 1.0
element vertex 840
property float x
property float y
property float z
end_header
-0.131255431029014 -0.0665117259263403 0.537200329401085
-0.126308317586041 -0.0496081095557934 0.535812375986141
-0.125439809578161 -0.0445295089173707 0.536631383955018
-0.126811022431587 -0.0272129699622008 0.534230194195289
-0.128828331105162 -0.0144030856857168 0.532453917594773
-0.125965111426689 0.00280288435557486 0.525475095110881
-0.134885087901102 0.0220389870723068 0.527484353196255
-0.129048361648567 0.027132646993307 0.526797068913784
-0.128389330143523 0.0414660969156367 0.524863065663077
-0.128258049270903 0.0707264594772804 0.519978496398058
-0.134142302158968 0.0709801909252904 0.52006030795384
-0.13120918799055 0.0936951927567302 0.520081816606593
-0.1373769240293 0.100851987055372 0.519596377529722
-0.130967208031515 0.12051638468006 0.513713835110539
-0.136812113644765 0.125045225979057 0.517708687272862
-0.138353187139307 0.130841925020183 0.525404320412547
-0.135044547835229 0.137006231803822 0.529182815541832
-0.139165709053546 0.143211004714678 0.532942880387984
-0.133590659794347 0.153795243661035 0.539356882214844
-0.139731923741145 0.156768543481703 0.541158688710163
-0.142631188695994 0.166812239273368 0.544239458880066
-0.142769181571857 0.173220363091341 0.552079640222187
-0.141711489690476 0.174078023818904 0.565975860635222
-0.136366916118755 0.175752855807504 0.57128445858595
-0.138017219317122 0.179161099598248 0.582087330830012
-0.140375646923799 0.182579257019858 0.592921625617269
-0.135326011976317 0.18762593768134 0.599408109107782
-0.135811807192434 0.187131598720123 0.611799376517326
-0.135451141239664 0.186772958907498 0.612398974712349
-0.137624750607797 0.180440685256753 0.638107884819944
-0.140310592962463 0.179078010670708 0.646669021693261
-0.142889511250648 0.180854119795695 0.661867738011389
-0.141185385885462 0.180873057946384 0.661951008654664
-0.14030551536798 0.173521971590567 0.685046126792011
-0.134882912932125 0.171319349641907 0.701415638588793
-0.137769834765684 0.170758170658422 0.70558622537326
-0.132411768269144 0.172485807284843 0.721312204676973
-0.135561029273396 0.171892772803277 0.730145447466076
-0.13385880173516 0.16849988985872 0.746522008983235
-0.135527358239341 0.168522784426058 0.750740588209586
-0.136884068215684 0.16854809272873 0.755403925075739
-0.137018773055366 0.170221320146144 0.776654919749364
-0.139056396481301 0.172632828540518 0.78257456329008
-0.135814590780266 0.17221947179606 0.781559876968418
-0.142020612377284 0.17639003783697 0.802186710788807
-0.138972448842164 0.180516869478691 0.811161942418521
-0.133234311817186 0.181291526997026 0.812846704789361
-0.141117865016961 0.185018559883874 0.820952434888171
-0.135993117561313 0.189510614130624 0.830721970177722
-0.136321933639975 0.193625535303071 0.8348244174751
-0.13343210587529 0.199254375070436 0.851832995589644
-0.143571979917521 0.199058935669099 0.854503062127092
-0.138333967276798 0.200983126324891 0.861983400463906
-0.137411247278474 0.205568197595714 0.876380018816653
-0.143334294528158 0.207781330307557 0.883329011566041
-0.142361006458562 0.211969214079253 0.891284403517875
-0.135518721359073 0.214735710317362 0.894640906585047
-0.144260107272276 0.217918451097679 0.912201913027607
-0.137228850293639 0.218202684625316 0.914671013866562
-0.134945657913774 0.221010777826291 0.922765281377606
-0.143807298142845 0.226777240931163 0.939386985723887
-0.143516544399696 0.227678507258513 0.941984866289153
-0.145663950763677 0.234236348679198 0.951782114486388
-0.137352265469472 0.238733529431567 0.958713308471182
-0.135111680165767 0.240221071095731 0.966324713174875
-0.139156992385941 0.248494610325782 0.977596917512084
-0.142222892347369 0.25131632123209 0.984189404920348
-0.145163819326363 0.253974281675188 0.990240299871447
-0.144006711852477 0.270511292917323 0.999047426376453
-0.140161957417691 0.274815354984934 0.999566341619864
-0.12115109639063 -0.00889018709670645 0.0950383324786211
-0.122980098575273 -0.00886305110738898 0.0935358340119114
-0.118015963181981 -0.00912178919276927 0.115093556795862
-0.115216504949834 -0.00898846930314078 0.121705403834551
-0.117708024127891 -0.00880982937729729 0.130887103057318
-0.115177556395234 -0.000575835765995797 0.137171373933204
-0.120695626179384 0.00493878874355722 0.13553133274229
-0.106263835007226 -0.386396988123856 0.530778742036628
-0.100659692110656 -0.387361445397504 0.533865616255575
-0.10568509528528 -0.390041005078426 0.542441904623325
-0.100036224904172 -0.387032400589617 0.556535133696108
-0.103893466755471 -0.387269997938049 0.556087474780736
-0.101473987113999 -0.382139816960957 0.561826642505764
-0.107758666191483 -0.370617824094518 0.567768021187943
-0.103674503533456 -0.366866062133277 0.568481013730215
-0.101595171411501 -0.355264392493563 0.570957368389291
-0.109238754549185 -0.34878591989641 0.573427237768204
-0.109081445658553 -0.342470436269921 0.573377119159211
-0.110882481290516 -0.324820890067576 0.573104435892023
-0.103156333079791 -0.317695962388355 0.57299435665623
-0.104946314507508 -0.316509942963542 0.572976032805407
-0.110090139526316 -0.297809610522599 0.56809063662729
-0.10594541525658 -0.287185791364042 0.570819676340563
-0.108972193888969 -0.28238973973697 0.570217994712587
-0.110917110448419 -0.262725519945221 0.567751048837691
-0.112186395209332 -0.248134654554943 0.563615836653725
-0.110052748007743 -0.23432393594006 0.561079589874777
-0.113709971280405 -0.225509439875035 0.56269844260228
-0.107708610313072 -0.217881565276373 0.561562346182991
-0.107350326692317 -0.204941154784899 0.559635000126979
-0.116627629676849 -0.196917126607891 0.558439900553402
-0.115040299213968 -0.170843548074835 0.552937724009669
-0.117392650320092 -0.169169985664185 0.553347602803512
-0.117210103162749 -0.1503534870845 0.551773071709419
-0.118237148138535 -0.141783522908486 0.550570555059099
-0.11553779596124 -0.130740445539549 0.548167521632369
-0.115404135083387 -0.11369298255654 0.543624512032651
-0.118573581848018 -0.091331114829674 0.543333708306071
-0.121323154571847 -0.0818647821803751 0.541955290722606
-0.117073807408877 -0.0660023366027038 0.536905685101102
-0.122268940635972 -0.0523912169278718 0.535125902787564
-0.118964448803994 -0.0499005295109848 0.535740248527466
-0.115922715005317 -0.0342489041488984 0.535205828712265
-0.115452624027772 -0.0173041705168733 0.532856195163444
-0.115203809866714 0.00453430932661956 0.525908896128899
-0.125749777404598 0.0179724164655305 0.528033052973026
-0.11971438333334 0.0168789462012367 0.528180594217957
-0.124518428255519 0.0572793207534755 0.518939857794381
-0.126990320962235 0.0466520595499147 0.524163327034408
-0.122922075670389 0.0751560323449004 0.521339311588385
-0.123993040960638 0.0898197898599877 0.520344681784239
-0.124724665934228 0.106959696411862 0.519182096963859
-0.127989445397646 0.106161438995917 0.519236242063876
-0.121494437831345 0.125991596334743 0.518965078025593
-0.124763187421459 0.131629207752694 0.525924362830986
-0.126243309842465 0.14082274821025 0.531495607545785
-0.124765787587567 0.144884549979708 0.533957041391117
-0.125011922709422 0.156678013314615 0.541103827830696
-0.130649827009168 0.162659242251763 0.543547918220034
-0.122412440398126 0.173031422473407 0.547070241596031
-0.125110401887818 0.173413755307946 0.549531192284456
-0.12725590680374 0.17425717578539 0.566543706107861
-0.126205366758032 0.176481949784003 0.573595416828851
-0.122647246247037 0.178595437239749 0.580294390369376
-0.127284950527096 0.185741006000836 0.597108524528334
-0.128432854477852 0.186795861643945 0.598395430465309
-0.132168634326972 0.190598374208446 0.604136510628403
-0.123884175168748 0.183420737190149 0.619385415968853
-0.127598305030397 0.179595303730843 0.643419077255471
-0.131751620209895 0.179364051554974 0.644871941754558
-0.130644638236743 0.179544376215629 0.656108823520442
-0.132221444124154 0.180711820385339 0.661242050549492
-0.127468624239128 0.17382425428251 0.68279961322452
-0.123303270517959 0.172841888479266 0.690100388836391
-0.125410299235661 0.170498067242548 0.707519269733022
-0.126356046023245 0.171455006255786 0.717235179194545
-0.127636945250874 0.171295482244391 0.731658654186093
-0.122431500674935 0.168476695825109 0.742248249758195
-0.122190698662766 0.168513013228054 0.748940136062727
-0.126737432134406 0.168548648735386 0.75550637549954
-0.131184628484305 0.168613383576105 0.767434491468755
-0.123118610870809 0.173521628814354 0.78472208106036
-0.128333232089708 0.174868964048422 0.787726616418432
-0.1306426386776 0.175450304279794 0.799408942303929
-0.122012704408443 0.180843657606397 0.811872656931408
-0.130579934142386 0.182928521389088 0.816406918803609
-0.127114514591981 0.187846049990751 0.827101796152001
-0.128378660863737 0.187832660901146 0.827072676916969
-0.125576257660002 0.194536920390283 0.835688978037013
-0.131328816960396 0.199569918521989 0.847522083842374
-0.123679259857634 0.20011343542056 0.859252666895124
-0.128721601197817 0.202384305759062 0.866382949427484
-0.124879810893937 0.204903414467651 0.874292673077238
-0.129203847014309 0.208732673965197 0.886316125779185
-0.125588134692762 0.21468625395269 0.894580902729836
-0.130475224175328 0.218375885210453 0.902570398610705
-0.128408313746714 0.218220733278846 0.905837203652896
-0.126962385824311 0.218082615809038 0.914324918117907
-0.129492827240121 0.220958942032926 0.922615865831857
-0.124406485337251 0.224815462929714 0.933732203348609
-0.128547001209554 0.227162916538345 0.940498687264253
-0.12536273001207 0.235710029047969 0.953479990583563
-0.124668680146283 0.23887860211279 0.961491494340813
-0.128828746444082 0.239319677248565 0.965096617755123
-0.126147033352633 0.249879975212029 0.980831586690561
-0.134579939881303 0.250444429792244 0.982151140511762
-0.132096219713919 0.260802438883904 0.995352621717002
-0.131986874568752 0.266545877240892 0.99856933972049
-0.105228579248144 -0.00884439767937225 0.0959446854675224
-0.106032753682435 -0.00894772555910681 0.100259306107527
-0.114204404922366 -0.00899681664523415 0.100898821971441
-0.109552475401139 -0.00917325426472841 0.112048515797144
-0.108269483274334 -0.00896011192342875 0.122783873753929
-0.113325878992559 0.00218005781765062 0.137032193447278
-0.109203501634034 0.00823891762779765 0.136357360690129
-0.0933733900692193 -0.389263848122023 0.539954510066462
-0.09510734963817 -0.390193307253056 0.542929368059189
-0.0974246772005353 -0.388060641862189 0.552584835855031
-0.0963607924005239 -0.387589527724163 0.554671922934205
-0.0969049412188888 -0.378317695537942 0.565960407141482
-0.100247360879883 -0.377048795348238 0.566545866213602
-0.0945620686125513 -0.373361503338736 0.567246606753945
-0.100453605251309 -0.359389112981516 0.569384849454157
-0.0976719966050097 -0.356826738126648 0.570361735764384
-0.0984126793281423 -0.342925597056455 0.573384151336069
-0.102147709015496 -0.332122237456729 0.573217240790128
-0.0973500780301728 -0.31885574944366 0.573012275220246
-0.0949304213382227 -0.312211474929696 0.571928616188358
-0.102370251915967 -0.293999734351524 0.569082973916528
-0.0973553327805234 -0.286506352496811 0.570734438333233
-0.0988357529870069 -0.287196032970134 0.570820961186246
-0.0976415619932225 -0.272554124765849 0.568984082051061
-0.101150922452797 -0.262197931914346 0.567684861054489
-0.0998786989888258 -0.23892777881367 0.559993237559991
-0.104103019149457 -0.230445746186639 0.56199471242163
-0.102615614794963 -0.219909705450783 0.561864417587044
-0.103088729039698 -0.208551687141243 0.560172753183707
-0.0999849340767941 -0.188753562509496 0.555353531219816
-0.106727699989211 -0.177349218505972 0.551344394515359
-0.104379816639121 -0.16489862174452 0.553814009833616
-0.107173296464284 -0.148252274405825 0.551478234627247
-0.105012122700352 -0.14775728110141 0.551408778363706
-0.102468191724759 -0.133797939669831 0.549450037328829
-0.109953071970577 -0.110057661426525 0.544494934191117
-0.107194330983435 -0.101300319859985 0.544785350458955
-0.102221359030178 -0.0900889386465065 0.543152831766435
-0.111040063260846 -0.0721145397686643 0.540441145582158
-0.107179638039157 -0.0476510428636049 0.536295100384593
-0.10546260365307 -0.0415392319950142 0.536216738606816
-0.106204035147932 -0.0367320011882579 0.535550146199655
-0.106828433621166 -0.00617760566913984 0.528821559634479
-0.105873003951095 0.00304129040574144 0.525534826712881
-0.109176263737278 0.0103577684876181 0.527367938567743
-0.10648186932177 0.0254631383856489 0.527022334644769
-0.109341879946227 0.049269482345635 0.523461135580535
-0.11698369398064 0.0644167085671975 0.517944020409359
-0.116084926119023 0.080876119121049 0.520951323121991
-0.113906030130491 0.0788414703589758 0.521089331562027
-0.114524733738182 0.0988390863137113 0.519732910820619
-0.113982297987787 0.109172475403929 0.518928098267359
-0.115889312172499 0.124038213009733 0.516371788061116
-0.112838249253789 0.130748580620954 0.525280397426893
-0.117666571947248 0.13662610848521 0.528952462497804
-0.111651016635885 0.146505664848474 0.534939429806808
-0.118701905720038 0.155532033864246 0.540409369369822
-0.120002337927948 0.160852357088395 0.543247042839682
-0.121189867740543 0.172441228338491 0.545200354606539
-0.118187254286247 0.1732578907493 0.563376342138887
-0.119461752474201 0.173304081363496 0.563522749301832
-0.118016665827733 0.175388675268008 0.570130140971514
-0.120864317389618 0.179715529769554 0.583844669411584
-0.118739043593816 0.183365284854392 0.59421018515087
-0.11303162824194 0.187069187485265 0.598728883341276
-0.112047291354083 0.188221185521966 0.600134301345627
-0.115031477569276 0.183558023746738 0.61852289969838
-0.115717612868143 0.181414881041499 0.63198740415638
-0.111962356569614 0.178534676609938 0.650082571274227
-0.120181916095342 0.178965404809163 0.653563098637127
-0.115797460683478 0.177241259722176 0.672919966797974
-0.111232414735271 0.173261229697476 0.686983916205881
-0.115438429799887 0.172494342769353 0.692683289457085
-0.115130946162543 0.170684524965756 0.706133547638712
-0.112872151936749 0.172376058415645 0.72087812581619
-0.119695159711385 0.172246894265403 0.729248297882481
-0.1213919020089 0.168503267739234 0.747144421119549
-0.119248905036714 0.168553156391287 0.756336961343946
-0.117540376537565 0.168604503618951 0.765798260382597
-0.113970870033643 0.168632588358745 0.770973186736097
-0.12080115577927 0.170944889998749 0.778431100837609
-0.117779528451605 0.174911145203967 0.788574268066667
-0.115475804327236 0.175119283784043 0.792756918071885
-0.11814185998645 0.178118419606992 0.805945678461174
-0.115468153849943 0.182627196038404 0.815751581960943
-0.113865879894756 0.186021728855358 0.823134174940706
-0.115967526317086 0.190378710676794 0.831744406003871
-0.119299723269438 0.193301439672401 0.834516973010081
-0.119701757853853 0.19983280061671 0.842914797789978
-0.113091042913078 0.199093038816007 0.85403714956926
-0.121751215705623 0.203643241589443 0.870335869155454
-0.117500888919659 0.203800709627288 0.870830301435721
-0.119931306520723 0.20852896912776 0.885676515045141
-0.119120692975835 0.212041172857677 0.891371708845518
-0.118552699162907 0.217572500635416 0.89854334422955
-0.115896589855922 0.218148768002312 0.907352470177857
-0.117109264382153 0.219176901214684 0.917479171973744
-0.120789419239469 0.221700518833858 0.924753444814151
-0.116143655195591 0.225986838334423 0.937108667448262
-0.115956950739765 0.22889487334936 0.945491015062016
-0.115490926707359 0.230944003783834 0.947988894586091
-0.117239998126436 0.236999325851648 0.954965432251594
-0.123982374137284 0.239778576397061 0.965721840507829
-0.118266521480966 0.248676383345664 0.978017889535658
-0.119981175990324 0.250995267181499 0.983438860741745
-0.119737384122651 0.256381912005456 0.992042921099579
-0.119758352038854 0.267572978481471 0.998693171227074
-0.121120976810142 0.272814779256851 0.999325144066345
-0.100676191410398 -0.00905355165058239 0.10579720948633
-0.0973687660153321 -0.00916362415711652 0.111907599342364
-0.0999879903305605 -0.00901317707509645 0.119667139172132
-0.103850894831654 -0.00880283641114658 0.130526156491007
-0.0956070360063332 -0.00704408662423946 0.138149642109655
-0.0995960384238391 -0.00409833344399211 0.138300956870857
-0.0965012439820806 0.00555814889719572 0.138347475902778
-0.0835347789599218 -0.387836151796597 0.535384977439292
-0.0839373207394108 -0.389887866402497 0.544490031600564
-0.0835482580227391 -0.385367748412447 0.558335516137997
-0.0891486552502612 -0.384364331460875 0.559420748408305
-0.0904053445647829 -0.381273241204889 0.562763875999456
-0.0879452752219845 -0.369370128012435 0.568005135911835
-0.0898123292159935 -0.362035106655964 0.568998430747124
-0.0897506414148219 -0.360366037612177 0.569012404221953
-0.0923876468462317 -0.355982899180311 0.570683443071629
-0.0869859272564408 -0.339174561238841 0.573326198304849
-0.0908722257562619 -0.335802071638229 0.573274093765033
-0.0936452791211958 -0.31874526559914 0.573010568258755
-0.0885016565269477 -0.307680093575049 0.570038769781187
-0.0908622458421378 -0.297547997651444 0.568158777479049
-0.0880135061557218 -0.290626340028096 0.569961623202784
-0.0945476014672351 -0.273722803540997 0.569130696934029
-0.0917109184084771 -0.273494376047191 0.569102039897567
-0.0888394636221724 -0.24931283725491 0.56426656313986
-0.0934673679909244 -0.237480559033307 0.560334732828523
-0.0909957585786221 -0.231912624098163 0.561648578494291
-0.088521177891975 -0.222872853432818 0.562305749149155
-0.092294232703024 -0.197777464888169 0.558568039424453
-0.0966101223740833 -0.2013083350314 0.55909392758305
-0.0893557639857354 -0.180151392912842 0.551227759972771
-0.0959385459289339 -0.169812321464712 0.553190285800283
-0.0929753873759648 -0.154109405219238 0.552300093059976
-0.0973892200678688 -0.142324920909249 0.550646522717422
-0.0994532164856758 -0.115523829468342 0.543186143683941
-0.0965460095923095 -0.112647930083364 0.543874733896657
-0.0924716544227821 -0.0977071050523338 0.544262133004474
-0.0973745635978965 -0.0889400561241764 0.542985539962019
-0.0931984069913318 -0.0842010324132953 0.542295478260879
-0.0998637449058919 -0.0561103223919025 0.534208559012276
-0.0935264327730809 -0.0484207991560772 0.536105234528349
-0.104050332284491 -0.0239042921959003 0.533771397943264
-0.10061472721812 -0.0159946162404601 0.532674606433359
-0.0982386345817416 0.00293082685406463 0.525507150549043
-0.0953013747465305 0.00829163256984779 0.526850277173526
-0.102082237023705 0.0243383804577422 0.527174097514184
-0.101115603599196 0.0439281798449035 0.524530858384681
-0.0988486012235089 0.0580994351881618 0.518476931454691
-0.0992281093395089 0.0684561844990365 0.519246483360333
-0.106832490426117 0.0866288363696402 0.520561121359285
-0.108186274557576 0.10361979678345 0.519408639424743
-0.0989146587904269 0.104247025648266 0.519366095041264
-0.101909253978823 0.128289306917855 0.522015493026157
-0.109461508949232 0.133892756393919 0.527296063261559
-0.107473792552791 0.141565044553711 0.531945435835486
-0.102347361495024 0.144079747421525 0.533469334612707
-0.10151256968492 0.153323527447977 0.539071024283287
-0.102539226213398 0.169129177899682 0.544625266348398
-0.104986964726436 0.173221493358379 0.552064745999697
-0.102513522799476 0.172718233637954 0.558696508224547
-0.101230810499979 0.175102200813658 0.569222122906625
-0.109882593946367 0.176432312545057 0.573438085140213
-0.10755237136579 0.180028195683759 0.58483570471704
-0.108610111729925 0.182513441272475 0.592713014040668
-0.101326252095269 0.184920415193278 0.59610741770488
-0.104539005292547 0.185353783977047 0.614771646949973
-0.102192986477243 0.182757123472673 0.623554634302051
-0.101634374703843 0.181252401814172 0.633008195854162
-0.107280877667312 0.179278437399827 0.645409821089805
-0.105354166439218 0.180180556039529 0.658906092590871
-0.108789571978626 0.17638911211829 0.674425668966426
-0.104248061874728 0.173007575395532 0.688869031847496
-0.106309857538805 0.171580134662507 0.699477528658608
-0.107406963280926 0.170479284281853 0.707658861503117
-0.105830595703801 0.170161582204857 0.712119426816952
-0.102833244147948 0.17169968561415 0.730634624513643
-0.104661791370013 0.168461554224048 0.739458240986932
-0.107860541470551 0.168555153392443 0.756704931066603
-0.110196750324025 0.168603729357271 0.765655594037874
-0.109696504051192 0.169308547246467 0.774414293006236
-0.108537176875156 0.1728866674233 0.78319767358335
-0.107783540663066 0.173564520730788 0.784815413870522
-0.110598784748456 0.175270932610836 0.795804377922687
-0.105814004305703 0.177220614183424 0.803993088112329
-0.103699868199877 0.182476279137773 0.815423360638244
-0.109135352051712 0.185896610430924 0.822862061382912
-0.105342046875053 0.188823559793097 0.829227731411312
-0.110121645233008 0.193093975349359 0.834320167648415
-0.107401352520132 0.199647056176769 0.846468239687111
-0.106614002147838 0.199533894607075 0.857432972626753
-0.105057846801095 0.204123320184207 0.871843263021308
-0.10780117074675 0.205557083186618 0.876345120797291
-0.103447549701249 0.2083071747904 0.884980105275439
-0.107699602257753 0.213597869250915 0.893260399726996
-0.10644785384985 0.217121771170591 0.897535839338613
-0.104887255359021 0.218104362493321 0.908287451387362
-0.111250467516846 0.220971796688082 0.922652919095461
-0.110134158769107 0.222321254848908 0.926542702862214
-0.108659612337107 0.225020946582642 0.934324505504167
-0.102345039229365 0.230319194793913 0.94726903139746
-0.111510880725646 0.234263093989951 0.951812928647179
-0.112265254203824 0.238840549688018 0.960762778858926
-0.109494688301807 0.243615674513808 0.970949658111785
-0.112973202596695 0.246283343596143 0.974584198320517
-0.106226823322356 0.250295932175428 0.981803990174821
-0.111425490641557 0.258321053627391 0.993494779305595
-0.10527249102063 0.271053871486737 0.999112841857455
-0.106890847746302 0.276880459424351 0.999815319017497
-0.0926590337821765 -0.00854770712818967 0.0877288395181195
-0.0869549871255387 -0.0086463712311753 0.0907052966086755
-0.0932731950837445 -0.00910685988983101 0.109438663610556
-0.0894217016164975 -0.00910426019216777 0.110023786349917
-0.0926390348146695 -0.00874226766292392 0.133016868147601
-0.0861498643331878 -0.00868086579569788 0.135793595853486
-0.0894922480863696 -0.00520795056634265 0.139289633829202
-0.0766906812788155 -0.388046020396947 0.536056689903376
-0.0760133206416888 -0.389846165158616 0.544674772664914
-0.08221043471951 -0.388690925342015 0.549792611209693
-0.0797224870025999 -0.386074152194208 0.55757151451471
-0.0751572213693233 -0.380289345258584 0.563827995585917
-0.0789784987363257 -0.377376294141184 0.566483627670916
-0.0833059625646254 -0.367719707941217 0.56831878512907
-0.0753936521462297 -0.35814405009329 0.569859520398016
-0.0819092286782852 -0.351150769037023 0.57252565666393
-0.0804041766513962 -0.337146307990201 0.573294862047465
-0.0799201898308321 -0.336609836824823 0.573286573635487
-0.0778918851864135 -0.319559098525893 0.573023141875033
-0.0803334442047959 -0.306978918364996 0.569746339427657
-0.0851830954348716 -0.2930357782129 0.569334050218905
-0.0842349499984544 -0.285906408017148 0.570659173177791
-0.0820327060987373 -0.288605659352495 0.570487938677095
-0.0853642546734853 -0.267573171760678 0.568359203891678
-0.0867701936843115 -0.25712295241221 0.567048186938731
-0.0785913971163648 -0.240283891635796 0.5601665636139
-0.086147290577411 -0.228071549066614 0.562554943213146
-0.0852732701975033 -0.220343076135701 0.561928963860976
-0.0854776269465493 -0.208171568676622 0.560116138300888
-0.0890000539134908 -0.191159046115667 0.556755484005278
-0.0803762084428234 -0.172061327306573 0.552639472878133
-0.0877582949223465 -0.168387961401363 0.553539131460922
-0.0815095904364295 -0.150335455227991 0.551770541522916
-0.0846605480396149 -0.134365826590225 0.549529721848303
-0.0825020885574524 -0.125578566845477 0.545217379533153
-0.0857862305157416 -0.113270349185527 0.543725705142662
-0.0835581976790989 -0.100679749700175 0.544694987606544
-0.0840725561793049 -0.0900332648820612 0.543144724963232
-0.0850902525529082 -0.0824893050809146 0.542046229143986
-0.0884563955506698 -0.0485932141054259 0.536062707156625
-0.0878935701080809 -0.0478580967666154 0.536244029068947
-0.0884309565374652 -0.0237375657794435 0.533748278902854
-0.0892112949210524 -0.0180518406088728 0.532959870486394
-0.0899065504646221 0.00426507911033101 0.525841441665748
-0.0937279844389451 0.0122191796887346 0.527834307072009
-0.0858958058912027 0.0333233486662486 0.525961761487832
-0.0864994141014716 0.0356444623182123 0.52564857510406
-0.0962906456704742 0.0657622042756454 0.518377853495759
-0.0912686363744331 0.0776096786731364 0.521172882911125
-0.0918048910998105 0.0887602941658502 0.520416546447418
-0.0963132427906567 0.0921860078287477 0.52018418329588
-0.0888194125808857 0.120747219177204 0.513853722256273
-0.0930512837024246 0.127072939574318 0.52040065727696
-0.0890241316888891 0.133815018391746 0.527248954377255
-0.0948793065658127 0.14058060465427 0.531348869625535
-0.0942641377003419 0.149071393075446 0.536494249725221
-0.0986511770125412 0.151643035690916 0.538052653736812
-0.0943125446086598 0.158696081571124 0.542326768237614
-0.0982987893633313 0.172513775019761 0.545430201172968
-0.096854807136678 0.172607026599761 0.560161951623035
-0.0906554696224281 0.172623147400266 0.559949517940225
-0.0921943357400096 0.175968133555332 0.571966809423965
-0.10029415950352 0.180134530269446 0.585172746024771
-0.099260377245303 0.185061503862854 0.596279543481239
-0.0913836744383384 0.185598494295362 0.59693466267239
-0.0997557444773228 0.186891368409912 0.61220100973071
-0.100495570489054 0.182569869840796 0.624731073628758
-0.0970286078961506 0.180371545794396 0.638542260280271
-0.092205537607105 0.179362651608012 0.644880737058792
-0.0900070647585738 0.181035193477457 0.664391936053616
-0.100621222436788 0.180782141526652 0.666273018976138
-0.0965901787899536 0.173058785564433 0.688488446579807
-0.0959484457121718 0.17183118360784 0.697611775584325
-0.0981056806347891 0.170337975358053 0.712817097230768
-0.0949610540660192 0.17105547611864 0.715654957110723
-0.0929661682777088 0.171757162084618 0.730489010657774
-0.0930413847433634 0.168482172589912 0.743257404719947
-0.0972304604844338 0.168521469371668 0.750498274779817
-0.0980464076342489 0.168593491636103 0.763769179798084
-0.0924837275228633 0.168641121592119 0.772545530101013
-0.0939420958451585 0.173085405392477 0.783685525061817
-0.0923835744087561 0.17418580213553 0.78616732220724
-0.0963127817019673 0.177613335161641 0.804847196554677
-0.0994275075699372 0.176598417869284 0.802639905689738
-0.0912517078685064 0.180895890656523 0.811986255877114
-0.0902682537952917 0.186892093409155 0.825027085568231
-0.0930685968555709 0.187792381061248 0.826985074386873
-0.0923860073251134 0.196916395591613 0.837946202174187
-0.097599396575122 0.199662403584937 0.846258565482708
-0.0918376064214201 0.199973104479828 0.858812043210677
-0.0939566914312933 0.202997664000378 0.868308826691363
-0.0918371599207755 0.203532456736674 0.869988016930186
-0.0979800327558016 0.207920828217634 0.88376701962606
-0.091911775725172 0.209927081734778 0.888806748430772
-0.0935686122931078 0.218285716780174 0.90446894205538
-0.0996333217077202 0.217999819143187 0.910488666285624
-0.0950984939549928 0.220201424959421 0.920432339360939
-0.093294576477363 0.223526670448623 0.930017287082813
-0.0981915151710882 0.227902548640423 0.942630660694445
-0.0974804893841063 0.229015874157452 0.945767432405918
-0.0956039562332095 0.232838163101879 0.950171218445799
-0.0937775856286509 0.237444664588967 0.955681017776066
-0.0977789067489381 0.245262740010687 0.973193686733799
-0.102582775852883 0.244819387247836 0.972589645005421
-0.0944727715207438 0.250820560911863 0.98303044112081
-0.103000179827896 0.259696243446229 0.994524400144386
-0.0996033987071141 0.270901059640636 0.999094418239238
-0.082965989112835 -0.00900186524396598 0.106772687932521
-0.0771695273219843 -0.00904752071245767 0.109792930089038
-0.0762745366257141 -0.00905203614181953 0.116473706956241
-0.0754810984115862 -0.0088232648318733 0.128026378767322
-0.0825010102831255 -0.00859422111503171 0.139005118009983
-0.0838020044335347 -0.00249917203762411 0.140573615788303
-0.0712072561576362 -0.3887824476114 0.538413723485415
-0.0703889491557347 -0.389707794531327 0.54528776965448
-0.0659766128302223 -0.38752870832528 0.554941359513004
-0.0718460586716989 -0.383236372247417 0.560640677707005
-0.0682802644391836 -0.377723876506024 0.566417572405013
-0.0714277363420734 -0.377338401167929 0.566490828929315
-0.0728684251112887 -0.369362128101122 0.568006656231398
-0.0694442006966462 -0.355191364855909 0.570985209631707
-0.0713346432898814 -0.351635284364705 0.572340938807443
-0.0704073401951335 -0.339419287586201 0.573329979296111
-0.073412256849551 -0.329190555607458 0.573171946674582
-0.0743201185245877 -0.321719975094832 0.573056527146022
-0.0732432766000344 -0.309818657836447 0.570930673964392
-0.0704698807021126 -0.296907096181924 0.568325709525754
-0.075538938011113 -0.28603881242809 0.570675783779119
-0.0714684880858575 -0.283560227820021 0.570364836579627
-0.0717060220436236 -0.267223254559981 0.568315305542089
-0.0743614658934583 -0.262183569874533 0.567683059285832
-0.0731707598901724 -0.251360564719278 0.56539755114154
-0.0697929084629866 -0.228959896853219 0.562345322967449
-0.0723644988721225 -0.209490660462588 0.560312603965781
-0.0761150332792909 -0.203181573822865 0.559372927959358
-0.0724084923798973 -0.196492301389919 0.558376627042187
-0.0760242799983574 -0.174903346153426 0.551943422793824
-0.0779018513115073 -0.162448125116347 0.553470162072247
-0.0733372244108744 -0.159117880615993 0.553002870216754
-0.0786976977170952 -0.1429214523468 0.550730226566279
-0.0744485040504695 -0.116197997886237 0.543024724346147
-0.0808641273839638 -0.10603584103889 0.545457897697661
-0.0746765744751572 -0.087810793353179 0.542821105041173
-0.0790529477204901 -0.0811035176650244 0.541844440995209
-0.0816015610467569 -0.0577113903841188 0.533813644221427
-0.0809761500159177 -0.0573521191318697 0.53390226102729
-0.0778725672767936 -0.0407004083900869 0.536100423524709
-0.0803803666307491 -0.0391601721451151 0.535886847387551
-0.0807819846442825 -0.0112792614411783 0.53172624194266
-0.0774249109155915 0.0030436639267518 0.525535421388278
-0.0771277097778427 0.0180263319628338 0.528025778189383
-0.0772582813399378 0.0239125592562861 0.527231553297147
-0.0836227081800072 0.0464906731331289 0.524185102800631
-0.0861122871342479 0.0605096228457129 0.517641630661781
-0.0847953319195667 0.0713371949484064 0.520175418062504
-0.0833903694935182 0.0913396183283244 0.520241593152949
-0.0879267708733714 0.103106017595356 0.519443488616207
-0.084098425654189 0.120460290233748 0.51367984152603
-0.0858204278033628 0.126482190699403 0.519616385644643
-0.088669943196242 0.134670316193206 0.527767261048984
-0.0843714047970889 0.135512556801662 0.528277655119703
-0.0860299298570994 0.146229080013673 0.53477182062445
-0.0834806819531357 0.15474653279631 0.539933359208839
-0.0806929502908506 0.161070064920922 0.543283294688026
-0.0796786370554796 0.173001474029656 0.546975357214752
-0.0796714812005636 0.172614092021776 0.561335738287945
-0.0851434865844821 0.173195701387089 0.563179224862026
-0.087242382143092 0.17725815041407 0.576055685740701
-0.0884491047286437 0.177738392584758 0.577577875799476
-0.0815799074645488 0.180459244663034 0.586201970553626
-0.0800644095321986 0.188452250641623 0.600416196860201
-0.0849034434242009 0.188490670890777 0.609527188121766
-0.0829849024413959 0.183314086634975 0.620055458552613
-0.0890666987583034 0.180355111732207 0.638645508889453
-0.0848079064909237 0.178432492489657 0.650724553042264
-0.0857263125413975 0.179480768965677 0.655829143803702
-0.0822608424226226 0.181052760981534 0.664261346537087
-0.087888983258216 0.173055090959237 0.688515904257406
-0.0808223963407269 0.171858085413004 0.697411845942633
-0.0800311332892035 0.171801531916305 0.697832141913957
-0.0866905553793031 0.17133820713879 0.716773215185106
-0.0858582063415956 0.171719302001445 0.730584927345933
-0.0816148834244067 0.169696158547304 0.735710463359882
-0.0858278002795837 0.168521838957283 0.750566375049125
-0.0806014431592204 0.168554023726271 0.756496777482576
-0.0857953190860919 0.169783404942306 0.775579948617674
-0.0828944650847656 0.170809331397477 0.778098338737223
-0.0851807282478957 0.174941439530521 0.789183047876132
-0.0860175825964372 0.176558210854909 0.802552461544088
-0.0806735310463797 0.17853486120893 0.806851375655081
-0.0849330311431972 0.182976762903389 0.816511836765524
-0.0890736120313664 0.188301268679024 0.828091827615392
-0.0863097344850668 0.187167463192561 0.825625972996761
-0.0867091582028976 0.194340147489206 0.835502314800679
-0.0881490011530248 0.199549972187399 0.847794587954485
-0.08770043596395 0.199518087139355 0.848230197147135
-0.0813700679981679 0.20326596693453 0.869151268328091
-0.0822051948739848 0.205105652561709 0.87492767839876
-0.0817369777734437 0.208887744275679 0.886803029459843
-0.0803583525825978 0.213700976521323 0.893385496542456
-0.0813774330941238 0.218167320939722 0.9002577264356
-0.0910457533370966 0.218740588600731 0.916221510363884
-0.0854834659754639 0.219486840177272 0.918372564285086
-0.0852080155777558 0.220781320371906 0.922103875261331
-0.0839313258126761 0.227410576894677 0.941212562849059
-0.0829012503855406 0.231064520479704 0.94812774587404
-0.0846678888707567 0.232613569290885 0.949912456456876
-0.0814035654238891 0.238940811172473 0.962682816711891
-0.0867325044537071 0.243166295285849 0.970337405683701
-0.0815815874226134 0.246833702644262 0.97533402973809
-0.084455900750532 0.250010930991088 0.981137728592359
-0.0851538493961509 0.256854828450661 0.99239699922052
-0.0846453085183795 0.268153020515585 0.998763103455882
-0.0846390689167609 0.284059112663851 0.997596095441266
-0.0698668781856151 -0.0085921952470203 0.0914606761801078
-0.0724315461055903 -0.00881205662383797 0.100486798991318
-0.0672418783739842 -0.00904108869773116 0.111312759702612
-0.0696429464692353 -0.00909276088393357 0.114067528935439
-0.0674680977762769 -0.00878732518086022 0.129434073523653
-0.0647685506229604 -0.00867098192830229 0.135190739264273
-0.0661585338406328 0.000492849834013938 0.143153853600195
-0.0632266764043167 -0.389988300166575 0.542273215519048
-0.0629267571308448 -0.388926206049141 0.548750291983445
-0.0652481388981968 -0.38802659632925 0.552735661283868
-0.063238269590309 -0.381407941335199 0.562618192863449
-0.0647802254742599 -0.380353313232788 0.563758811873438
-0.0623984828079432 -0.376866604937184 0.566580490053201
-0.059823400835147 -0.36810094259239 0.568246334513612
-0.065628509941553 -0.356646133250191 0.570430590027074
-0.0600622310890426 -0.344991263782736 0.573416065626974
-0.0651484569410323 -0.343707852256223 0.57339623708044
-0.0661781394805269 -0.332430484882898 0.573222003174061
-0.0588995848018941 -0.314859470465694 0.572950533213068
-0.0647361711989236 -0.31402349378639 0.572684332173846
-0.062118066165912 -0.294667842049113 0.56890895561468
-0.064102013195293 -0.295521572653498 0.5686865891451
-0.0589222182330583 -0.285434052767534 0.570599914542215
-0.0644461282717916 -0.266581806355176 0.568234833597636
-0.0679565351391569 -0.25830648861992 0.567196665739127
-0.0682384187902334 -0.232420872314509 0.561528648982909
-0.0689858446474931 -0.232334491353106 0.561549031989008
-0.064766977815663 -0.214971443160183 0.561128912298738
-0.0611863411029254 -0.203114082827703 0.559362875843667
-0.066838934081113 -0.181854301818035 0.551466660151729
-0.0690571623719723 -0.179501573379883 0.551136597138259
-0.0645791335349939 -0.159650220069519 0.553077566801634
-0.071042379620844 -0.153570695653038 0.552224502636289
-0.0713187819463909 -0.135651362115531 0.549710105084686
-0.0683368780510131 -0.124282151944558 0.544476446162974
-0.0714655116223877 -0.119318840644188 0.542678979169797
-0.0680569767581911 -0.0961135128539412 0.544030085855012
-0.0711932215114012 -0.0813509353976629 0.541880468141705
-0.066187238736165 -0.0585878438181409 0.5338554881097
-0.0646768836652605 -0.0504167918477965 0.535612908755666
-0.0657288515674957 -0.0483428406891512 0.536124463537867
-0.0696770959861488 -0.0291419040047291 0.534497668930402
-0.0687211503195006 0.00162608541680275 0.525515542251604
-0.0650976269920316 0.00641742738847977 0.526380703192991
-0.0736412755564205 0.0170138722255603 0.528162388735602
-0.0751095481039696 0.0314090024149107 0.526220063005829
-0.0680498094103555 0.0611945183772119 0.517595177673845
-0.0683840661000433 0.0643607967778498 0.517925992567288
-0.0678684907509862 0.0728718449129704 0.520670240845282
-0.0694440030250055 0.0899330461777235 0.520336999707595
-0.0760218630972005 0.0997701595425496 0.519669756940565
-0.0690004410199937 0.124141791582292 0.516509297821393
-0.0762269027192222 0.125574793053592 0.518411734627842
-0.0700784676858642 0.132411390930685 0.526398362365387
-0.0741740950421181 0.13599863854664 0.528572218499848
-0.0683730799286872 0.148883800273255 0.536380569319661
-0.0785449144484499 0.154185637977892 0.539593459438223
-0.0762024001415013 0.158879667747614 0.542438020645781
-0.0790009430159496 0.173263235099037 0.551514689462964
-0.070545376310175 0.172865737907919 0.556752753924607
-0.0692778241605804 0.173291318382209 0.563482295371667
-0.0690809781476572 0.177790098909297 0.577741765724171
-0.0779870326813353 0.180396943147426 0.586004497791975
-0.0715245667385818 0.182949403816915 0.593702817361067
-0.0751372901477771 0.18525455749748 0.596515065630814
-0.0755772029652288 0.1901617487305 0.602501755442741
-0.0702743163267201 0.182227427930263 0.626882498552397
-0.0711566432379755 0.181078982931479 0.634097717010832
-0.0759264921588892 0.178892581363896 0.647833999518637
-0.0788072380091873 0.180071222178284 0.658425353942894
-0.0734674003795203 0.178302814353213 0.671044252892782
-0.0695695834360618 0.173648171190917 0.68410823282072
-0.0768159914014777 0.172117833126818 0.695481445100103
-0.0691462275276337 0.170619199118114 0.713929393788217
-0.069093547219085 0.172332474824974 0.720705743945418
-0.0686834684820488 0.17238743421458 0.728892246723858
-0.0783982429064259 0.171104917565394 0.732141440576344
-0.0745973625842012 0.168497771597015 0.746131695652816
-0.0691769637370028 0.168555391287653 0.756748765910644
-0.069049037529753 0.168603632075429 0.765637668774147
-0.0782467495517415 0.172745314252435 0.782850687279333
-0.072764797096851 0.173610099091668 0.784914592383797
-0.0759122413648066 0.17520068372604 0.794392691063604
-0.0761562918384646 0.179170266021352 0.808233284554022
-0.075257773477147 0.183367887668298 0.81736247368652
-0.0780025127996575 0.186144797195491 0.823401829876714
-0.0791735775118793 0.1905312897374 0.831889145960915
-0.0732865690379559 0.194078589436173 0.835254194900019
-0.0779216569822947 0.199647911403098 0.846456555701249
-0.0800009788832224 0.199215595428825 0.856433548294916
-0.0721371619356655 0.200963486234278 0.861921732744418
-0.0718433287285534 0.204325130304416 0.872476924552126
-0.0789728809574091 0.208018915962076 0.884075004330855
-0.076733243323204 0.21141008755618 0.890606032854008
-0.0800780978218127 0.216736509085125 0.897068412940659
-0.076323721944664 0.217970889138187 0.911097802667137
-0.0748840773561371 0.219693661450138 0.918968722100994
-0.0786955778125445 0.222724389664305 0.927704730190119
-0.079571709682945 0.224476569200526 0.932755349552977
-0.0698898782048809 0.227732012046631 0.94213909267594
-0.0722827403472601 0.232723232308113 0.950038802861185
-0.075232216325669 0.238933560027167 0.962543955078824
-0.0731629279198391 0.240143027712683 0.966218383714601
-0.0712200361016145 0.249452812816043 0.979832987703766
-0.0727201565842043 0.253317135512024 0.988866808950958
-0.0786008589731026 0.252770892455973 0.98758982912445
-0.0761576860750928 0.264441118183292 0.99807694382949
-0.076129794198244 0.277549630615794 0.999895997020332
-0.055755716656859 -0.00844026491318442 0.088278907235246
-0.0555489079216812 -0.00860659065884176 0.0946744358407163
-0.0621448750949462 -0.00895168415853494 0.108376397562364
-0.055527673559485 -0.00897428045546284 0.110549874830185
-0.0646131749853042 -0.00866568577221144 0.135451116073755
-0.0619569252131607 -0.00853150834332604 0.141630217595898
-0.0609353332561293 -0.00273672517039477 0.143307132126155
-0.0562162300354283 0.000273799171684891 0.14441442421508
-0.0552605446052841 -0.390031685144068 0.543852898869766
-0.0513098831900869 -0.39008842009095 0.543601556859378
-0.0541013266805844 -0.388050235373029 0.552630937738443
-0.0527012132244579 -0.385029220454899 0.558701646552035
-0.0506012225434146 -0.379341651510045 0.564852961166446
-0.0523515427732543 -0.374699082650895 0.566992410436556
-0.053451200584007 -0.363133259644767 0.56901537890825
-0.0513489515913218 -0.360053251301756 0.569131651670895
-0.0549409743102102 -0.346955288762882 0.573446409565696
-0.0546248948612699 -0.3435471214873 0.573393753810291
-0.0559302791768715 -0.336421733140006 0.573283667457235
-0.0510712986921717 -0.328193494485525 0.573156542205753
-0.0509206006313704 -0.312508875479991 0.572052649307065
-0.0538161951154614 -0.294094649945308 0.569058251778902
-0.0571140377585251 -0.288548113489641 0.570502927328428
-0.0543811220069879 -0.281449046283829 0.570099981394064
-0.0587538837522128 -0.272472432545653 0.5689738334733
-0.0503493456132608 -0.261273794084868 0.56756892469747
-0.0528845552178688 -0.240255503722732 0.560162335565776
-0.0596564897498566 -0.230209773951893 0.562050393944757
-0.0542956954500459 -0.221118911231127 0.562044516819073
-0.0570237309530748 -0.205950598466989 0.559785346771757
-0.0588566306793553 -0.201499728865195 0.55912243380014
-0.0566440041575734 -0.175618608123573 0.551768245153755
-0.0600966129883136 -0.174338479840406 0.55208176643825
-0.0603164808058159 -0.150354729603371 0.551773246056663
-0.0553481026881158 -0.142317032308489 0.550645415808039
-0.0575253066933161 -0.119400922810302 0.542690927944535
-0.057988234649295 -0.108126850150897 0.544957237480984
-0.0582223406280944 -0.101806307040579 0.54485902858253
-0.0604206118276591 -0.0907888562263488 0.543254748605277
-0.057232335022012 -0.0596540035932819 0.534003322713784
-0.0546096455215275 -0.0477494355152911 0.536270831138283
-0.060660320781591 -0.0350563722014752 0.535317795891398
-0.0565152727394843 -0.0312794603101195 0.534794072173835
-0.0607466010806642 -0.0204452806426856 0.533291755727122
-0.0627624429654799 0.00473335999548422 0.525958767410782
-0.0625034303665168 0.00948417131272195 0.527149062584004
-0.0556428275470805 0.0268088107245734 0.526840763934859
-0.0560935411577833 0.0549942894381967 0.520229679236512
-0.0652646795294205 0.0653346625978828 0.518239999673956
-0.0601304017460933 0.0709070829116505 0.520036735470481
-0.0626764420328004 0.0909381946654527 0.520268821367735
-0.0644007790534035 0.104558251749285 0.519344984847946
-0.0677010666195047 0.120680196376711 0.513813106020934
-0.065204934727706 0.126278373950713 0.519345800797212
-0.0658855139873168 0.127916418357439 0.521520450322958
-0.0649295817175745 0.14067639948746 0.531406920869294
-0.0641650695782399 0.144026756143189 0.533437222133221
-0.060530209826708 0.158079227401581 0.541952957348574
-0.0606410481816526 0.167904833364198 0.544421393332412
-0.0660985490724184 0.169990889927881 0.54476875523164
-0.0580579709416239 0.172575998203954 0.560570831839081
-0.0595857248816798 0.173082567983007 0.562820633814591
-0.0587133319416016 0.17616355182146 0.572586213050214
-0.0673879461752106 0.180105815990147 0.585081732379652
-0.0600095770217528 0.182550382481372 0.592830104009802
-0.0610006072831273 0.185671115803453 0.597023259676658
-0.0634859969327435 0.190331959096349 0.6058100844973
-0.0595348230760282 0.182923885271436 0.622506936928761
-0.0678616962652867 0.181218808121104 0.633219251529067
-0.0645830556780471 0.178743866792213 0.648768313415936
-0.0624307670885555 0.180567793854155 0.660608768974272
-0.0669227256187793 0.180704144372224 0.661208299284101
-0.0618044684811312 0.17283521680828 0.690149971560735
-0.0653509236890132 0.172241639716991 0.694561335573548
-0.063794794083518 0.170620285030957 0.713933688792011
-0.0603226877464656 0.172009329273291 0.719427638266816
-0.066375811101186 0.173085629144374 0.726930690402839
-0.059308338570799 0.168473924364828 0.741737577309381
-0.0652413470596038 0.168510723611239 0.748518248643289
-0.0680401564692229 0.168618524799613 0.768381819206719
-0.0617149410354146 0.168625459556346 0.769659625433009
-0.0582101526061422 0.172515531908636 0.782286629708389
-0.0681077754801618 0.175041102991328 0.791185835512677
-0.0644722204257845 0.175454731533603 0.799497910207705
-0.0678149100444282 0.179350461865191 0.80862518312842
-0.0597226347120916 0.184257074501514 0.819296319911194
-0.0604459942256043 0.184370366772816 0.819542713383248
-0.0629219415458793 0.192566787943129 0.83382006571943
-0.0658497708930621 0.192061098295979 0.833340357052229
-0.0595204583866898 0.199832917684983 0.843929025023696
-0.0624146431182829 0.200850382395321 0.861566599158151
-0.0652671630577203 0.203521551749059 0.869953776471191
-0.0665727446176908 0.20357614137704 0.870125181885336
-0.0656428384174504 0.208024202906933 0.884091604754902
-0.0642796817377869 0.209240469068027 0.887910546425022
-0.0593852704198709 0.216097835589754 0.896293530431656
-0.0685028817632929 0.218055131275695 0.909324040415346
-0.0673746537146624 0.219393753273044 0.918104243310435
-0.0624215293709692 0.224890072296084 0.933947263222697
-0.0658368572640675 0.225558496236093 0.935873980676141
-0.0693242891876326 0.231422664725234 0.94854037575411
-0.0631546218051224 0.235268079134557 0.952970805410148
-0.0632256896065969 0.23899103382039 0.963644595660226
-0.0698867127076721 0.240663514630417 0.966927516134042
-0.0641921984004272 0.246248479400866 0.974536697931349
-0.0642008255051927 0.250472368670848 0.982216454631469
-0.0630034294491515 0.255832189008646 0.99163133700746
-0.06119554318885 0.259923391058906 0.994694468241379
-0.0629462543279048 0.271347896495565 0.999148290709406
-0.0489149077954475 -0.00843314239487069 0.0885884018552932
-0.0519831783839018 -0.00878300740327182 0.102935192362639
-0.0489341952768849 -0.00897982893824972 0.111983175681824
-0.0484830080289476 -0.00902868295818673 0.116222536837465
-0.0470003895415551 -0.00864341351130595 0.135670615773795
-0.0458506297561344 -0.008520420908037 0.141844259458065
-0.0539311499375965 -0.0085029245406464 0.142776852472784
-0.0417758281004185 -0.389835206254047 0.541783218020378
-0.042704334375305 -0.388721689312788 0.549656323459608
-0.0475392573967255 -0.387829010494625 0.553610988108497
-0.0428649360691044 -0.382799524007135 0.561113145116329
-0.0445453422432299 -0.382714526400326 0.561205073148502
-0.0469920305694078 -0.371557604601383 0.567589423371853
-0.0445237151103502 -0.371476564856015 0.567604824331367
-0.0429225153623961 -0.35903721035298 0.569519009707758
