ply
format ascii 1.0
element vertex 867
property float x
property float y
property float z
end_header
0.216538053099653 0.28346341960991 0.574394567872684
0.213590971428507 0.286548830377519 0.587287177151622
0.209353996265529 0.286671401938385 0.58779935117381
0.216534694661638 0.291214013610301 0.606780978517173
0.212651678641686 0.292377177368064 0.611641341362113
0.214441916139908 0.294065843639591 0.618697553996707
0.236233385694684 0.302668599351395 0.654644783221033
0.226771641197219 0.30469053872234 0.663093601306769
0.236884861508717 0.308806254529288 0.680291413785798
0.233763281392343 0.308594987809477 0.67940862070659
0.235668308292849 0.31196109961213 0.693474159310531
0.237889109045671 0.313411840870508 0.699536185283037
0.24140154811048 0.316250732439013 0.711398696480006
0.246075261099256 0.320386408502448 0.729459853506046
0.24522699391541 0.321099150509054 0.73773045854854
0.244736504168976 0.321091965263962 0.742512733576271
0.243774968765986 0.317940014733256 0.751887703755429
0.242506539533637 0.315144380052904 0.764254888770827
0.242281941075524 0.316574256549177 0.766444723737434
0.240553395674313 0.321731723529668 0.783298041399236
0.240940049874939 0.308980972102338 0.779528162943136
0.240012464380313 0.315035381518668 0.788572121515736
0.239042821234617 0.315835244068527 0.798026142186269
0.237734159066281 0.310483047065112 0.810785598327549
0.23759781527493 0.314385779407785 0.812114950293217
0.237023237086746 0.307463408428435 0.817717087628015
0.235218203752882 0.314044222767716 0.835316162633191
0.23487474391877 0.302072322045279 0.838664896015778
0.234435528536461 0.300244298955745 0.84294724599329
0.233692202125207 0.306052223317702 0.850194678503025
0.232599308975085 0.303437911263872 0.860850386716716
0.230945306867263 0.312479079042684 0.876976907267973
0.231067263755242 0.300433656067612 0.875787827610177
0.230420678543458 0.311305748335709 0.89034022451698
0.230420678543458 0.30631020031158 0.893968144885576
0.230420678543458 0.303896150086739 0.900801019437035
0.230420678543458 0.307864895994956 0.916234332026785
0.230420678543458 0.302761228682781 0.921145218812275
0.230420678543458 0.304927365977642 0.931073916960811
0.230420678543458 0.306337067097796 0.938750879015375
0.224756652827946 0.30362096666064 0.944067722798219
0.220209726957876 0.294718965013527 0.94629295376227
0.214094511201139 0.283438420845811 0.949285693877809
0.213220393280697 0.288598315710363 0.949713480544753
0.204430242314213 0.282595617963698 0.954015313622361
0.199766400387997 0.272961332210965 0.956297762415723
0.191190169451799 0.265333207168352 0.960494904656308
0.159303896670378 0.220713540629842 0.331227011980652
0.161343951909614 0.225768552370568 0.350815182475967
0.160249269263676 0.226684643280214 0.354365034750844
0.162482462825204 0.230285533610437 0.368318484780457
0.173311577918206 0.235333969869248 0.387881175283351
0.177856780552467 0.239736811484883 0.404942186543935
0.176211981611396 0.242134415955194 0.414232903866391
0.190816096845601 0.247414076367025 0.434691587962236
0.186475690960688 0.24873045794964 0.439792566594869
0.191089937144885 0.254737368360625 0.463069344437438
0.194935158837779 0.254806171638227 0.463335957138144
0.199273160486808 0.262231967604317 0.492110916506743
0.204464588492523 0.263179099480488 0.495781052526907
0.202166488389833 0.266227127857416 0.5075921624875
0.206258303985232 0.271992783762142 0.529934079118316
0.20667922041228 0.271149993801397 0.526668268020429
0.220673112744262 0.278400484673303 0.554763920149061
0.226057637753449 0.28193507333995 0.568460451232318
0.220442956099606 0.284285075795406 0.577827916933506
0.230771250059537 0.289736332728364 0.600606383403367
0.232429765677246 0.292044848408766 0.610252681067906
0.221893808274998 0.291267303065808 0.607003652313397
0.227684970191676 0.296726795840548 0.629816532836424
0.238263655298986 0.299987390984232 0.643441162543959
0.248639360112162 0.305290140487842 0.665599080112614
0.23629058300308 0.305359352732675 0.665888288421382
0.244399645671119 0.308699648739173 0.679845953877105
0.248692349996374 0.312561529719119 0.695983099400451
0.246288391096992 0.312560597526058 0.695979204165163
0.248281777938193 0.313313631374978 0.707946314326409
0.248027925525763 0.306066016208192 0.710421375347599
0.246754059320096 0.311171685592482 0.722841570852856
0.245835874571116 0.306511105878647 0.731793872155405
0.245249838725837 0.308550384178566 0.73750772164688
0.244470437998148 0.306565929304927 0.745106878741841
0.243010647923718 0.304966173566585 0.759339831967542
0.242000896322303 0.310778480982734 0.769184910081335
0.242013025684612 0.300833944212278 0.769066648798817
0.241077249885589 0.297986428500435 0.778190462839291
0.239632790460288 0.304588426101475 0.792273942235979
0.240288906990763 0.297548739612502 0.785876806063853
0.238554154327715 0.304993559489948 0.802790644528563
0.237790140008719 0.301546363758736 0.810239784138771
0.237830782419018 0.294649934878095 0.809843520638357
0.237023269553448 0.299436588430639 0.817716771077669
0.235706690935147 0.30011427904279 0.830553412606105
0.234736628115355 0.298925314897904 0.840011525099069
0.233512901598321 0.295938928418535 0.851942858640163
0.232824291248909 0.296827828536496 0.858656809546928
0.232615622471191 0.299582798699256 0.860691330129676
0.23161959579412 0.29571649511356 0.87040259023112
0.230819051337149 0.296211372917036 0.878207898686583
0.230420678543458 0.288679644121404 0.883177637266489
0.230420678543458 0.288097041535171 0.896911598117926
0.230420678543458 0.289722179961954 0.903490085987525
0.230420678543458 0.292719741601863 0.914493418110141
0.230420678543458 0.289017252051417 0.919144195076376
0.230420678543458 0.294752388944172 0.933124699188624
0.228835219822006 0.290056966193657 0.942071703108547
0.230104017440147 0.292666640785671 0.941450763197126
0.218702358424718 0.281741242685167 0.947030648466355
0.214317951772039 0.273931734583154 0.949176343760565
0.207471300576722 0.273020085560526 0.952527042820815
0.204569067637194 0.265986070782212 0.953947373564371
0.168983428454915 0.222228619967417 0.337097944413757
0.183666132017796 0.231774678179249 0.374088919984607
0.186762215720199 0.233683854092109 0.381486976646938
0.193415234430127 0.238762170321641 0.401165452036376
0.190199255494112 0.237862038604505 0.397677441632471
0.182303176444405 0.240241403046559 0.40689747884543
0.199218019903672 0.244679615430008 0.424095551831296
0.202125593108055 0.250086328636478 0.445046565506365
0.20723174288998 0.256122807478338 0.468437921018572
0.203046021433342 0.256461697211919 0.469751118736201
0.203434120890366 0.257778865971855 0.474855147680954
0.207149621185468 0.261140521418392 0.487881562536286
0.219812410328484 0.267300606760828 0.511751893238221
0.227614066277756 0.273545785188455 0.535951959645278
0.213376652802609 0.27061307591504 0.524587711210797
0.22673142993918 0.276535466830976 0.547536976010045
0.222994558432597 0.280582665219808 0.563219869766771
0.234476343358976 0.282391959173092 0.570230883835745
0.240185045751648 0.286968350578132 0.589040172275612
0.239207852983234 0.288414803974799 0.595084281111686
0.24611958104802 0.293630988438358 0.616880480477272
0.249064032219316 0.295972620698669 0.626665158136428
0.254836545860626 0.297840358182529 0.644037327082683
0.251666611589944 0.301800017573805 0.65101535222182
0.253071773341081 0.303612535693434 0.658589088650267
0.252151303206555 0.305283573483417 0.670218442959882
0.2519486551744 0.298162717907744 0.672194261273384
0.250909746597296 0.300182511118881 0.682323619900151
0.249939305544087 0.298517319630467 0.691785420168938
0.24923840030236 0.302383800419617 0.698619246275774
0.248844818646734 0.292335532544433 0.702456667418128
0.247680085080778 0.297166158827414 0.713812819686199
0.246646633574247 0.296879336247821 0.723888971874875
0.245448743686246 0.291150649403293 0.735568398282888
0.245435040494317 0.29522907872118 0.735702004404195
0.2447391491178 0.290232346776209 0.742486945325241
0.242930244088389 0.298380327389437 0.760123769362
0.242897609028329 0.289870848595794 0.76044196119758
0.242119343323577 0.296360226681922 0.768030051818913
0.241151886944308 0.286348362444523 0.777462751516788
0.240208101277545 0.29266138164796 0.786664661767728
0.239184369948924 0.290815853638137 0.796646042221774
0.239029953083955 0.284702728461245 0.798151606655229
0.23806950305297 0.285595430354921 0.80751599445733
0.237027461289614 0.283447850406947 0.817675901650053
0.236203133350936 0.28465047032154 0.82571309905216
0.235061489787857 0.287421959145615 0.836844123792187
0.234457856824407 0.28849849830697 0.842729545185818
0.233205553981675 0.289673468964155 0.854939497902456
0.232470814131002 0.282205286885311 0.862103211446515
0.232470214739871 0.275711626587498 0.862109055510049
0.231484511436551 0.281067903688812 0.871719662717415
0.230756451322175 0.279501906776529 0.878818248832582
0.230420678543458 0.280161642769529 0.887812382536311
0.230420678543458 0.279834246590118 0.897088298797616
0.230420678543458 0.276750672281715 0.904793016799956
0.230420678543458 0.280188191330461 0.915299760034724
0.230420678543458 0.278052194167868 0.922628021296322
0.230420678543458 0.285164394483399 0.939831993355054
0.230420678543458 0.281938851240901 0.935458530564073
0.222554477081662 0.277361870899218 0.945145450871854
0.218453360105063 0.275624965969603 0.9471525063516
0.215626459851023 0.268606714538579 0.948535969851407
0.188218663953822 0.223264708850283 0.34111278883486
0.195649706319065 0.227677532641194 0.358212481024642
0.194358528867845 0.231404664613416 0.372655117417002
0.191012240397604 0.23317826423746 0.379527815960175
0.203623200812836 0.237499938977667 0.396274305578474
0.200721245724976 0.240697386387807 0.408664414292767
0.207711545814471 0.245786167963414 0.428383442898241
0.208623882465429 0.248016215025111 0.437024875262322
0.220845995193467 0.253793059305936 0.459410146850514
0.217895442777857 0.255252592639983 0.465065838519949
0.217084163229144 0.259445488738889 0.48131331090321
0.226627823868493 0.26273616089564 0.49406466551062
0.236139213475832 0.267948878797307 0.514263947379579
0.229560959737248 0.271364704277438 0.527500271115089
0.225640346875658 0.271068258052129 0.526351541992013
0.243106925415708 0.279920503313797 0.560653992380981
0.24398595115448 0.281093581153459 0.565199669009668
0.237220920854353 0.282857697984492 0.572035621729924
0.251705784485684 0.288778117524195 0.596602412728805
0.251751675966503 0.290597779944763 0.604206002129035
0.252189652803478 0.292136737499729 0.610636646197999
0.257284088435318 0.291912220045298 0.620173786979441
0.256466099339562 0.29442156224183 0.628149180663055
0.255203126491705 0.292947443819936 0.640463165929666
0.254248087501985 0.289959823381599 0.649774796079433
0.25389002579367 0.290998597656649 0.653265897735506
0.252908024694059 0.296094278650417 0.662840408456717
0.252381561493898 0.284593330524771 0.667973424658278
0.251748650265588 0.287949995311025 0.674144309134309
0.250560430422751 0.290280351869658 0.685729452601959
0.249991890488931 0.286944984472338 0.691272716956717
0.24895115287579 0.283662868861594 0.701419908684834
0.248466866321308 0.286107432313689 0.706141702591031
0.246745543955925 0.288464857330521 0.722924595653521
0.246913977171036 0.276875851788655 0.721282371806188
0.246401146938588 0.283248054829978 0.726282466572552
0.244870869898329 0.278871201845173 0.741202667715078
0.244529810767624 0.284257033250308 0.744527994239457
0.242872676419353 0.281240968864419 0.760685054135102
0.242727011695449 0.277005622741222 0.762105285193169
0.241596821412223 0.282802274670718 0.773124640454615
0.240764791294724 0.275736004352605 0.781236934100229
0.240845884937987 0.2707230509028 0.780446271078414
0.239254953096832 0.27657183127142 0.795957856529683
0.239323448889214 0.270694753689983 0.795290022553951
0.238179811672336 0.269934776548588 0.806440485418513
0.236837207421451 0.275652895092778 0.819530876864644
0.235931951259281 0.276394881036099 0.828357124445802
0.235021013244529 0.27884121438219 0.837238770089635
0.234018848004573 0.270603760807875 0.847009881179197
0.233654511993698 0.270925103704223 0.85056215728524
0.232412882570259 0.267929520175035 0.86266804416376
0.232373333917977 0.263140205526274 0.863053643523516
0.231518889201696 0.270900295500322 0.871384479507248
0.230900543442491 0.263203297123922 0.877413350659503
0.230420678543458 0.266742855444758 0.89260476821654
0.230420678543458 0.269953992075843 0.894590558230651
-0.219810645936015 -0.183534108400497 0.40846196754728
0.230420678543458 0.272739384733021 0.921386874889774
0.230420678543458 0.26687347203154 0.92255816691155
0.230420678543458 0.26762115042631 0.932734122682921
0.230229882334657 0.267597923622038 0.94138916587433
0.193512380118231 0.22078988013795 0.331522827574573
0.195481669973751 0.222349784572608 0.33756745725887
0.212735860833085 0.230945390128929 0.370875428789614
0.197083379648965 0.229393229621986 0.364860806825212
0.208786314221493 0.234059361010578 0.382942065956003
0.214337455472072 0.238970709398644 0.401973540959759
0.222837948726078 0.243299916891696 0.418749219995337
0.211675733710761 0.244755945656713 0.424391331459779
0.222275365776126 0.24810363509738 0.437363628042362
0.228658475588726 0.252274861415353 0.453527130024509
0.232130044607524 0.254939215592446 0.463851502460744
0.236060832270349 0.259029189228157 0.479700150299122
0.240747227895995 0.2659733040329 0.506608595167503
0.240952714726963 0.264431457233122 0.500633938818363
0.251763157347216 0.271780534782489 0.529111614322161
0.243934095621023 0.271153708591497 0.526682662832065
0.246042378701069 0.275752581923319 0.544503296992876
0.254825607057119 0.281697423976918 0.567539559950572
0.25843446008642 0.283510985597133 0.574593325747865
0.257189879300329 0.286104795916821 0.585431747440847
0.260439302045931 0.284193592394446 0.589410454275961
0.258921195489502 0.283768289277315 0.60421199320114
0.257776118142524 0.283748036419403 0.615376497334176
0.256706010749715 0.284356859448875 0.625810044414066
0.257074352337414 0.280306236860712 0.622218713934001
0.255951052790699 0.280291635787268 0.633170884514467
0.254770605618046 0.281152992831709 0.644680244447837
0.254911550945257 0.276379982378544 0.643306027507538
0.253643069634059 0.274314291239846 0.655673720291707
0.252443544644451 0.273892326697525 0.667369088940395
0.251437486453643 0.282195761260883 0.677178156300772
0.250589159608032 0.275989122441339 0.685449343045477
0.251036353153603 0.270030437270812 0.681089205976159
0.249655465052238 0.274419146288311 0.694552864964461
0.249418127744697 0.271967955438496 0.69686690371299
0.248485241656478 0.273919711363725 0.705962543073129
0.247713821658219 0.267533458666432 0.713483888056151
0.246863672963018 0.271894278790791 0.721772837834361
0.245427483758666 0.271246976697237 0.735775682576795
0.245389953657342 0.266738989519546 0.736141601064698
0.24390301910169 0.266012103788923 0.750639212982308
0.243166093229026 0.265650557477231 0.757824240240792
0.242064379288692 0.271511171104667 0.768565951159037
0.241462943993746 0.269718819467995 0.774429945284762
0.240652056666122 0.272276091301761 0.782336096729098
0.239965155562375 0.264043312246513 0.789033382490634
0.238937947009136 0.262293791568857 0.799048665884703
0.238462240434203 0.257839193470954 0.803686804990307
0.238055937991645 0.261479293172305 0.807648253805249
0.23658785552629 0.26338150581797 0.821962057842454
0.236101673494078 0.258292883351703 0.826702332656527
0.235459664498621 0.25633623710132 0.832961920362233
0.233699477199389 0.265331027032859 0.850123746529743
-0.157245946046289 -0.131828253263457 0.40846196754728
0.232129658526159 0.261157915128795 0.865429478593734
-0.175179845127608 -0.147039806839723 0.40846196754728
-0.18769872423773 -0.151877426022473 0.40846196754728
-0.193471029124241 -0.163683441585279 0.40846196754728
-0.206826085548238 -0.173240336971087 0.40846196754728
-0.218023686960656 -0.17900499327194 0.40846196754728
-0.229900127913274 -0.195440646901373 0.40846196754728
-0.231093476499546 -0.199974282673978 0.40846196754728
0.0919749146980443 0.102196222430936 0.123378022136316
0.0824019171681517 0.091393503759897 0.128729272991764
0.0719891708843734 0.0891356709795568 0.129163980771631
0.0689207287776427 0.0840207623814927 0.129494070896437
0.0633833819136541 0.0807055815347416 0.129821230638649
0.220190441489579 0.226133246789284 0.352228373348491
0.225019059901876 0.230896014317264 0.370684097519414
0.222094987538865 0.230473662689825 0.369047484963087
0.223142010473092 0.234553096228431 0.384855289925185
0.227452173191601 0.239267203689988 0.403122456338718
0.231686507574661 0.241677968082924 0.412464168361346
0.230969176203489 0.244472463909545 0.423292839689503
0.242225808836181 0.250409178166649 0.446297607435778
0.244066742272084 0.253009394489534 0.456373445686958
0.248523164027634 0.257278136268997 0.472914820082378
0.238374002283322 0.256474554236402 0.469800939706073
0.252674002460403 0.265256389792452 0.503830552485768
0.255189352484047 0.265839837798906 0.506091413510777
0.26298110025672 0.272152878374181 0.530554445739966
0.267777067748393 0.274971548838835 0.541476793790502
0.264067832778207 0.275339206077437 0.542901465590083
0.266019947252379 0.278757421359252 0.556147049807114
0.262509812156022 0.280555907697592 0.563116184368184
0.269254471346153 0.274018640824971 0.574232490604508
0.261673505940952 0.274358085085027 0.57737696629951
0.260968543427469 0.273672504923344 0.584250350805964
0.259819700731196 0.27486007108506 0.595451567094627
0.259112008946291 0.272386809467022 0.602351561997455
0.258560388636234 0.275449899648871 0.607729860020508
0.25752588805704 0.272849779161567 0.617816240667654
0.257159522303313 0.264674692038427 0.621388306766482
0.255469984779938 0.272812905068383 0.637861297619392
0.254648548248634 0.270051466081096 0.645870303799604
0.254130663860434 0.266307163644194 0.65091967658456
0.253711557596486 0.265773782832759 0.655005962658052
0.252203095492505 0.263006258781302 0.669713468171869
0.251346474815248 0.266447666471794 0.678065519775125
0.250926688235444 0.260243947487844 0.682158438928212
0.250435941942472 0.265901103248515 0.686943215284684
0.250039969528791 0.256476612067975 0.690803946318074
0.248412914366299 0.268427186029894 0.706667734152367
0.248264593003792 0.264536462451443 0.708113867436812
0.247876907144003 0.256006444245692 0.71189380456976
0.246459970720005 0.259688410236541 0.725708934703742
0.245332535995396 0.258248458261722 0.736701423268678
0.244635666635202 0.259409255096265 0.743495899530563
0.244031902520881 0.25838688794523 0.749382599645203
0.242921319751016 0.252455979608151 0.760210781651384
0.242556653594009 0.255340497987575 0.763766276682199
0.241542905402272 0.252162448823017 0.773650321551637
0.240708152169844 0.258624072131915 0.781789165567803
0.239480553090461 0.249972433927008 0.793758256591792
0.238863192772633 0.246483694756083 0.79977751969061
0.238180427466223 0.248551368540606 0.806434481428108
0.237301043744603 0.252280699666828 0.815008472713908
0.236744442705411 0.25173582906648 0.820435332846034
-0.135043676479748 -0.119667343617057 0.40846196754728
-0.138503248548367 -0.121853634348352 0.40846196754728
-0.148028585569489 -0.13628215002335 0.40846196754728
-0.161391959599858 -0.14150073863784 0.40846196754728
-0.167269149129271 -0.152602480111097 0.40846196754728
-0.178098266189673 -0.155318226154066 0.40846196754728
-0.180268613703001 -0.168166660200682 0.40846196754728
-0.186799257666353 -0.173457895163035 0.40846196754728
-0.207765798434063 -0.186317384481914 0.40846196754728
-0.211213986805486 -0.1990338415715 0.408461967547279
0.0719139414520987 0.0729219616886548 0.109259903569802
0.0740927942482585 0.0761014836436388 0.121727715172751
0.218887273624322 0.221336619627411 0.333641443096231
0.226283296204538 0.228038868179327 0.359612656234906
0.230160553788904 0.229683901282211 0.365987159508583
0.231862324531277 0.233712217349468 0.381596884269205
0.229569474794235 0.235253536937194 0.387569497671643
0.244141159065859 0.244209334107091 0.422273211704994
0.238361303185448 0.242503924329475 0.41566474881673
0.256642223879613 0.251848669921093 0.45187563798425
0.252909966626361 0.252033787224417 0.452592967534629
0.253215727676917 0.2536037397057 0.458676533399603
0.257255950388302 0.259125399159116 0.48007296378159
0.263556388371863 0.264964998634247 0.50270141174772
0.270131837134516 0.268155881327701 0.515066082184856
0.263287203206159 0.26729551354513 0.511732157027394
0.271763893087763 0.274492249615204 0.53961950929893
0.271385109754938 0.275684084088748 0.544237867883913
0.279867263069934 0.278231142055126 0.554107717503627
0.278511266707919 0.283255552830818 0.573577309259436
0.276987169729113 0.276709595863367 0.574232490604508
0.272858577852619 0.268989110427605 0.574232490604508
0.261882211557434 0.258041012609104 0.575342086538812
0.260795884067298 0.265644987575867 0.585933779567626
0.261022763167264 0.254964975630099 0.583721708342959
0.260437542716465 0.258361047882158 0.589427607738261
0.258324535502235 0.257293794352533 0.610029428076997
0.258943771689731 0.259498785242707 0.603991875248912
0.257713307107011 0.252554130952632 0.615988904930433
0.256615857351621 0.253667746348568 0.626689040045483
0.255793065098012 0.254882110588562 0.634711264518174
0.25539362487319 0.251178383557173 0.638605806710182
0.25397426647968 0.253455506411991 0.652444551046909
0.253405703838109 0.251869365231416 0.657988036802226
0.253162854206703 0.250338408070305 0.660355820708434
0.251698466854631 0.260045981632156 0.674633597391139
0.250235553307436 0.250102284737883 0.688897004476283
0.250603111237387 0.246144533356103 0.685313314659271
0.24991540695878 0.241841433231528 0.692018431375682
0.249058157591581 0.243166596467853 0.700376612705876
0.247912829146685 0.242658265613518 0.71154356504361
0.246728892335553 0.249862746495909 0.723086948952147
0.24609201689023 0.250019785145362 0.729296484544042
0.24519554204833 0.242978679975311 0.738037114252576
0.24449806847092 0.245484745226457 0.744837481632321
0.243844001713952 0.239132640475657 0.751214632512757
0.24270434011099 0.249637219461213 0.762326333141644
0.242580575596762 0.243989962925607 0.763533037155355
0.241661336387654 0.243918499385154 0.77249561944416
0.240875335797771 0.241192830896661 0.780159125195524
-0.0857891738739151 -0.0866759937095784 0.40846196754728
-0.101326658188309 -0.100307758171676 0.40846196754728
-0.10017747822503 -0.101364123607652 0.408461967547279
-0.113479795414543 -0.11351729676323 0.40846196754728
-0.126384559208331 -0.118984631453914 0.40846196754728
-0.137684345374195 -0.134464162164134 0.40846196754728
-0.145504256990757 -0.142841487190877 0.40846196754728
-0.145021983060356 -0.152588867383958 0.40846196754728
-0.159337312730078 -0.157506874470925 0.40846196754728
-0.172178386704294 -0.164639492118047 0.40846196754728
-0.175257546341845 -0.179676589424087 0.40846196754728
-0.187200203812161 -0.191300669253406 0.40846196754728
-0.191507045017648 -0.196129776808656 0.40846196754728
0.237065718874001 0.22317481834512 0.340764463127352
0.234429627053369 0.225083103331708 0.348159067450381
0.227910522646521 0.223587710004796 0.342364418308597
0.252003113166806 0.234361922789445 0.384114492849113
0.243833555144514 0.233055817364909 0.379053334329036
0.248013146376154 0.237810022915654 0.397475880838175
0.250127219029692 0.242197781347204 0.414478444760431
0.251838106776307 0.241908608162422 0.4133578986694
0.262095092645415 0.248470547711841 0.438785414423399
0.277182534968572 0.256157945414792 0.468574080522335
0.262837912854085 0.255167060399084 0.464734401086466
0.277232234733809 0.260703778481183 0.486189183654599
0.271491764206198 0.26380647173277 0.498212120004501
0.272045826996835 0.265149984032039 0.503418230164168
0.282973394093996 0.270445808462079 0.52393954983057
0.284177505765415 0.272481165247367 0.531826557373561
0.290389575686799 0.277566629470607 0.551532731238619
0.299239831943996 0.2801190320133 0.561423291091551
0.28666023855488 0.282175752802598 0.569393084150081
0.284776740155431 0.275146951609132 0.574232490604508
0.283134917819913 0.272086350470941 0.574232490604508
0.277426285822711 0.267244082981315 0.574232490604508
0.268813229661097 0.256866674177318 0.574232490604508
0.261689251523301 0.249697903172148 0.577223446871606
0.261719571202484 0.246869666949964 0.576927829999573
0.260331982890442 0.256337858334768 0.590456816041978
0.259976426364289 0.249684974823848 0.593923492171969
0.258736256829897 0.243844402664391 0.606015145132288
0.257904511979801 0.245100474170007 0.614124657420725
0.257463846681836 0.242703911914308 0.618421144075881
0.255783103591431 0.248671363255433 0.634808389207334
0.25523683487704 0.243166482755423 0.640134509172652
0.254411176637161 0.241815124892345 0.648184677011465
0.254284434673953 0.2460858447994 0.649420411152748
0.253331000583203 0.24514078493736 0.658716393537551
0.252752618629772 0.232936111945663 0.664355617583505
0.251903208006257 0.233386175621662 0.672637371162781
0.251095965504466 0.234952662611121 0.680507985555238
0.249594053163722 0.238459054438203 0.695151630877499
0.249771836371915 0.236506385957635 0.693418244597618
0.248508328539415 0.235905375064592 0.705737445964497
0.247826008306304 0.234921421193211 0.712390068237327
0.246665920713212 0.231106876524419 0.723700922269968
0.2461581051631 0.233013421450695 0.728652123883558
0.244647763499029 0.235481575816957 0.743377955108255
0.244694781061298 0.233798776618841 0.742919533876133
0.243281158328242 0.234375975913912 0.756702355523431
-0.0507749048330269 -0.0705572606401174 0.40846196754728
-0.0639109927872482 -0.0781777772121374 0.40846196754728
-0.0777539994357582 -0.0912328095677033 0.40846196754728
-0.0876549276133677 -0.0930486969218507 0.40846196754728
-0.0845701363051749 -0.100756141379228 0.40846196754728
-0.0977821641737228 -0.111533629769772 0.40846196754728
-0.112441965156575 -0.119836085878105 0.40846196754728
-0.115237682356087 -0.137890744753488 0.40846196754728
-0.129881017281691 -0.14634099466894 0.40846196754728
-0.124699248910584 -0.146632662887155 0.40846196754728
-0.148060931344249 -0.165248555152391 0.40846196754728
-0.157868110030991 -0.168368131894952 0.40846196754728
-0.164167875270595 -0.175496612121983 0.40846196754728
-0.17508748285215 -0.18626889322694 0.40846196754728
0.240283788278658 0.220880778631827 0.331875059238345
0.256292895563502 0.22882062490259 0.362641963537551
0.259493002305951 0.232016701223788 0.375026759282193
0.260742794462223 0.233424491386735 0.380481946163614
0.261996016268644 0.238152861066347 0.398751673732122
0.264190032459161 0.242709369772816 0.416460849909679
0.270931816225802 0.246239747611647 0.430141064035145
0.280379517093828 0.250690608886826 0.447388151476466
0.278789671191707 0.251230208898015 0.449479101519822
0.278754542241382 0.257229542242588 0.472726518230042
0.286791385110408 0.258111890303451 0.476145616965888
0.297005536660196 0.265707120446551 0.5055771337704
0.293415745999877 0.266758754684343 0.509652216441845
0.296973738264775 0.270371026420279 0.523649769418596
0.302748383040535 0.274381012597124 0.539188465853871
0.298656381393734 0.274268651715661 0.538753067438203
0.30318874813651 0.278366798847044 0.554633387572309
0.303944694667137 0.282042352589245 0.574232490604508
0.304747889691708 0.279313765678081 0.574232490604508
0.294545902671715 0.268960301169043 0.574232490604508
0.287880415289456 0.264917310723397 0.574232490604508
0.286387824621543 0.254831294184244 0.574232490604508
0.276065213924436 0.254293481560488 0.574232490604508
0.271398277804253 0.244081728953649 0.574232490604508
0.261891399821337 0.236156763247205 0.57525250096575
0.261279610243688 0.230275864838551 0.581217449347828
0.260705333404726 0.227786896215596 0.586816648527713
0.260018106145862 0.232984873094071 0.593517114301637
0.259543100753575 0.235727417293574 0.598148416876433
0.257384321900075 0.231213235886535 0.619196510698053
0.257014897821272 0.235008472401529 0.62279839546638
0.25685461431031 0.229882712335082 0.624361159698272
0.255615050388551 0.231048663840684 0.636446907935414
0.25529241459859 0.231141656418114 0.639592606887535
0.253381815523105 0.229439508458944 0.658220947873513
0.25358426815264 0.225315874536659 0.656247034735553
0.252436699831676 0.224975184680265 0.667435825864948
0.251510510216657 0.226965182961424 0.676466174611381
0.250169486096716 0.227971375648411 0.689541159780799
0.250209560214747 0.224942913561354 0.689150437130004
0.248934244904649 0.225027100197885 0.701584761403463
0.248397276028182 0.221957954770333 0.706820207949012
-0.00655910830542335 -0.0369422142790721 0.40846196754728
-0.0144737123690349 -0.040821551437482 0.40846196754728
0.245437051483996 0.228434776376171 0.735682397254832
-0.0281085701755154 -0.065555507824936 0.40846196754728
-0.0322836369771151 -0.0675149569557954 0.40846196754728
-0.0479563944344147 -0.0772568839709208 0.40846196754728
-0.0467390740161174 -0.076555527498231 0.40846196754728
-0.0711183523965934 -0.096072960941755 0.40846196754728
-0.0757045492305689 -0.0967135610895849 0.40846196754728
-0.0779556232368006 -0.111709763550429 0.40846196754728
-0.092402306490272 -0.123948324684783 0.408461967547279
-0.0992232933202446 -0.128009022621622 0.40846196754728
-0.108743896715857 -0.131423364078908 0.40846196754728
-0.116988239325353 -0.145742948812027 0.408461967547279
-0.132706588785269 -0.156642407848125 0.40846196754728
-0.139866285689993 -0.175458331603422 0.40846196754728
-0.152437586251415 -0.181232504649364 0.40846196754728
-0.159549025699502 -0.186028185783093 0.40846196754728
-0.163896745431794 -0.196868769768368 0.40846196754728
0.266298241292113 0.227024380279142 0.355681515621691
0.265298793814203 0.227271724181729 0.356639973244215
0.267081521328955 0.230710853476869 0.369966599262883
0.270408791983369 0.235735775819024 0.389438173338731
0.279812945655451 0.241616507304296 0.412226007844164
0.282179390801678 0.241727033287188 0.412654296027867
0.284382645455483 0.245922615387227 0.42891217666552
0.286568551663796 0.247160355674686 0.433708420279421
0.29196512557667 0.25226257704549 0.453479528091288
0.294951547256423 0.257965504061359 0.475578370277781
0.298487444511465 0.259433882450201 0.481268336534545
0.293646267073244 0.2605841271722 0.485725534832291
0.290642090356093 0.262099986111245 0.491599488221087
0.302631173846304 0.265564810017698 0.505025680858596
0.306985649165444 0.27015711142013 0.522820848793018
0.313128564528818 0.274723983621243 0.540517478572331
0.316237621241048 0.280126290747085 0.56145141868497
0.322392705738193 0.283067474262535 0.574232490604508
0.316169093945865 0.273662919999904 0.574232490604508
0.303759753301742 0.27369109957908 0.574232490604508
0.302308454993708 0.260257077169233 0.574232490604508
0.290429585823026 0.252330473709897 0.574232490604508
0.294749904110706 0.2569467126137 0.574232490604508
0.282668266649208 0.244516417852813 0.574232490604508
0.275606691280183 0.237106761456384 0.574232490604508
0.273683883016842 0.236017105888924 0.574232490604508
0.267112783540695 0.229073458451492 0.574232490604508
0.260969110322325 0.222826837452068 0.584244823581116
0.260510106301935 0.21969977064199 0.588720112779913
0.259352697387388 0.222483262060962 0.600004849696752
0.258517981691762 0.220605443448329 0.608143327729108
0.2579724005084 0.218842386361971 0.613462744266885
0.25701404680311 0.224458721700357 0.622806692893472
0.255728245239861 0.220877436872742 0.635343258135143
0.255440328077942 0.219028692301466 0.638150450463854
0.255161603324543 0.218050117235406 0.640868016809484
0.254432087775 0.212482105479515 0.647980793417535
0.253671338780127 0.217022682667938 0.655398096117544
0.251639873845433 0.214541819497222 0.675204879230816
0.0440035001908796 -0.00367965086596876 0.40846196754728
0.0269736273188332 -0.0176355119862996 0.40846196754728
0.0168627461488389 -0.0241526182320595 0.40846196754728
0.0174291842084771 -0.0277158491227515 0.40846196754728
0.0106166424942693 -0.0366072029405835 0.40846196754728
-0.00644710178607649 -0.0502422412260678 0.40846196754728
-0.0212279838855858 -0.0582948586119426 0.408461967547279
-0.0191028683034665 -0.0645352179368242 0.40846196754728
-0.0314250863581155 -0.0750525217409731 0.40846196754728
-0.0389278930154713 -0.0881297587866541 0.408461967547279
-0.0468191776147799 -0.0939562172673802 0.40846196754728
-0.0567172985284523 -0.102142449355251 0.40846196754728
-0.0731260839178154 -0.11510692207109 0.40846196754728
-0.0686046453327257 -0.120493126915868 0.40846196754728
-0.0842588986101926 -0.132381940859755 0.40846196754728
-0.0893769774901199 -0.128780405670226 0.40846196754728
-0.100318112417355 -0.151226403714445 0.40846196754728
-0.10992834675938 -0.161148104823325 0.40846196754728
-0.110320400199934 -0.161349193552896 0.40846196754728
-0.128981064240203 -0.170639837017805 0.40846196754728
-0.133841720037145 -0.184329802204744 0.40846196754728
-0.144863605424608 -0.196065479329171 0.40846196754728
0.278001872364194 0.2259450547329 0.351499129130003
0.284262934043613 0.231277725015137 0.372163226473674
0.278023665623144 0.229671446352091 0.365938896654367
0.286139743772822 0.236469115270499 0.3922798637132
0.293248699913784 0.240933983989544 0.409581229999497
0.299020210009165 0.243585942121309 0.419857567760088
0.288566858429029 0.242748981182754 0.416614344123189
0.307315147792221 0.251664757899259 0.451162978899644
0.298957728553472 0.252095665707924 0.452832746658222
0.301960210505079 0.256178340570782 0.468653111751796
0.302867545045323 0.256906136654461 0.471473321576052
0.306606195572226 0.260683886258656 0.486112101292309
0.310058079467481 0.264579956549324 0.501209373668644
0.319938916149971 0.269908749008344 0.521858444447347
0.320418382324976 0.274029267086115 0.537825451998712
0.322226428083299 0.276482897804654 0.547333271033049
0.320749501499788 0.277749120770888 0.552239885027207
0.328877121759241 0.282738510431238 0.571573769961063
0.329652623830241 0.276959652022976 0.574232490604508
0.318898658850412 0.267951937167381 0.574232490604508
0.31015147249062 0.263851860617084 0.574232490604508
0.307449045320735 0.26309736069209 0.574232490604508
0.302836366625079 0.251192135020509 0.574232490604508
0.295428343419508 0.246032228373203 0.574232490604508
0.288951452869483 0.236491013903492 0.574232490604508
0.283113751118161 0.232151468056903 0.574232490604508
0.272067564056494 0.221261097807084 0.574232490604508
0.269599094977889 0.219556425083086 0.574232490604508
0.266671701630487 0.211126818707726 0.574232490604508
0.261338191413067 0.213014799794391 0.580646282946388
0.259821153456285 0.213477039549792 0.595437403025004
0.259915507705772 0.20573053018864 0.594517449092508
0.258587468064449 0.211508442715324 0.607465835595403
0.257716551664359 0.212122303143757 0.615957270496282
0.256931264375462 0.204573240608069 0.623613821563031
0.256280912192542 0.202521277420959 0.629954755346506
0.072553505964102 0.0102278737521025 0.408461967547279
0.0638146850972107 0.0104195766856999 0.40846196754728
0.0635517190809784 0.00487781708700166 0.40846196754728
0.051803849040976 0.000652875540258336 0.40846196754728
0.0433974051946451 -0.00581472896336527 0.40846196754728
0.0370431093220009 -0.0154429390116044 0.40846196754728
0.0267565290524151 -0.0296083824085675 0.408461967547279
0.0187123866763242 -0.0388739366042845 0.40846196754728
0.0131290361226164 -0.0479090308487118 0.40846196754728
-0.000408640755564528 -0.0571746585820875 0.40846196754728
-0.00302615733797153 -0.062644566271156 0.40846196754728
-0.0130292175113484 -0.072101443796635 0.40846196754728
-0.0184923177288784 -0.0831526493512579 0.40846196754728
-0.0289503714275163 -0.0851627790682089 0.40846196754728
-0.0359787430367834 -0.094640184124948 0.40846196754728
-0.0550724136314094 -0.108672983799775 0.40846196754728
-0.0558465670654542 -0.111356763395742 0.40846196754728
-0.0706735818392914 -0.132528348227138 0.40846196754728
-0.0736037237779952 -0.136300500149014 0.40846196754728
-0.0853857680068389 -0.140993371143236 0.408461967547279
-0.0998638601883176 -0.154469725168523 0.40846196754728
-0.0974868812389603 -0.163730082211707 0.408461967547279
-0.114379565742626 -0.175295912257993 0.40846196754728
-0.12510780978127 -0.187794073695225 0.40846196754728
-0.13153059318953 -0.19359769180867 0.40846196754728
-0.137125680133841 -0.198451116568068 0.40846196754728
0.283927033298222 0.225380304622806 0.349310722453388
0.295055823861587 0.231740426432704 0.373956194466743
0.300135784530414 0.237148548079891 0.394912665849593
0.292499344804074 0.235822867713889 0.389775654431335
0.294292791172438 0.240420120463441 0.407590008835849
0.302901721816713 0.242415312893279 0.415321379501471
0.317216419936849 0.250236227173712 0.445627422338148
0.309783218733951 0.252100905209933 0.452853049728505
0.312861449832329 0.254998361775453 0.464080693919895
0.323453009071523 0.258199581760462 0.476485421361805
0.31795586559601 0.262681533470881 0.493852984239677
0.328765584629228 0.266985194019838 0.510529668866887
0.324923795450054 0.267527308449191 0.512630362280631
0.324365762526781 0.268864889288112 0.51781348803145
0.326740991214714 0.272225586485022 0.530836189669474
0.328893562400646 0.276190351937893 0.546199655799351
0.335671804294078 0.275414084875908 0.569842991164193
0.335011823523906 0.27665765590714 0.574232490604508
0.332783084697727 0.268857666542791 0.574232490604508
0.333487108092754 0.272960591867705 0.574232490604508
0.324008195112743 0.260547788347734 0.574232490604508
0.312786280206068 0.250918976742372 0.574232490604508
0.310969044807297 0.247463678868918 0.574232490604508
0.303841884255836 0.237267502989983 0.574232490604508
0.2904652592354 0.234607953098425 0.574232490604508
0.288520188160056 0.225781861667549 0.574232490604508
0.288470578738415 0.218577713651493 0.574232490604508
0.273967655402387 0.211418318198081 0.574232490604508
0.271928952505823 0.208369254056885 0.574232490604508
0.261687160392267 0.194239898800895 0.577243835399182
0.261166655502664 0.198373101845548 0.582318758072814
0.259803424162061 0.200579849422083 0.595610263643692
0.259358752446382 0.196804711109563 0.599945812871562
0.106222002878685 0.0341301298198625 0.40846196754728
0.102786295481955 0.0328543780880592 0.40846196754728
0.0831309274518216 0.0226332243497935 0.40846196754728
0.0775789441739217 0.0138532921008868 0.40846196754728
0.0794872207581 0.00118875320548247 0.40846196754728
0.0570625080654572 -0.00711216425424754 0.40846196754728
0.0612105038709972 -0.0122057036390736 0.40846196754728
0.0514873583660724 -0.014136618481963 0.40846196754728
0.0396573728506479 -0.0258973322848505 0.40846196754728
0.038316645396288 -0.0299116352080792 0.408461967547279
0.0206582343099661 -0.0482610265692792 0.40846196754728
0.0195968315357131 -0.0548180191045545 0.408461967547279
0.0129058895721401 -0.0608158626820073 0.40846196754728
0.00372146065412702 -0.0671300798164335 0.40846196754728
-0.00339025360646489 -0.0762284716519633 0.40846196754728
-0.0186946875568321 -0.084663013881516 0.408461967547279
-0.0165698225023478 -0.0905442577112072 0.40846196754728
-0.02962044878577 -0.107843256375547 0.408461967547279
-0.0447993145035932 -0.116100418713909 0.408461967547279
-0.0469672778264365 -0.121875033290748 0.408461967547279
-0.0608987773502218 -0.133805422960573 0.408461967547279
-0.0679908764914755 -0.137322343357042 0.40846196754728
-0.0815569175126732 -0.153224903178875 0.40846196754728
-0.0914550024778428 -0.159055497750937 0.40846196754728
-0.099434752668905 -0.165448351045299 0.40846196754728
-0.104843434381786 -0.180126786131795 0.40846196754728
-0.117786007166472 -0.184759538129973 0.40846196754728
-0.11940926152915 -0.197049606377151 0.40846196754728
0.298381520139483 0.229183926578105 0.36404975753017
0.310060923377253 0.234340715318041 0.384032313897423
0.310533263225209 0.235054553375167 0.386798436368787
0.306574660139034 0.237839310082309 0.397589368608963
0.310649523038005 0.242478813324135 0.41556744367104
0.31613842753548 0.247562567771869 0.435266992156008
0.318516905403398 0.250277722263704 0.445788215811869
0.323912767098621 0.252963790465475 0.45619673009373
0.327224292915905 0.25648931186594 0.469858125520531
0.335671804294078 0.260037267086825 0.489945494462312
0.334885619455288 0.263937125404768 0.498718402983487
0.335671804294078 0.25925018080059 0.50762757984834
0.335671804294078 0.255851210402658 0.518425108848276
0.335671804294078 0.266866756039409 0.523827050197319
0.335671804294078 0.257377283796272 0.534854676257392
0.335671804294078 0.26295468295853 0.55211927669991
0.335671804294078 0.267966609880561 0.559075462372508
0.335671804294078 0.265676457907546 0.564258348520829
0.335671804294078 0.260997174035233 0.571072618358736
0.330575863985304 0.257261618407375 0.574232490604508
0.327983157818917 0.255597936930285 0.574232490604508
0.321043359237852 0.240790218740416 0.574232490604508
0.314849439211273 0.239037856982376 0.574232490604508
0.29994576299894 0.225835822410354 0.574232490604508
0.304011410439266 0.225086973227889 0.574232490604508
0.295896859551702 0.219532315866494 0.574232490604508
0.28822667033068 0.211876344182289 0.574232490604508
0.28331314035419 0.208415242675932 0.574232490604508
0.274972527472945 0.198929272235775 0.574232490604508
0.271953410362542 0.19762322938669 0.574232490604508
0.128196886067762 0.0517213784405624 0.40846196754728
0.128601656077157 0.042512382823984 0.40846196754728
0.11833869291908 0.0331691981530907 0.408461967547279
0.112965420450121 0.0342344041457932 0.40846196754728
0.102552318267394 0.0192490035636771 0.408461967547279
0.091892471672914 0.0139270358505171 0.40846196754728
0.0891681073277589 0.0115072145577412 0.40846196754728
0.0827028800174444 -0.00249796384972534 0.40846196754728
0.0734114981421432 -0.015203972321174 0.40846196754728
0.0690189295869566 -0.0140420852614688 0.408461967547279
0.0550225363117413 -0.0249749288061492 0.40846196754728
0.0479310921567288 -0.0379898719636486 0.40846196754728
0.0350385625731929 -0.0456365936793484 0.408461967547279
0.0362058507323432 -0.05593078735903 0.40846196754728
0.0289545942976772 -0.0562411613510701 0.40846196754728
0.013634802226321 -0.0726742072291681 0.40846196754728
0.0151409367245892 -0.0742790358863682 0.40846196754728
0.00505915391570488 -0.0879365997675805 0.40846196754728
-0.00239818364800714 -0.0924423503658954 0.40846196754728
-0.0216065780306383 -0.103887156709517 0.408461967547279
-0.0219631776485864 -0.112235363952422 0.40846196754728
-0.0339880836942265 -0.122345338556492 0.40846196754728
-0.0446562245370412 -0.131124471154207 0.40846196754728
-0.0546968578850824 -0.140029224185455 0.40846196754728
-0.0654993971792186 -0.156239625929762 0.40846196754728
-0.0732798334265035 -0.156533864532338 0.40846196754728
-0.086109433828689 -0.171228827543694 0.40846196754728
-0.0899366410032333 -0.16999010472129 0.40846196754728
-0.0907489949824074 -0.178560487487056 0.40846196754728
-0.104111796967557 -0.199951871381717 0.40846196754728
0.328664118047462 0.235507728135259 0.388554488564141
0.323404145318343 0.238668732278341 0.400803379618587
0.327306782828097 0.240256909012477 0.406957564463365
0.326413180925006 0.242237055898216 0.4146306336456
0.330202296574954 0.244783677243311 0.424498791357845
0.335671804294078 0.244132044650169 0.440429702255968
0.335671804294078 0.25411899486734 0.462515430458455
0.335671804294078 0.251012920161133 0.47569111281772
0.335671804294078 0.253407052127171 0.481064223832791
0.335671804294078 0.254551937190306 0.487181140114207
0.335671804294078 0.247892200825905 0.483747310332636
0.335671804294078 0.246772640833261 0.498915953991741
0.335671804294078 0.251927614193086 0.513528547395957
0.335671804294078 0.251413632087468 0.528014550251816
0.335671804294078 0.247779228330803 0.520754195362729
0.335671804294078 0.245659649805003 0.531309462996616
0.335671804294078 0.250075525212235 0.547868442782992
0.335671804294078 0.25249771748422 0.55388874662972
0.335671804294078 0.252789567803001 0.566252749177578
0.335671804294078 0.246371307913721 0.566027021372727
0.334043157980554 0.248704123092254 0.574232490604508
0.326971953610827 0.239556011215197 0.574232490604508
0.31486431418978 0.229835128702837 0.574232490604508
0.316483418516419 0.229278456656001 0.574232490604508
0.309860671170714 0.225670882817219 0.574232490604508
0.296950184958542 0.212690589091931 0.574232490604508
0.292693781973972 0.20194883376461 0.574232490604508
0.286137952226441 0.193933052759545 0.574232490604508
0.280919418249383 0.19183033377851 0.574232490604508
0.278662133251039 0.190945219135839 0.574232490604508
0.26592261353323 0.181719936426788 0.574232490604508
0.127895365993045 0.0338419373961181 0.408461967547279
0.128491208747116 0.0257893781762155 0.40846196754728
0.11223983851289 0.0231373071436428 0.40846196754728
0.107225936015374 0.00825703035093269 0.40846196754728
0.101745321872243 0.0116494515876479 0.40846196754728
0.0927293225827332 -0.00980651926540552 0.40846196754728
0.0840217629481181 -0.0155966467726045 0.40846196754728
0.0830010327580671 -0.0228686296055093 0.408461967547279
0.0740776486218616 -0.0272280600848988 0.40846196754728
0.0689012304323588 -0.0342572603922278 0.40846196754728
0.057708178113165 -0.038237353113309 0.408461967547279
0.0432336993764001 -0.0589087888975148 0.408461967547279
0.034890598507382 -0.0675797574964829 0.40846196754728
0.0311679137578237 -0.0636648953766753 0.408461967547279
0.0288947072167756 -0.0731547889008845 0.40846196754728
0.0121024774148827 -0.0844977740391145 0.40846196754728
0.00438857562708084 -0.0990805527728482 0.40846196754728
-0.00158989235004875 -0.10081277397685 0.40846196754728
-0.0104904008971908 -0.112073099162492 0.40846196754728
-0.0184890432524603 -0.11662775756058 0.40846196754728
-0.0294501907691077 -0.126665807374158 0.40846196754728
-0.0304579882073943 -0.136968042622543 0.40846196754728
-0.0449548612497618 -0.146353445967749 0.40846196754728
-0.0511372446623684 -0.154392514163074 0.408461967547279
-0.0611018701294835 -0.166746371497029 0.40846196754728
-0.0680367249595356 -0.178265250584952 0.40846196754728
-0.0769706449390142 -0.180742202816741 0.40846196754728
-0.0954692762015468 -0.198313636642869 0.40846196754728
0.335671804294078 0.238498035314925 0.403186194466498
0.335671804294078 0.237732023615613 0.399790108599927
0.335671804294078 0.239899771282228 0.416312135004838
0.335671804294078 0.233695137103706 0.417229398049072
0.335671804294078 0.233893744763921 0.427822249318969
0.335671804294078 0.245567065835565 0.442111271933331
0.335671804294078 0.23731213478297 0.452745480409522
0.335671804294078 0.238431839855658 0.462843467189476
0.335671804294078 0.241089821427013 0.471483208707569
0.335671804294078 0.240709019621895 0.483637337769803
0.335671804294078 0.240216618933694 0.48332580232927
0.335671804294078 0.231370892246541 0.485661813685653
0.335671804294078 0.241023304197064 0.504898055694915
0.335671804294078 0.244394538438344 0.510302251189717
0.335671804294078 0.240336320200586 0.514910495368557
