ply
format ascii 1.0
element vertex 859
property float x
property float y
property float z
end_header
-0.270752804073531 0.0848743528459774 0.971452876068375
-0.275631020551634 0.0834090920674363 0.979054342700463
-0.279908172724321 0.0885530716373136 0.990625670506764
-0.287126631537167 0.0857704224135216 0.996489629400346
-0.307946970963361 0.08513763786202 0.998692054736323
0.00817613864648263 0.0865329088905936 0.139541994744403
0.0113906951658681 0.0926514016841332 0.152725179898822
0.00861565085197912 0.0885713833402261 0.160712493871767
0.00629660267106093 0.0875387492392794 0.165997261437007
2.61728674168415e-005 0.0891634863295692 0.174570433642845
0.347165119780548 0.0770474063914448 0.504559752753968
0.349503965706888 0.0832733260570361 0.515821163559785
0.348823952778948 0.0821420073640952 0.522797773352423
0.342714047863759 0.0789030190354747 0.532509828368879
0.341095400556273 0.0827223742512843 0.532319984824856
0.333992771934192 0.0808307813118134 0.535549928136377
0.33007990930496 0.0806228001832691 0.537721574357154
0.313581319794606 0.0809871205447305 0.539783898045948
0.313901048309599 0.079370552513734 0.539743931981574
0.293226198947858 0.0766435538978001 0.538571296779062
0.283387616167179 0.0810616066762719 0.537585959663603
0.274897436716755 0.0782308907949798 0.540778251227285
0.272916745869926 0.0773887453250142 0.540918058926304
0.254758391693196 0.0824698881928953 0.542169512368982
0.250906406452381 0.0868374950228818 0.541965233540475
0.237435298844031 0.0845110046805755 0.541250831191875
0.219889727028359 0.0861425916146378 0.536229886605014
0.210256867269507 0.0817408661742364 0.53972118790265
0.199357158990414 0.0820238413198026 0.539223230782876
0.199074257750841 0.0815520354972336 0.539210306339375
0.166717914222584 0.0875991641434585 0.533682484944319
0.157744891688859 0.0849964460785054 0.527544625632734
0.149648899985942 0.0850293239792901 0.530529007490373
0.136222438355136 0.0847846100436356 0.530267471799973
0.120250136956521 0.0896553528665554 0.527565344683877
0.097401670446327 0.0889344749544359 0.51967147738958
0.0969179842733365 0.0909618403650689 0.519797016068767
0.0899213957485395 0.082603816229742 0.521612950720771
0.0747504133620265 0.088050633803501 0.521418747077827
0.0589353161572952 0.0877387811724871 0.520002811894134
0.0479632075658667 0.0927217219329616 0.518447712199404
0.0282980836534418 0.0875439151159016 0.514487735514098
0.0205119679064215 0.0892158900815953 0.515730534803351
0.00179730208151369 0.0854122160687487 0.514157454404409
-0.0283674661323358 0.0872345716543522 0.504039569466545
-0.0328310541165579 0.0872983763407557 0.505418003315547
-0.0369002454372908 0.0870057476617816 0.506563321444405
-0.0590601149333515 0.0883533384300324 0.505879935899604
-0.0684086245473935 0.0892093236053122 0.504334760897093
-0.0811568219445654 0.0936490881805638 0.500693866213812
-0.103486558784513 0.0964409488519839 0.500792915541125
-0.114960077040009 0.0981100194526217 0.500926258421044
-0.127534848238313 0.0928517400412451 0.502032555740214
-0.130417860456532 0.0976255390874535 0.502426754537745
-0.140967985748203 0.0993609766188376 0.503869289771377
-0.157031637776743 0.0994028105624191 0.506690235945887
-0.157833830217009 0.0904867721615249 0.50970928308853
-0.167406301335134 0.0979979346515509 0.516963155266214
-0.177743619097414 0.0997072713095386 0.524728223270223
-0.179297217976505 0.090532211657001 0.526125057860134
-0.188338554926463 0.0994077908026464 0.534254100499285
-0.195525246085147 0.0954169475817658 0.537362746014374
-0.199553972206854 0.0952430860712147 0.537750591415364
-0.201479085335387 0.100552089730945 0.557168326212805
-0.202640315335937 0.0923529522789115 0.560918621958298
-0.206103073652321 0.0961472173050904 0.576066441238124
-0.207208808204142 0.0922984930075055 0.581636038996953
-0.212248962546378 0.0989296559174908 0.591901312226919
-0.208868919185074 0.0963780106386854 0.601989522302308
-0.205860185301311 0.0909817907995925 0.613859073189193
-0.20328922273881 0.0935039729524918 0.631476653404531
-0.203006033679065 0.0968675556278466 0.635098489418138
-0.203421662964239 0.0981220762258409 0.651802446181912
-0.205082137754925 0.0984484837113448 0.65548794870126
-0.198947641657652 0.097764246559319 0.675784208559007
-0.197615951803516 0.0982108554547771 0.685001547207645
-0.197293499164681 0.0967137097078219 0.690575285349521
-0.197167755059535 0.0972344046145126 0.708452738900105
-0.198764584786335 0.0936195367002714 0.713777612216174
-0.196860958188902 0.0919697841938728 0.73494630195417
-0.197194198682408 0.0974546356403998 0.741914037056419
-0.197955456923607 0.0962571641051007 0.748530519080878
-0.199648040748949 0.0928678037133853 0.760327325907236
-0.202224235193479 0.0959327416835638 0.76787252161027
-0.204635782156299 0.101044500481343 0.779046604115187
-0.206072747881878 0.0990479446048003 0.789046360935417
-0.209503293611177 0.0968614525570018 0.801679493883444
-0.209077322860436 0.0909672972737674 0.800110836530041
-0.213873337072341 0.0926637550167342 0.813913144024792
-0.216793039087063 0.0947443997817394 0.821863183931668
-0.220712699532533 0.092673859139541 0.826827575249046
-0.224165455634109 0.0961630957046174 0.841932952124498
-0.226343562487088 0.0920000201625222 0.849652029844438
-0.230493748718438 0.101074913303937 0.862475037509447
-0.232341228141646 0.0937671196482307 0.867281876301295
-0.233721602501314 0.0990365804040425 0.870680853840389
-0.238501354589111 0.0921247132009782 0.882450338535383
-0.245059589957233 0.097842507725854 0.895949449209029
-0.246168633392937 0.0930918965007095 0.905150532915
-0.247848344194233 0.101192401412848 0.910285650190304
-0.251107388603592 0.1019783814044 0.920249017238119
-0.254485674670125 0.093207834311511 0.928692146551749
-0.256677504050259 0.0973871869682934 0.933952544070135
-0.262553441562564 0.0929003779690051 0.943797860411515
-0.264974919439512 0.0938824323306161 0.955327122697368
-0.266719126031643 0.100141507693241 0.96097505930908
-0.271679527598036 0.0985574944958753 0.973494796509399
-0.279157364351981 0.0967779559104823 0.98172847326385
-0.27954013136177 0.0995404190690341 0.989739717047983
-0.284086252501979 0.103181708641575 0.99474204713467
-0.303206556566245 0.100565867259832 0.999346745117923
0.011118251117781 0.0977780778796879 0.136518455275405
0.0132561249047526 0.102822197541045 0.13823033239985
0.0140178252138991 0.102302545559064 0.155341088371386
0.0125107098697012 0.0992409055306593 0.157709483323364
0.0103307368597811 0.0957853850857343 0.162237925974365
0.00747869771715488 0.0979765708796491 0.168541570753087
0.346589956188886 0.092111896297831 0.502679785006666
0.349480459831079 0.0846068074842715 0.514598666393709
0.346162017126885 0.0883855205632483 0.528846415051851
0.34543304158404 0.0895026855402855 0.52962094447412
0.334333340939664 0.0870149008724099 0.535311687081564
0.328512350615712 0.0880006153641644 0.53791751919331
0.325975531184952 0.0873273293039083 0.538234621622155
0.319623408035077 0.0851485712082648 0.539028637015889
0.308924348543332 0.0906392425842099 0.539763179305619
0.299476830075979 0.0896208251838052 0.53967364320477
0.283303632103776 0.0904197985439676 0.53762420956267
0.277499519645484 0.0910036186307775 0.540267648171233
0.26610932988267 0.0896701736208009 0.541398562568235
0.253373524699803 0.0874962570732096 0.542096069977758
0.246293453842502 0.0960941423663187 0.541720598853003
0.240067520809724 0.0962249317422139 0.541390423735527
0.217979568013701 0.090346642119351 0.537153633097631
0.217873418122146 0.0941395881121812 0.53719324899662
0.204495832379432 0.0914713572094628 0.539457992896039
0.199265610156434 0.0902448965232375 0.539219048305687
0.173493036559956 0.0912223881947914 0.535880612362798
0.176742814732594 0.0906417877599472 0.536459530970379
0.148756602045515 0.090735558682961 0.530770848055647
0.137785667029861 0.0943460802728128 0.530441160628348
0.124473659960221 0.0938843548855369 0.528587948778177
0.115648383154621 0.0949846683786545 0.526451162700136
0.0961149838872565 0.097016077608852 0.520005431387389
0.0845350634625607 0.0949252984534229 0.521778141494222
0.0730405876092239 0.093732099637552 0.521355944440814
0.0627130445060113 0.0993669051112097 0.520538237163845
0.0502511017609512 0.102734801162351 0.518771980186246
0.0256989913553741 0.101158218490801 0.515255068318911
0.0166761160107312 0.104342245127784 0.515430615448195
0.00104314902210047 0.100084563877687 0.514007900103922
-0.0197235030855848 0.0963409340760903 0.508938010198888
-0.0304273080807602 0.104889702016325 0.504656480813144
-0.0391446487067736 0.102016385529157 0.506956556195496
-0.0524683404127272 0.0984147627923116 0.506272852606597
-0.0811631720461756 0.0991840081329728 0.500689943685939
-0.0882598928674445 0.101234510871252 0.497349722942671
-0.100503656355296 0.100103341886311 0.500758248859854
-0.117159083305299 0.103691175135382 0.500951814821604
-0.128128236527242 0.103664463873563 0.502113690654762
-0.131354334689406 0.104395916016247 0.502554800133314
-0.14316742579112 0.102920926399855 0.504170022669656
-0.158345590342014 0.101044732019833 0.510113197891585
-0.158217600377875 0.103672824074796 0.510012179780497
-0.167148017951829 0.108263528231078 0.516782947018594
-0.174167733068158 0.101208106650865 0.521602089058489
-0.184592076935315 0.106285284704039 0.530885651490814
-0.186887716931258 0.103853709451793 0.53294965575576
-0.200687515716258 0.1017727680023 0.537994439284843
-0.199764965783792 0.108182760374441 0.551632433765421
-0.20201633690585 0.101946403461735 0.558903428823712
-0.205257384555822 0.105036886967273 0.571806696917741
-0.20578722235395 0.101805676330529 0.574475495686022
-0.206800088355095 0.101505572394104 0.579577314256593
-0.213450311480217 0.106743678596063 0.592830611998041
-0.206743258822705 0.112304329305933 0.608921896166438
-0.203815328005169 0.102820210923527 0.625291602544422
-0.203641861992979 0.104000618790448 0.62696653450641
-0.202517276611465 0.108570152733798 0.641349382910879
-0.20247021839734 0.110685464932169 0.647789840122951
-0.202225849773344 0.109825874049395 0.66113548839977
-0.198868038148964 0.111695028852311 0.676327792652504
-0.197565710389037 0.108861107817636 0.685869992537151
-0.197200607500049 0.108906423625899 0.692180959336544
-0.196597361862951 0.101860494700978 0.706015618249885
-0.199729007720269 0.110625456803619 0.714742018773144
-0.196468126008072 0.110628751471941 0.726732587754941
-0.197737937415303 0.10238841950743 0.7470144618085
-0.197901508567673 0.10569574553536 0.748154515107167
-0.199393258138572 0.109724395855049 0.758551569749998
-0.206023014431114 0.111612081947161 0.772927673772944
-0.204537522872249 0.107820149037998 0.782191034694159
-0.206523665759338 0.102176079298176 0.790706882641234
-0.206566217746078 0.110445347506854 0.790863583766804
-0.211893402790624 0.103112332182135 0.808522010959605
-0.214986354210333 0.102805716271345 0.816943767654826
-0.216406676719087 0.102141007199082 0.820811159117454
-0.223844493689173 0.108652832789571 0.831178887705327
-0.224275155583149 0.104632309980398 0.843194481047735
-0.227368577435842 0.104002405835154 0.852819061843112
-0.229487324759477 0.105843775188127 0.85936544687228
-0.233231550937562 0.107121056491543 0.869474172110686
-0.234310574548491 0.111367764260927 0.872131115869675
-0.237345549737577 0.10480823690087 0.879604321987793
-0.244988237294931 0.103228015926313 0.893564737904258
-0.245197198031258 0.110832903715148 0.898574748339872
-0.247569291826546 0.113156623693905 0.909432547005566
-0.250748470679242 0.104602651667757 0.919151753570868
-0.254063046774299 0.107576624059205 0.92767783825086
-0.257329683938306 0.10328497701759 0.935517777886105
-0.263649984013316 0.113546299572465 0.945036534653248
-0.26677632166284 0.106432923558339 0.961160265179145
-0.268644763191555 0.10867689599726 0.966808069226202
-0.272400773817127 0.108516573004111 0.975083973171943
-0.27690302096796 0.104445143293043 0.980005448366499
-0.280112291385747 0.106186994631379 0.990879058860195
-0.283300642244212 0.112034829707778 0.994227850679811
-0.291646331386777 0.111384645002249 0.998545720795422
0.0152999787348551 0.107896553978551 0.139551838715854
0.0151173923546279 0.107459901458935 0.156919722303082
0.0154243772492998 0.110148755343727 0.158773038665942
0.00855500468754272 0.106792664191945 0.170113371766091
0.00550463292416192 0.108667981899111 0.173089180952514
0.349438655958747 0.0942669670205697 0.512424524240037
0.349595507134104 0.0971200810387412 0.520582064036693
0.347882756344505 0.0996382163690607 0.525233797910131
0.34273083020086 0.0932087087511425 0.532491998888964
0.338154703871681 0.0986466355453192 0.531490519156585
0.334332954144609 0.101941564825219 0.53531195765951
0.326952728285517 0.0990544770068685 0.538112471984585
0.317003793327433 0.0991549125297401 0.539356088854345
0.304912337859549 0.101310814462555 0.539725156644491
0.295080162172079 0.0995298370780868 0.53944106594115
0.282560527615968 0.0982888959380108 0.537962650815727
0.280913271673189 0.104112864538396 0.538712880930773
0.26657338268424 0.100003503494146 0.541365807252323
0.26485887985528 0.103747233641382 0.541486825984682
0.241375050553448 0.0995112861873375 0.541459764938013
0.238924137871028 0.104998715205262 0.541329787543685
0.219524492889941 0.102228012787192 0.536577056080495
0.218607986755233 0.104582343849725 0.536919102727205
0.201917647372817 0.0987023267442172 0.539340207549396
0.198109930075754 0.099307821376416 0.539166250603623
0.180206347833153 0.107829677516114 0.537076527786246
0.163271293730638 0.101303654482256 0.531458885503138
0.155338793015967 0.104749838595949 0.528418839485994
0.145214081555166 0.106768572536631 0.53126652324547
0.127840396604623 0.109337400116864 0.529336150440193
0.0987838624750552 0.103509166585721 0.518797171394993
0.0931557528202101 0.105829952588216 0.520773487164699
0.0885088609374866 0.107027136055614 0.521924100788596
0.0726513007861731 0.106163077129406 0.52134164576798
0.0620497530655866 0.112117037535935 0.520444227493057
0.0495504413765758 0.103192358508942 0.518672674137571
0.0322530435950058 0.107154242857727 0.513320108451704
0.0236885356696908 0.111255551653566 0.51584861730576
0.00469476467451275 0.110891102526355 0.514493812030241
-0.00726091661827428 0.115167947514511 0.512361140586688
-0.0313421327516954 0.110312257771688 0.504933100821295
-0.0341717632328896 0.110456504904546 0.505806826991932
-0.0559536602214776 0.112119906273111 0.506094003817221
-0.0740399677638474 0.112943366478791 0.503403979586647
-0.0876008370701414 0.109879626069709 0.496952468740125
-0.101161705528645 0.118447923871916 0.500765896572608
-0.109909456419752 0.111970343438427 0.500867561142329
-0.129457029862701 0.112190979564097 0.502295378658613
-0.135731722374232 0.11172369524238 0.50315332724006
-0.139632621619125 0.116559888777641 0.503686703332574
-0.156434420774108 0.114976703772583 0.504442637379081
-0.16538810768587 0.118869574897863 0.515511464174163
-0.174396081874823 0.115451082550876 0.521757303268357
-0.173682904204043 0.115521312045548 0.521272539146829
-0.181186311593246 0.116012770329511 0.527823536522367
-0.187072039758235 0.117233856751751 0.53311538053294
-0.200394107185153 0.120084495531533 0.537831471196639
-0.198626913297561 0.111908799152246 0.547957010664644
-0.200345927036053 0.121707797580543 0.553508692551362
-0.205135793591369 0.118852918495041 0.571194245054773
-0.205088523647269 0.119876468818042 0.570956146012571
-0.206164331945115 0.116829238060868 0.576375005011586
-0.209538041204048 0.121909201249083 0.589223438504249
-0.207605914762059 0.115851685721437 0.604564082201229
-0.204956501074714 0.119359967572906 0.618911469132436
-0.203418684602258 0.121679908777162 0.62982088652656
-0.20237341387235 0.117861216992415 0.643189292639573
-0.203329856811823 0.119516444060171 0.651415268594788
-0.199554217929146 0.114637213161796 0.671642114597204
-0.198357737001588 0.122611833909885 0.679812457979149
-0.198065226837237 0.121385999729152 0.681809906020665
-0.196779802791465 0.112787232865766 0.699454768491938
-0.197220139840019 0.117358368979813 0.70867656073701
-0.196456644475107 0.115521473875779 0.726492525292426
-0.196554393553275 0.121658782403071 0.728536368487465
-0.196956711544036 0.112563143378935 0.736948431528396
-0.198519643726177 0.113802835481247 0.752462746931347
-0.200037042468964 0.121715959007755 0.763038547832734
-0.204807583787237 0.122389359377485 0.771914751658047
-0.204568800249428 0.114990496239748 0.781190116132811
-0.207395643511092 0.117821613840752 0.793917982450011
-0.206535458376857 0.113552717921353 0.790750311598704
-0.20931089855832 0.121177684170411 0.80097099506275
-0.214534603873895 0.121234698438277 0.815713701796518
-0.21910993198598 0.114046575453697 0.824988747368548
-0.218929736757626 0.122603241273604 0.824768904253148
-0.224122827522133 0.123059217659395 0.841442736799247
-0.227057706928473 0.120419127103167 0.851858554471055
-0.230245047237099 0.119223779529365 0.861706616726045
-0.230565218520519 0.114616874008283 0.86269586298035
-0.235068515555178 0.114065607467248 0.873997438875098
-0.242219922624413 0.114200785001588 0.887686794302978
-0.245062592944232 0.118821581358627 0.891049703243449
-0.245044494285554 0.118833215357661 0.896226652543508
-0.249002063237732 0.12261424830405 0.913812735082864
-0.252786427877468 0.115658147931002 0.924613948817822
-0.254453787928604 0.124303987140792 0.928615618270174
-0.258223761430127 0.124261023551164 0.937663566724344
-0.259925237733313 0.123266027100465 0.940635136126861
-0.265224139234616 0.117480297073907 0.956134124351573
-0.266354847223505 0.119831328859926 0.959795483663262
-0.272782322154353 0.116074221933504 0.975924667649228
-0.279770682786626 0.11680931579108 0.983051547291923
-0.279175551405742 0.123383395314173 0.988077245905637
-0.280501609167151 0.12177894360657 0.991362349270303
-0.298314769771443 0.116241306411457 0.999971450870853
0.0195266082137957 0.120786485679405 0.139289284635815
0.0194614948261298 0.118366035850331 0.143612698620958
0.0194863963277902 0.121195002306768 0.155550125773865
0.0150842495663543 0.123841667154971 0.167013999218647
0.0151169684311668 0.122826957535547 0.166519377231436
0.347325892303756 0.107768145831003 0.505085250477859
0.349411584080295 0.104610922354277 0.521276853565039
0.347371180181145 0.106012893713977 0.526557870177597
0.340798698264163 0.105009068444546 0.532268061888939
0.335308893745672 0.107337522186187 0.534629250553883
0.329659670922062 0.104137443710269 0.537774104155016
0.321276386283812 0.102998289388588 0.538822014734797
0.314103420958591 0.107316465190416 0.53971863540045
0.306469974900287 0.105551453509927 0.53973991869525
0.290553866824892 0.110110033015301 0.537317597654371
0.28218542480127 0.11297627777726 0.538133488522556
0.270846631851528 0.106640066903578 0.541064178588583
0.273880687749478 0.112065742356166 0.540850018779411
0.265054737217255 0.107281439062297 0.541473001329937
0.255973268677906 0.107615134304546 0.542114019700991
0.227681243063792 0.113127314579344 0.538437737086683
0.227301744072159 0.115604301964347 0.538261127538063
0.214877692613377 0.109020863586559 0.538311275189718
0.206388545071511 0.112754315010086 0.539544462068484
0.194618062211195 0.107959431451467 0.539006723057933
0.174727525350627 0.114166196937487 0.536100524992314
0.167884038927485 0.109485791881317 0.534434817460718
0.147463800341249 0.113621520799963 0.531121237629334
0.14107961025845 0.118642121459298 0.530807147253549
0.130652153023865 0.111041496174879 0.529648562143119
0.11726220262811 0.114535223296963 0.526841902058541
0.0890823809823744 0.121056663300642 0.521830713417836
0.0895948200817696 0.111955096711419 0.521697712039474
0.0791002357609443 0.118269814378046 0.521578517929765
0.0597894579882949 0.117970748216371 0.520123871186391
0.0333757946063089 0.11390139472789 0.512372828991094
0.0340798066034358 0.121426166279305 0.511778845019412
0.0138243033592652 0.119071789975531 0.515207636606803
0.00889758842875736 0.120831863695319 0.514822424350132
0.00199761115664412 0.116917916711357 0.514197177220935
-0.0336712150341364 0.11901866057941 0.505642912418097
-0.0462025473446928 0.123522426208472 0.506594380944983
-0.0516133658227578 0.125409002472524 0.506316725457231
-0.0786286350101867 0.127833658434559 0.502255487349748
-0.0930693422791778 0.120726764850718 0.500122435892009
-0.0959644282482574 0.128275863067553 0.500705494880218
-0.101645271407189 0.121036240617293 0.500771516476237
-0.123282891862586 0.128636814334645 0.50145117905375
-0.138551549671522 0.120246759221177 0.503538886663919
-0.142251972491848 0.125049240734763 0.504044851299417
-0.152527889978556 0.121232496423465 0.501470160089781
-0.162041435856627 0.123821224443761 0.513030202636999
-0.169481371764174 0.124859070293197 0.518416655871545
-0.174190455063686 0.13141697875796 0.521617533748716
-0.178252369066209 0.130360237619436 0.525185638349231
-0.186417384884068 0.124564274625913 0.532526782230701
-0.195955978515504 0.124002023135472 0.537404212618736
-0.198676599932121 0.123770697027744 0.547579200710088
-0.200078923336832 0.123775955347085 0.552646382469072
-0.203372519962612 0.132365283816338 0.563283348986824
-0.205281609040183 0.124993078376367 0.571928720732642
-0.20807744979163 0.123868865820736 0.586011405093329
-0.20945038875579 0.127188419997545 0.589129808238859
-0.206795162535984 0.126388500604615 0.608631704170213
-0.205555786642926 0.125494826432858 0.615560924827712
-0.203224681061087 0.129668421694438 0.632302104172151
-0.202291039106489 0.129438844026027 0.644242807778232
-0.203064045745238 0.122772759578979 0.650294241500369
-0.201424151700931 0.126453405931234 0.662797534451537
-0.199068003801221 0.131214049982893 0.674962298221374
-0.198165213306479 0.129404139960523 0.681127133927571
-0.196929922944214 0.123083364243907 0.69685986300043
-0.196872181905119 0.125833545546793 0.707189851287553
-0.197903756704943 0.125039872705298 0.719629406876789
-0.196842470812965 0.122562329139948 0.734559780854515
-0.197750347519854 0.130377760641496 0.74710096701081
-0.198241365475483 0.125658216857587 0.750523233412888
-0.201207896138889 0.125517836698346 0.765745318356572
-0.202502209733755 0.124382398241622 0.768454327693739
-0.205089851032321 0.129604587153018 0.785426819085536
-0.204734864204299 0.130856473986352 0.784119571350675
-0.206781093083145 0.130312856699283 0.791654875462275
-0.212971216235435 0.129443352127444 0.811456777270989
-0.213318273670451 0.12652865005949 0.812401774554698
-0.22022059846744 0.134007773673756 0.826188928510449
-0.22369953749589 0.127115015281187 0.832007174651396
-0.224849999063683 0.128082536453257 0.845037322841245
-0.224597788348142 0.130963094059512 0.844258059947516
-0.22907931493953 0.128881007256168 0.858104805038822
-0.23102792724222 0.128299691990592 0.864048062718015
-0.236607587182254 0.128460081198413 0.877787187172251
-0.240701984849854 0.126741842749365 0.885792953787884
-0.245118377041439 0.126383651685325 0.892697105216367
-0.245017405728886 0.131983492029231 0.895758643184143
-0.249495885380155 0.128491575179693 0.915322420328996
-0.251763901896996 0.130050067291167 0.922159883196241
-0.251681070815894 0.131881867769293 0.92196108833683
-0.257574547844307 0.130245585407308 0.9361054520432
-0.263421646230545 0.129910974179053 0.944740437657587
-0.26472334145626 0.134743108850423 0.954117225381723
-0.269629195992244 0.131012351062006 0.968977144905615
-0.270433150923757 0.134401249131876 0.970748559966211
-0.274936280888517 0.1361852415831 0.97845156844877
-0.280495840981293 0.127190883722937 0.991355188773039
-0.282099162770299 0.128074363842471 0.993345516679849
-0.299398559959414 0.131636020687812 0.999872660901399
0.0219837386579198 0.126257867662456 0.142515589224744
0.0230961413450864 0.129869506638326 0.149034084538512
0.0213108667044048 0.129631317621214 0.158032541586724
0.0130287809290401 0.126686232793429 0.169755417232591
0.0125501338157403 0.132917167241828 0.170519420944341
0.347175249044669 0.11188430145007 0.504592861055899
0.349436626474394 0.119146953569269 0.512318974508962
0.349505407222831 0.113644480497105 0.515896134140304
0.349566980206957 0.111069150297188 0.51909843126853
0.345632462484878 0.11571625707258 0.529409061707091
0.344020038832391 0.115827503010876 0.531122246151029
0.332153288377378 0.118435633395835 0.536836717291723
0.318808724666792 0.116681916102051 0.539130472436925
0.30906593062001 0.116046778627764 0.539764521108458
0.302468979859134 0.114447629180914 0.539702000431661
0.294542783358762 0.119744084463862 0.539188959796822
0.282657890843467 0.115770078970616 0.537918307478744
0.282168406046933 0.116587627420852 0.538141239583998
0.270418805934049 0.121799189511484 0.541094376818255
0.255917669079169 0.11906066508019 0.542117944216509
0.247052285047947 0.119080704991181 0.541760841249066
0.24387312833168 0.119437387726414 0.541592243474915
0.219824656769206 0.120028640445774 0.536301378451276
0.209518196480854 0.121450831020625 0.539687441288466
0.210454385903527 0.120414201252413 0.539730211445637
0.20218640632588 0.118250102358883 0.539352485814891
0.181841415663205 0.124757357795709 0.537367800051068
0.165277445719324 0.12259315263536 0.532753159620615
0.155478286605574 0.119345993584075 0.528346687711277
0.146274311520062 0.123866909099494 0.531384324085488
0.132258407619272 0.12864393414539 0.529827031458359
0.116702202941998 0.127414784855606 0.526706314003362
0.0967309134021317 0.129386734460777 0.51984556951395
0.0845901301438766 0.122291109509681 0.521780164117166
0.0806009285386001 0.127297701016919 0.521633639022443
0.067022080794741 0.129099875051086 0.521134882090916
0.0529394074603644 0.129013502271468 0.519152999325609
0.0252578038095162 0.131996301300082 0.51538532059093
0.0172490165906494 0.134279610807164 0.515475409662667
-0.00432809946489827 0.133033008529458 0.512942740584664
-0.0288033009882674 0.132806089833023 0.504124517937307
-0.0336497767570793 0.130833426389348 0.505623418979488
-0.0434248551686839 0.134488643426382 0.506736917850173
-0.0503182149386004 0.128663575035497 0.506383185957353
-0.0703809275110354 0.129860638776176 0.504008767097056
-0.0870919348520631 0.128789954731738 0.496635477586452
-0.100142413151939 0.137690413691041 0.50075405056531
-0.116302073182306 0.13165692642981 0.500941854825431
-0.122326385612524 0.138033968360766 0.501320394448947
-0.125130044077285 0.135566184864666 0.501703743082889
-0.144148987339504 0.133441115151949 0.504304233124827
-0.157098153234169 0.136863056851069 0.506940567102681
-0.163349217825489 0.132857681803254 0.514039675520331
-0.170081201162503 0.132254378751267 0.518824374429291
-0.172795558973374 0.135526773154214 0.520669389120037
-0.184921751779972 0.135905205222486 0.531182062606441
-0.189464373223547 0.136145068657901 0.535266322570323
-0.200088043508658 0.141957628127812 0.540851743472433
-0.200279445250697 0.141249004665253 0.539939452640425
-0.201056451609779 0.137763588844909 0.555803398207899
-0.202451679292691 0.140080926175576 0.56030941218862
-0.204687613021417 0.142687377675349 0.568936759749965
-0.208236652640862 0.133571860513782 0.586813314166129
-0.208345934544774 0.135388534438813 0.587363768913471
-0.210849457132943 0.137147561468444 0.597952303384479
-0.204986220348006 0.141838818162843 0.618745305751865
-0.20321356390068 0.143668144397589 0.632444277079834
-0.202627926919917 0.138031637217561 0.639934215552526
-0.203255111837286 0.138993038693474 0.651100044208308
-0.203346839718348 0.136914848759954 0.658925669182771
-0.199024959278607 0.133589309432703 0.675256233981117
-0.197969806741887 0.139574465111083 0.68246149596798
-0.196487941920326 0.134869302203082 0.704499818115657
-0.196582193698237 0.140478098116426 0.702870589555761
-0.199539751793112 0.133788802075013 0.715482642292681
-0.196493062169864 0.143631932418494 0.72381311782889
-0.196954354932731 0.143604752080533 0.736899189276158
-0.198908349334186 0.140042367910254 0.755171905047563
-0.199189503602827 0.139087909701164 0.757131463523448
-0.203421066056474 0.138884198736934 0.770377503381119
-0.204642519837036 0.138854311203952 0.7788309891782
-0.206999740044484 0.13804906618365 0.792460054073149
-0.208570008458183 0.133419386258195 0.798242636560459
-0.210907088692758 0.140467874095265 0.805836395668946
-0.21319375382538 0.137810328229343 0.812062722817482
-0.22090141800893 0.135978832160078 0.826946484133318
-0.22364639232976 0.134481307199737 0.835422795918808
-0.224186078820589 0.135017049265693 0.842170114916844
-0.227394873648843 0.135125103467986 0.852900315323245
-0.229939549939558 0.142539179328612 0.860762712286458
-0.233174934813698 0.13711129221019 0.869334766696611
-0.234384134227284 0.139375679261982 0.872312249730596
-0.237899262862576 0.143835254503665 0.880967767308405
-0.245330032167591 0.138989189004711 0.891286015131015
-0.245431481790458 0.142472641915453 0.901058200746191
-0.248880558214559 0.144004601103465 0.913441276768107
-0.252046143930557 0.142189284433153 0.922837264978959
-0.25588619970002 0.138293064685051 0.9320534111002
-0.257480916280574 0.143952639464091 0.935880735990954
-0.260148120348574 0.142549612048056 0.940905433934255
-0.265533449678093 0.138282340983616 0.95713570626623
-0.267885773471695 0.145466043772211 0.964752794595345
-0.271220030389648 0.136930458192477 0.972482351354408
-0.277198630764349 0.143595544205469 0.980182073324698
-0.279522818797275 0.137796301835817 0.985144681258108
-0.287151772048283 0.144151301829654 0.99657025933567
-0.291091422460672 0.140975361590397 0.998317230433431
0.0268511970423954 0.141863188057303 0.144127240827338
0.0270917746110962 0.142612138016894 0.145147388265397
0.0243496844869239 0.136913074703318 0.154510840871148
0.0232553159502313 0.14202003015826 0.161207463433296
0.0190846982237028 0.136198054756234 0.165669394354176
0.0100039645282453 0.13763938934672 0.169890114402736
0.348775624032673 0.122249002909863 0.509823813439972
0.349478779241159 0.126208145698948 0.514511262017426
0.347774276879836 0.12589978047765 0.525514566759512
0.347025618780321 0.127890477975594 0.527452259518439
0.34092713767546 0.11965943141404 0.532290541097975
0.335904508619795 0.12872134838006 0.534212595151912
0.325620335458539 0.124792916271873 0.538279021087956
0.32154801275018 0.126176273855584 0.538788061426501
0.301683516250302 0.125765864136372 0.539694556429394
0.290147005275322 0.127414661466765 0.537126722439355
0.280951489112035 0.122624595583301 0.538695475090674
0.271417772699637 0.124518054513802 0.541023864428543
0.263955590599308 0.12602948753652 0.541550584946676
0.26133623044515 0.126018868430823 0.541735473323699
0.246435088028293 0.127331637076944 0.541728109872893
0.23729750847737 0.125079998805604 0.541243523657562
0.215207540588546 0.128682203952982 0.538188173565453
0.215159054177516 0.127199452743383 0.53820626904095
0.203732388569456 0.129506935662165 0.539423114524652
0.1965252301035 0.129704049517784 0.539093852880208
0.175536029875805 0.131475671828418 0.536244552471513
0.156292562849011 0.13638089142864 0.528023188648575
0.153349282649041 0.13231428975066 0.529110104992864
0.147842787532849 0.134584110973609 0.531018520282923
0.123534920678201 0.129765665891767 0.528360659335419
0.1111626685817 0.130425881733688 0.525365073244686
0.0911314995682323 0.135846269111541 0.521298873445694
0.0877062345471952 0.138055315689025 0.521894619975265
0.069001295061139 0.136837750249722 0.521207579484168
0.0570433316259132 0.140554219621402 0.519734657004609
0.0441326654194915 0.139489016033266 0.517440727516032
0.0340891203194103 0.135075467618784 0.511770986917523
0.0162399298158057 0.142216787209453 0.51539651072104
-0.00410558361167234 0.135803496328654 0.512986867174566
-0.00365558863873851 0.140055055302629 0.513076104607949
-0.031989392812079 0.138093471630752 0.505102727520823
-0.0389618945628932 0.139459927130904 0.506965934111602
-0.0604700388072898 0.142050091341624 0.505646895222235
-0.0692544427376374 0.146396521781877 0.504194958797867
-0.0908738069478598 0.145577188962273 0.498859457370533
-0.105852193883166 0.147107704284532 0.50082040846787
-0.107102158014715 0.149007147623569 0.500834935295071
-0.123624346762961 0.145640328523749 0.501497866719619
-0.136373384874339 0.141806510971092 0.50324106276347
-0.155612721006494 0.145270787066721 0.501350214341458
-0.157186842544725 0.147514161534006 0.507274348295723
-0.163604814639771 0.142446995360972 0.514232507541631
-0.170561312532123 0.149714168693698 0.519150717745782
-0.171641509390991 0.143713431157843 0.519884953691215
-0.179152914896359 0.150417024684037 0.525995315933572
-0.183524145347387 0.147303004054723 0.529925478527878
-0.200603899464459 0.14789697662604 0.538392984977851
-0.200425882316548 0.144383609397989 0.539241479930144
-0.201333980731479 0.15349471635882 0.556699705954462
-0.20431014156982 0.149849579438125 0.56703543314028
-0.206763335557197 0.147704852363497 0.579392201105176
-0.20799943324337 0.155007737220517 0.585618442283901
-0.210984328497317 0.155095882977688 0.590768367429783
-0.207299603329822 0.14587294311021 0.605811423444837
-0.205421774941176 0.148934786444388 0.61631016386957
-0.203210801796484 0.148596453040685 0.632479599621808
-0.20250221458859 0.149294227085342 0.641541991559957
-0.203657563837624 0.145663954322683 0.652797345801693
-0.204304603817682 0.151762363272001 0.657404077195347
-0.198249406501471 0.143842757302071 0.680552208496115
-0.197211600189456 0.150854181395107 0.691990945781521
-0.196446308484787 0.144281960159748 0.705370219007122
-0.198821815314818 0.1538028851624 0.713834841772819
-0.197929433976337 0.152639173653437 0.719689005023702
-0.19692798452325 0.153085814173551 0.736347819842044
-0.196848158621548 0.147273097136711 0.734678732929432
-0.197840990119957 0.150070129491645 0.747732731278686
-0.199525759704762 0.153974424065796 0.759475064770548
-0.20111367180711 0.144846972885297 0.765548108050846
-0.204636422737327 0.146880609761628 0.779026104652075
-0.205682896203719 0.147316774057679 0.787610722531468
-0.209775787159861 0.149526459130982 0.802682973315698
-0.210276601200642 0.146771537671861 0.80411965123659
-0.215394847730762 0.150995363026699 0.818056053310875
-0.219780378669796 0.151616811520226 0.825658867059638
-0.223606920106212 0.147099336533883 0.834149593086946
-0.223746937134806 0.150764753913373 0.837120067557143
-0.225372109051388 0.151591676864277 0.846650501484311
-0.229053756022594 0.151235584062122 0.858025838101937
-0.232749002204097 0.146599273854663 0.868285969011755
-0.235226471520439 0.150248860527465 0.874386387703955
-0.23892824564393 0.151414764517535 0.883369118661224
-0.243773303763955 0.152408040453044 0.889538246955438
-0.246755747504159 0.14605684294285 0.906945425114767
-0.249252498436498 0.15418654183702 0.914578351470241
-0.250724697861494 0.152261861937035 0.919079076651123
-0.253320382669046 0.149271402285069 0.925895442024369
-0.258488362776799 0.155928907373156 0.938298610802142
-0.262596219792975 0.149410513598272 0.943743306772096
-0.266213139681733 0.148900643346849 0.959336618746145
-0.266100268228955 0.15157393502048 0.958971128320046
-0.271439329834548 0.154595653442933 0.972965550504322
-0.27349065804369 0.148570953202351 0.977199181051114
-0.279420825304259 0.154103709626608 0.986005984447494
-0.284604234838181 0.157784312845575 0.995081076161243
-0.300356559952868 0.155513371839776 0.999740353189721
-0.308310040052709 0.158037758414258 0.998641911896322
0.0237999968831103 0.144492675060687 0.129933050569801
0.0290798247648127 0.148911879560983 0.145986389950812
0.0276512740276163 0.147818408601833 0.154070673077519
0.0226469385008216 0.144522992595709 0.163311340886669
0.34816726474909 0.134249728839201 0.507835342944816
0.34946535965724 0.129849893681145 0.521137670477163
0.349570997522406 0.130159138301171 0.519307364421756
0.347421865936927 0.130967706788908 0.526426684230336
0.336814119306248 0.132793370563514 0.531554972132746
0.335266366637158 0.129875285556968 0.53465899989404
0.324247993733044 0.12932226693601 0.538450563803643
0.315302877573579 0.136065443537916 0.539568703323576
0.302031862481271 0.131030816164669 0.539697857779201
0.286444954405477 0.131784216133882 0.535029039573794
0.284749994467704 0.134503745374593 0.536965474890959
0.275360351572759 0.134600195504169 0.540745576233627
0.269819565264569 0.136305000314534 0.541136674413205
0.261222363717303 0.137319471932227 0.541743510643223
0.249958466649468 0.133760679162191 0.541914962311399
0.235252374788487 0.137733808336276 0.541135065592426
0.220512462581351 0.137090876970134 0.535545695163395
0.21631367499889 0.137862632381117 0.537775356289561
0.204391466264143 0.140791647171638 0.539453224678906
0.190580038352388 0.140586280417451 0.538822243974318
0.179389977935457 0.137071209699015 0.536931098377646
0.169348507721717 0.139107536469165 0.535142301217145
0.142912441222035 0.14122766526754 0.531010790834915
0.145000200128036 0.139565853644864 0.531242759144647
0.132568352151788 0.138936562731417 0.529861469007913
0.115948230406323 0.140224141772219 0.526523761022942
0.0878766485461909 0.143364941638231 0.521900879354914
0.0875795871026253 0.14193611740164 0.521889968160028
0.0757100982879637 0.149892649477419 0.521453996718881
0.0575713564107595 0.142530468645535 0.519809495051907
0.0329344942874993 0.14339806222331 0.512745159742757
0.0323592131609683 0.14689136180449 0.513230531824148
0.0241854782749271 0.153323217631967 0.515701904407804
-0.000290030820092661 0.152230477339854 0.513743520378569
-0.0222694175136709 0.149495580067256 0.507387028558715
-0.0315283179006764 0.149495733435708 0.504947909209018
-0.038047197132897 0.14944343644768 0.506833479580554
-0.055614945340556 0.150630514952053 0.50611138483677
-0.0729409182456903 0.152227874440394 0.503585637033412
-0.0907605011586848 0.150372168010974 0.498788390587621
-0.092609455647353 0.156035948075812 0.499877822265262
-0.118240355771803 0.157729233268584 0.500964381148815
-0.123402241939853 0.153322746139423 0.501467497977634
-0.135620063670507 0.157715742396676 0.503138059969785
-0.151729250754724 0.162520418391839 0.501821915355614
-0.157667913403335 0.15531311375364 0.509084856009574
-0.159677810113605 0.156132891865509 0.511164673495828
-0.170558528255695 0.158707686388873 0.519148825205716
-0.174343233089057 0.158532723624538 0.521721380669745
-0.179500688313174 0.163897682422288 0.526307998745048
-0.193541097659506 0.163417573857082 0.537171732076341
-0.200374377784325 0.156280726801249 0.539486969401943
-0.199515025337952 0.160252981540305 0.543582958027453
-0.202553470061844 0.154622350144857 0.560638156894429
-0.204192391804723 0.162263499306396 0.566442329109098
-0.20613416574956 0.155814445886552 0.576223066917207
-0.207195976785972 0.158589888737333 0.581571422981245
-0.210494188555619 0.159042478940273 0.590244799081732
-0.207389994669362 0.157545174284199 0.605306051822149
-0.205335258628431 0.159708634748748 0.616793864587642
-0.203607603970647 0.15735284801391 0.627404681287029
-0.20239930722747 0.163763212123577 0.642858104102457
-0.203603111982396 0.157514786285414 0.658466332073502
-0.204404627599776 0.159664873580698 0.657225228942298
-0.198734674729892 0.164193824846694 0.677238484083775
-0.197185905753889 0.15587125660475 0.692435085597129
-0.197297864961932 0.159422888677689 0.690499820590585
-0.196812053276677 0.15648658674968 0.706932945195783
-0.197952885184556 0.161986883957108 0.711807325197256
-0.196747492500693 0.16110813214538 0.732573917944267
-0.197133715786575 0.156926691758058 0.740649461471921
-0.198324157452832 0.156547723979455 0.751100267941774
-0.199675307621322 0.163313754717233 0.76051736759192
-0.203101520370923 0.156945123705778 0.769708693416079
-0.204667952249018 0.165705753476569 0.778017117443776
-0.205787812468578 0.158480281737911 0.787997080618399
-0.208856951073871 0.165714618728215 0.799299321532338
-0.211223613341233 0.162877792819252 0.806698259155199
-0.21438912722155 0.161391436479389 0.815317591046525
-0.216211089917807 0.157526395447662 0.820278596462979
-0.223951537430962 0.164120931436841 0.830567234405286
-0.223862502740668 0.163254718235698 0.838449050438184
-0.227026597672993 0.161401202735533 0.85176244137099
-0.229353490169374 0.157572531085605 0.85895194059314
-0.231744195161108 0.167008775901071 0.865811776186465
-0.235734028203174 0.160683164150724 0.875636175658883
-0.238294188948047 0.163272238872471 0.881940220549827
-0.245028362096162 0.157439008511353 0.891024807696901
-0.246659876043411 0.164534752502212 0.906652332283601
-0.248481714115399 0.161808704742902 0.912221953047517
-0.251146818370628 0.157122789140868 0.920369559701565
-0.254386746581228 0.167313025141697 0.928454718822178
-0.258923335480335 0.159345332120172 0.939250692751846
-0.261443379903363 0.165168838992107 0.942371848136554
-0.264785343083779 0.160686409828052 0.954713253190685
-0.267642025600484 0.16239636305655 0.963963511644546
-0.272470917393848 0.16618356921027 0.975238525850629
-0.274077306584522 0.160641580249728 0.977749907770372
-0.280686392052978 0.16752117226442 0.991591734623191
-0.286534324156342 0.166504251743211 0.996274884983616
-0.29229780796584 0.162494170708579 0.99881397403911
-0.306330478967637 0.162265777763251 0.998915305632316
0.0263531807699188 0.156202435716235 0.127460678821588
0.0332590477251334 0.162444052479985 0.148915443107503
0.0303820891533843 0.155705223159928 0.152424949408512
0.0296832579716061 0.158726063898721 0.157918158710257
0.0279057284723695 0.159335978605232 0.160923919378584
0.349533390415044 0.139749450402864 0.51735148825927
0.348196442995631 0.144946228657633 0.524421907471958
0.347074834658794 0.143272631405706 0.527324877938781
0.337337735656166 0.144800809993057 0.53111118841948
0.333317520720837 0.138009763753842 0.536022292205772
0.329171598549026 0.145246683041955 0.537835113201646
0.316875994462925 0.144099023788641 0.539372063712408
0.308376687410551 0.140048260673206 0.539757989006962
0.290865670320445 0.145806489550358 0.537463877290083
0.2856876191766 0.143889192441563 0.5360961926971
0.275960646524483 0.147409298665752 0.540703204221827
0.269785294138861 0.147368542746849 0.541139093451611
0.249195500623548 0.145527793639463 0.541874500619019
0.253207687512068 0.149167551771589 0.542087275285069
0.233478382813791 0.143385692361444 0.541040986812399
0.234304179287005 0.146361056684883 0.541084780626518
0.211032192543153 0.14525506262894 0.539746437697018
0.201464622584185 0.145742614462888 0.539319510744417
0.193253986362165 0.154188688502275 0.538944404589442
0.171089001675757 0.152066558185978 0.535452354259595
0.163689857133534 0.152237812922948 0.531728922759511
0.151231687794153 0.155298133629024 0.529854980427329
0.130378713210557 0.154028071410891 0.529618180040827
0.130180888387857 0.157076994606822 0.529596199871126
0.109093866800295 0.156043641860466 0.52486417103751
0.0939556214444856 0.15023366521545 0.520565884681471
0.0894003658162958 0.151977618993875 0.521748181813086
0.0757201197790216 0.153315568837653 0.521454364812568
0.0552245395372173 0.160583237694897 0.519476875831707
0.0416891597907922 0.158073957910238 0.516144184914908
0.0246021254590852 0.162669446943973 0.51557889721307
0.0164277092480581 0.157621098737342 0.515411192905797
0.00364281512626672 0.158390348538506 0.51441156171434
-0.0100771693486981 0.157778907811814 0.511802656202339
-0.0284348841910374 0.166344154661232 0.503974197797789
-0.0406856128188308 0.158591396090859 0.506877481675633
-0.0543083557350727 0.165165663257397 0.506178432286281
-0.0800595656233488 0.167779313178823 0.501371623715544
-0.0872029423631855 0.162670640756 0.496672802160564
-0.0915070438937053 0.169072125102571 0.499214522465767
-0.109818533396833 0.167127849898071 0.500866504453574
-0.121219656529579 0.166939179832014 0.5011690696398
-0.138255610142117 0.167932933019854 0.50349842238635
-0.15173884674374 0.169404349416019 0.501811404438338
-0.1553807630288 0.164970566030182 0.500477254891481
-0.159057754575564 0.171374328500435 0.510675284818802
-0.168498809533819 0.169068017203449 0.517748784545842
-0.17404294262904 0.173169185854655 0.521517265977127
-0.186039511559933 0.165354205304475 0.532187038974159
-0.184551892512748 0.169218608909155 0.530849524451014
-0.194160764066024 0.171964551333629 0.537231387351645
-0.199044845210781 0.175072560408932 0.549306752110656
-0.20123499472367 0.169466255988331 0.55638002417297
-0.203672626576809 0.175999984746356 0.564252577074598
-0.205808585656842 0.165780646771604 0.574583118346524
-0.207070220961537 0.166782997441346 0.580937991306892
-0.208373356300845 0.171123598716633 0.587501901263235
-0.20727462573161 0.168541910320373 0.605951064475608
-0.205609626387863 0.172898164882086 0.615259899720641
-0.203681936098324 0.1724461460898 0.626454002286286
-0.202460594651503 0.16597871330339 0.642074274457135
-0.203654720898092 0.174165194210004 0.652785356912069
-0.200508021224832 0.168849377799232 0.665128967356291
-0.199023979690626 0.1653356828327 0.67526292323959
-0.197693566696591 0.168255555692159 0.684347841144009
-0.197041409363538 0.170275087272204 0.694932770358445
-0.197614381545423 0.175299434691742 0.71036101759399
-0.198745869346269 0.170330253916473 0.717680080189492
-0.196810324311075 0.173928902333168 0.733887682427014
-0.197060118186942 0.169774275802563 0.739110621747625
-0.198144668467463 0.169712776673933 0.749849285111929
-0.200692941009924 0.170049851959001 0.764667520123485
-0.201199337129227 0.174248237059728 0.765727409391018
-0.204664151957731 0.173559397350438 0.778138731927836
-0.205926308886968 0.169779792390121 0.788507101949677
-0.207093079710997 0.172040581219372 0.792803787880406
-0.213064279882617 0.168953960917417 0.811710184373708
-0.212640619001855 0.176067716028612 0.810556605250371
-0.2173682555775 0.170439015285889 0.822792100469084
-0.222980282465657 0.166518683529659 0.829207427304012
-0.224109585083504 0.170469771077351 0.841290451228542
-0.225504767936171 0.172068964407556 0.84706038155706
-0.230507339271172 0.175350840052073 0.862517040613822
-0.232168083524843 0.171304602046444 0.866855541948169
-0.234523846573129 0.175299349093745 0.872656276190852
-0.240313996115031 0.177180475982159 0.885228736535813
-0.243921530494433 0.17447466975925 0.889683659164193
-0.245358442807599 0.169022201143883 0.900283973636482
-0.24701630891798 0.174817420641829 0.907741998796593
-0.251316694406267 0.176395835706109 0.920888895151809
-0.256438451463935 0.176730855025817 0.933378817098839
-0.26032519360666 0.172089514239539 0.941057061388305
-0.263516044312328 0.177111963710877 0.944763182024883
-0.265047237206184 0.175935188422637 0.95556129573851
-0.266817378186496 0.178211531916514 0.961293210808495
-0.269109919579034 0.176496600780431 0.967832983681
-0.279768133838766 0.171523463948056 0.983073072360397
-0.28134397888726 0.175006284660314 0.992408048251807
-0.288334146084789 0.178592423515341 0.997181889033072
-0.290886013219859 0.17870772785417 0.998232650731101
0.0341491111807885 0.165053623967259 0.142764291964056
0.0339357505471708 0.164312498462739 0.147134366823927
0.0299622285459882 0.168736532680984 0.161554075135604
