ply
format ascii 1.0
element vertex 848
property float x
property float y
property float z
end_header
0.00604100450417221 -0.157076388263695 0.552716412946372
0.0157455587887168 -0.162292140496586 0.553448274687586
0.0215268146225923 -0.161545523129367 0.553343511143998
0.0327906714207022 -0.185248632821812 0.553310804374416
0.0377987449630241 -0.189303567570549 0.555674082615544
0.0439580489296791 -0.192367606202393 0.557459851383062
0.054603807231217 -0.21031523626954 0.560435416370415
0.0684842280144335 -0.214255536512499 0.561022285089748
0.073465218227204 -0.223957516970139 0.562467299046829
0.0888384882899293 -0.230256195047804 0.562039440125006
0.0883521880491778 -0.246534218221783 0.562731893686826
0.0928632560770204 -0.249849921608256 0.56456320220443
0.107800606797464 -0.264915934531177 0.568025844089389
0.112747908393096 -0.262747926312676 0.567753859795682
0.130574491649049 -0.280737624123831 0.570010730969613
0.142215584457752 -0.294642560334478 0.568915540602496
0.145587897637883 -0.292196335776747 0.569552695128649
0.153862966085069 -0.306580594284935 0.569580215397769
0.164238881527418 -0.32592511960091 0.573121496099318
0.166185183704885 -0.324134767364348 0.573093835382623
0.173345689708266 -0.338866247745302 0.573321434900183
0.202117928356152 -0.363640284952875 0.569023203998839
0.207975380563619 -0.359494506830977 0.56934466883479
0.214035416755385 -0.373637938269747 0.567194072492371
-0.136061473788563 0.0087514286011471 0.0899062984151976
-0.128879686184329 0.00897365577262287 0.100612237177125
-0.129539597967703 0.00915718678842998 0.109818060623701
-0.129162524313701 0.00902040260814261 0.116779495425781
-0.1328398888446 0.00764226361992966 0.133606288292855
-0.125416333488829 0.000789577054820629 0.135860747385738
-0.122020348374664 0.0010908942139252 0.13620925556157
-0.11564804345367 -0.00773510193389241 0.135661495958846
-0.00877899544157408 -0.112839813934752 0.0945735108531712
-0.00859319844794409 -0.121835375308962 0.0878599542855168
-0.288912262491177 0.17055541322931 0.486337731119952
-0.288429297509545 0.17377325932592 0.503403584874035
-0.288253908300415 0.177623582315301 0.507575560180176
-0.3023840576081 0.186491168349649 0.529452839831805
-0.30146958126647 0.190486451269274 0.542350512522872
-0.287734752484082 0.179474152628643 0.536693760692135
-0.302313119347 0.191616718134241 0.560886592412196
-0.302835703820353 0.194060989151545 0.573459326094465
-0.304009694974632 0.190496840874546 0.582545494060787
-0.303324133619386 0.193357224082093 0.586200742493353
-0.240770958783205 0.119509372597305 0.513967537815338
-0.229824083430549 0.115517185595016 0.515883343360286
-0.233480187403317 0.11114032680631 0.517983748559754
-0.300818688125686 0.194597681186698 0.624472220545361
-0.220484911336741 0.0996247267751271 0.519679621517556
-0.299647888314829 0.192014979525575 0.641022620542845
-0.298896754466101 0.187135342440655 0.646246221949627
-0.203362206811125 0.0819115202274156 0.520881092773557
-0.298023958023815 0.186927696519368 0.659495960804213
-0.180229382191972 0.0580214816181213 0.518520933558932
-0.295649312217311 0.189124991498241 0.684725107947076
-0.29671615761485 0.185255307139592 0.684287344437592
-0.294990672776778 0.187325429385622 0.695475896581132
-0.295631076880358 0.181719152713807 0.702865188410902
-0.294685673979811 0.180961364428724 0.714029359011973
-0.29207492338247 0.185821849359673 0.72057794725235
-0.293454297188581 0.179672945250417 0.725420041398747
-0.125259865716429 -0.00302076175337281 0.52702417676869
-0.291767318814379 0.175054263800593 0.743417694610677
-0.291762916363994 0.181982291377178 0.747511441819397
-0.291619131628617 0.176639804586739 0.751393135655055
-0.104295608624741 -0.0270916985389973 0.534213378150219
-0.289109404157272 0.174012775873423 0.774768056484707
-0.287687074646371 0.17437790727731 0.780537081074045
-0.288886033014015 0.182297622349552 0.792074782133282
-0.0645811810196207 -0.0611514313276571 0.534210957292968
-0.0609497721056858 -0.0657488350804991 0.53675905309472
-0.0570827833748983 -0.0691562183363793 0.538729973975108
-0.0512058871170294 -0.0824561065703506 0.542041395021585
-0.0356856002120751 -0.0915402621764762 0.543364162801074
-0.0325802814152854 -0.0932580441844488 0.543614293555197
-0.0261695819268504 -0.0968139630133248 0.544132080244159
-0.016907803230344 -0.117184329252103 0.542788562355023
-0.0120634771013099 -0.119730477383544 0.542738901500127
0.00526574549195503 -0.12991832248438 0.547697657852234
0.00140546033798085 -0.13653069964069 0.549833491599908
0.0105993360520457 -0.137939266585465 0.550031138307571
0.0198719909077938 -0.154297713771669 0.552326516060708
0.0360028996978757 -0.166618057686288 0.553972605584945
0.0408643244290149 -0.171839004630012 0.552693922804789
0.0558687556859105 -0.188128362414664 0.554989155003668
0.059079513070187 -0.192717394123322 0.557663713154894
0.056332820974952 -0.195640509558308 0.558249761080068
0.0731771445736542 -0.211267056522059 0.560577180575726
0.0858032426615783 -0.212966063830416 0.560830230897202
0.0971134263898176 -0.230503798316142 0.561981014068537
0.098174437607454 -0.23138477961394 0.561773132066822
0.113555663362673 -0.242146817857829 0.560444024718556
0.114781154605971 -0.256077360439792 0.566917013730209
0.118999666942344 -0.264275967210512 0.567945557927086
0.12693743753305 -0.268915252176266 0.568527572623317
0.148424874000151 -0.283548946439215 0.570363421290531
0.14867613746562 -0.286910376436847 0.570785124564509
0.16610463530346 -0.30425812813398 0.568611613559246
0.169934467261078 -0.306628066891258 0.569600014202477
0.177600445635942 -0.328122051003591 0.57315543841295
0.191384095313935 -0.333508631531056 0.573238660404063
0.195275143399514 -0.347238137377473 0.573450779541188
0.21224686605856 -0.35871674691752 0.569641184003386
0.226358253801326 -0.372626967567485 0.567386199439287
-0.124095164189898 0.00849032690982321 0.086144835946179
-0.117817361695508 0.00869724501014831 0.0902858850769289
-0.120507795371596 0.00911737173510996 0.108093208655984
-0.112925875590839 0.0091045268533279 0.112266796475839
-0.114651234979107 0.00908512731347205 0.113279093677762
-0.11729241451555 0.00823516127894684 0.135389482719408
-0.118525978736251 0.00579819582235339 0.135608488839001
-0.11101060596377 0.000993945127730691 0.137573394641675
-0.108039980909728 -0.00603544119031259 0.136849878429083
-0.0084747301220927 -0.101383351542939 0.0869920515693835
-0.0087004864364651 -0.10946321913774 0.0916755892346897
-0.00904887403303189 -0.101403396080121 0.107981016535562
-0.00905175204922708 -0.106156095498531 0.10739507895891
-0.287911705382155 0.188261264094483 0.504859154029333
-0.287798731768166 0.183340089485114 0.51802928366092
-0.287195381360344 0.192843517936243 0.521910570273661
-0.301212082578913 0.199323734768883 0.546264037896058
-0.300041925868303 0.200987341942732 0.562641788187252
-0.299705649833906 0.204603274843191 0.567463026797393
-0.301750518560885 0.194932903843115 0.572178865815201
-0.298467356166017 0.202170498282454 0.587788515113882
-0.298631404365351 0.2023692929516 0.594287443817798
-0.30021705209498 0.202162544870165 0.602079294532262
-0.302136309245155 0.197085269068136 0.603607458337994
-0.298737277106436 0.201836010459555 0.615175008276348
-0.29634137205417 0.201721064496131 0.628902396135647
-0.299563138110063 0.197064579041435 0.629901350827622
-0.298367236236705 0.195275593374397 0.644809060495897
-0.295464585954276 0.197209837293152 0.652366581644927
-0.296567100022082 0.194188632130953 0.659355051617433
-0.292754843510638 0.195745920836049 0.663881553620684
-0.293759610327768 0.194472245843705 0.666636892832025
-0.292677936618172 0.192829780130676 0.685867189252335
-0.292852890495497 0.192336440521137 0.687403808809052
-0.291891549861219 0.190301925246414 0.702050724113185
-0.289977018901152 0.19182281178439 0.704104247395799
-0.289136537469062 0.190773309944091 0.713361363760298
-0.288550828871952 0.191204709937071 0.72251915238994
-0.288335473312486 0.190914843068855 0.725511534345405
-0.287068791618864 0.19354570116926 0.743270595272654
-0.288462041224205 0.187587083412329 0.748275022055236
-0.289392304772878 0.186337723479701 0.752922021355357
-0.288430272578198 0.186598422429369 0.763845740969681
-0.288646593208898 0.186073985315809 0.768493921647145
-0.276388892948046 0.180345071847394 0.767768636968327
-0.288064212148648 0.186417902594495 0.784697712688138
-0.288386501364337 0.189188502810277 0.802207358527287
-0.287668049588297 0.193727385137239 0.811377435509067
-0.0513070581330139 -0.0636264255275816 0.535531395097233
-0.0517926531227422 -0.0689354688827103 0.53860228663415
-0.0399997396800162 -0.0786565756533173 0.541488135336026
-0.0340283428138701 -0.0887741089632425 0.542961375959651
-0.0198758509025384 -0.0924736624270462 0.543500077665411
-0.0234446011903473 -0.0933259786210229 0.543624185667102
-0.00921817836654662 -0.105029638524386 0.545328386353824
0.000109744392451805 -0.109484249084721 0.544632229024337
0.0100529321998569 -0.125170650740203 0.544984245330194
0.0119566893300382 -0.130996406707277 0.548313809807942
0.0228411119288097 -0.136598331311402 0.549842981512404
0.0361465364004241 -0.148577251320366 0.551523834602076
0.0408787698988799 -0.160533564833225 0.55320151560288
0.0464207636786956 -0.16888997199212 0.553416182060214
0.0595403827550851 -0.177467808504399 0.551315350169473
0.0715610230088086 -0.185267408966254 0.553321747399733
0.0711779768724479 -0.190842096284689 0.556570760776546
0.0784139329217707 -0.196426067181713 0.558366762112473
0.0827292923402165 -0.202296749092634 0.559241142073956
0.102464992893088 -0.217179821712658 0.561457828425169
0.0999316235043056 -0.229666316536713 0.56217863164469
0.120664503971331 -0.244404795093502 0.561555784047974
0.125164854234088 -0.246922651052273 0.562946430473769
0.134494830009204 -0.251935421575134 0.565715052478006
0.142050318326579 -0.265862550490185 0.568144600407206
0.15163176830366 -0.270363431644705 0.568709251856138
0.158736744156894 -0.279180478731332 0.569815381576486
0.172611228312217 -0.298312620223721 0.567959620483757
0.181529153470005 -0.303473815511327 0.568284510127419
0.184611093503863 -0.320138094380526 0.573032087288105
0.199719606557946 -0.324511084784152 0.573099649439391
0.218928693065133 -0.346132122468271 0.573433691750061
0.221681406895883 -0.349538489708992 0.573140326137767
0.243925263757107 -0.369263640768527 0.568025372966194
0.243222622152107 -0.373962050497342 0.567132477539514
-0.100754350704395 0.00897377205407162 0.10482291074922
-0.103049954838024 0.00903082183822486 0.106952363985895
-0.104507708173548 0.0089910322551482 0.11792909500084
-0.102750471780938 0.0087885394495795 0.128217834713822
-0.102774011749842 0.00479127263213715 0.137749626255005
-0.0998338043913929 0.00463077992295118 0.13814329328592
-0.0947924426251354 0.00129541175654012 0.139485941432106
-0.00874606022952164 -0.0963697480191623 0.0956087934570658
-0.00908379854524599 -0.0991807051901488 0.113129472994432
-0.287127279954729 0.201593532146748 0.512467766257064
-0.286701078227576 0.204916872391484 0.519600192946509
-0.286647349492986 0.201120572106202 0.525972880797403
-0.286954461365573 0.195470467047705 0.525226270373242
-0.290391376906547 0.19629677852328 0.538766995475938
-0.285307566744609 0.205823342977025 0.553741891000322
-0.294235239544567 0.207455576481673 0.56524562706055
-0.291405887480209 0.211148101778213 0.577196254661466
-0.298663429843622 0.206553107496861 0.58206725279281
-0.294333126392478 0.201246351437908 0.590382023594988
-0.297511588441456 0.206058089976939 0.598110737657961
-0.29828316648297 0.202886714168666 0.611158940369405
-0.295842182790724 0.208101679369126 0.621464027021512
-0.29538316826845 0.205174379808665 0.627757685225667
-0.295034558172148 0.20288617781898 0.632535187221822
-0.294498717116167 0.207730742255618 0.640184103541378
-0.294160385113487 0.202614668866096 0.644714960085455
-0.293500037275927 0.203151512299873 0.653942634905617
-0.292749135489089 0.198744921191852 0.664252393454643
-0.292070852724596 0.19788970540074 0.673679294280435
-0.290712726486553 0.201645499343386 0.687206872234971
-0.291177654727017 0.201496396649976 0.686266057880195
-0.283940247629864 0.200760397713866 0.69329795416114
-0.283241846334197 0.198482535309559 0.709906940182572
-0.283458799273081 0.198452300914639 0.710148459416116
-0.279121606683414 0.197142406668709 0.719901471670915
-0.280100605096256 0.196550819729839 0.724458219832219
-0.284991461027004 0.195955729860249 0.743345321878368
-0.276808460212381 0.195711647374861 0.737794758767849
-0.283732628585738 0.196969824167272 0.762149819719596
-0.284431291242581 0.199479677869601 0.770675746210189
-0.284689603681816 0.201124110734718 0.776723502714777
-0.277859495490437 0.191327060343399 0.783280785372761
-0.278695178595682 0.190836818362074 0.781852919620116
-0.286314324549912 0.197996152758879 0.808892476944578
-0.28738279391449 0.195882651823909 0.817122805037778
-0.286878523923897 0.19464581931555 0.821438588581135
-0.286277803151532 0.195572355482081 0.825983650696328
-0.282172081937798 0.194440911865753 0.834278037001537
-0.0223246430708807 -0.0830625453842907 0.542129700171573
-0.0208457736241917 -0.0855586003583701 0.542493157298322
-0.00929192748975302 -0.0953142878503357 0.543913708601124
-0.00939423242422475 -0.0953646885211731 0.543921047575304
0.00567538800772328 -0.102903764818658 0.545018832294744
0.0146876445362812 -0.119769018915863 0.542744512025647
0.0248737059134959 -0.126098162360662 0.545514341297418
0.0360908965991411 -0.132095340453878 0.548941877785171
0.0348119184645072 -0.138475207516702 0.550106340243095
0.0462569558167316 -0.152886105241623 0.552128442565154
0.0574820333770182 -0.158334796257471 0.552892989713128
0.0579829740539313 -0.161391325151336 0.553321874456584
0.0754179926528871 -0.179825865531387 0.55118209191064
0.0780319654164389 -0.182821433880152 0.551896195557961
0.0842207089965352 -0.194981191013463 0.558151562108877
0.0982187299072736 -0.207413220712239 0.560003189877868
0.109118028009274 -0.216372647216206 0.561337607773493
0.113302983816058 -0.218467831700358 0.561649664763864
0.12553066537755 -0.230060955925918 0.562085510001372
0.139991526607025 -0.240517655790579 0.560201380054748
0.137485858852783 -0.246168508568048 0.562529907222479
0.155361227096173 -0.262462411476405 0.567718040950337
0.165695044495135 -0.267249719342736 0.568318625642624
0.161950521289751 -0.280793386530996 0.570017726560681
0.176388608885541 -0.286774868594898 0.570768124626792
0.189924145749534 -0.302998537327473 0.568086291814312
0.198237707854327 -0.313937567092122 0.572648495804816
0.200365557342449 -0.310518676357088 0.57122262191197
0.22297213133001 -0.3286484704148 0.573163571526591
0.227801767456701 -0.330376188649721 0.573190264555843
0.244855035185338 -0.358268949837479 0.569811903301705
0.250216654070038 -0.363905964069487 0.569027304313205
-0.0955726712246818 0.0088475540294003 0.100127046071
-0.0933737300618451 0.00891076309929562 0.103195540042705
-0.0924610838179172 0.00910126278485862 0.111588872275582
-0.0892948664458717 0.00870309963287204 0.132380483581572
-0.0875124991750447 0.00858625235264958 0.137650023590474
-0.0873410876207969 0.00575830008507281 0.139421179437699
-0.082851003853188 -0.00391545938921354 0.140380519439489
-0.0734191454684976 -0.0059004642497058 0.141096401250492
-0.00863095617431663 -0.0672926098111628 0.094967775830912
-0.00873696003162586 -0.070226830497831 0.0991235608541357
-0.00865768927434955 -0.0857726714894859 0.093363115563472
-0.00895460465901323 -0.0706179197208323 0.119308422389349
-0.0087173768978621 -0.0738541838608758 0.131436431164561
-0.00858228658313045 -0.0725807722590689 0.138299003624944
-0.286481219240831 0.210235717847946 0.51867010312717
-0.286429106453388 0.206251265743805 0.525157156327979
-0.28585212027692 0.211326705141184 0.534596066976751
-0.285228305982369 0.21187276605167 0.54847446972276
-0.28504790899251 0.207335410441534 0.556982160900769
-0.284447910453597 0.211165901440004 0.56411144250723
-0.288393161551221 0.211052369480126 0.576638422540547
-0.285518098773303 0.211693963300572 0.578523364454236
-0.290002130469884 0.212767762208096 0.592351931903605
-0.286083247033172 0.211752775752772 0.604995062994121
-0.286347346628551 0.211418876924429 0.609214332309586
-0.287351886378529 0.211073846491408 0.613602561071529
-0.28959411062299 0.209977447427731 0.626454439687103
-0.288021547859017 0.208873322441369 0.634414618146625
-0.280948362797208 0.208799002393101 0.634583787068682
-0.279158447862748 0.206902059321196 0.648307762850849
-0.286009928669032 0.2059222308509 0.655805807838652
-0.285268335357516 0.204228012185614 0.668108215679934
-0.278549513909617 0.203449091449065 0.673428652969143
-0.280750499446798 0.202604845987404 0.679694329625459
-0.277028435855298 0.202498076847404 0.680276217436908
-0.278775824516762 0.200518700621987 0.694786815387346
-0.275420754449268 0.199358728359936 0.703060009362197
-0.273953795974015 0.20354241621227 0.707247581288952
-0.279317732250037 0.197145601091586 0.719887287260784
-0.272432037821921 0.202686320846916 0.725123064487086
-0.279262038342596 0.195714355641954 0.738141602805159
-0.272720533516825 0.195905690285645 0.740928473084536
-0.27048706717776 0.200831879271443 0.752973500999165
-0.271114349089433 0.197121522085506 0.762372193743586
-0.281750153256395 0.203435538282157 0.782609172195022
-0.283607057045849 0.20226039610562 0.791860328317365
-0.281244544803177 0.208723461378513 0.798806528216416
-0.282662233883858 0.20748936742843 0.805226241496944
-0.281761001414002 0.213196731926119 0.818001794470683
-0.283744154221629 0.20576740220045 0.82159069625455
-0.282299507530966 0.208968826091308 0.827558949790907
-0.285341127130302 0.207865904247892 0.843888067215829
-0.284197069755682 0.213062455930512 0.856984713106618
-0.283391854380834 0.206201984417077 0.859901255381387
-0.282809580670683 0.21108898637841 0.871995193872541
0.00769366128398319 -0.0946416141324848 0.54381575881265
0.00848110030169293 -0.102373463130848 0.544941613671852
0.0283388219634797 -0.109021775326138 0.544742961307066
0.0286881416947071 -0.124123703818195 0.54438588911663
0.0408434585898664 -0.129515840440409 0.547467629350507
0.0491777084527195 -0.137200583782492 0.549927488122853
0.0579878289606828 -0.14277123685401 0.550709148691564
0.0643417932079467 -0.147249912783511 0.551337585668195
0.0724200882446284 -0.163842204561432 0.553665775928987
0.0713430905519976 -0.167988761147475 0.55363690117511
0.0956050490985294 -0.185171822197809 0.553266037963206
0.103183957542383 -0.18945513025882 0.555762415677739
0.10942559951121 -0.199161943538927 0.558774243815646
0.121856556967242 -0.206323669694036 0.559840912038294
0.116042357647376 -0.215388313337613 0.561191000985404
0.125431332320088 -0.222208621577103 0.562206818388942
0.143072896478939 -0.238152820237758 0.560176101759729
0.147519090565067 -0.236983611380091 0.560451995786495
0.15510664462975 -0.253437382536554 0.566544606144651
0.166704994438308 -0.264906446131196 0.568024653736076
0.182032810638638 -0.270939450982944 0.568781515518026
0.179971453231851 -0.27993051910393 0.569909476792202
0.193837680630642 -0.292193162081819 0.569553521763344
0.20923294339537 -0.303263805767641 0.56819692399672
0.210982597045009 -0.308147071334628 0.570233526340412
0.21971144081595 -0.320904463117664 0.573043927588627
0.22699388673399 -0.330647391813846 0.573194454610591
0.245765315011358 -0.338844642621761 0.573321101103744
0.259466648032291 -0.348412847178767 0.573468928659751
-0.0789805475516591 0.00873495976779981 0.0977279035128726
-0.0860191805245443 0.00898487642936621 0.107507587027794
-0.072904209468288 0.00896266549065233 0.108506000207786
-0.083611574608155 0.00882919329533581 0.125878417869159
-0.0720945718895572 0.00888951433150792 0.122644362585919
-0.0689517780263134 0.00865069222515918 0.134763975243594
-0.077434620611134 0.000964946293418927 0.141675377571407
-0.0599283272039292 -0.00569568144107077 0.142784354567763
-0.00857689009677809 -0.0722311861796401 0.0918859055091164
-0.0087772292161195 -0.0654389053829513 0.101584902767953
-0.00902338595196614 -0.0580227017792743 0.115628322349096
-0.00884551305707341 -0.063379143831744 0.124763031889503
-0.00855436277490782 -0.0598878533149175 0.139542943267133
-0.00688695158688481 -0.0615044648942058 0.142326531225337
0.00179362758362433 -0.0724651807881138 0.142108427604723
-0.280850663049143 0.217097456316645 0.5278472849195
-0.285292238772405 0.220404248785158 0.537168878321721
-0.284376298171272 0.222185230718498 0.553220367055366
-0.28362291901188 0.225192385567918 0.56459257441723
-0.283899772197433 0.221368811293988 0.563490960545663
-0.283132050183387 0.219923243484443 0.579367159897907
-0.282694970930694 0.219634304984203 0.585916005962204
-0.28248601571268 0.218988254044494 0.589441531462222
-0.2817049473396 0.219887613275889 0.598993706528728
-0.279977382782733 0.225512534634991 0.616817288939202
-0.280979279755979 0.213612495165191 0.613466378671805
-0.279613408390501 0.22006182499944 0.625346471686099
-0.278453340488789 0.220539553443717 0.638602394220495
-0.279052431773365 0.211177409307597 0.638983399873271
-0.278788234715577 0.209515161031821 0.643789263305556
-0.277080668287621 0.220056446713489 0.655105762971536
-0.276863180757616 0.211206363456192 0.665204511261862
-0.275657769217619 0.213200759280886 0.677692289467886
-0.27511877726556 0.211168685631288 0.686157457269145
-0.274496194464154 0.211466926758776 0.693328469934793
-0.272226528227166 0.216019404267254 0.70159849902945
-0.272842013379142 0.212939337416492 0.709918922329128
-0.273619449455411 0.203329846483612 0.710932243701253
-0.272401530600973 0.206237026232683 0.72113870459096
-0.271518932511724 0.208354283400269 0.728979193794275
-0.27177610787166 0.202662909640551 0.732970077438311
-0.269347467850658 0.208185888597954 0.743899005467048
-0.269959280539361 0.203922584696637 0.75436925456971
-0.27014721234295 0.19940195724122 0.7618840905033
-0.268919722700721 0.205220646455362 0.773791827657741
-0.268686100473317 0.205480292719535 0.778747718161917
-0.273115501787461 0.207484370482767 0.794353157132478
-0.268772897243436 0.208380378449991 0.796758116399625
-0.271015513496382 0.210461856747205 0.803328637830189
-0.280495681158858 0.218177710941889 0.835827740129522
-0.278875551596697 0.221031627577475 0.836412382330335
-0.282814794673642 0.216399134398498 0.853518897772398
-0.280069823232675 0.219535556606392 0.854145683068174
-0.280861377596174 0.219412698551706 0.857188498417148
-0.282844957930004 0.215428700356961 0.879075345617498
-0.282215034470261 0.222014960959367 0.883487452179225
-0.281202574112871 0.223172036459295 0.897115121129663
0.0226003346707326 -0.103834543217333 0.545154365384334
0.0407254360070183 -0.109948214845733 0.544521139504399
0.0456080277929899 -0.12155283059671 0.543004183096197
0.0594718298569658 -0.133059158545991 0.549346373347963
0.0570707035034932 -0.134383572476542 0.54953221190816
0.067660561241372 -0.143673922223202 0.550835811319804
0.0836059385906353 -0.159774759483598 0.553095041871071
0.0917685147505805 -0.170896248711653 0.552924816888121
0.0981206381506547 -0.174919433493868 0.551939482779604
0.101414848207721 -0.178395955042417 0.551088034127303
0.112069713424392 -0.184904275948605 0.553110107900597
0.121321482010499 -0.201520489427477 0.5591255258804
0.136933506692594 -0.205982085490744 0.559790036452281
0.141669024136932 -0.217743421849389 0.561541771086912
0.151658170092948 -0.220816062847459 0.561999410549977
0.158399537858953 -0.236103297527397 0.560659720293578
0.169383640498562 -0.250671570812789 0.565017010344471
0.169582551889967 -0.247367248920143 0.563191987982219
0.19275640819444 -0.264677305298361 0.567995907208712
0.185515568756103 -0.271438043351839 0.56884406569295
0.209294805934917 -0.288496982000284 0.570516245263517
0.210044288321011 -0.285290314015752 0.570581882007768
0.229144048264575 -0.308595557652638 0.570420570905948
0.24170838970677 -0.313203507425965 0.572342350743484
0.244013760611677 -0.331256033482758 0.573203858047763
0.246328848047556 -0.326776486650317 0.573134649613066
0.26122628768571 -0.347465550162029 0.573454293040084
0.282180205010079 -0.36977661805119 0.567927885710693
0.284420608888977 -0.376312248342603 0.566685841118055
-0.0698929978949073 0.00870432069231281 0.0977587866370822
-0.0660792005950463 0.00875874513329162 0.100687999271013
-0.0603506215747922 0.00894774713298669 0.10973655239041
-0.0659444148439666 0.00881393028721307 0.12640764619555
-0.0648905467452706 0.00892342119281279 0.120816221398233
-0.0579670037909068 0.00859628681752978 0.13738067578244
-0.062551510633169 0.00693656297423744 0.14218798682728
-0.0491262028538491 -0.00348776680953379 0.144581748673256
-0.00893754905062383 -0.0429409162850196 0.111897840563156
-0.00896347639228963 -0.0433577812642118 0.118473670885037
-0.00890954515263438 -0.044756763229793 0.121240162264908
-0.00860814862525208 -0.0502059221974304 0.136667515221746
-0.00815948038375988 -0.0516639998404344 0.143256224895079
0.00396390670770122 -0.05738163038788 0.143472314389292
0.00753275517511841 -0.0672811112654854 0.141488007961174
-0.274870362829209 0.224928011916824 0.543465482212658
-0.283562730491338 0.229229492217773 0.56105033055231
-0.282338644051757 0.23355126882786 0.577699220614429
-0.281988399722265 0.231961968890467 0.584088374095111
-0.279962107679895 0.234246136163156 0.589019503832573
-0.278855368338463 0.234245561263595 0.60120483356649
-0.280006829446787 0.233630534833787 0.610090402562099
-0.278603488080003 0.233009083555133 0.616496149546876
-0.278936835168525 0.229162273017912 0.626193971383883
-0.278896986520949 0.224172069778419 0.630555936072813
-0.2747029398895 0.228108844184815 0.641608615539792
-0.2700847051587 0.227670315026562 0.643607600309946
-0.269126276763589 0.225905428427044 0.652678160285729
-0.272324315317636 0.22424669058008 0.66144162743395
-0.276036528957726 0.220562333649811 0.666977763564499
-0.27174658981967 0.220690386567931 0.679797845221014
-0.269534237308465 0.220040032904808 0.683032150454792
-0.270724132481629 0.217670663567531 0.695107209181992
-0.272976673550206 0.216417237860926 0.70010309903179
-0.268026421441872 0.214147838646741 0.708592092909358
-0.267744621347756 0.212299511780912 0.715737085350777
-0.261681055739173 0.211882599846591 0.716978996719776
-0.247023886113164 0.198609165776697 0.707068510683764
-0.264110167123611 0.209075379866333 0.734935746476472
-0.260438041293692 0.20869778258638 0.738468955490869
-0.259510249166658 0.207538677693287 0.749791674856608
-0.246595285404825 0.196347621528919 0.746035419807924
-0.262189815013661 0.2102447397798 0.769784948680881
-0.25718953407145 0.210691964341655 0.771252552945122
-0.26657793996026 0.21625747525739 0.795437901319352
-0.266317404506341 0.216230426238946 0.803619265548329
-0.266565133447897 0.215020641885877 0.808705923715442
-0.270445057991371 0.217818206143953 0.825872362690241
-0.269196615677126 0.220274753012281 0.833316118947506
-0.27210504194072 0.225105120441436 0.84838080157235
-0.278648577325014 0.228225813575078 0.861951368317486
-0.279776665207878 0.224129390785689 0.871778024651643
-0.278215271896623 0.226958118991809 0.87644321873773
-0.281304238022744 0.225353881906352 0.887015747528981
-0.276837155224202 0.230493266285774 0.891184074525169
-0.279523670001128 0.233834435694503 0.908948118686356
-0.280055239434437 0.225965536392518 0.914486656431716
-0.278387368361765 0.228828599018393 0.929665556733928
-0.278666832721289 0.233166284598162 0.934843235960643
0.0784935346315252 -0.133258825737078 0.549374390165406
-0.272877260850814 0.227994648009538 0.94282304093486
0.0882145422727812 -0.146930655097911 0.551292788201743
0.100087248964049 -0.152446049010556 0.552066694938902
0.0963543429255991 -0.164610786994277 0.55377362155747
0.121166126586613 -0.183840887638216 0.552490348863391
0.122376023238831 -0.189315850019695 0.555681241015522
0.133057151820514 -0.196199778120451 0.558333058596651
0.144512209809737 -0.196644122101404 0.558399239234411
0.146568979012493 -0.211370028209387 0.56059251718932
0.155977251757391 -0.226019429585736 0.56277440052171
0.165421700766192 -0.226435643187751 0.562836391417968
0.182061920337495 -0.242610070056134 0.560564532761415
0.189234000981776 -0.24804193510178 0.563564626426351
0.196104422096104 -0.259189855375388 0.567307487220808
0.192489697807438 -0.261708084310876 0.567623407941296
0.213611646178768 -0.280332267270793 0.56995987751969
0.218566080184953 -0.278963394654168 0.569788147611735
0.236617339975219 -0.3000446044871 0.567715660590321
0.24565566413866 -0.307694328407322 0.570044706524207
0.25332475596864 -0.316221412199624 0.572971575041423
0.264628318450062 -0.333466349612209 0.573238007153739
0.277628030213867 -0.336683562614706 0.573287712689661
0.292942118145753 -0.360035476671092 0.569138428116321
-0.0564759782930442 0.00860557245461595 0.0954849956143772
-0.05316919713168 0.00875871625457454 0.10261720433105
-0.0518694609170598 0.0089029183023697 0.121677587317879
-0.0542330173197082 0.00872824155779618 0.130607471767548
-0.0521647610216545 0.00859610787359662 0.137308291944295
-0.0516531201524959 0.00858760974609967 0.137733934545475
-0.0473332688501599 0.00260604950772668 0.144989144105644
-0.0375061200544595 -0.00440966741351437 0.149084303240751
-0.0365803144303688 -0.00397273543041785 0.151835433913505
-0.0340282319805374 -0.00874876144650452 0.156100112747272
-0.0207890049887852 -0.0205609849134582 0.15285558377735
-0.0096788701888904 -0.0323017415021714 0.148733822683789
-0.02471902931172 -0.015120712989347 0.1804913357373
0.00777631201203977 -0.0511974919843051 0.143393987560958
-0.023403819136809 -0.0167471824046093 0.204119645908916
-0.274426307331037 0.234264141082256 0.576199583635
-0.268889375997066 0.232714287126363 0.617455425986585
-0.269296141552372 0.231835397681074 0.622023871808824
-0.269763710375007 0.231635231470064 0.623086142806758
-0.268572543279112 0.228797073179854 0.637693105044512
-0.267117660140826 0.22959427900466 0.63348607378103
-0.229139169548411 0.193261637298949 0.610351807817695
-0.231084926658816 0.195231157707734 0.619800610201014
-0.232597441663114 0.194646325786341 0.623475068754497
-0.225985531642097 0.193701453351477 0.629411636977323
-0.2312161796073 0.190735604173237 0.648045862440557
-0.229322778447973 0.190392573910646 0.650201097878936
-0.232205665768705 0.189755393803601 0.653213712408162
-0.224273691072604 0.185653988906266 0.660050497940796
-0.21699111868166 0.184123771057937 0.662601200463316
-0.215199176900395 0.183600627510934 0.669321020391207
-0.223787822522486 0.185519547351714 0.683835497967857
-0.22144715706465 0.184459939877877 0.691710116430275
-0.220106401305047 0.182923838943659 0.703125861482481
-0.22384043136296 0.182069050648328 0.7094783380911
-0.221467723459175 0.180616566732897 0.714688859328277
-0.218707251595982 0.17841417127403 0.718581116962042
-0.211827847446522 0.175466457872292 0.727190865000564
-0.218464285817178 0.18024239089292 0.748848526573577
-0.214148875894397 0.180239147025594 0.748250807861022
-0.259279329536153 0.219523436823648 0.808571323770754
-0.257532944951904 0.222135781445429 0.817676801936402
-0.26192766226223 0.226416587945979 0.832331500090802
-0.261083584797023 0.227686696302712 0.83650667353567
-0.263309990797705 0.229856825311343 0.856166976284117
-0.268248167206273 0.231383280642365 0.86618497594858
-0.270980281463031 0.232292822101077 0.868972844412503
-0.276494005493686 0.238510485286576 0.892371052891401
-0.275606004189449 0.241607430284591 0.904866727301561
-0.275502012983298 0.240778942335953 0.906286535961226
-0.277285063010352 0.238643529830406 0.917649781674419
-0.277276480480597 0.240974486779284 0.926244509172812
-0.278205080103829 0.241551417336231 0.940504505995283
-0.278253089475329 0.237983048701676 0.944543256100691
-0.272615872876625 0.233324958494294 0.950463521303157
0.0961712991104799 -0.143021316434275 0.550744239253554
0.0966780031495045 -0.150220854691111 0.551754461052695
0.11733146841186 -0.159347729717361 0.553035122086865
0.125076218414355 -0.169224218654474 0.553334320387211
0.133115542992337 -0.182836247725244 0.551904829294368
0.137542003694568 -0.187794292217494 0.554794453762612
0.143284160872842 -0.191371609398832 0.556879369150931
0.163601293052358 -0.206097512718654 0.559807228195357
0.167599325344869 -0.205107635603239 0.559659795797011
0.169891359338213 -0.214829959391031 0.561107839691756
0.193672182607993 -0.238707723479818 0.560045163229018
0.194222178698536 -0.246606379673806 0.56277174944783
0.203133960169462 -0.25756397088281 0.567103514264622
0.219990406872443 -0.266579025406256 0.568234484717764
0.226979830810829 -0.271978618477343 0.568911882753075
0.23286365273317 -0.276719293087618 0.569506617138567
0.23580364359219 -0.286893090384321 0.570782955968123
0.261337126383739 -0.299507828875525 0.567648311123466
0.256333505042271 -0.312328673006289 0.571977494520735
0.276114207201644 -0.323301203700539 0.573080956928942
0.272646088898845 -0.326030359381674 0.573123122040683
0.285310424137734 -0.331991641796484 0.573215223103615
-0.0408106567680497 0.00862837562287475 0.0988158220612082
-0.0428896838787199 0.00887834585992946 0.109339446768903
-0.0361106381887302 0.00925241503736769 0.105855667781349
-0.0395711948831791 0.00880505225171712 0.126489388601385
-0.0338481002372233 0.00965184289758443 0.127545379124553
-0.0411204124973746 0.00851685553240443 0.141189666862583
-0.0344530311105398 0.00927028389364404 0.141326945022763
-0.0337100270821447 0.00600541364294369 0.15854808862247
-0.0331687515941694 -0.0032465393541892 0.161192200192454
-0.0320724598018976 0.00129543221152913 0.165714402554558
-0.028880350858585 -0.00166619290048458 0.176259169697512
-0.0289027375552608 0.000789516888674862 0.194387679404211
-0.0289027375552608 0.00343433491156948 0.201855232170524
-0.0289027375552608 -0.0030166664581249 0.203945762210241
-0.0193941407391881 -0.00872250899598015 0.204119645908916
-0.0173500550566658 -0.00767132100119185 0.21785525639244
-0.0150562068151203 -0.0132051389239568 0.224328840494689
-0.017115802694329 -0.00823844859235346 0.248537911582688
-0.0183311782640679 -0.00530696020047978 0.253455824333339
-0.0153420547761834 -0.0125205226402355 0.298170571275307
-0.2161902279992 0.185528044075788 0.563292944702414
-0.210102852756308 0.185965725261734 0.564680173471834
-0.214348354850426 0.193919571364225 0.590172851064598
-0.224852337425455 0.193418683353593 0.59677092510013
-0.225983679681329 0.193816985079499 0.612794345027625
-0.223092337557505 0.194402272443183 0.615368562867988
-0.214755341323657 0.195168327883227 0.620195365647199
-0.220225739958246 0.193568310691155 0.630248163112712
-0.215834112109634 0.191917484666004 0.640620188965859
-0.223359102662653 0.190257506638036 0.651049716220348
-0.21602663246526 0.188725647801829 0.65492998862103
-0.206227525874821 0.1834788921169 0.663814503294623
-0.201337325769827 0.18334191625473 0.66483373837393
-0.214626653623315 0.186020561258778 0.680112144311053
-0.211804132075093 0.184906227645229 0.688393467596522
-0.203917119614581 0.184642703809231 0.69035188117464
-0.212818109669398 0.182455599321339 0.706605648541177
-0.202360690115285 0.181690960476359 0.712288167128897
-0.201367705301003 0.178317326477824 0.718752269193492
-0.205466939756244 0.178049536462607 0.719225530127073
-0.206928637133107 0.178313710307533 0.734181874063313
-0.209816237963451 0.180232585214845 0.747041721089229
-0.204765582885425 0.18025628852692 0.751409320547923
-0.207082704982652 0.180296539284417 0.758825971271765
-0.259730746205653 0.227339438335407 0.835237710880854
-0.240531054595819 0.218086267333695 0.824309166535473
-0.241646751090295 0.221194630798407 0.833943058823775
-0.262407971941531 0.233898172439958 0.861670814750289
-0.263129033181182 0.235554801174653 0.877574746926449
-0.261716141626583 0.238138737270073 0.882714885186254
-0.270367959637174 0.242739594841714 0.898548486849126
-0.261207449345955 0.24456679001788 0.903044643551396
-0.273891016294495 0.249270661362577 0.929060958258508
-0.265210175696439 0.237877027227028 0.920537426242067
-0.272874650490641 0.249551848448012 0.942999960374281
-0.276722406810261 0.246962004230629 0.950043788923048
-0.275436614002154 0.252030860863543 0.958114825132757
-0.276708139233601 0.252097799376222 0.964925293826788
0.106354344583162 -0.144301184806997 0.550923827288791
0.125265357072993 -0.150822526435499 0.551838886176977
0.123186869420238 -0.158855926567067 0.552966113458036
0.144945891560382 -0.173658080914818 0.552248405632091
0.149885432779636 -0.184493095971507 0.552870465895664
0.156383692143943 -0.185530558730561 0.553475115123427
0.169259471029455 -0.200177481790032 0.558925498186153
0.169310892690177 -0.197905077410233 0.558587046046481
0.186281497002443 -0.218978319204641 0.561725696824723
0.190182062380093 -0.229100662349003 0.562312107037543
0.207737626369702 -0.237093697763814 0.560426019096788
0.212158862897116 -0.249315408536048 0.564267983293746
0.221181387753418 -0.254629945811174 0.566735430449247
0.231841784766357 -0.262099254046225 0.567672481567161
0.22983484937332 -0.271656054167101 0.56887141592027
0.24486880495404 -0.277121987833322 0.569557136617716
0.260020029305323 -0.299730213080947 0.567676213765369
0.272952333880516 -0.30231562619839 0.56800060666122
0.280623738959747 -0.30999224947108 0.571003071650958
0.293714910914545 -0.323362614608522 0.573081905719741
-0.0230453102161938 0.0170639891429571 0.0911155313021843
-0.025717792334195 0.0133938399226559 0.104825514317935
-0.029925667542355 0.0105310592991084 0.113112248730941
-0.0251487516156591 0.0144743354170007 0.114328633979022
-0.0260800845822606 0.013229155992851 0.125039529364009
-0.0249405904453793 0.0148165442318784 0.129887057701403
-0.0264698285889371 0.0126033614784981 0.139802274395621
-0.0265960389185914 0.0119822606494625 0.161415127491122
-0.0305940647786181 0.0083828658040843 0.167181099096447
-0.0266910708271926 0.011765916381922 0.176725168392245
-0.0254280395778766 0.0141476052196964 0.18907502259671
-0.0235197052688234 0.016800342711841 0.193177470793502
-0.0277768931028381 0.00815434644395881 0.20106327606693
-0.0193218097214126 0.00291008843393556 0.211642641685237
-0.0181903947879025 0.00563893435123001 0.216791259668813
-0.0201101496656779 0.00100752458765069 0.225073963091474
-0.0203381883771048 0.000456892617535581 0.233124534697826
-0.0188566571696127 0.00403006510907284 0.241524521592486
-0.0190901314406054 0.00346652414493251 0.246642833187839
-0.0189439135692714 0.00381840968903261 0.25852883835103
-0.0186719247086006 0.00447292119987574 0.281397484156674
-0.0181442915074992 0.0057455377851633 0.283444291121985
-0.0185310195566481 0.00481206406513322 0.292232039311816
-0.0159816074113551 0.0109610873494693 0.301993991565071
-0.017223609101644 0.00796470050599238 0.30817780352428
-0.0189760125020951 0.00376909033135497 0.3216544583447
-0.19806724502139 0.184767190512036 0.560881422373281
-0.198106560573953 0.18916801078957 0.574829804652582
-0.207106022561756 0.192875456695023 0.586580539631033
-0.20262616720268 0.19317974688639 0.599918376160916
-0.205989126374917 0.194743775247101 0.616870564559685
-0.207168366257181 0.19513921045705 0.620378308424014
-0.206301014268077 0.193361445926534 0.631547880135619
-0.198258301029525 0.19322969026174 0.632375691873945
-0.198783040761284 0.191893967353646 0.640767946614492
-0.204002792013878 0.190633599833251 0.648686748660758
-0.198446900287019 0.188478789458846 0.655341189517392
-0.198780309305458 0.184723045819795 0.661601911062168
-0.202300483765637 0.185281134829001 0.675967512642688
-0.205182122776218 0.18597324413584 0.680463788008441
-0.199556431044195 0.184674045212265 0.690118963233736
-0.194409948251334 0.18371479353843 0.697247773786134
-0.195944071597328 0.182933495147218 0.703054100079606
-0.193802573178794 0.180645971464445 0.714636892824996
-0.191618335552391 0.179318807578135 0.716982367951615
-0.195830074093342 0.175961350017055 0.722915948031226
-0.189468244116225 0.180195385805125 0.740187315205262
-0.192540126153826 0.1802546421493 0.751105957120199
-0.193570197639773 0.180254995166906 0.751171004549026
-0.192673033112782 0.180343230763049 0.767429396656061
-0.19149162659924 0.17995588065493 0.773769985793336
-0.236905754282516 0.219617597090168 0.828722237810796
-0.184439168837666 0.176433821362514 0.782695214372873
-0.241925023712636 0.230149415010155 0.860613486431246
-0.234822386428699 0.230017673406848 0.859679005942878
-0.249911232069638 0.24216692156066 0.884948976725863
-0.255416417916984 0.246203668225378 0.89925230505699
-0.259320642416781 0.249863574418508 0.91388291480684
-0.26748266444438 0.252679620854674 0.926726071212801
-0.26440681561778 0.257322656276173 0.939751094753613
-0.266185367829259 0.247349624346381 0.946881364886592
-0.27844805773877 0.272805213019232 0.971678242679102
-0.278195769300445 0.26694506839137 0.97633929898394
-0.278433061637713 0.265454439724163 0.981896129705942
-0.275749541649875 0.260452092557011 0.988186123780593
0.138204194476658 -0.154102974167138 0.552299190670296
0.156353666852884 -0.162188057955547 0.553433670077107
0.154554997667075 -0.170990289170005 0.55290178506726
0.173204528896919 -0.186773020188638 0.554199240741042
0.174860664244989 -0.189639659794282 0.555869962324733
0.184967162105107 -0.194000555896878 0.558005506214778
0.189954271387271 -0.202984874666471 0.559343631566979
0.201627202988519 -0.215649790096656 0.561229945360516
0.208600602414991 -0.228368904323019 0.562484777358233
0.22724069261357 -0.245013552722828 0.561892009247215
0.221869929734718 -0.244645055874003 0.561688483376742
0.244722960008063 -0.254278088061904 0.566691288650981
0.253247095846072 -0.270012540205801 0.568665231284922
0.261542263745001 -0.27838553820987 0.569715653478398
0.259284842376039 -0.283560185767727 0.570364831304017
0.279304725472137 -0.300067820278108 0.567718573485604
0.289146945265208 -0.31040462956018 0.571175057844301
-0.0211710610021918 0.0199757481377061 0.0919416259001346
-0.0225143367048369 0.0180555890328479 0.100857578901871
-0.0198947622389851 0.0212516704447881 0.108599110381665
-0.0158085803795228 0.0241380176591821 0.112468896507891
-0.0186118470742008 0.0222046523540712 0.129775105212337
-0.0181357348977402 0.0225504498316085 0.133724005119563
-0.0188588790466975 0.0220252344832758 0.152576475128784
-0.019146353249425 0.0218164436581821 0.160724630953386
-0.018979550475496 0.0219375915332468 0.169029440854475
-0.0180148981763557 0.0225533755399655 0.182610308657622
-0.0211442407522669 0.0200702385021923 0.190495922913422
-0.020757605822989 0.0206023036084862 0.19511789450843
-0.0193133915190747 0.0163974601003769 0.204119645908916
-0.0139073094905856 0.0147683118087234 0.20719949117246
-0.0151834728647686 0.0128917515530656 0.223836945650994
-0.0133489106528702 0.0149996081805184 0.225682882700612
-0.0159645005688177 0.0110067397437637 0.238520685044109
-0.0130707791918137 0.0151148140038112 0.2427163132968
-0.0158379140896821 0.0113110721833246 0.253274396127674
-0.00984775962205115 0.0164498324214001 0.270780305513273
-0.0146334513481498 0.0142144731656587 0.282309708652904
-0.0126238863128717 0.0152999230951964 0.287370660838166
-0.0155919036232745 0.0119014815240657 0.296933568183979
-0.0125271277390658 0.0153400018087428 0.30330405615684
-0.0148681394236261 0.0139521136388806 0.323161480984906
-0.0158334904746407 0.0120310478565124 0.325340260095589
-0.015705967139424 0.0138004172819655 0.339204476075791
-0.184206869909228 0.186813691567351 0.567367799288113
-0.183318591970438 0.188610592610151 0.573063069960947
-0.189747435204734 0.193779201761811 0.592021905163327
-0.192752215392091 0.193054591649693 0.601567015178278
-0.188905999878318 0.192548592078425 0.606680290623917
-0.193423288837355 0.194840046792983 0.622257933054806
-0.197386161030872 0.192657491822127 0.635970775134308
-0.189897515849496 0.193127797161888 0.633015879180067
-0.191076393831797 0.192305771076234 0.638180612278805
-0.188445347977922 0.190536063513723 0.649299562617136
-0.183523007255851 0.186210164218657 0.659122663266649
-0.180843323519068 0.184598725077859 0.661808839135846
-0.185851881233149 0.186098297122343 0.679534439565158
-0.18186090088366 0.185608875776442 0.677263744824625
-0.180763313385678 0.185391899479711 0.684784130659105
-0.184211824859257 0.183195650517602 0.701105856441635
-0.185291789683336 0.183144288522421 0.701487560162591
-0.174829914179674 0.180091791014226 0.715616286911178
-0.179532833179277 0.179192135809045 0.717206232906583
-0.18079387367333 0.179975400546961 0.738261909742463
-0.180861875695817 0.180204062423284 0.741786078814993
-0.174240627660846 0.180227418648651 0.746089723678894
-0.183348294279745 0.180290673033526 0.757745049156993
-0.176450485740636 0.180343205608501 0.767424761650214
-0.183314547679396 0.178712395088164 0.776921094845542
-0.195414731493217 0.188762779011162 0.801030380004645
-0.196239624351232 0.193799756320688 0.811984858930927
-0.192992024751376 0.195133850586148 0.814886263209444
-0.238266308806304 0.235642044965048 0.875854197515995
-0.251676288669244 0.246693309049013 0.900631466158524
-0.248668324527024 0.251099557212864 0.915516247228805
-0.257125048415978 0.255296910031726 0.930609197471615
-0.279428292392832 0.281557287232566 0.964870281588646
-0.278607989063631 0.283366093886565 0.969551654188698
-0.277938588375421 0.276031772241815 0.971925128300763
-0.277022622065831 0.283376518811842 0.991496700437864
-0.277375242212423 0.274681395724362 0.986936057774768
-0.270350338506467 0.26841241373383 0.998130331277851
-0.262850278111682 0.268275885492776 0.998777916557678
-0.260681162603441 0.263507504764347 0.997377936450033
0.160441996896982 -0.163057897311717 0.553555723832224
0.180382873999781 -0.172647430466895 0.552495928033381
0.186847769692898 -0.183253916839456 0.552148253268064
0.194331776105905 -0.194738527372629 0.558115419761507
0.200351603510533 -0.205585016190167 0.559730896910228
0.207335132500074 -0.213229849738031 0.560869519197137
0.213061263580251 -0.215673754730586 0.561233514655533
0.233321764594045 -0.22921687095597 0.562284685708744
0.241134683472218 -0.242354671508462 0.560474982092406
0.246852673835446 -0.251886645745482 0.565688112917411
0.256896227681713 -0.257899519839281 0.567145610067189
0.264967258330661 -0.264455712020631 0.567968107548812
0.281275045115509 -0.276032490728176 0.569420455355113
0.278483924889322 -0.283297425367794 0.570331867083135
0.301114262852681 -0.305160501154152 0.567722897817661
-0.0108064338833697 0.0271919607995121 0.0912188743057848
-0.0138278028190185 0.0254033518761124 0.105424070525232
-0.0122278779545686 0.0267322688652157 0.118688173677672
-0.0135911896320785 0.0258281885810216 0.126819985811423
-0.0125130034966215 0.0265383177315258 0.130851102302601
-0.0144805002559337 0.0251771299643314 0.142768198024177
-0.0146555988995145 0.0250503542454865 0.158050164657066
-0.0101589720406575 0.0282024488822892 0.164889636876969
-0.0102837738785439 0.0273443223409565 0.179206433225409
