ply
format ascii 1.0
element vertex 840
property float x
property float y
property float z
end_header
-0.0337741102371296 0.206972854786595 0.761796169522316
-0.0314305453984105 0.210628089968959 0.776459854366871
-0.0359374544023598 0.2120625332364 0.783441563983938
-0.0270994426173988 0.214032046623311 0.787294803325243
-0.0353365534011498 0.217431394708785 0.802907881404601
-0.0307746115002525 0.22055426398324 0.812623596325859
-0.0317960315541209 0.223778013358731 0.82476310378164
-0.0355761728477524 0.224016361356121 0.826878584549777
-0.0366212993865231 0.228832126846467 0.84268091621642
-0.0340637645474078 0.23142370904362 0.849081694942296
-0.0341320785046704 0.234940185349945 0.858700361732958
-0.0287374184151728 0.236132698307785 0.860880591254247
-0.035305976231546 0.240531661831202 0.874620049871527
-0.0361696080361702 0.243460534344682 0.883012481479588
-0.0287574103537667 0.247895822753878 0.893844548658703
-0.0379711418062922 0.248321184411085 0.897019522860274
-0.0302393847907996 0.254835486484526 0.912054878535282
-0.0345621065344188 0.257747505716002 0.919526200231427
-0.0284135063554758 0.261449671524975 0.927102127328933
-0.0319078941764248 0.265278069645257 0.936563205817634
-0.0320123853273384 0.268762663095474 0.944666729823027
-0.0293236923567406 0.272473291873946 0.952764221174927
-0.0329263824458513 0.273584476152648 0.955268033310284
-0.029926754519422 0.279375783768168 0.966702623229968
-0.0300790516631917 0.284401294562206 0.976315853841842
-0.0305713949039986 0.288234732023856 0.983723333794136
-0.0368198130475079 0.292853821108095 0.992734155423079
-0.0304852028208084 0.296382238726945 0.9949973518044
-0.0356803671264782 0.316534227490186 0.994884319536751
-0.0147083177533358 -0.157469532058432 0.149266744520285
-0.0225249041262502 -0.152465345522754 0.150013547741357
-0.0219341682752582 -0.138524745390734 0.154296181210409
-0.0178906431980221 -0.129799977255445 0.157338209999272
-0.0180219776321354 -0.131479085609273 0.156816452542067
-0.0211664338170643 -0.118703550738948 0.160378259311229
-0.021348426406675 -0.113657984014405 0.1618893157171
-0.0154259928635117 -0.104620616069951 0.165211073012912
-0.0158274896488328 -0.0336836857018676 0.149215559552141
-0.0214976895424943 -0.0336836885250937 0.151427217207138
-0.0147804624035028 -0.0336836924510453 0.159155380889911
-0.0193722633053423 -0.281220977948485 0.403801049982147
-0.0221931656851345 -0.277522107015931 0.40967761530417
-0.0211187243364412 -0.274513256605712 0.414364919440895
-0.0170624807442313 -0.266265455113859 0.427182999274429
-0.0224475091809114 -0.264154269639906 0.430641332419774
-0.0140593872344007 -0.260945175941172 0.435440684976511
-0.022652464672178 -0.251404751475139 0.442095752652102
-0.0211478617013235 -0.249890294885704 0.443015789181009
-0.0147515162330767 -0.23881069085684 0.449873956433117
-0.0159853948644187 -0.23750989834045 0.450733919787504
-0.0180977290774983 -0.233861529426588 0.453108665510458
-0.0184658054309033 -0.22295060965919 0.458798368361641
-0.0157573123233079 -0.214640362035376 0.461032899468746
-0.0176290032545209 -0.213251321146583 0.461470555091362
-0.0215585511396092 -0.208821700461502 0.462809942323649
-0.018089162759544 -0.193492166023806 0.46697402379946
-0.0149797110157244 -0.186267843139662 0.468895725742252
-0.0223660605502704 -0.18135404010305 0.47046507442893
-0.0169451519961127 -0.163246959018683 0.472560887020585
-0.0142846238531938 -0.164651936622706 0.472331688674495
-0.0236836948989535 -0.148668331766174 0.47436314007906
-0.0216897392638193 -0.139256309237947 0.475351564514497
-0.0238253251519551 -0.130823707253742 0.476345389259706
-0.0234111225196641 -0.119128325718537 0.476985224533298
-0.0144086722231889 -0.115870114875221 0.476909928257586
-0.0175779185888751 -0.097774547134708 0.477959270026144
-0.0194677261934878 -0.0879144354271055 0.478535543619422
-0.0237368432201825 -0.0810213102464958 0.479019781633288
-0.022340316323385 -0.066889570391888 0.478634912197284
-0.0234689050447889 -0.0644397735402104 0.47860149338559
-0.0173678598902688 -0.0441537367151503 0.477898406697416
-0.0181891662871029 -0.0399145823400256 0.47780934360001
-0.0224306687624947 -0.0173450500326438 0.477228858283569
-0.0180278636529658 -0.00619363560347587 0.476730003075515
-0.0163344226455488 0.00319935684653856 0.476365431199696
-0.0164502641815812 0.0130729889686104 0.476034535763384
-0.0226695312448932 0.0302976455126093 0.476850590440178
-0.0232807765167695 0.0358105509904212 0.477249768646358
-0.0207990041450895 0.0492733772083522 0.478113663688317
-0.0167540423193658 0.0668330556273274 0.479219541596903
-0.0239822341668385 0.0781554712811627 0.483473344284069
-0.018984319211997 0.0855607724068741 0.486242908426737
-0.0178369240596748 0.0871082043508601 0.486818978335311
-0.0204994168173437 0.0981100131633741 0.491194667640655
-0.0180050865225886 0.10327336204147 0.493159793734656
-0.0221067193144565 0.113649198684033 0.497337875639311
-0.0190186166024454 0.123668297853598 0.504297239065774
-0.0227964934744462 0.126293935252858 0.506571062597639
-0.0252060610611697 0.138038349225237 0.516267294332797
-0.0258113387111557 0.144556358046265 0.521622722643606
-0.0254790298484964 0.148109909950506 0.524533306717739
-0.0239191843886916 0.153307218580894 0.528775411208649
-0.0196219134164427 0.159517662213887 0.533810864194952
-0.0173948898778985 0.167042979725502 0.541438450540008
-0.0234269013492842 0.169061281921111 0.543686774941046
-0.0227285825044145 0.1765789265506 0.551741464336652
-0.0216213802252771 0.182771837815878 0.558369442590656
-0.0237848548035391 0.187124819338096 0.563099203119689
-0.0253292229909124 0.190825190434196 0.567129909978135
-0.0166138806720787 0.184377799186599 0.607627280568776
-0.0253446319690194 0.183659563409915 0.609470192907069
-0.0177248376679149 0.18521743283522 0.618814600770476
-0.0241034928327844 0.185175375716557 0.625839426228527
-0.0183127062811058 0.186768014795248 0.637749032011533
-0.0200203187760692 0.187300720835348 0.644217944113131
-0.0186285590197046 0.189524337216512 0.657744548205688
-0.016773007001048 0.191355683949088 0.668390517360784
-0.0255639827999958 0.192622443697991 0.682776433346098
-0.025565515740717 0.193288058474761 0.687116919204281
-0.0226622607812308 0.194823643625056 0.695104438514997
-0.0250785733639144 0.19641730426713 0.705803915062501
-0.0262824012899159 0.198793520412279 0.717925844175197
-0.0194948257905757 0.201221015880791 0.726434007479343
-0.0222478677798483 0.203682368194736 0.739885268105023
-0.0216534252442615 0.205806993005833 0.750008797577623
-0.0217695451076258 0.206573039782033 0.753824357268801
-0.020006676639405 0.20964551783304 0.768012019263366
-0.0160977875988545 0.210807386153555 0.771267832407368
-0.0251624493491474 0.213622014156362 0.78505160312093
-0.0206753146849255 0.215110211150972 0.788799092115916
-0.0212941404910313 0.219009116293011 0.803338251860445
-0.0194647332021762 0.220198045661498 0.807001861262082
-0.0225043641702119 0.223475901214226 0.820186299187546
-0.0228235113695444 0.224894586772094 0.825512483463995
-0.0173808191143228 0.229910135255476 0.841000940610284
-0.019764780500297 0.229226877027223 0.839717885272263
-0.0231788685161435 0.234500423294099 0.855110638732103
-0.0228791943508851 0.239111696950217 0.86796668347287
-0.0265387508657886 0.242230564648813 0.877493257214009
-0.0177673760378263 0.245005760314636 0.883381287245546
-0.0248786769353192 0.246853320252367 0.890088665792795
-0.0217984471162394 0.250403544901419 0.899373229508945
-0.0185613243682604 0.254929877855367 0.910345676920268
-0.0221740302345807 0.258011016143434 0.918092217011002
-0.0193916059630438 0.26268411615067 0.928477084856079
-0.0198810601665967 0.266115869738025 0.936521553713706
-0.020828945436232 0.268881938308285 0.943096943270343
-0.0221872224526573 0.269754956322562 0.945347124008449
-0.0163598914120073 0.277395727929297 0.962115939849499
-0.0175530235308848 0.278465445715033 0.964665222324422
-0.0163779573313742 0.2850394858703 0.97734139710386
-0.0242449207618354 0.290806825322524 0.988593184602412
-0.0240966810333927 0.292937381424008 0.992703773748573
-0.0199344870321014 0.301156849766444 0.997554811031573
-0.0217893466730501 0.32161340424045 0.998189972877964
-0.00593058365155319 -0.159866628666145 0.149404611003442
-0.00662956112915191 -0.151056167324745 0.15200565464163
-0.0122102737758255 -0.147706613611816 0.152471197634659
-0.00989032620065212 -0.140812619405278 0.154788734488602
-0.0102230739668845 -0.12844321977741 0.158504313932285
-0.0103813041345113 -0.122782804268519 0.160204029795526
-0.0109486110303457 -0.115631109152659 0.16231537497871
-0.0112945636307114 -0.108776074444196 0.164358617017561
-0.00688263548188935 -0.0955016761174014 0.16881560966131
-0.0100455589396326 -0.0868300934991769 0.171131963147798
-0.00866955220551198 -0.0874124109169952 0.171090985266777
-0.0105065297198591 -0.0336836854368561 0.150533771792942
-0.0128600454451813 -0.0336836880420175 0.153491842139434
-0.00494847925323357 -0.0336836915242976 0.161493071519058
-0.0103129786190884 -0.282150044393228 0.402094502603989
-0.00978303045819691 -0.273579005670803 0.415516652679392
-0.00877885769214821 -0.271421750410467 0.4188708546037
-0.0106492483142095 -0.268860309569843 0.422938040038174
-0.0134138514949711 -0.262355505045949 0.433211900502498
-0.0114808193981174 -0.263930575034832 0.43068931505753
-0.00885719836552535 -0.256407575257506 0.438538557424654
-0.00841830352537555 -0.253047581858214 0.440659787312669
-0.00527130744322877 -0.243630852194326 0.446551842319114
-0.0111170705793665 -0.239801933223543 0.449144273844624
-0.00528746182977877 -0.23023826983108 0.455055575343345
-0.00582714526313391 -0.225008583906319 0.457877636702636
-0.00652157541265942 -0.221250430559615 0.458941137761566
-0.00646308504555743 -0.211419263999312 0.461671454333676
-0.0130198908224284 -0.196784213394218 0.465919292172378
-0.00875088021417462 -0.195746009349134 0.466089960064569
-0.0058124088019912 -0.187438914111008 0.468317267300405
-0.010738664306621 -0.179665241264015 0.470569366832264
-0.0105780088788369 -0.171621218404871 0.471456731042736
-0.0121348571777859 -0.166138734696664 0.472107517350776
-0.00741147642076137 -0.152952042687457 0.473439082052527
-0.0139665477122574 -0.144421091896083 0.474565796768383
-0.00716209061335354 -0.130163833199533 0.475950130079822
-0.00480116826604439 -0.120902090937116 0.476377268985879
-0.0140166289917684 -0.104920693489416 0.477481120188798
-0.00480690830022569 -0.0954159467478806 0.477732135466403
-0.00611764658036143 -0.0889080970001244 0.478114237161434
-0.0137493360059451 -0.0875445816885796 0.478397364163012
-0.00824415962612954 -0.0753409616754762 0.478468586398782
-0.00544546252946302 -0.0515878110538407 0.477765267208737
-0.00630682581588249 -0.0392087130007357 0.47746276259179
-0.00958788655142202 -0.0428666510704469 0.477649739854436
-0.00899064591973941 -0.0296648879054387 0.477274751831426
-0.00702995939324455 -0.0138972608614966 0.476687105719806
-0.0118387802641163 0.00886596095496727 0.47604960234856
-0.0100702250948136 0.0225500196574708 0.475956017898971
-0.00812580561749324 0.032142863807076 0.476579385302535
-0.0126720569123199 0.032739976240371 0.476747013460073
-0.0060169815420672 0.0482412795991332 0.47765736063132
-0.00547270830020605 0.0644817664919266 0.478765518492853
-0.00814053993769653 0.0660563430610496 0.478943103985173
-0.0104405676039406 0.0842209474342863 0.485497330875518
-0.0111109994401222 0.0944842293730098 0.489538044176901
-0.011322909774866 0.103573934756256 0.493116568738669
-0.0126667286399162 0.0985454401668907 0.491172188877
-0.0068073614586005 0.110293850934984 0.495649287977365
-0.00654008734392686 0.121229606832859 0.501968677592784
-0.00756242365911598 0.12737736591859 0.50710373838047
-0.0155339486154329 0.133567126165012 0.512441549994038
-0.0156537982729216 0.140139242520772 0.51785893404625
-0.0142354770796908 0.147261330925629 0.52368199255691
-0.0139526928498998 0.151732504498402 0.52734603474288
-0.0103834092151656 0.160225961052992 0.5342644138654
-0.00785157702137002 0.165239924655469 0.539372564458947
-0.0153833122684429 0.169797497361486 0.544365513556498
-0.0107114301149709 0.180804475898578 0.556178627856677
-0.00565699279727108 0.186630883580077 0.562499333449717
-0.0105969965495411 0.186905898302189 0.562815548688021
-0.00841415492641817 0.206671015323237 0.564311848059979
-0.00835332394634916 0.184579522984788 0.608427123817173
-0.00793577934203264 0.184656858013785 0.609336913442872
-0.00788293948964106 0.185827091737398 0.623103850821533
-0.0122111385693188 0.186672017442575 0.633043779092337
-0.0136468494964573 0.187147568695327 0.638638289133265
-0.00764087009938186 0.18959013438333 0.655840228615335
-0.00567648121734923 0.190232981010614 0.660031541390221
-0.0128703328185533 0.19148137612043 0.66817097066372
-0.014710397860845 0.19355777736257 0.681708942956174
-0.0152277751583228 0.19390478325262 0.683971393696056
-0.0103629482722553 0.197052327229883 0.703879297065437
-0.0103931213308296 0.197836160517027 0.707723489681191
-0.0134226310190186 0.199991208284692 0.718292594701219
-0.00960430107454637 0.201947885128153 0.727888826384766
-0.00791845486854345 0.203156710607754 0.733817331158524
-0.0156330923899932 0.205433026228854 0.745160102274289
-0.0150760287704092 0.208230100644751 0.758699003322051
-0.00713682553679614 0.210578766221791 0.770113265432082
-0.0107468053682352 0.213401865092668 0.780471422051579
-0.0124352379452491 0.213365200673647 0.780336897611611
-0.0102509460617801 0.216242616501534 0.790894347126447
-0.00972368891231284 0.218811208491632 0.800318699351404
-0.00995619438753079 0.21990008609675 0.804313871071964
-0.0155352271554066 0.223446555971349 0.817419775574514
-0.0118522708547235 0.226607233181379 0.828922885190916
-0.00535232414764325 0.228566721980389 0.836112393175804
-0.0153144018447985 0.230581583118134 0.842437533254821
-0.0126531857928255 0.235288213957251 0.855620028683492
-0.0146141313548403 0.239048769801228 0.866155704448979
-0.011208377467552 0.241875864246111 0.874076169312549
-0.0157309447162679 0.243192146591983 0.877861322447081
-0.0145493387812273 0.245984822228271 0.885587938005838
-0.00991141918170384 0.251100137388511 0.899919144402598
-0.0122002437290238 0.254468830430634 0.90873146561616
-0.0111288983362758 0.257342372749009 0.91540021228421
-0.00555941717581636 0.262093973016669 0.926427446108385
-0.00545767922765594 0.264271126814632 0.931480055281418
-0.0103105220287809 0.268485445829347 0.941260394319611
-0.0109023122038495 0.270690338805381 0.946377378636337
-0.0143974914327735 0.274481280837325 0.955175170108989
-0.00616278324023197 0.278820688422482 0.965245812777517
-0.0138484487464209 0.284727112975001 0.976721941207433
-0.0119368363401035 0.288996137341064 0.984962826912852
-0.00906159469224544 0.293765898457168 0.994170330585499
-0.00657030048350549 0.298392370697281 0.998412879417155
-0.00687460621089034 0.317370700077834 0.999211132205244
-0.00426822130411928 -0.154736473218388 0.151122898913474
0.00432298612705672 -0.132331784419421 0.135408746789426
-8.24576229768253e-005 -0.131276106120663 0.158644314424247
0.0019306029963524 -0.126544695767284 0.16027629938575
-0.00132191605471766 -0.122248263826288 0.161258015115275
-0.00170321165787047 -0.116057973962965 0.16309633727713
-0.00376895932075279 -0.111014885959928 0.164421165046352
-0.00223877272074595 -0.0974337140094159 0.168687379545021
0.00376424442610718 -0.0936318987338111 0.170430523442586
0.00183397003057974 -0.0896858697101191 0.171436244514647
-0.000413427193888631 -0.0796176519185869 0.174265969388805
0.00194176547380992 -0.0747160203362834 0.175983223895896
-0.000112434826885549 -0.0619407576884341 0.1796522964896
0.00376760553613647 -0.0607735330831908 0.180388039538058
0.00147927910733155 -0.280550264330953 0.404276980704706
-0.00104354052331979 -0.274416971518449 0.413961750263068
-0.000193196184025518 -0.270895077265762 0.419459536391876
-0.000973406514857576 -0.268341968744883 0.423483568151958
0.00243644386766942 -0.262935889410911 0.431864535074384
0.00168953165762164 -0.261341639399631 0.43438444969352
-0.00295068108274701 -0.257395872638076 0.437748031003439
0.00391833706480495 -0.252160899754295 0.440882248350371
0.00247547747766266 -0.244175252492487 0.445992362280123
-0.00269074069270149 -0.239230880394335 0.449274266244576
-0.00384905311578896 -0.231833368520927 0.4540031041675
-0.00332451979758648 -0.223340105440771 0.458272203964222
0.00218032421353642 -0.222204880515656 0.45843572103464
-0.00249643596019034 -0.215120458739107 0.460533461478723
0.000900994497118552 -0.206905779439047 0.462722419560876
0.00443996476446502 -0.191079612254529 0.467022587073094
-0.00297447352948591 -0.185763098377928 0.468704618255936
0.00334538252935144 -0.180485298814796 0.469996797581212
-0.0034826994083937 -0.161955156546876 0.472332512014532
-0.00208301100118635 -0.15724547976033 0.472816015000978
0.00407173659815271 -0.156055505983462 0.472778057920952
0.00139326585691926 -0.140561887788689 0.47456968519715
0.000654299686559661 -0.1279948812136 0.475849672192737
0.00350395951549832 -0.117514425162721 0.476328101315982
-0.00103087217777879 -0.110249227481077 0.476839450979305
-0.00393829483633804 -0.106155178920216 0.477137319484464
0.00328315049358457 -0.0897036575047341 0.477812468738418
0.000883242776239482 -0.0826926739965993 0.478251377588802
-0.000419318079031031 -0.0706063243127943 0.478127812852368
0.00478165647062684 -0.0531410790951302 0.477523918426848
-0.00314525403599092 -0.0458770319496542 0.477551256008566
-0.00452830937775379 -0.0411658225479233 0.47746525618752
0.00503217703784541 -0.0265330724308534 0.476781723230543
0.0044797724383293 -0.0134885097974959 0.476355583411813
0.000863635752125864 0.0156222183260136 0.475470379786516
-0.0031141598644571 0.0161598355482658 0.475561983554086
-0.00167827067633889 0.0312884956015929 0.476341121518423
0.00409852792301705 0.0473379201665365 0.477314395798582
-0.00172452694466686 0.0512505030728012 0.477751263293684
-0.00261593186934884 0.0607937013903959 0.478437341555465
0.00312393012013837 0.0739419403375058 0.481122479788032
-0.00419514559827373 0.0805322382139104 0.483891727902149
-0.00121841330324138 0.0948764595059239 0.48945331424113
-0.00211860492836365 0.0967000535986108 0.490191959353045
-0.00397763750113672 0.101947148933128 0.492299632403431
0.00403179501870124 0.116713495204975 0.497959294593233
0.00507083005392674 0.11774220057217 0.498789318571286
0.000303099344404586 0.131270476654156 0.510149946489515
-0.00131323559914102 0.133702774586145 0.512210849549114
0.00174616171215813 0.143320823466477 0.520132031693714
-0.000938168795727757 0.150548754173726 0.526195319239804
0.00528466655466168 0.153200663198784 0.528259257958324
-0.00385448206104819 0.158367641765898 0.532649824615523
-1.07225092231839e-006 0.169366683143624 0.543699287093004
0.00507605920384088 0.169708749340705 0.544053878366754
-0.00127852445567044 0.180024636057123 0.555297745281311
0.000899705562302752 0.182680276335847 0.5581791166849
0.00236772165763023 0.184743231537204 0.560418197589328
-0.00292606570183611 0.194225188345886 0.569381056026111
0.00260132993725816 0.220517255050373 0.558613168231529
0.00282640818885505 0.236419056477138 0.567020550028498
-0.00456517773565241 0.184620898423636 0.608913875364452
-0.00269863441581152 0.185534135177293 0.619657432780191
-0.00390653058272855 0.186598356656692 0.632177214229231
-0.00466019645162734 0.187826756714608 0.6443431268163
-0.00441036953382552 0.189487374613932 0.655170247335457
-0.000200968075556455 0.189730617999582 0.656756181095277
0.00030769244888846 0.191707705393263 0.669646638034191
0.00537169264914067 0.19338202781042 0.680563097096543
-0.00295781878131295 0.194419335202719 0.687326249288575
-0.000235030161483678 0.195273934222278 0.692898172254813
-0.00235914791364744 0.196625814553291 0.701712324092429
-0.00331177638895464 0.199859288881699 0.717645626240931
0.00170774329219639 0.202245185239077 0.729346901814106
-0.00106034209809784 0.203302049467463 0.734530130852228
0.00149142121363116 0.204895716707867 0.742346035143555
-0.000186680986008537 0.207307308926921 0.754173325295147
-0.00347592374974762 0.209110653856001 0.763017551088366
-0.00161440673599552 0.210605905287969 0.770212840654499
-0.00492900075526529 0.214655855430608 0.785072404487483
0.00463694296891638 0.215928039674184 0.789740141696319
-0.00249198917590755 0.218542119882922 0.799331393528615
-0.00449685478885258 0.220903511546853 0.807995512574283
0.00359233506964323 0.225077632179876 0.823310667035059
-0.00109273498019202 0.227433597477213 0.831954876344083
0.00192129842730009 0.229121568018402 0.838148163945554
-0.00293414288989742 0.232167714616814 0.846877552666302
0.00334409449400782 0.234581602203286 0.853640365931298
0.00166017126190033 0.238886637807201 0.865701471034785
-0.000255584282305833 0.240932548894601 0.87143335130892
-0.004887923098099 0.241737573116014 0.873688729112644
0.00496201320053782 0.247117360253289 0.888760887409789
0.00127984404738643 0.250701256391783 0.898801628528644
-0.000637163911139895 0.25487305349235 0.909669563056712
-0.00468202839341469 0.258653036059502 0.918441924507608
0.00402846758067744 0.261803740818723 0.925753896511325
-0.00534534616931286 0.266774763952253 0.93729034758831
-0.00398209377162459 0.269951302768924 0.944662270643229
-0.00476133806933108 0.273919669774389 0.953871820592409
0.00160664333471954 0.277929548492472 0.963177711466481
-0.000592776494064608 0.280453928999485 0.968473032217362
-0.00345465896991485 0.281751348783087 0.970977558086239
-0.00122902045939404 0.290873614289733 0.988587095448044
0.00304540960137622 0.290994535554333 0.9888205225316
0.00428036833436076 0.299144957833042 0.998444534021456
0.00161141336538427 0.307343405558764 0.998789371424454
0.00842989672939322 -0.119692012206075 0.146852408956648
0.0134638640317982 -0.104199050071324 0.148513553812265
0.00497132300880892 -0.111064200254296 0.165266803106352
0.00509628546326456 -0.104039611262594 0.167407792877467
0.00585139441227449 -0.103085277807372 0.167771337093444
0.0111001221319478 -0.088769020465743 0.1726264405165
0.00636645107411311 -0.0841674904675584 0.173554773470289
0.00585204628003781 -0.0808311107982665 0.174515159130155
0.00908605929845061 -0.067361770205157 0.178915246423879
0.0105258960754884 -0.0637568556328052 0.180149424865065
0.00782752109595984 -0.0612086504566542 0.18065593010373
0.00613342737368862 -0.27997291604988 0.405053623211196
0.00982733227012626 -0.274457479344623 0.413598188711056
0.00584668545002908 -0.274213658536085 0.414090299200416
0.0132507734611774 -0.266572051030415 0.425979570522733
0.0126533231134703 -0.266579593962575 0.425951254692459
0.00612267185119944 -0.262790481573079 0.431990743075196
0.00908370037425405 -0.259581469985636 0.436028167553479
0.0130435626187267 -0.250078883684484 0.442054785624724
0.0116604151965602 -0.244738700538613 0.445407224510795
0.0049598224750392 -0.238881808326529 0.449284730177074
0.00480491395432118 -0.23000429365467 0.454925563139703
0.00876902150615242 -0.228034929055758 0.4560665449994
0.00759286011732612 -0.217589136289957 0.459568969135485
0.0120876240481198 -0.213152150498573 0.460727590935088
0.0106495706109343 -0.20061864910048 0.464200437022232
0.00745709627702848 -0.191611390985156 0.466791535078383
0.00900155555450559 -0.191611114215171 0.466748981851837
0.00745210691251265 -0.180814816327373 0.469791875966853
0.00918075370030668 -0.174656114851402 0.470574886990656
0.00616960560905035 -0.155849047711377 0.472743041524555
0.00779682478452606 -0.148867655346576 0.473472117400546
0.0101296531486871 -0.133379111797683 0.47512486029128
0.0117207480365508 -0.131303479516117 0.475340519890669
0.00681929554197935 -0.120336626494764 0.476086578234042
0.00492611635740455 -0.118116489900185 0.476256844402371
0.0122043179942012 -0.0939574230077346 0.477396276799026
0.00854133694842329 -0.0873629956750841 0.477791749505802
0.00979908280526557 -0.0799861284584866 0.478092991291841
0.00591611867120284 -0.0628175052205321 0.477747649762261
0.0146292243136246 -0.0519842682151121 0.477411637728535
0.00496175736766515 -0.0370517474435993 0.477094875483234
0.00672273913242313 -0.0372140477176834 0.477050546693718
0.00909220054191667 -0.0244229134610062 0.476598257329582
0.0144752018113924 -0.00668365625543469 0.476030954444587
0.0144376426093245 0.00835672388806074 0.475520998299101
0.00993395618406373 0.0224233431667601 0.47539492229309
0.0121645968091048 0.0276525793922418 0.475756382959474
0.00884458060304821 0.0430320149777369 0.476879496069064
0.0150868517944157 0.051529911946128 0.477522241101962
0.0112455479643729 0.0639863160696151 0.478295353118435
0.0117183915130476 0.0760735976074341 0.48177462231485
0.0147098222845729 0.0811764618608537 0.483852943959261
0.00934630736696285 0.0915794087137067 0.487901995802844
0.0123633304602008 0.0941342387448353 0.488890320278499
0.00593126365719012 0.11288380517333 0.496359804578316
0.0102391596896372 0.118240357979411 0.499078589840189
0.00662530541701231 0.121467352384399 0.501848334260436
0.00675652297883048 0.130524908211224 0.509374323997017
0.0117672433752368 0.134919931495805 0.512934725877786
0.00850453579558293 0.136358641172939 0.514181438720864
0.0145279827584713 0.14531507589057 0.521642442409733
0.0123921871003309 0.156042629165411 0.530508214942563
0.00543195090319239 0.160452807471174 0.534232231013534
0.0124180136942999 0.163710764958262 0.537512246596793
0.0121964744818019 0.175331780293909 0.55015318154853
0.0141040952810799 0.178565131375028 0.553677102405557
0.0113877140979438 0.184830394428777 0.560483276896758
0.012156774878214 0.185227049647287 0.560917424120695
0.0145747807112909 0.201328867837848 0.566439897810596
0.0159388469177536 0.228843969560384 0.554365218743554
0.0140375838684202 0.234025212685669 0.563898616293632
0.0065445653125806 0.184703470606747 0.609885276248881
0.0129527259942536 0.185825376174351 0.62308366848654
0.0135865200085559 0.186136104135568 0.62673915396568
0.0107056791236805 0.18733984427448 0.64090020820143
0.0107563627318525 0.188002420628877 0.645488424232231
0.00672147815552216 0.189913430653933 0.657948104864335
0.00617825163988819 0.190656375489023 0.662792056777748
0.0147433861130934 0.193030874157575 0.678273615420921
0.0146815490717466 0.193924179914786 0.684097899487354
0.00878816934612155 0.196666690698006 0.70197884868443
0.0145795694796161 0.198413811633584 0.710556518623576
0.011915138594558 0.200077938737746 0.718717977349037
0.00885303432472569 0.200276436482622 0.719691476567849
0.0139776532685072 0.203155634540202 0.733812076358052
0.0128285222646936 0.20568461058707 0.746215053646654
0.00630339195656304 0.207357249251372 0.754418250358352
0.010841846273716 0.209841060294714 0.766599716097544
0.0125211116194916 0.212250414675333 0.776246666097978
0.0103561791539598 0.213316375665372 0.780157755078603
0.00921325450219125 0.216773805540719 0.792843318634036
0.00888843221730729 0.220123442278499 0.805133381269201
0.00786779569420539 0.222065686497259 0.812259617625559
0.0145474509323802 0.225280208139156 0.824053933073391
0.00530560989301399 0.225664264410661 0.825463063675222
0.0160021150931056 0.228581202747649 0.836165524171957
0.00655173650190884 0.231056406307433 0.843764081012402
0.00707053470595677 0.234389185634966 0.853101286428206
0.0133561165616178 0.238104592334325 0.863510471119363
0.00909603217778372 0.242530527677495 0.875910292228084
0.0114756889161191 0.243307812461424 0.878087954467575
0.0121594040173301 0.246957652040792 0.888313444528003
0.00996641292854235 0.250188031447933 0.897363763535407
0.0152424518934713 0.251392759382048 0.900738962156587
0.00878038993020341 0.258043634335517 0.917027662113125
0.0131304546855633 0.26204479299277 0.926313317706459
0.0108404908433405 0.265213805824184 0.933667775559422
0.00911221071205398 0.269224268322712 0.942975017827236
0.00876709188993094 0.270400477174762 0.945704693275086
0.0159621595539787 0.276565192259525 0.960011400659593
0.0159498452702544 0.280100667807368 0.967791107066088
0.0119860114203778 0.282358366764707 0.972149346449717
0.00879703031795031 0.288042677113294 0.983122284894633
0.0125538188127803 0.292165898148771 0.991081698089458
0.0100093647600622 0.295851095871647 0.998195553373192
0.00626908841948075 0.314608572133756 0.999094953585366
0.015391451201559 -0.0982665459797393 0.152454806009669
0.0183963315325456 -0.0890184706277682 0.142076578595951
0.0152204505372345 -0.0978979296428723 0.170265768249705
0.0167629732972938 -0.0940454377006291 0.171145461172992
0.0171333477942536 -0.0857213071828342 0.174144040478668
0.0241243330335342 -0.0713894942633829 0.16310532177024
0.0219006868772435 -0.0748658359452485 0.177903011606161
0.0165701452649495 -0.0676261498526567 0.179572025466949
0.0163482654513461 -0.0608409867307965 0.182407209648552
0.0141182480540128 -0.280068356248934 0.404845419305224
0.020498392215711 -0.276341732571831 0.410863734586174
0.0182166823294385 -0.27238878125625 0.416997778366956
0.0189450556452414 -0.266345147861667 0.426492459013111
0.0140941683571851 -0.262551503443398 0.432305843734064
0.0147554701294669 -0.263277933935491 0.431185275249451
0.0153428790738959 -0.252784888291857 0.440400140970941
0.0228173163520565 -0.252514197969711 0.440778318301295
0.0217538606905571 -0.243264081903316 0.446622095987401
0.0210266601544178 -0.236009177094865 0.451208345208294
0.0145692271375899 -0.233001971659067 0.452939457602342
0.0228346713010536 -0.228246097942302 0.456187223947287
0.0222296267637437 -0.223364778972171 0.458169596832772
0.0168160637870995 -0.213144136393977 0.460860332229534
0.0162879413272201 -0.200744687344693 0.464291372465048
0.0224499356385681 -0.197243220045272 0.465434459975918
0.0191211413027752 -0.184080051842544 0.469000422008634
0.0201074054241086 -0.179644394292079 0.470212704640572
0.0227880291620386 -0.17711466812897 0.470567152629566
0.0182467436506358 -0.16378778108698 0.471919286205148
0.0230567040482871 -0.148962887427421 0.473695608813805
0.022150721155492 -0.144217229263895 0.474196728114544
0.0168330255846862 -0.131119902913576 0.475501981058781
0.0192451180655057 -0.114932251065858 0.476475706364309
0.0177900631431745 -0.109836754684138 0.47670639349205
0.0185773376839968 -0.0980053055530765 0.477357020830012
0.0221941913885151 -0.0895366258880964 0.477907003193064
0.018377669097272 -0.077421698492252 0.47818556482681
0.0195643020022694 -0.0713192322636254 0.478057473565261
0.0153777603913853 -0.0564967107198998 0.477551234717169
0.0219710926145059 -0.0470807307788568 0.477485043713302
0.0171197696830746 -0.0335380517155538 0.476994188813454
0.0162289760867678 -0.0276033978045834 0.476787220736373
0.0183550058825063 -0.00617063782485644 0.476120685779805
0.0154893711969769 0.00379262426185823 0.475704462951403
0.0240296840851675 0.0112334126521745 0.475688419484042
0.0155692584975158 0.0321582352101312 0.476168355472051
0.0153084084814545 0.0425733309629973 0.476896225031307
0.0222001093749703 0.0515620211411475 0.477720847277206
0.0255143886513391 0.061748629778178 0.478516742963226
0.0252022034530067 0.0749094840193061 0.481655258016961
0.0241453536697528 0.0814498057997487 0.484188290065418
0.0169503926791488 0.0884659845977435 0.486772764767087
0.0156709525212881 0.104046658786498 0.492867043681257
0.0242690242294665 0.109680653824958 0.495289578842182
0.017807423685703 0.11820095161427 0.49918283542664
0.0257128034262469 0.124670599617313 0.504751708192026
0.0200459842747287 0.130132873093187 0.509155397357895
0.0166553804969934 0.133861805513261 0.512173209453212
0.0170328782581461 0.138192390719383 0.51578215710584
0.0175134682534267 0.14604007694409 0.522317210337198
0.019956818417346 0.156741942887621 0.531229615847945
0.0193243575198439 0.161694334541109 0.535418683498735
0.0254671677859528 0.163105241439182 0.537016971377223
0.0239606747851858 0.16940690978181 0.543756101670217
0.0183057987631394 0.176644557497963 0.551602339644105
0.0161323212759606 0.181569833882977 0.556952708399129
0.0227091104146461 0.187142690790483 0.563037725594034
0.0206038504472648 0.20393977782157 0.565393301152447
0.0167937439232179 0.229321898612296 0.555373782225944
0.0187601689844708 0.23385457275056 0.564168938506013
0.0200905545931814 0.185105490681368 0.614614746166378
0.0174529820998012 0.185658563837011 0.621121244266641
0.024708093275075 0.186344908524567 0.629195545047239
0.0255298576582357 0.187326537802979 0.640743631410397
0.0254701320389526 0.187835603347192 0.64440076497785
0.0202935852384487 0.189841926671246 0.657481884387156
0.0261369081597354 0.191557341056456 0.668666279170069
0.0256779243325367 0.193065647732884 0.678500351442293
0.0175885373365157 0.19464761730483 0.688814659069751
0.0167634782162928 0.196104779275319 0.698315240802615
0.0212501913325112 0.196526569166061 0.701065284288102
0.02240058305044 0.199302875916822 0.714916808964523
0.0201733230737046 0.202507343788886 0.730632638121421
0.0175884292129117 0.204077782514809 0.738334614768877
0.0202049420896809 0.20582185720512 0.746888158382245
0.0164330369825144 0.208807948399267 0.761532979160012
0.0193427123731729 0.209415820381187 0.764514192944943
0.0183191083742491 0.211009112226615 0.771692236457335
0.0265465465968712 0.214632986895001 0.784988498154651
0.0179679148033928 0.215391487729497 0.787771493295479
0.02389480303125 0.217782563239449 0.796544524547284
0.0256087195252856 0.2217932084181 0.811259875587323
0.0258148032831358 0.22321432703377 0.816474063920522
0.0176219415892779 0.225819674831429 0.826033275896704
0.0161705444282815 0.22917172961844 0.838332210531681
0.0205048548349782 0.232076181366735 0.846621110617677
0.0225846549707114 0.233173279865863 0.849694771679812
0.0165583279960489 0.237529976460173 0.861900611622273
0.0225927093101797 0.242675878365115 0.876317510676789
0.0165795668750281 0.242847489657226 0.876798301550903
0.0269095545513893 0.245973443761847 0.885556059784128
0.0220070352223129 0.251408223333345 0.900782286384088
0.0240399915969671 0.254965872347083 0.90988497163994
0.0265302272642525 0.256736549505822 0.913994255892697
0.0269490790391725 0.258794364117524 0.918769911995352
0.0218078558259375 0.266528796229555 0.936719530831928
0.0179349856043113 0.266276304477688 0.936133562269825
0.0267361545618369 0.271650905358473 0.94860662024829
0.0207359079432584 0.277446834120755 0.962057464698887
0.0214759263234532 0.277256691268172 0.9616161927798
0.0225168505640215 0.282702361592069 0.972813395296959
0.021617388263986 0.28640746917357 0.979965700106658
0.0199964782087232 0.291408284479758 0.989619205398182
0.0230234224051952 0.301558168675396 0.998546036484992
0.0216075344233079 0.320244122699716 0.999331992021044
0.0280917076582815 -0.0591791646563462 0.149740363586733
0.0298500467191873 -0.0537675550047806 0.167907116235465
0.0316950773321044 -0.0480891313375603 0.165703506963252
0.0343229674025628 -0.0603698442066746 0.184363082873236
0.0306127750737869 -0.278704016540697 0.407439569950237
0.0253207380459885 -0.276894910549289 0.410129626318162
0.0317286989579283 -0.273362327991509 0.415844512026214
0.0272246450649804 -0.265369396266907 0.428250673304787
0.0261082837436483 -0.262754734659909 0.43231885242663
0.0252832976443876 -0.261744726670412 0.433879466030599
0.0313413240441815 -0.259239875904731 0.436743295810481
0.0271267971005324 -0.253173510432021 0.440478654435344
0.0279110907878032 -0.246204301124585 0.444925228630533
0.0249451637730885 -0.236028409489652 0.451304292522306
0.0289082525475069 -0.233849744519688 0.452796970750789
0.0269904505767067 -0.227660442148636 0.456673779252428
0.0305401726198306 -0.220054703117129 0.459318803846813
0.0246663789406192 -0.208746553464754 0.462299037581155
0.0288801799227575 -0.201829806137355 0.464337405243064
0.0288809403266726 -0.192190672639765 0.467015994170906
0.0264053263173791 -0.188523307812128 0.467966766981747
0.0324079977926416 -0.186654293081838 0.468651823237427
0.0261479039515792 -0.168614618974024 0.471602247678494
0.0302817474802211 -0.157202264234815 0.472981577837221
0.0306859062438187 -0.149432771221305 0.473854096349912
0.0272663008937092 -0.14423875139588 0.474335542203851
0.0242042749221143 -0.133857152710096 0.475401977621397
0.0248584644486913 -0.124793408902947 0.476106479074672
0.0257531401044609 -0.110305932966288 0.476901251166616
0.0300273069605967 -0.107354347254752 0.477176117260718
0.0270097978796321 -0.0943602610719343 0.477783524643903
0.0270001020926941 -0.0747422749992732 0.47835293862636
0.0290417648268378 -0.0703436373873458 0.478293356245238
0.033835317104958 -0.0593571087671449 0.478136092288559
0.030532060677991 -0.0361133595498314 0.477432272860404
0.0327439350014503 -0.022423000995576 0.477067777907011
0.03456766692641 -0.0247649633395173 0.477197361214036
0.02659300645643 -0.00364625569927283 0.476262653709775
0.0259905197236323 -0.00378307728413297 0.476250653497582
0.0253425593273985 0.0213264255756663 0.47567363784248
0.030129252826434 0.0311054977335743 0.476495940757301
0.0351244015948518 0.0396528957723099 0.47723706919301
0.0338580332558698 0.0421182602976089 0.477376113738045
0.0289843736349922 0.0598073534295692 0.478472705839451
0.0348038999909014 0.0727012517223082 0.481039281804436
0.0259653096207388 0.0834087335192871 0.485002352618011
0.0313920819104524 0.0895260793682297 0.48753831258215
0.027288398678499 0.0937409352717167 0.489096172934154
0.0339052956746647 0.112749708872508 0.496728842085845
0.0341338707868005 0.120019064162012 0.501088471577238
0.0281180459707591 0.123952800795483 0.504213124226498
0.0274263153267434 0.132760881807117 0.511518198649731
0.0299722482047082 0.13138562805603 0.510436498471097
0.0364221496986216 0.141509541587552 0.518960902614153
0.0354520288224683 0.145750408579162 0.522426525526691
0.0314796690107032 0.153180996335589 0.528467412885763
0.030866783070853 0.162207825770417 0.536128819427421
0.0296814859711024 0.169327627719674 0.543750010582138
0.0346525609992604 0.172652536965966 0.547385314221754
0.0265156826033468 0.179070897383292 0.554270113002744
0.0338199202836852 0.183992944380189 0.559649668939532
0.0291857813427811 0.191164543895155 0.567435167531042
0.0329882163104556 0.193501042760026 0.569703634385381
0.036731159166777 0.229941456352597 0.553378123376338
0.0325452529515967 0.236465853771973 0.567549687854939
0.0277833695269788 0.235673988494414 0.566656745825336
0.0341299670292091 0.185485957080274 0.619090640535998
0.0351202092658143 0.185962641193999 0.624698447878854
0.0300260558840068 0.187391962303763 0.641513287532257
0.036673396866984 0.188751582523959 0.650372880971954
0.0367155979047482 0.190804980534705 0.663760917456189
0.0326999359927663 0.190759605887285 0.663465082887244
0.0281410007446234 0.192706668655192 0.676159826041959
0.0272377209856333 0.195240253204755 0.692678612352231
0.0371202170763021 0.196124360326818 0.69844293568392
0.0338260152055091 0.197688991313424 0.707001766086169
0.0355085675763005 0.200881131885198 0.722657137921705
0.0351865187142337 0.201228315054139 0.724359843885992
0.0278068135252051 0.204347089825758 0.739655390675091
0.0359954525045651 0.205438875162973 0.745009882400814
0.03129363461699 0.207077358131299 0.753045567803053
0.0276221575190508 0.209527890204267 0.765063821997408
0.0326394832499728 0.210839988733355 0.771071709968057
0.0273449985464549 0.214136763069269 0.783167816577295
0.0374652063832503 0.21481343347825 0.785650569890794
0.035277610916774 0.218074850856044 0.797616949229911
0.0285183397671445 0.221781457205953 0.81121675952889
0.035644392423993 0.223731610407156 0.818372014521358
0.0363037029268342 0.227197718521319 0.831089419170903
0.0341709484805846 0.230190177903018 0.84133723190115
0.0353605342727154 0.229784040856135 0.840199387279277
0.0341837656838639 0.234837680925826 0.854357803061091
0.037858683303565 0.23556640600146 0.856399419098083
0.0319280168054824 0.239771560066016 0.868180693358122
0.0365394158151963 0.244667699212763 0.881897850260731
0.0331455322570245 0.24867445920276 0.89312329827325
0.0276331586553673 0.250601790429827 0.89852296197818
0.0326711336092653 0.252600960679106 0.904123891846072
0.0337822956123282 0.258086380692534 0.917126865364763
0.0280311070937474 0.262770375192657 0.927997206547156
0.0328651179365272 0.263157643671637 0.928895956640818
0.0273587262871597 0.268455003295085 0.941189759819108
0.0344331550564505 0.271292606995965 0.947775104948822
0.0305239737554325 0.274837284751428 0.956001381748704
0.034410954669063 0.279416233065676 0.9664698883851
0.0286062004254839 0.284694839233385 0.97665965815405
0.0285164644378352 0.2877228744908 0.982504935500497
0.0294708260081271 0.292428610779028 0.991588821055714
0.0323830195025788 0.311321643584949 0.998956700808407
0.0384641510513771 0.314923642699723 0.999108205481541
0.038205040449497 -0.0468004952695952 0.146956622338932
0.0351267020815969 -0.0445871068593274 0.151913437451997
0.0423863033424365 -0.049847937370145 0.16799621624501
0.0353631818531256 -0.0586911805299338 0.186519394775578
0.0363352079796412 -0.280083411630574 0.405435049148648
0.0402710205108429 -0.276226142095694 0.411590708932546
0.0352526706333195 -0.275697954474118 0.4122802298199
0.0377929420173412 -0.270491050410095 0.420513185696045
0.0368797208479491 -0.264557847433036 0.429789433830365
0.0372707435560071 -0.261977613354294 0.433845247853992
0.0382776317162965 -0.25926725264491 0.436917369431228
0.0377533780126704 -0.252970972835131 0.44090056528202
0.0360891339058302 -0.245332857821889 0.445704260038179
0.0357350436771551 -0.234414306889823 0.452626948843095
0.0396422586280545 -0.235211737472699 0.452228486980873
0.0408229604598302 -0.226694380127738 0.457668960924749
0.0389063369925857 -0.21559002000818 0.460790393761801
0.0394971525675332 -0.21269977773578 0.461609855620374
0.0339127040841834 -0.202819558095649 0.464201275923814
0.0365142183953343 -0.196785426082889 0.46594987596995
0.0371365503847877 -0.185818039471624 0.469014722752204
0.0365644021243274 -0.18505359682137 0.469211357261489
0.0346141044759098 -0.168834009534629 0.471811608892251
0.0414409154229015 -0.159945041601013 0.472985515632567
0.0361253208265206 -0.146814994728472 0.474294454126293
0.0415005661356651 -0.142373206638759 0.474935259303937
0.034748732709397 -0.131762704422713 0.475925226055757
0.0346439036941979 -0.119910002042376 0.476636152563565
0.0336904197364387 -0.113469339878357 0.476952185905292
0.0403317128510216 -0.0961891670841914 0.478054020959461
0.0393849028904419 -0.0944271634445869 0.478121545884528
0.0382149363945495 -0.0769761319699771 0.478721368763882
0.0400792543510606 -0.0629625154343071 0.478403466199136
0.0384708057602637 -0.0555110470907708 0.478162669072349
0.0357240389435948 -0.0507497187267164 0.47796135699443
0.0446298011948151 -0.0282759528432615 0.477593896989511
0.043472655565307 -0.019846567741733 0.477276733417025
0.0442775093861423 -0.00992441135220104 0.476963214203024
0.0443359542856504 0.00801311989456295 0.476357877388461
0.0415510915891779 0.00638882740324299 0.476335970642884
0.038003531939921 0.0329507642770465 0.476843520418496
0.03905194333275 0.046716899660415 0.477830779576913
0.0408547598536888 0.0488819768986762 0.478026689676171
0.0420306985427928 0.0585149180496739 0.478721206297436
0.0451287144971525 0.0783337260372649 0.483511357715084
0.0360078049200566 0.0782184089082838 0.483230193564939
0.0388971870602685 0.0932416142868739 0.489185978649441
0.0455515122954379 0.102346339639383 0.492922328189056
0.0461352721784379 0.105007782561608 0.49398066248733
0.0404668415971419 0.111566660565082 0.496422228824808
0.0404328011205853 0.125398965549757 0.505712685554044
0.0448631212431615 0.127820859597643 0.50783290376858
0.0402135347485617 0.132731807530972 0.511802867823869
0.0439761501924554 0.140402765414503 0.518157211633139
0.0415428269918738 0.148106565877604 0.524443471285522
0.0473406033213142 0.156396012182721 0.531323770145339
0.039588368631488 0.159483533796804 0.53374963759033
0.0375637304919757 0.167501410029188 0.541899778868517
0.0399993916686361 0.172217972158873 0.546992942889268
0.0387161102384162 0.176306658666022 0.551361245164961
0.0476489583670575 0.182069015719547 0.557665925305873
0.0388154166984391 0.189001008568947 0.565114831366526
0.0395047278158363 0.232655531851945 0.550907415248332
0.0414952962270377 0.18505296517768 0.613996816635149
0.0411313145537312 0.186165581841583 0.627085868435959
0.0377489018873583 0.185984908632989 0.624960400090773
0.0434848914861961 0.187169115550284 0.638891639219734
0.0420573992798849 0.188687985653025 0.649958225650362
0.0466947194093911 0.190479859873603 0.661641135803862
0.0451817988744153 0.191158500895997 0.66606583818744
0.0429390015743589 0.194058718441888 0.684975092314086
0.0398895242090337 0.195655654199999 0.695387011944645
0.0443130685030936 0.195448254093353 0.694034782694071
0.0390594681863634 0.19789849766745 0.708029263941866
0.0372897651181155 0.200702832611937 0.721782696810586
0.0399497210266378 0.201483958359854 0.725613606799389
0.0428442869543018 0.203710187843775 0.736531803760723
0.0419554202190251 0.20542046220214 0.744919578892362
0.0460024172713324 0.206744675714061 0.751413978524762
0.0465852710548258 0.209252621807014 0.763713810868655
0.0432010162951087 0.212890169824313 0.778593974617575
0.0415837614800903 0.214461894740385 0.784360748502607
0.0434359751875849 0.215572279783541 0.788434832589282
0.041058516636794 0.217823161625715 0.79669348300133
0.0386167336280142 0.22260013632646 0.81422055321065
0.0380527383088024 0.222639218948538 0.814363950214826
0.0405738949650424 0.225587145387429 0.825180108328095
0.044559386733943 0.227697872717854 0.832924521566733
0.0466450143811742 0.232477226653705 0.847744690026175
0.0420738784567872 0.233420947097839 0.850388642948344
0.0424288798513706 0.237060860995724 0.860586324948956
0.046949538902198 0.239935255283921 0.868639306342945
0.0381294888147365 0.246091728095554 0.885887448397878
0.0400868622387886 0.24678818507322 0.887838661251973
0.0402112093163449 0.251039929155871 0.899750463376755
0.0484372523648312 0.252643553353633 0.904243220644109
0.0477369920990423 0.25797991599727 0.916879788310899
0.0488544098831758 0.259054556514537 0.919373751331311
0.0435693266537053 0.266709716317937 0.937139399618582
0.0430954615038688 0.270843632189703 0.946733150410609
0.0462122636238042 0.269536594224728 0.94369985295109
0.0433335975875755 0.274935562322278 0.956229463148471
0.0440449423573385 0.27901599193469 0.965699082702077
0.0462071713439342 0.283058764472932 0.973501389545151
0.0427572457078117 0.286323144706245 0.979802905474782
0.0467857722149604 0.292781133911495 0.99226931261317
0.0450904605497384 0.304646789781021 0.998675947526253
0.0453106118023451 0.317605850496428 0.999221022518591
0.0466226714426669 -0.0528529445638221 0.154821783638633
0.0442645940102317 -0.0511574385356706 0.157266797158442
0.0451658629465499 -0.0518253344573215 0.162879997711637
0.0509399489545742 -0.05514829764558 0.183319999269975
0.0452821731577212 -0.281169134768165 0.403979919982946
0.0438889003512403 -0.273899223395059 0.415338469238613
