ply
format ascii 1.0
element vertex 836
property float x
property float y
property float z
end_header
-0.244916687879001 -0.179233195912798 0.867814511385301
-0.249396166727153 -0.18787492099261 0.881265929932493
-0.256195154139819 -0.184203002154421 0.900962774889408
-0.321519009118782 -0.180639566216515 0.956568830215661
-0.326011861862067 -0.181603390302632 0.96973836955436
-0.325194253543528 -0.176621394291009 0.979159645719503
-0.324666668457837 -0.180096063455735 0.98324836294244
-0.316964448997176 -0.178429240836142 0.991668738295216
-0.314156998687072 -0.175892378147684 0.995045617001872
-0.305037327967816 -0.180178620811891 0.999093900466145
-0.296328501776389 -0.182887992917861 0.99962090702152
0.0208154313523048 -0.196508356804674 0.130718129635024
0.0170109778996181 -0.187796898271884 0.149692190328638
0.0179312827299528 -0.188076183701173 0.152903690319028
0.0211762499875897 -0.186955382410156 0.160217535947746
0.0253217376257923 -0.19443260277046 0.161381214515386
0.0358183722969317 -0.193375247039155 0.161257999476644
-0.0467851910605821 -0.18433433649596 0.368932026004073
-0.0703701080457477 -0.182108906334052 0.401842450757609
-0.200536212348246 -0.177192461516128 0.528901903994002
-0.211497795337212 -0.175423485475188 0.551393843429368
-0.214822706849446 -0.171644102864127 0.561726089546731
-0.216695200587292 -0.177116657595939 0.570686901095357
-0.217443192166076 -0.173026758845598 0.576225225822998
-0.21976893609118 -0.178214611717938 0.593445633939808
-0.21943107854771 -0.177101732754895 0.604827062444655
-0.219343105053821 -0.172111902256668 0.606512401539855
-0.2188096232738 -0.175555676619079 0.616732530199141
-0.218619651034637 -0.176618078348603 0.620371920779327
-0.216809853669752 -0.176387255202874 0.636797983513295
-0.215531017003323 -0.179034065271213 0.646056807179355
-0.215628013814474 -0.176592780259167 0.645354545611856
-0.213409664126133 -0.174148049074102 0.661415483095637
-0.212549899371652 -0.18133895195989 0.667640216041311
-0.211897172253099 -0.180972285491056 0.672365985733185
-0.210256046136176 -0.1795685498954 0.684247802393866
-0.209569880058773 -0.181392225629169 0.691088180802625
-0.208866192790992 -0.179736549930564 0.700855258493341
-0.20784874588065 -0.179975209385503 0.714977328817298
-0.207905440350763 -0.174623321163097 0.719451696401016
-0.208190263724498 -0.178644355544507 0.724022403567565
-0.209155209777893 -0.172507231295566 0.739507389170228
-0.211180974684278 -0.179683545930117 0.754292804131947
-0.21177417880565 -0.177224665027117 0.757511677372154
-0.213995452839148 -0.173200796293668 0.769564863262122
-0.216705895781829 -0.180510809524839 0.780316156190502
-0.221557899668067 -0.171868089870235 0.797119430560863
-0.225989058489845 -0.175354019730606 0.810976768949116
-0.230098921437349 -0.171336811009531 0.823318268608447
-0.232189883007003 -0.17443771088796 0.829597213144842
-0.302939808262124 -0.173023982824902 0.892079675720297
-0.305932340614044 -0.173905575506005 0.906076552269634
-0.247306857198994 -0.177384178814854 0.874991946308373
-0.25123139972188 -0.17460329182726 0.886776947615691
-0.254013910611389 -0.174310134907487 0.894790771184787
-0.2576726998036 -0.178416291924526 0.905143608983237
-0.325943566012047 -0.168433331078119 0.969309669436476
-0.325642835750369 -0.172231783523178 0.974105544459765
-0.32501025469044 -0.170610069426113 0.98058561339756
-0.318771484315695 -0.169402599361379 0.988706637970757
-0.312328389228532 -0.174290418190977 0.996526641955573
-0.30600373035361 -0.169293819439481 0.998960432314687
-0.29629186685094 -0.175389218558347 0.999614441555723
0.0166114122561642 -0.184289362047376 0.133249953745393
0.0153803835000661 -0.185018341273921 0.147288930249766
0.0189412471906027 -0.180400130489397 0.160769082857766
0.0187930804793136 -0.185224333072704 0.157300875084339
0.0252811415171344 -0.182117905998739 0.165257768129274
-0.0432063817971035 -0.180585721664057 0.365353216740594
-0.0676969816409553 -0.180528674110233 0.395862845898328
-0.202561889636977 -0.171452880038039 0.53208510661642
-0.210723272746328 -0.169787014994858 0.548986995973126
-0.213734975223056 -0.167262427740768 0.558345936973012
-0.217117828130754 -0.162842823741592 0.573816149914664
-0.217388857075746 -0.169042438691448 0.575822916167099
-0.219473342464802 -0.169418731054226 0.591256985351149
-0.219756537140501 -0.170052153615503 0.598592114517377
-0.219082413163959 -0.17136162440793 0.611506580462764
-0.218802533680307 -0.166814019510536 0.616868340363026
-0.21832298150432 -0.162574089323071 0.625842916407587
-0.217303733388974 -0.166597684955109 0.633222287301372
-0.215387392152463 -0.166766697259744 0.647096652346348
-0.215261034553203 -0.16619065015555 0.648011486093498
-0.213868411157035 -0.162458278226925 0.658094132526076
-0.212523572059991 -0.169109627112201 0.66783082245847
-0.211567889830567 -0.16902933958073 0.674749999082879
-0.210162085024736 -0.163283348382368 0.684928078720271
-0.209395754534782 -0.170050385038223 0.693505010488525
-0.209086480022117 -0.170662943723803 0.697797696989991
-0.208494761106898 -0.164244221194612 0.706010666685778
-0.208001993591951 -0.165625513503711 0.7210011359209
-0.208638012946447 -0.171176952407576 0.731207665615207
-0.208834461718531 -0.164352128573839 0.734360180096894
-0.210168152325725 -0.171818217324758 0.748796989390396
-0.212740270209949 -0.16493649313951 0.762753929839481
-0.212906738407734 -0.16946887540149 0.763657227722775
-0.21775561804528 -0.16796983696136 0.783951514203194
-0.220195792890311 -0.164068303276418 0.792402234440456
-0.222270232840635 -0.166566432603197 0.799586355572138
-0.23026555967252 -0.166017791031509 0.823818666249161
-0.231630065990003 -0.1638118817221 0.82791613968501
-0.309747447910028 -0.164270610326054 0.90528692978916
-0.309112033139017 -0.165237822765835 0.907141836195309
-0.246107121181 -0.166180571688975 0.871389261292717
-0.250210263699784 -0.162214171471118 0.883710580189379
-0.254551900689982 -0.16614949110118 0.89631305730958
-0.320913272418572 -0.158172480185728 0.955731514281049
-0.325668331972819 -0.155844617776472 0.973803813879363
-0.325353032850925 -0.162673753901309 0.977535166131101
-0.323376227247338 -0.161689757771511 0.984840767278303
-0.317687800444835 -0.157271794347545 0.990483017387688
-0.316882948682154 -0.159029472458004 0.991802333973782
-0.305870970573876 -0.164023646485883 0.998978767536794
-0.296152006827065 -0.161283856736332 0.999589758546552
0.0127101669206961 -0.174884355701907 0.137818131310514
0.0114522323072044 -0.172829904189767 0.144999618728957
0.0160160249164594 -0.168622860053658 0.163525049032656
0.0192350687788167 -0.17203251147348 0.164695695280015
0.0247437346494277 -0.175259564218902 0.165932638981646
-0.0597889642600495 -0.167116873587527 0.388878968555433
-0.0506975631925071 -0.168606103326995 0.388806824004701
-0.0493421709725651 -0.16255067093581 0.392421203257878
-0.206927746806239 -0.157057381886249 0.538945729664781
-0.213520368175174 -0.154874686806357 0.557679042037568
-0.215078902892523 -0.161793642767934 0.562522226621734
-0.218158363715095 -0.161571369571021 0.581520545139647
-0.21895516873747 -0.157155811092158 0.587420297319719
-0.219420828145869 -0.158942646155662 0.605023416830568
-0.219149494054574 -0.160598559511553 0.610221474907957
-0.218726847670844 -0.155207742061459 0.618318277083721
-0.218414701955413 -0.153277387163112 0.6242982828158
-0.218028792963913 -0.154074311534807 0.627972845636471
-0.215651193583152 -0.158248217091796 0.645186716660727
-0.215639095347422 -0.155752929501803 0.645274307472759
-0.213912775204502 -0.156440618110523 0.657772932951259
-0.212734304729141 -0.155561534997962 0.666305104890445
-0.21164511858575 -0.153374009684682 0.674190854315206
-0.209722845141658 -0.159564782508074 0.688965032414669
-0.209303409217275 -0.160444991186746 0.694786743766624
-0.20851886505521 -0.158552861034839 0.705676103445786
-0.20827677317253 -0.155049869866598 0.709036301829378
-0.208463434773979 -0.153903101028093 0.728406119893868
-0.20878315569357 -0.157266441113808 0.733536845927013
-0.209208226508873 -0.158583563790195 0.740358199736975
-0.210518780753285 -0.155188199179644 0.750699580467852
-0.212398886018872 -0.16203342771672 0.760901494231404
-0.21526755915672 -0.155597210528554 0.775334963776955
-0.218333329753509 -0.159885168686548 0.785952223305648
-0.221680675847791 -0.155216677925657 0.797544624332841
-0.221673302310631 -0.154473376124939 0.797519088580831
-0.226903786493685 -0.161031486748359 0.813723603938983
-0.312384359922085 -0.149244988979588 0.897459982874152
-0.311277169412649 -0.153343182395153 0.897325895113506
-0.310523328175646 -0.151260624218538 0.907427180551661
-0.247245332895175 -0.156697947440188 0.874807195092985
-0.248694851903242 -0.159166472457381 0.879159952976342
-0.252963831733433 -0.15539635407049 0.891819488684498
-0.318772553278403 -0.151151847304844 0.952772376677248
-0.325285747377008 -0.147310294005531 0.966071540703235
-0.32569880572141 -0.148729862661619 0.973443177637377
-0.324665876591758 -0.152859851558529 0.983254499803709
-0.318516109401744 -0.148482031336909 0.989125249664572
-0.313860138571119 -0.155928238534494 0.995389359682131
-0.30748865830869 -0.153651697346301 0.998755351499357
-0.296740358099062 -0.149765249832104 0.999693592933533
0.0130061542352919 -0.162784897845441 0.127159443570618
0.00641793195247114 -0.156127875110794 0.139158904726928
0.00765911600948004 -0.161911645796726 0.148291940226452
0.00847803851467961 -0.1586706307641 0.157081537893688
0.0195424256288904 -0.156003523111995 0.168002283042957
-0.0491451331645532 -0.156244396504498 0.372256782849965
-0.0540914563918761 -0.161407737488497 0.387460145491734
-0.0504396860263684 -0.156460205100099 0.389494496447739
-0.209968425943236 -0.144798266618749 0.546641294366749
-0.210879638216808 -0.150088844978559 0.54947290847507
-0.2153586519372 -0.148918478054309 0.563391555686567
-0.217276059395471 -0.146350970829028 0.574987741011055
-0.219425085652298 -0.150610512959686 0.590899686104502
-0.219848084790779 -0.144024515615351 0.596838275352868
-0.219164729257074 -0.146803809030348 0.609929595311066
-0.218859995212713 -0.149886184023222 0.615767511063441
-0.218426414283151 -0.148061863663891 0.624073901036859
-0.216889190190272 -0.151947839502695 0.636223585973068
-0.216454178588745 -0.147660836110848 0.639373076173188
-0.215296860594346 -0.150725076296685 0.647752098659375
-0.213658711020336 -0.152703515482704 0.659612366235423
-0.211947366018109 -0.149339786423042 0.672002569670486
-0.211117344491695 -0.151199488089799 0.678011958588647
-0.210390830559752 -0.15088114565442 0.683271947707445
-0.209390060163338 -0.14724391052097 0.693584032009389
-0.209114931217086 -0.152324760656977 0.697402785968623
-0.20824604299625 -0.151477203825864 0.709462829854478
-0.207894423400681 -0.149424851189786 0.714343322779118
-0.208389240627322 -0.153286163676375 0.727215488263503
-0.209196579729896 -0.146963430273465 0.740171304141695
-0.209848201426941 -0.152284430225134 0.747060871074486
-0.211512748735288 -0.152432146379974 0.756093092727581
-0.213875926059404 -0.145876636343639 0.768916281199145
-0.217171664372768 -0.145465148650833 0.78192918816866
-0.219642867325001 -0.148174477327138 0.790487363760604
-0.227026357465016 -0.144454620241603 0.814091672076596
-0.227594143708043 -0.147460134236837 0.815796676310166
-0.313775645409 -0.147358100013861 0.900166259028222
-0.31378166874683 -0.144367784177769 0.904863889367847
-0.241443150453093 -0.144958225864622 0.857383832429315
-0.245296666362333 -0.144330794103917 0.868955548053068
-0.250289181279741 -0.151486330956641 0.883947561640731
-0.254503611605107 -0.143970349844287 0.896176419466597
-0.320640723037027 -0.141216089639506 0.955354766529001
-0.325866196255327 -0.141228403460593 0.971462223672457
-0.325719791072788 -0.143131586712788 0.97319483017086
-0.324610841508821 -0.144031915292227 0.983681014687409
-0.319531103809774 -0.138961478575898 0.987461466320364
-0.312133804353863 -0.146688568832208 0.996644124057455
-0.307832373203879 -0.144516776214777 0.998707881633425
-0.297302270021162 -0.141665367499539 0.999792761207225
0.00918237792056011 -0.149445324457379 0.126852965999331
0.0038552916753978 -0.150188439723828 0.146948804581537
0.00510774910245738 -0.152624624569476 0.152347092024448
0.00803460745988452 -0.147164834609128 0.164302672409457
0.00852331055677088 -0.149144033144916 0.163813232816809
0.0167800709097503 -0.153429660045449 0.168376791892489
-0.049915099051228 -0.142822944925584 0.373796714623314
-0.0510538409766274 -0.149774565625205 0.387856749913714
-0.0492134196415291 -0.146676425404596 0.392764540140644
-0.208578250005028 -0.135894414816237 0.542321289245853
-0.21214625418662 -0.138618455205003 0.553408950908253
-0.21598151326164 -0.141910110759891 0.565402587567068
-0.21819331775476 -0.142348095706028 0.5817793607262
-0.219611161897832 -0.143431077087006 0.592277445336783
-0.219678633544406 -0.141215705971299 0.600084518599148
-0.219248564586307 -0.134879230826494 0.608323517154571
-0.218692947433525 -0.13516806251875 0.618967727117695
-0.218383387784235 -0.138527630031395 0.624898191697473
-0.216225594403172 -0.138364652770781 0.641028028937281
-0.215628517853771 -0.142190821089859 0.645350884118862
-0.214934170341809 -0.135795204398306 0.650377984940873
-0.21411942514918 -0.140320786047201 0.656276773553641
-0.212095413517986 -0.13558080144109 0.670930695100404
-0.211759888016903 -0.141473900580512 0.673359914922698
-0.21060086090414 -0.139374930610986 0.681751315723933
-0.209503684067563 -0.139998144138003 0.692006943501858
-0.208377425024712 -0.136036024882525 0.70763925553277
-0.208450366156151 -0.139816679196417 0.706626845617801
-0.208108331066493 -0.135452332422079 0.722707588065567
-0.208243090923013 -0.144327821957373 0.724870148791819
-0.20891243638585 -0.143465403203722 0.735611479686711
-0.210715216594626 -0.138330875381929 0.7517654888895
-0.212882111315469 -0.140714600999012 0.763523594989252
-0.215179733344655 -0.137609126065529 0.775030808782128
-0.215704972784011 -0.142730900916815 0.776849797928996
-0.221047097867224 -0.141974017261957 0.795350441291751
-0.225305497022744 -0.13827462732691 0.808924103514495
-0.313560659707916 -0.13798929727047 0.892520112285099
-0.316582369416424 -0.130432251355121 0.895421882093696
-0.315639934107475 -0.134468760177056 0.904924332969216
-0.242948231727703 -0.138647410626325 0.861903438137612
-0.246961409182749 -0.137893335989816 0.873954601114807
-0.24895815481076 -0.135219768457752 0.879950624778526
-0.250839977314544 -0.13729648879372 0.885601546010214
-0.323127609811656 -0.137840563007122 0.958792415136477
-0.324931388277842 -0.137683552979923 0.964327199148018
-0.325655622044861 -0.131182035570695 0.973954227296369
-0.324030467013235 -0.133232258254887 0.984350049264086
-0.318493039243071 -0.131139028213894 0.989163066371192
-0.315598406115623 -0.137283036551067 0.993376570787142
-0.309278661010211 -0.131373228356737 0.998367938622989
-0.299325896141813 -0.137789657454605 0.999882696374774
0.000730380018926298 -0.137948800399693 0.138366137770446
3.00081370203991e-005 -0.139091738440507 0.149753937894547
0.0026225211715636 -0.142262639305625 0.156996328893373
0.00602970043057326 -0.135347431892642 0.167758542217408
0.010815027210314 -0.138944638259909 0.170030820414622
-0.05195916692637 -0.140005054601456 0.382987363455976
-0.0519591669263696 -0.140825884866648 0.384377758404857
-0.0492605755208746 -0.135154391770186 0.392638791129055
-0.211393236206262 -0.130620831030419 0.551068929913542
-0.211997043842786 -0.134375735016114 0.552945276664425
-0.217460317733025 -0.125811880400812 0.576352044728966
-0.217984765691841 -0.131548438773001 0.580235191113054
-0.21980436222311 -0.12657476499635 0.597675870163497
-0.219844179139546 -0.13404053773148 0.596913088309445
-0.219317435396176 -0.133723157101265 0.607004130226994
-0.218951229162582 -0.132655089903197 0.61401968967089
-0.218386221214315 -0.127135772117059 0.624843909568754
-0.217527237436508 -0.1345041377111 0.631604114809134
-0.216234280161369 -0.129788480969787 0.640965143924042
-0.215742131462992 -0.128135766434613 0.644528312156256
-0.213691132493205 -0.125561855707908 0.65937762385805
-0.213514585333958 -0.131489076831854 0.660655834290724
-0.211445506520107 -0.134344958890379 0.675636046699529
-0.210050548956415 -0.12636719163229 0.685735591087011
-0.209246431842434 -0.129629268201066 0.695577560595489
-0.208411160509994 -0.133583116534904 0.70717101014153
-0.208028933025357 -0.127952724121446 0.712476323121973
-0.207987264155872 -0.125742414663075 0.713054688909777
-0.208310834819701 -0.129753742756063 0.725957269943518
-0.209377569600961 -0.132097576277137 0.74307580071691
-0.210103470641205 -0.130568049563095 0.748446023566695
-0.212338166513946 -0.126282487869579 0.760572015081607
-0.215272484756402 -0.131274255971709 0.775352021925472
-0.218569244651152 -0.129304267372682 0.786769234760315
-0.221116309963756 -0.126473927965353 0.795590133978534
-0.222072360406684 -0.125819093252447 0.798901091323392
-0.319144059573891 -0.12252791776026 0.897143260630204
-0.31783906187641 -0.126836109462964 0.896394960224198
-0.315425131253818 -0.121859059957838 0.905932777789136
-0.240702821843983 -0.127780585512185 0.855160701051494
-0.245747805680399 -0.13023772652387 0.870310273456653
-0.250309827930743 -0.126900385426042 0.884009561429914
-0.251329515434917 -0.12578243472067 0.887071579104501
-0.324598392279457 -0.122989644781291 0.962688017992315
-0.325850871086543 -0.125481272434767 0.968853376340303
-0.325529046492108 -0.129148616949767 0.975452163513081
-0.320934204679354 -0.127969469768894 0.985962033491753
-0.31723244325765 -0.124802307981753 0.991229440912498
-0.312182303653378 -0.121240498131107 0.996614842235543
-0.309025606773564 -0.126315091363508 0.998520722048021
-0.292178374797747 -0.123451736720696 0.998764796009116
-0.00175275690124892 -0.131187382809997 0.13994342421729
-0.0032612845595697 -0.127374507761731 0.141383951307942
-0.000369874153170908 -0.133307521932828 0.157817096344378
0.00287409159721133 -0.132321505697137 0.165378557908241
0.0076768581084388 -0.131489535069033 0.170305117463
0.00658513228862299 -0.132336115271941 0.169207863910689
-0.05195916692637 -0.132164348623124 0.38246528240645
-0.0497078165341327 -0.131301517028608 0.391446148427034
-0.201193879976288 -0.12557047560362 0.529935383922597
-0.215631759467118 -0.119162449121623 0.56424024857727
-0.216802930917956 -0.118892757251814 0.571484584926386
-0.21808438464362 -0.121332651295485 0.580972799244727
-0.218678739891506 -0.120857322392118 0.585373559497332
-0.219547280995557 -0.120938645044244 0.602600873681542
-0.219237960369121 -0.125011871802549 0.60852665734636
-0.218677852072156 -0.12069452177042 0.619256920189623
-0.218325141792143 -0.120325618907737 0.62582727589293
-0.217318823410199 -0.124150996434202 0.633113035332454
-0.216186626771957 -0.118176972534012 0.641310155143117
-0.21433233964245 -0.122034974571679 0.654735257809698
-0.213206986235154 -0.119489545536921 0.662882859509953
-0.212643001462179 -0.123790233239848 0.666966132814247
-0.211592065562585 -0.123953909496668 0.674574949816325
-0.209819186562139 -0.12084040767668 0.687627800862649
-0.209220282738268 -0.119631822061108 0.695940499615355
-0.20904777006629 -0.12442361585552 0.698334954140095
-0.208282755302534 -0.125183218201371 0.708953258466877
-0.20833657199301 -0.122949145729029 0.726370287600559
-0.208066424001651 -0.119978632144027 0.722035083842727
-0.208981092972184 -0.120263649844756 0.736713247238574
-0.210067803579553 -0.125083587239433 0.748252487767279
-0.212675035610965 -0.122239312648072 0.762399950665296
-0.215073231564139 -0.120008671268064 0.774661975887325
-0.219368785275914 -0.119696514806748 0.789538173286154
-0.219386949033297 -0.116675550562869 0.789601077316339
-0.226555993309683 -0.124539341288642 0.812679216445602
-0.320225550613036 -0.117429460004287 0.896472556733
-0.320664541745732 -0.113869869161725 0.901288674485668
-0.318582733523717 -0.117609644422223 0.904972160817245
-0.241052661604706 -0.118735765344332 0.856211234206236
-0.242828882001405 -0.116622152369373 0.861545043070609
-0.249242788658677 -0.115390478384501 0.880805351221224
-0.253838929776923 -0.117331569401069 0.894295648863741
-0.324816563422945 -0.11843096858532 0.963761970919248
-0.32569399833802 -0.116796143003974 0.968081166300339
-0.325058639369897 -0.115405108361034 0.98021063829386
-0.321943700139458 -0.11278098695315 0.985651415446685
-0.317406145203405 -0.119483840197827 0.990944707911097
-0.310505781729869 -0.111962992140334 0.997627055131126
-0.300854361457618 -0.115216076929962 0.999671602690333
-0.294895674678564 -0.116654913979813 0.999368036448389
-0.00653542941399575 -0.117516027200876 0.141920266012713
-0.00480183429132771 -0.12440369780031 0.149268618100225
-0.00225641001383391 -0.117677784874769 0.166371640622015
0.00432581336182133 -0.119532118133636 0.172006823372764
-0.0503080376409739 -0.116404514076184 0.374582591802806
-0.0516435499717863 -0.118582059559259 0.386284192593292
-0.198644143775232 -0.109201436449006 0.525928663040437
-0.209840907794668 -0.111580152908832 0.546245033425611
-0.211656581276408 -0.114262920512239 0.551887283700412
-0.216756300750278 -0.115142162576089 0.571139324401353
-0.217273806798712 -0.108193916032718 0.574971075759221
-0.218662179996113 -0.113485376181114 0.585250948365208
-0.2196527523673 -0.108509613299199 0.600580304673979
-0.219329885194098 -0.114787979153431 0.606765607022681
-0.218619691151339 -0.106898238405728 0.620371152233819
-0.218509794477855 -0.11099539598147 0.622476524594273
-0.217374652308112 -0.114888420725629 0.632708833315216
-0.2158054347361 -0.107557351067467 0.644069990920094
-0.214777038656402 -0.110992066474154 0.651515615661262
-0.213916664449525 -0.114907504408169 0.657744759901754
-0.212303114116391 -0.115691515666189 0.669426927588859
-0.211863291132209 -0.111208184799643 0.672611261572306
-0.210896794322798 -0.11440087507276 0.67960873734149
-0.2093451949968 -0.111781740290434 0.694206729949724
-0.208735890255824 -0.112735673427185 0.702663793420708
-0.207902177625955 -0.111820498251535 0.714235693782577
-0.207941778028867 -0.111754158819244 0.720034825810477
-0.208458685074223 -0.11214069154486 0.728329899019079
-0.209446629552169 -0.107408107687762 0.744184079000785
-0.211078864752568 -0.115478028118127 0.753738730222307
-0.213436845079107 -0.109694078016784 0.766533718491234
-0.214433954396285 -0.107778561341303 0.771944281875721
-0.217967540755024 -0.107199122896416 0.784685436829934
-0.222458027533921 -0.108775463867993 0.800236718974677
-0.223892170882045 -0.112558487243633 0.804680029123995
-0.319135970146323 -0.10427819385597 0.885801746042917
-0.321475514266511 -0.110700764683297 0.900517375406117
-0.316791348975228 -0.106463120350695 0.904899855063843
-0.240739757884615 -0.114611561329893 0.85527161621794
-0.245980094300264 -0.109067270712986 0.871007812513194
-0.250194252205873 -0.109202516286554 0.883662499304646
-0.254107410321284 -0.108580239266065 0.89505533612141
-0.257861091887978 -0.114005040286243 0.905676679512748
-0.325267694585119 -0.109470441192604 0.965982675382279
-0.325264256805244 -0.109189676325856 0.978585770699751
-0.324896997599478 -0.10810797583425 0.981463341428537
-0.319060647695564 -0.103587455697764 0.988232640073452
-0.315493209238752 -0.109222481125865 0.993498381210527
-0.301657379793733 -0.110839612057438 0.999560699225601
-0.30087753394486 -0.108108466897059 0.999668402378452
-0.173188794685524 -0.103494747960307 0.166899680823917
-0.0071108846900854 -0.112452644093973 0.136564320516054
-0.00900592431248563 -0.11152066414686 0.148226781711836
-0.0090645778852019 -0.108354999628686 0.15875378429508
-0.00761180840094211 -0.109905376449792 0.162253150958386
-0.00286519126477774 -0.110372588065242 0.169913256504499
-0.0493535142272539 -0.112863859138362 0.372673544975366
-0.0519591669263696 -0.111708480341784 0.379667118893945
-0.0507598104284377 -0.105299766297613 0.388640831375553
-0.202074225778066 -0.101594652057155 0.531318784091479
-0.208309445133534 -0.103306913160152 0.541485976193439
-0.214862840474296 -0.105220543034018 0.561850815624576
-0.216491343434139 -0.106374029314491 0.569177514848454
-0.217683537999883 -0.102993242489874 0.578004833465338
-0.219425390764649 -0.105544838282574 0.590901961247597
-0.219755380978148 -0.106341219402541 0.598614205015433
-0.219076170107195 -0.0977223034138607 0.611626113520201
-0.218660480347425 -0.100849639341475 0.619589723248539
-0.217786930887343 -0.10649878444538 0.629723930520786
-0.217388627546122 -0.106509514366663 0.632607652392674
-0.215784109794138 -0.101952670456337 0.644224383804078
-0.214168479865676 -0.103251174551755 0.655921602313941
-0.213798316317676 -0.10607431100342 0.658601601856988
-0.212604689564581 -0.0975484434264478 0.667243503120517
-0.210750520195898 -0.0994702013968644 0.680667762423729
-0.209883540262265 -0.0977088107922008 0.686944730365902
-0.209159255780006 -0.100920245809563 0.696787532332551
-0.208640436033288 -0.101782774941221 0.703988676938508
-0.208128485074343 -0.101367202722518 0.71109453619205
-0.207898756569417 -0.102219164490472 0.719344438324207
-0.208618652017684 -0.101695782557872 0.730896970833784
-0.209197524424907 -0.101467782093416 0.740186500769899
-0.210052400950098 -0.103312918506697 0.748168915614672
-0.212198898335517 -0.104378641030823 0.759816311274765
-0.214052176720886 -0.100594737521687 0.769872661165795
-0.216809841992272 -0.105063396468253 0.780676138732723
-0.221379300590422 -0.0982955018529076 0.796500913062871
-0.322787397642839 -0.0950967783926068 0.887272735840195
-0.324855275698858 -0.0956036131711264 0.896564823551002
-0.323320660668889 -0.0982630209222467 0.901978154598453
-0.236468338070596 -0.100136786087773 0.842444977750201
-0.2422515645843 -0.104482991552638 0.859811417692455
-0.244685442335703 -0.100443541051459 0.867120104581404
-0.25206596904085 -0.0983920768330729 0.889278914102785
-0.253005665820745 -0.102363140720034 0.891937861593576
-0.318770381925342 -0.099875950026465 0.952769375194068
-0.325823035718345 -0.0963984270677035 0.971972999490308
-0.325374193799656 -0.100672245304251 0.977284740588451
-0.324712579087982 -0.0939576454254129 0.982892561405813
-0.317902583613815 -0.0979748690612209 0.990130943862614
-0.311306399714222 -0.101528025075582 0.997143675917985
-0.29997513250258 -0.103126569249335 0.999793031470998
-0.301112330331193 -0.0958903481707919 0.999635975058204
-0.168235152203807 -0.0918804206759128 0.164974249287132
-0.165642486037933 -0.0977779903175577 0.167888959955085
-0.156579938315501 -0.0915264693704593 0.169038520989363
-0.146007420959547 -0.0914170364377751 0.165456968334427
-0.0118592430847011 -0.0987558668941969 0.138324873289012
-0.011745165828873 -0.103309180716929 0.148643925271078
-0.0132358748252625 -0.0963485432893018 0.159251249366432
-0.00975512739812991 -0.101435383369771 0.164335803886999
-0.000691881790345806 -0.0998091584417766 0.174281422516514
-0.0499505268873702 -0.0941859280725217 0.373867570295598
-0.0519591669263696 -0.0955269811693372 0.383239714294353
-0.204485637560728 -0.0917433108816792 0.535108140277732
-0.209769501770646 -0.0910139468816834 0.546023140450225
-0.211924944044453 -0.094845342036033 0.552721230559061
-0.21620674040452 -0.0908903872879499 0.567070245709708
-0.217783053152259 -0.0969551172286429 0.578741671554998
-0.218514804244747 -0.0929455737161548 0.584159747456959
-0.219773671628009 -0.0894627021650664 0.59826378814694
-0.219080427589242 -0.0919207971094778 0.611544545887143
-0.218567566919282 -0.0917693389533301 0.621369734938866
-0.217495165096462 -0.0920524914071287 0.631836319008551
-0.21777017340139 -0.0953870395760381 0.629845254958119
-0.216053158056757 -0.0967748043370143 0.642276470544981
-0.214323181403102 -0.092434343187347 0.654801553298048
-0.212897896128413 -0.0947505496956365 0.665120675156385
-0.212703270614668 -0.0912478168972982 0.666529770229392
-0.211218890353841 -0.0889485104806058 0.6772767404539
-0.20969587126279 -0.0945858578917549 0.689339381721616
-0.20952043848692 -0.0963313457211794 0.691774364795554
-0.208925785193477 -0.0934866370178997 0.700028065677753
-0.207888134677811 -0.091049369450628 0.714430610536196
-0.207908994861302 -0.0913589480953073 0.714141070248499
-0.208513350880566 -0.0975711468371305 0.729207149328758
-0.209111169480248 -0.0886258207545324 0.73880070633395
-0.209482872169521 -0.0947550213900336 0.744765702478288
-0.211970491597006 -0.0899244517771799 0.758576919449944
-0.214611082702832 -0.0949522264462714 0.772905424162986
-0.216550709175393 -0.0923790907717501 0.779778719867762
-0.219274214686317 -0.0974118865323542 0.789210660035627
-0.323296791590209 -0.0933077292533686 0.88742750622188
-0.32637454097155 -0.0852858537453781 0.900169937064067
-0.319439300937359 -0.0886627199311971 0.90330749632935
-0.2389764358633 -0.095162754237212 0.849976539860569
-0.242541383608215 -0.0881147303300855 0.860681714690337
-0.244235558892504 -0.0911716173943317 0.865769150442082
-0.250952037158109 -0.0873399216550819 0.885938050302168
-0.251219578960605 -0.0877907855582609 0.886741451074052
-0.257606477941781 -0.0939785156522684 0.904956228907997
-0.32526149100043 -0.0908558184914519 0.965952138081026
-0.325544725266973 -0.0887135122070483 0.975266615797169
-0.325084070731633 -0.0921024806894157 0.980013548479242
-0.317986830269079 -0.0851262167146095 0.989992846370919
-0.314792005805366 -0.0859182494843378 0.99431032439402
-0.310661419795628 -0.0856686609531457 0.997533087462111
-0.297314528046567 -0.0945504419763749 0.999794924548437
-0.169403487021214 -0.086701019371949 0.158006405323747
-0.159028538850567 -0.0813400021250406 0.16184770538545
-0.160606600653484 -0.0883636431923351 0.167337796469302
-0.152299768011523 -0.0895302779960477 0.169521488327039
-0.145812201238349 -0.0829936719666398 0.170473662368186
-0.016572442368713 -0.0876008611045669 0.144065696533675
-0.0152475252728269 -0.0899708955724293 0.160288044824224
-0.0137529711672748 -0.0877527186013845 0.166644796188322
-0.00813881913548761 -0.086262218534466 0.174414462492873
-0.00368422253499651 -0.0918197951458426 0.175179622261285
-0.0507537968146903 -0.0848227133834002 0.375474110150238
-0.0507600935230305 -0.09137515448998 0.388640076456639
-0.202669336905703 -0.0864882670423179 0.532253958383973
-0.209651701003623 -0.0869874953930034 0.545657072218594
-0.212556024746733 -0.08646216499694 0.554682330829006
-0.217360101514588 -0.0839935510765217 0.575610032754079
-0.218038713437923 -0.0834805885593616 0.580634651266544
-0.219629457989268 -0.0844702186970536 0.59241293528246
-0.219622607457095 -0.0788317035139747 0.601157775586239
-0.219144126313229 -0.0812229151674645 0.610324233921644
-0.218473229149817 -0.0825428462610696 0.623177033795908
-0.218185910780517 -0.0842524884110397 0.626835310403111
-0.217084631990935 -0.0820210955366525 0.634808584548462
-0.216135990009188 -0.085613889744352 0.641676766027858
-0.215052422478112 -0.0788926195565948 0.649521814630168
-0.214475571826071 -0.0811413207372203 0.653698236671797
-0.213416837236784 -0.0802221017697929 0.661363516106782
-0.212034380939682 -0.0853043197139921 0.671372555478482
-0.21003949468785 -0.0852096419019278 0.685815609792807
-0.209114947300329 -0.0848490732018991 0.697402516753059
-0.209172098421991 -0.0878361674799705 0.696609269378836
-0.208196856520483 -0.0850841899717875 0.710145537435949
-0.20798659212299 -0.0817724129683022 0.713064016756476
-0.208391297485029 -0.0871885251822822 0.727248495716978
-0.208960307980146 -0.0833486963687023 0.736379719175668
-0.211827456062015 -0.0799407962454302 0.757800773028517
-0.211901600568421 -0.0812873152347146 0.758203099578482
-0.213982466172139 -0.0847523123151279 0.769494394373916
-0.214656838460353 -0.0879145285854542 0.773153706294152
-0.221071464912812 -0.0825873592252534 0.795434828312501
-0.32777532754087 -0.0818376544873557 0.891388607899903
-0.328158007478188 -0.0800335919257182 0.895977405652562
-0.234454135746382 -0.0802022268041683 0.836396533406522
-0.238324952051967 -0.0790033320383045 0.848020200357691
-0.243875474344995 -0.0848415107330915 0.864687853236513
-0.243217439918486 -0.0857840966287272 0.862711842903729
-0.250602362765799 -0.0794475218017808 0.884888013731924
-0.253083900498419 -0.0855769541177827 0.892159232895837
-0.320422341610349 -0.0843276094569055 0.955052895685915
-0.325577977675093 -0.0828513878661026 0.967510051676545
-0.325659583208834 -0.0794338679377082 0.973907349594913
-0.324388352354172 -0.0758095353937023 0.984081614367622
-0.317484909594905 -0.0808503067349791 0.990815596970527
-0.313499880492633 -0.082282339370888 0.995819345171703
-0.30634370788775 -0.0774331502456157 0.998913478609184
-0.296473494589222 -0.083088944034226 0.999646495884082
-0.152511183534102 -0.0725775210002072 0.147239075830465
-0.156325890294449 -0.076961750603036 0.158943002701902
-0.150706217161811 -0.0750776834515957 0.162661818587843
-0.148940688643667 -0.0741246121145318 0.163284964936273
-0.142681501805821 -0.0782089173673969 0.171031933499385
-0.135265206709356 -0.0749142101230436 0.171861927092913
-0.0187662627930607 -0.0783299922361357 0.140063724182012
-0.0198791114838372 -0.078948447882838 0.150018027671426
-0.0167844379601171 -0.0841399913725792 0.162380260348945
-0.0146514480117647 -0.0841730085018715 0.167504737822465
-0.0152021415125591 -0.0757982769391153 0.172208292260058
-0.00658087962702787 -0.0849362272215832 0.175968582328772
-0.0494488792350114 -0.080988225767866 0.37286427499088
-0.0497966856655451 -0.0743194804133269 0.3912091640766
-0.201224180164052 -0.0717856899977857 0.529983002421791
-0.21033510462641 -0.0713052116799938 0.547780768344393
-0.216038970316856 -0.0696063130381695 0.565828040002585
-0.216791145876641 -0.0745008709499406 0.571397341085398
-0.217987625772971 -0.0705592799743158 0.580256389564028
-0.219748414188142 -0.0717229334822063 0.593293722295871
-0.219666223277569 -0.07561181557275 0.600322206772863
-0.219026145662799 -0.0772227716095877 0.612584433119689
-0.218920091707143 -0.0738359055629704 0.614616155224261
-0.21785889710005 -0.0767967652012616 0.629202894114248
-0.216733806354093 -0.07283866462162 0.637348567163419
-0.215307147962338 -0.0730930141078217 0.647677594269755
-0.214395361675387 -0.0704078365695963 0.65427895747891
-0.213690870159236 -0.0722281836355741 0.659379504207804
-0.21226033444418 -0.0748481788640736 0.669736639567376
-0.211821935293781 -0.0763134273171008 0.672910667053176
-0.210139445906319 -0.0773272448504303 0.685091956266835
-0.209517892366008 -0.0771774820269348 0.691809691537603
-0.208919349238052 -0.0754650728130343 0.700117383539166
-0.208110812520094 -0.0733348846778007 0.711339832042099
-0.207819132530871 -0.0750560606131165 0.718066670426027
-0.208224403746466 -0.0747732176475155 0.724570266058722
-0.209160057976573 -0.0776381816729499 0.739585266697624
-0.21102837849327 -0.0704386431336577 0.753464792240218
-0.21276379149507 -0.0719213739321669 0.762881562188151
-0.214695464846213 -0.0728374231771725 0.773353708631543
-0.218201148990437 -0.072397833579913 0.785494459940148
-0.222025099529005 -0.0743685033328208 0.798737419258561
-0.329800685808315 -0.0688966794028478 0.893324728942923
-0.32945920343738 -0.0691740441631571 0.898357500136282
-0.324154113453437 -0.0704307125017105 0.903141357510994
-0.236629865254472 -0.0729330001914869 0.842930027424663
-0.243174645411069 -0.0726256758610342 0.862583335358475
-0.244362775853109 -0.0698335652858237 0.866151170012081
-0.252373868182901 -0.0729393649582157 0.890150139447696
-0.255536261108636 -0.0763251160375371 0.899098384152469
-0.320412334063266 -0.0721028705368401 0.955039062152904
-0.325127988506311 -0.0687626863771853 0.965294968704635
-0.325667050218298 -0.0726612866905515 0.973818982578819
-0.322446219661178 -0.0730209289683035 0.985496792035671
-0.31530991605956 -0.0682927091868941 0.993710621539566
-0.314351452998412 -0.0748479480844162 0.994820452883905
-0.307288101352548 -0.0689021893088333 0.998783050071496
-0.301972915014067 -0.0711320193373844 0.999517121205516
-0.147931421070859 -0.0702768611971541 0.136391872268391
-0.140916191108808 -0.0653696778824047 0.135769486888346
-0.148460717035667 -0.0709085842656322 0.158450695560025
-0.147065324537306 -0.0712776068457264 0.161764530985189
-0.136653705682847 -0.0671414166682779 0.167201269561429
-0.133358358209 -0.0641216124110557 0.166875586151975
-0.125229308398003 -0.06692448606314 0.17320183922656
-0.0179440259510604 -0.0715089639325262 0.132872801716941
-0.0215415275733947 -0.0709370108403712 0.142094738961555
-0.0242131478798046 -0.0667771388140361 0.155603585906246
-0.0208746896505675 -0.0712458221815017 0.164388803924613
-0.0181640202242707 -0.0688346836003985 0.171774532857451
-0.0147215142832687 -0.0655391410050837 0.17678538631221
-0.0131680692501892 -0.0708654752902585 0.176074823533232
-0.05195916692637 -0.0729655472627442 0.385279558112173
-0.04930351129978 -0.0645031092543665 0.392524295718641
-0.208723730186165 -0.0697873837429064 0.54277338226956
-0.213801451010324 -0.068479622430589 0.55855252673744
-0.216453692029257 -0.0619649774087565 0.568898749753079
-0.217726248003069 -0.0678253433061487 0.578321081878446
-0.219742031488722 -0.0654452583863827 0.593246465367942
-0.219953744453293 -0.0690398258149985 0.594814041675042
-0.219361405013438 -0.0609229595200695 0.60616171962003
-0.218414504511283 -0.062493000228477 0.624302065399936
-0.218378858824597 -0.0662641606098102 0.624984956347769
-0.216884603619379 -0.0625810370884853 0.636256792811755
-0.216298492461941 -0.0682721503464117 0.640500245951965
-0.213979694473418 -0.0680890810873396 0.657288403425481
-0.213417506670904 -0.065689803681843 0.661358664211852
-0.212482324929987 -0.0628242382251222 0.668129415509012
-0.21113676365327 -0.0624152619264815 0.677871331540715
-0.209883440335032 -0.0623609748775427 0.686945441277941
-0.209357973626813 -0.0664881141637886 0.694029333523312
-0.208784210938697 -0.0613821246810908 0.701993074244916
-0.208384289020436 -0.0666043156406882 0.707543965883025
-0.207763396278044 -0.0629633051272436 0.717172242111046
-0.208537430677769 -0.0653490827475792 0.729593570219004
-0.209325117955268 -0.0648749814451701 0.742234122266571
-0.209694809750685 -0.0689374462511023 0.746228556802518
-0.212072000079127 -0.0614848609734426 0.759127729744381
-0.213667099231339 -0.0629501758328361 0.767783134842809
-0.218527462127833 -0.0613319095594565 0.786624535122873
-0.22029024012439 -0.0628303121676017 0.792729320490872
-0.329899389311705 -0.0649485392672289 0.897405034071889
-0.3296903036699 -0.0652026886306104 0.898077601219924
-0.234457981529714 -0.0606515139107494 0.836408081902005
-0.238072343129403 -0.068092343373985 0.847261641502663
-0.241096898670364 -0.0640108336753223 0.856344073606895
-0.242187447014903 -0.0622040902312623 0.859618879164776
-0.251997405385105 -0.0666436779455129 0.889077184570669
-0.256740359878744 -0.0638472338849984 0.902505478304484
-0.318130025342349 -0.066358711866303 0.951884203847198
-0.324963745290399 -0.0650646911592857 0.964486477354048
-0.325248117556626 -0.0657206148952759 0.978742206477911
-0.324794244641654 -0.0618959137226912 0.98225966376546
-0.316459160869234 -0.0650219842213772 0.99237987864107
-0.314880321225407 -0.0640169335513081 0.994208061484448
-0.303231340428861 -0.0667525958132688 0.999343322261793
-0.30358986257978 -0.0650988216441338 0.999293807391545
-0.286267129040871 -0.0610533834518486 0.995872574359063
-0.128915432095497 -0.056689023498542 0.136031720564538
-0.132392387746225 -0.0578774020990781 0.155072478165198
-0.130547606952951 -0.0603011230690033 0.165104384652324
-0.125431496940231 -0.0564590395554098 0.165614033880073
-0.121201951648057 -0.0554903953681224 0.168684009427991
-0.115026223315299 -0.0612030144179377 0.174413513022502
-0.106939433144747 -0.062238861353403 0.171323791477002
-0.0235502119297021 -0.0641184494866513 0.141163122560303
-0.02634076715157 -0.0601753496818674 0.154584915527842
-0.0249999960887143 -0.0633320604545567 0.149205451578319
-0.0263462204581674 -0.0570096223472872 0.162989075605103
-0.0199239553467574 -0.0621338916155863 0.173248738223775
-0.0203755089731273 -0.0603354968584322 0.173680462390156
-0.0152673985573373 -0.0639690555394496 0.176930570167837
-0.0652883085440679 -0.0546901314495487 0.361397590401618
-0.0503707392384587 -0.0584568326745623 0.389678354548832
-0.0500214221117936 -0.0632662319764961 0.390609866886604
-0.209352384046271 -0.0511949422585955 0.54472694256939
-0.210176101959405 -0.0530027658573624 0.547286666281074
-0.217158050897439 -0.0574883897539201 0.574114006962872
-0.218528433301294 -0.0554614555949262 0.584260673837514
-0.219642528247365 -0.054047067552318 0.592509721665842
-0.219630089762203 -0.0579608933621258 0.601014414864589
-0.219435279864404 -0.0579371206623187 0.604746466578006
-0.218840987575675 -0.0560445982118097 0.616131611941124
-0.217464161304791 -0.05447240908483 0.632060786902487
-0.217178101717402 -0.0517872956874592 0.63413186239558
-0.216796206367219 -0.0526180418695469 0.636896790178302
-0.215471181170098 -0.0575469472307055 0.646489991505778
-0.213560164220231 -0.0600124017324564 0.660325815966927
-0.213154931892327 -0.0563838848890135 0.663259712552282
-0.211298959386151 -0.0548043171488662 0.676697025396732
-0.20998562604157 -0.0523616608105832 0.686205609218615
-0.209207731721871 -0.0551166041655357 0.696114661966181
-0.208578039764899 -0.0600019490752835 0.70485469976387
-0.208243607531445 -0.0566534250926608 0.709496631295234
-0.207862418203765 -0.0521803915200951 0.718761297881306
-0.208419768417923 -0.0554303636353201 0.727705383420094
-0.209238580765518 -0.0596564259386891 0.740845397107275
-0.21118441506618 -0.0550478454277743 0.754311484993666
-0.212451174744075 -0.0534015331250455 0.761185225871588
-0.214155351920656 -0.0556144331308858 0.770432515485122
-0.217438294767449 -0.0571900301701505 0.78285257235844
-0.21924053712364 -0.0520637872458673 0.789094029188031
-0.330111283666524 -0.056472765074485 0.890705682647576
-0.329570527749811 -0.0493145572089124 0.899568650876775
-0.235073650941553 -0.0596998850354647 0.838256874412493
-0.23765705729581 -0.0537217229652801 0.846014580459685
-0.238690029263388 -0.0559744647994648 0.849116490024261
-0.245558826112813 -0.0585350330539699 0.869742787071149
-0.248138618143131 -0.0547903189710658 0.877489639671835
-0.254554025119944 -0.0521090418557122 0.896319068554737
-0.323778192477938 -0.0549604110204374 0.959691722101155
-0.325423932258024 -0.0515150842628189 0.966751759246586
-0.325812916455747 -0.0547410555495049 0.972092754131719
-0.324709316582385 -0.0533700239843883 0.982917845408691
-0.316165379366955 -0.0561283348898804 0.992720056507941
-0.311468349051382 -0.0496370181671549 0.997045897770736
-0.307315755950083 -0.0515124501018336 0.998779230743164
-0.285366442332426 -0.0508221517984901 0.995415814520833
-0.122745336783597 -0.0506709093763715 0.144630595889628
-0.116681796327047 -0.046518036542161 0.142430528488545
-0.119140780397811 -0.049331883545584 0.162131345296927
-0.117870901048604 -0.0501681803907428 0.165631717134487
-0.108197256814577 -0.0438593253885446 0.167742141064864
-0.107055155035955 -0.0520994423117118 0.175649553274136
-0.0964165056322617 -0.0451970081432561 0.176972776705437
-0.030707005402246 -0.0465287283457094 0.146495661815144
-0.0293650647196906 -0.0501655269105049 0.149081970087282
-0.0300513597734431 -0.0493393050468685 0.153961534675918
-0.0312106174927973 -0.045093582056508 0.1688038172849
-0.0269035846175462 -0.0465412151260833 0.178252199851431
-0.0229681590060444 -0.047797017325205 0.182684172461848
-0.019983027392119 -0.0456528538595621 0.187601371164789
-0.0699086973191154 -0.0450464336687666 0.363248868688359
-0.0699086973191154 -0.0490380139953639 0.365565456337921
-0.0699086973191154 -0.0446803246498874 0.379319409862277
-0.0668330345497657 -0.0531454054438512 0.39390391321876
-0.0666025774151056 -0.0533758625785114 0.396014553214856
-0.203350453229258 -0.0443198649593908 0.53332428550153
-0.210125845343289 -0.0437542185162316 0.54713049395306
-0.211538057132477 -0.0487065665500261 0.551518976612517
-0.216716556306549 -0.0453464171566107 0.570845070859205
-0.217958883509142 -0.0419559547588715 0.580043584566733
-0.218420436863001 -0.0471789258555932 0.58346104320011
-0.219690103299068 -0.0491765205320644 0.5998647032733
-0.219277478659416 -0.0462123948327848 0.607769517089111
-0.218550401738246 -0.0483053942781307 0.621698581086524
-0.217871093142404 -0.0447070796241321 0.629114594593644
-0.216110118997413 -0.0432779802564055 0.641864072522132
-0.215219209332802 -0.0492262458664439 0.648314271201965
-0.214917846535499 -0.0500089324514395 0.650496142153109
-0.213521732470114 -0.0453025711530242 0.660604058109356
-0.211857736200987 -0.049803147240095 0.672651457663693
-0.211308273061442 -0.0460438709789823 0.676629590909938
-0.209992218644625 -0.0486048511387464 0.686157877179686
-0.209382567815047 -0.0427994109512118 0.693687953558606
-0.20870272649879 -0.0419194843408779 0.703124053375034
-0.208345103672812 -0.0504226133401358 0.708087860275384
-0.207823708183415 -0.0489324586256697 0.718140098275701
-0.208715617750919 -0.0502599351683685 0.732453029825691
-0.209362747815811 -0.0505375087917748 0.742838009257128
-0.210049640086309 -0.0443842039347987 0.748153950494722
-0.212739254050559 -0.0486925221222995 0.76274841590566
-0.214229289761905 -0.047302872718405 0.770833720618498
-0.217328503302745 -0.0428565714509829 0.782472346755124
-0.218851069183654 -0.0504483827652384 0.78774523870734
-0.329824037880999 -0.0447174462365971 0.888719463289149
-0.330425797259831 -0.0438922213422292 0.895641680881155
-0.233724111852122 -0.0450269319703951 0.834204346037408
-0.238462231382939 -0.0433446927576101 0.848432436200603
-0.241761757449316 -0.0499879712123925 0.858340576774703
-0.244870566745698 -0.0478626951487174 0.867676014321478
-0.249390191171508 -0.0477686441936195 0.881247985947766
-0.251261286090581 -0.0453577922797344 0.886866693335647
-0.324207221783286 -0.0464633448366961 0.960762471411879
-0.325696906185562 -0.0478203463598509 0.968095480252807
-0.325697480025919 -0.0451852917625838 0.973458866348545
-0.323866812064133 -0.0458711893512897 0.984472800028907
-0.319659649552038 -0.0455376851842076 0.987250753568396
-0.314390419423605 -0.0462864643924534 0.994775332563875
-0.306732813518087 -0.044942275373927 0.998859739907824
-0.288498586210634 -0.0487516753742796 0.997047762707468
-0.109689347920235 -0.0410013646979523 0.147496860500443
-0.101945201145449 -0.0367791114350555 0.138482041960269
-0.100259570564583 -0.033873454603734 0.157508616126077
-0.100404891931729 -0.034426157757072 0.159483912779639
-0.100344712429249 -0.0352669055522624 0.163449537052714
-0.0938625128122044 -0.0350781733244779 0.171550338780294
-0.0892486063041625 -0.0385911201843091 0.17785621534641
-0.0816135578208396 -0.0413912964427293 0.176612015295608
-0.0781295481480798 -0.0359187013928431 0.179083245835394
-0.0321852295863653 -0.0428375603372589 0.145536533736813
-0.0323182640755102 -0.0431995122085393 0.167348865158209
