ply
format ascii 1.0
element vertex 856
property float x
property float y
property float z
end_header
-0.23827934449178 0.148113201083559 0.690473204943909
-0.202170754229873 0.15251053189507 0.675288189346217
-0.160817070942526 0.148183419148894 0.64303825040492
-0.182374457410403 0.152296520853836 0.673912752305298
-0.168509424112496 0.150297187053622 0.661063145340501
-0.149048985438048 0.149589426933201 0.655241424541122
-0.144168486380672 0.150916350669097 0.665042475407799
-0.123813099687671 0.1506362978302 0.66324259141203
-0.154171039269207 0.154650200847355 0.689039722516265
-0.117831323540878 0.1527357801367 0.676735847248138
-0.0949519463468983 0.151346316263813 0.6678058403346
-0.129863447365021 0.157199959953622 0.704892517531954
-0.0938623676785798 0.154600003342955 0.688717105951646
-0.0919849800747188 0.154359752339754 0.687173026136814
-0.0629116033207931 0.15416946174763 0.685950039101013
-0.0733935320368543 0.157163270222423 0.704705777433286
-0.0382874049464127 0.152840102773598 0.677406323024384
-0.0687911674238785 0.157746173429882 0.707672585826769
-0.0318215467260675 0.154874377525109 0.690480493536846
-0.00856862632755757 0.155076573329731 0.691779994710213
-0.017441148968266 0.157053603276152 0.704147604459592
-0.0287250642770329 0.158927807586552 0.713686761232179
0.0123574155821246 0.156588655077057 0.701498059872571
0.00187076792690955 0.161166807774722 0.725082623300313
0.0104530218022936 0.159234986658101 0.715250213682111
0.000949309942546694 0.165025312803851 0.744721295656605
0.0142152423698443 0.164254076528026 0.740795926526365
0.0413095431742148 0.162177191227946 0.73022518225573
0.0739073206878185 0.15870309874734 0.712543058363964
0.0670788810006131 0.160970507235155 0.724083510444214
0.0882149640085941 0.15976202953535 0.717932709183832
0.0875394307876788 0.162584629729833 0.732298926149673
0.0930034281265623 0.165098038875001 0.74509145028185
0.0928424483818565 0.165459217179491 0.746640793990479
0.13705733543772 0.16222194864401 0.730452984532252
0.108576287573549 0.169169421686991 0.762230088092052
0.125537611439389 0.168465910003561 0.759274118814695
0.16188704473391 0.165725325063372 0.747758908654017
0.168358592375259 0.167629428050427 0.755759443774085
0.168326531044299 0.168713676827665 0.760315169215491
0.182983425674352 0.16711980698624 0.753618151391437
0.170215740947282 0.173733127084948 0.781405566289511
0.194493650025389 0.172177686459794 0.774870017827411
0.218105499611528 0.170948574491629 0.769705615725924
0.215587042113157 0.172363780386448 0.775651935090266
0.237547296506762 0.171763618698122 0.773130215047905
-0.0356147918123186 0.166768243051549 0.0762396299570382
-0.0356147918123189 0.171209713275374 0.0794959498177499
-0.0356147918123189 0.163521461392754 0.0947575720199047
-0.0356147918123189 0.172657394740353 0.103518939680783
-0.0297662712671438 0.171549940898792 0.107144020624245
-0.00995701934977393 0.16497149919712 0.107613909317222
-0.00772592670549307 0.174188445603583 0.106955556002474
0.000845873731983042 0.166734817828161 0.107487957986433
0.012864429917522 0.175391608963726 0.106869615762465
-0.249787828778617 0.159613256206478 0.464435383133097
-0.249787828778618 0.160097274949793 0.479582649347743
-0.249787828778619 0.158252194415772 0.489860233165572
-0.249787828778619 0.152715578592064 0.493784882213206
-0.249787828778621 0.151821677520429 0.511879296799254
-0.249787828778622 0.156956065577506 0.514517291260397
-0.249787828778622 0.153263239474942 0.520098190987765
-0.249787828778623 0.155100412248785 0.527963696268088
-0.249787828778625 0.153322338499884 0.546668584806572
-0.249787828778625 0.153077979252781 0.555007800198402
-0.249787828778626 0.151509441802265 0.562917406933996
-0.249787828778627 0.158377143821363 0.5747533850312
-0.249787828778627 0.153878223719377 0.579289221386347
-0.249787828778628 0.155857539768855 0.583062452532003
-0.249787828778629 0.160060986820247 0.59520978440844
-0.24978782877863 0.151897789580217 0.613684576449853
-0.249787828778631 0.156515134919159 0.618688777441155
-0.249787828778632 0.159986334914702 0.622063454370766
-0.249787828778633 0.151585879411656 0.637378277594701
-0.288415700383874 0.154590864416007 0.675384213877223
-0.288415700383874 0.155214227161835 0.686864492849767
-0.28220698371376 0.151207147557468 0.690473204943909
-0.267179679787824 0.15582417946041 0.690473204943909
-0.258506047901484 0.153497676957395 0.690473204943909
-0.242881175639706 0.152225727811066 0.690473204943909
-0.247037550041148 0.151593098834926 0.690473204943909
-0.230473892975991 0.157372988814788 0.697089572713049
-0.230473892975992 0.159039343883422 0.70002080153889
-0.20988457408751 0.156193423472276 0.698957928364284
-0.223297461567689 0.158157006772753 0.709763608477455
-0.190791288654602 0.155363142581467 0.693621759328308
-0.178360779691076 0.155998178960464 0.697703102762598
-0.164570114391343 0.156336517619758 0.699877586479357
-0.197136305173148 0.161583534905142 0.72720364362153
-0.175121504143273 0.159896915448297 0.718619239389144
-0.158639271090539 0.15904896907775 0.714303438108298
-0.156025325885453 0.160250057324097 0.720416629192127
-0.13679397845006 0.159774046853287 0.717993873849368
-0.133452856033884 0.161291815387824 0.725718875822265
-0.112366903656043 0.161178274953687 0.725140987917913
-0.112176767057408 0.161166486239516 0.725080986779297
-0.0896029157806659 0.160632983787606 0.722365613914618
-0.088913528279503 0.161854504412851 0.728582799885487
-0.106803293225795 0.166402166941608 0.750602818492075
-0.0830799590347829 0.165674970270586 0.747547331186366
-0.0779012657202181 0.166605952894665 0.751459072951781
-0.067449683691512 0.167097942683945 0.753526283399227
-0.0518309090182413 0.165511746510469 0.746861508290169
-0.0297626549106831 0.165887091147486 0.748438606782739
-0.0205442691142061 0.16579184893304 0.748038424289053
-0.0279954343621057 0.169517650009115 0.763693251030134
-0.0208304839563978 0.170395958650345 0.767383670707112
-0.000889753878014037 0.166952192775521 0.752913880987687
-0.00986280571075585 0.171852656547929 0.773504328448934
0.0212015285829995 0.16965724425438 0.764279788979708
0.0353393466342125 0.16876790412125 0.760543017903164
0.0223051691364283 0.174570504284954 0.784924002919745
0.045323123077239 0.172712551981888 0.777117380718558
0.0621656798136309 0.171260588990948 0.771016617797105
0.0454007002208624 0.177150001390753 0.794488692979264
0.0793511820477041 0.173723626970467 0.781365649331199
0.0765070839993984 0.176079078202842 0.790668204406586
0.0926054321111139 0.177749543060625 0.796627541147318
0.0979159545540117 0.178499443509062 0.799302790059884
0.124643429675697 0.175694389670789 0.789295838808995
0.152943456974544 0.174131224750361 0.783078266965367
0.165972911753922 0.17533272892384 0.78800562419183
0.146457536092772 0.180421178553227 0.806158526175066
0.184159198436623 0.176666428749524 0.792763561083037
0.189874650109332 0.177835130356365 0.796932871435273
0.197651766371695 0.179138851978571 0.801583861922562
0.222318807450444 0.180200380737397 0.805370836131771
0.238415068175647 0.178606030142222 0.799683034897781
0.23731803177638 0.180706838708664 0.807177610803953
0.234977003281276 0.184873544976127 0.822042219078617
-0.0356147918123189 0.178878209488736 0.0797071117430727
-0.0356147918123186 0.176288442578897 0.0814914996686945
-0.0356147918123189 0.175241058352906 0.0879554351842449
-0.0356147918123189 0.180482926298729 0.105346604453005
-0.0286768489738827 0.179009544198231 0.106611191817143
-0.022211801352158 0.177163689451509 0.106743038584766
-0.0128904126628671 0.182525314897251 0.106360065338641
-0.00304456066593839 0.179531325895192 0.106573921695932
0.0184727819409954 0.183606334819115 0.106282849629937
-0.249787828778617 0.160841672732383 0.463271617326658
-0.249787828778618 0.162968708412433 0.473153264879147
-0.249787828778618 0.162353086330063 0.484600751286069
-0.24978782877862 0.167878677030943 0.497732351837989
-0.249787828778621 0.164721714336576 0.510121804527404
-0.249787828778622 0.162986647848083 0.51987171524514
-0.249787828778622 0.160484944010907 0.52338435862524
-0.249787828778623 0.162437220125117 0.532375007065958
-0.249787828778624 0.160967604517108 0.540050145859979
-0.249787828778626 0.160472974950963 0.559207095710262
-0.249787828778626 0.166014841779929 0.563433268348866
-0.249787828778627 0.16366715342566 0.567988422883947
-0.249787828778628 0.161822668549564 0.583935001230132
-0.249787828778629 0.162453413845693 0.592969319550005
-0.24978782877863 0.166791285753688 0.606104090545923
-0.24978782877863 0.165477700154375 0.605343965571091
-0.249787828778631 0.160617482391965 0.617117044605369
-0.249787828778631 0.161184313297247 0.618092158304422
-0.249787828778633 0.16117963118918 0.633678170969165
-0.288415700383874 0.163184363152234 0.681754882821316
-0.288415700383874 0.160007708523559 0.680165082658647
-0.288417987133802 0.165632418555784 0.690473204943909
-0.269428181302324 0.162387499223203 0.690473204943909
-0.25674987549914 0.160377804982487 0.690473204943909
-0.257874462552052 0.163283072255682 0.690473204943909
-0.245517162753184 0.164815152871716 0.690473204943909
-0.230473892975992 0.167058968760783 0.694886539293921
-0.230473892975991 0.163330883557944 0.702919975410013
-0.230473892975991 0.169195450814436 0.711733730030931
-0.230473892975991 0.165123803366945 0.715550933762895
-0.230473892975991 0.163363637304078 0.731642733205226
-0.229273007671976 0.163710528864962 0.738029426448133
-0.230473892975991 0.168086508540755 0.748026039765598
-0.228130258537183 0.167624073895155 0.755736947035419
-0.212088548502416 0.166440797563918 0.750765134108719
-0.216523102403773 0.16806478493998 0.757588697815653
-0.201840009819269 0.168895541553657 0.761079316500218
-0.178621485226627 0.165813923861545 0.74813117727667
-0.176030940309444 0.168590795387983 0.759798854036917
-0.193114803416907 0.172422486945516 0.775898604462035
-0.156277671681855 0.168662222203911 0.76009897055017
-0.138758794891299 0.167641297168045 0.755809314654489
-0.121967421888605 0.16775663061308 0.756293915163915
-0.121216308084728 0.169279276716736 0.762691669755208
-0.125432796686643 0.173006863444041 0.778353999328581
-0.100196429423669 0.169744449512419 0.764646202316768
-0.117076099716787 0.17661262011027 0.792571600264836
-0.0880317355151234 0.173101364618434 0.778751068168742
-0.0777714951067381 0.172652306134926 0.776864243667813
-0.0914741412115604 0.178694550740055 0.799998829659054
-0.0515652715433537 0.173803830325007 0.781702642529102
-0.0622247624809125 0.178831033107558 0.800485726694532
-0.0328539486005675 0.174674591150851 0.785361348290139
-0.0425895024756582 0.179227792545664 0.801901154912443
-0.00622356382740702 0.174543958198296 0.784812463312875
-0.00996668610888554 0.177699206790772 0.796447967910009
-0.0112239643892224 0.18170207776349 0.810728098344953
0.0110133490979462 0.179306657893285 0.802182504838161
0.000968177296437318 0.182628948295038 0.814034683088008
0.0317728588091031 0.180035755142241 0.804783538917404
0.0588198289177968 0.178952763581249 0.800919996760707
0.0351998561147386 0.183887083168939 0.818523044123503
0.0841250374236618 0.179645332095753 0.803390715599675
0.0789039644236582 0.182667005809718 0.814170452209064
0.0846208569628482 0.184060566416695 0.819141940766216
0.0831670934714157 0.18644955112527 0.827664577013564
0.0923445345171777 0.189403505070839 0.83696505743123
0.128587293947663 0.185500352364636 0.824278336936648
0.120612186983744 0.188769607036562 0.835006016366628
0.126603313800562 0.191172663186719 0.842432582508413
0.142538406747669 0.192211194248983 0.845642128662258
0.174287801761047 0.185734169818022 0.825112474173415
0.197907357433793 0.186999513672584 0.829535600935901
0.181159957797456 0.192560719444711 0.846722324805041
0.176272838580839 0.195281450872564 0.855130655963543
0.228665808382737 0.190584548576016 0.840615033611334
0.22541186344122 0.193319577064661 0.849067549366853
0.227078340754327 0.195075488458139 0.85449413588333
-0.0356147918123182 0.187900244979747 0.0647235286436406
-0.0356147918123186 0.185534368389841 0.0775221701662039
-0.0356147918123189 0.191726266340586 0.0924206493345339
-0.0356147918123189 0.1917361679712 0.0962009443115304
-0.0356147918123193 0.186867864775324 0.101581731673666
-0.0356147918123189 0.192827975803216 0.105347507584324
-0.0170767979952343 0.189937957629919 0.105830590857737
-0.012362709893114 0.194352371645993 0.105515275570874
0.0040228910525955 0.193887077784368 0.105548510846705
0.0145776239239872 0.195609050630253 0.105425512786285
-0.230473892975991 0.172875041641445 0.479128391801728
-0.230473892975991 0.175485064491053 0.493688125094568
-0.230473892975991 0.179933229210433 0.49306910489217
-0.230473892975991 0.173275758947247 0.508521631674355
-0.230473892975991 0.175460664162574 0.516808182856532
-0.230473892975991 0.172589089276321 0.526826857298332
-0.230473892975992 0.178759571415196 0.533619110648241
-0.230473892975991 0.171648445474584 0.548988310609809
-0.230473892975992 0.174568528313722 0.55152871097765
-0.230473892975991 0.172479591453479 0.563213645483177
-0.230473892975992 0.175030074609549 0.569414877197007
-0.230473892975992 0.172250390741824 0.588409348478698
-0.230473892975991 0.172660673060043 0.596146676390654
-0.230473892975991 0.172510493236567 0.603243821481234
-0.230473892975991 0.177555787038697 0.607790791408163
-0.230473892975991 0.179233934591903 0.615554070045971
-0.230473892975992 0.177455259535893 0.624881584352145
-0.230473892975991 0.178727431517291 0.640687831121022
-0.230473892975991 0.17433112285725 0.641561364035226
-0.230473892975991 0.178032510666049 0.661733886043414
-0.230473892975991 0.173587749143633 0.658461638169521
-0.230473892975991 0.171879095967073 0.670350886998365
-0.230473892975991 0.172647058835286 0.682774518325302
-0.230473892975991 0.176835102365442 0.691132896272725
-0.230473892975991 0.179259503452521 0.696905076653669
-0.230473892975991 0.175292259552304 0.703885361830262
-0.230473892975991 0.173114812077886 0.715716231901413
-0.230473892975991 0.177881509750756 0.731874392120405
-0.230473892975991 0.173062774542766 0.732689985004414
-0.230473892975991 0.177365941735965 0.748942756059974
-0.230473892975991 0.175527427940341 0.758204831368866
-0.230473892975991 0.170562211094585 0.764649083806393
-0.230473892975991 0.173290830316599 0.770522860926555
-0.230473892975991 0.1775498342233 0.783954535351603
-0.230473892975991 0.176825515946863 0.792542328505072
-0.212762033933381 0.174440780561734 0.784378938282704
-0.222464874804721 0.180310845680456 0.805764916731954
-0.189459300802986 0.174949602624226 0.7865168734724
-0.186769255828679 0.178256021347971 0.798434388296542
-0.182324209024744 0.178306740899359 0.798615328880028
-0.163524692339231 0.178502851246281 0.799314947067268
-0.170960312593917 0.181177547937493 0.80885685283559
-0.165650290956035 0.183978266769956 0.818848339074283
-0.129583804969741 0.17744970483493 0.795557876648639
-0.128847683549333 0.182652361159534 0.814118207828412
-0.138905092310011 0.185261128894408 0.823424913885733
-0.0969424099069754 0.181292065341383 0.809265390476641
-0.108161407392839 0.183968191696902 0.81881239653246
-0.0921171526223805 0.186108554420971 0.826448080791612
-0.0677742761601249 0.181851385430546 0.811260749278501
-0.083016874669721 0.18824404585116 0.833381786776865
-0.0388651506457041 0.183131756533662 0.815828437440885
-0.0422886751963558 0.184251992085217 0.819824846494061
-0.0503803727216005 0.19106012923315 0.842084800019303
-0.0373620252285562 0.19030560265758 0.839752960407965
-0.00357111145553078 0.185576215387899 0.824548976154043
-0.00709045013229397 0.189351267735019 0.836803619659788
0.00589029721509622 0.191059890545589 0.84208406236323
0.0114115882688692 0.18977374386848 0.838109268280717
0.0185444757706635 0.192410945014744 0.846259451846195
0.0408216763956983 0.191007827088339 0.841923161957797
0.035129094465438 0.196130691803258 0.85775520718
0.0445922420001378 0.196394450950278 0.858570346164879
0.0550502366660526 0.197688876312737 0.862570725252683
0.0789278772872531 0.194825823327971 0.853722553994837
0.0853827479238273 0.195955741100861 0.857214527777724
0.106363310671374 0.196798251865108 0.859818279635723
0.11248993666324 0.197188946874072 0.861025709734744
0.126737691236423 0.198791111764807 0.86597714773186
0.15795866010217 0.194993410583072 0.854240476904982
0.157796977297058 0.196744301305225 0.859651547201553
0.171506877925768 0.199100035639513 0.866931866824933
0.182233967378824 0.198631596123352 0.865484169878705
0.191108340199878 0.201146166075285 0.872871422107808
0.200552761280886 0.202213997794554 0.875773407606394
0.202894014044121 0.206682726524326 0.887917817382679
0.243963999855707 0.200086282413549 0.869979830102454
0.250238329971149 0.206326399333084 0.886949447251809
-0.0356147918123186 0.196686343374535 0.073147487921442
-0.0356147918123189 0.197594609114564 0.081858923726607
-0.0356147918123189 0.195720867225182 0.0984775641218578
-0.0305684996543443 0.193734332336889 0.10555942123581
-0.0254512325666892 0.196820410340317 0.105338987092709
-0.0117545205724162 0.194182333708931 0.105527421137808
-0.0141809974556416 0.198174353524212 0.105242276865287
0.00304744500211292 0.201170091364873 0.105028295590955
-0.230473892975991 0.18172810853663 0.483448745035968
-0.230473892975991 0.188695245571134 0.498391540110133
-0.230473892975991 0.185054839458785 0.498990453915204
-0.230473892975991 0.184737404759729 0.523849798021504
-0.230473892975991 0.186846395735393 0.530862881871152
-0.230473892975991 0.186945546740602 0.52936272274231
-0.230473892975991 0.183238222180082 0.546841159527029
-0.230473892975991 0.18875714680538 0.558732505457159
-0.230473892975992 0.181768723078246 0.556231647458224
-0.230473892975992 0.184270639083927 0.571904039102804
-0.230473892975992 0.180398243729206 0.576736237896459
-0.230473892975991 0.183076374453028 0.590035170226
-0.230473892975991 0.185448103273336 0.594542154671559
-0.230473892975992 0.186708820436503 0.613460707330287
-0.230473892975991 0.182042041441642 0.621651531959916
-0.230473892975991 0.187392574397569 0.629143769508981
-0.230473892975992 0.181782876877003 0.635175660279102
-0.230473892975991 0.189272025428525 0.646798837044105
-0.230473892975991 0.188182125038406 0.656991655446481
-0.230473892975991 0.180380668622381 0.667385577953396
-0.230473892975991 0.182832929644446 0.671487478430036
-0.230473892975991 0.184076289118884 0.675689436979678
-0.230473892975991 0.185582707828647 0.695409907281846
-0.230473892975991 0.186324430443099 0.702648172593562
-0.230473892975992 0.185597119842134 0.704715468758885
-0.230473892975992 0.180353848944585 0.72566965996414
-0.230473892975992 0.189073700412171 0.731554692019138
-0.230473892975991 0.187283940766878 0.744240072471255
-0.230473892975991 0.18574401813934 0.753011008603059
-0.230473892975991 0.18480263872133 0.751534113419788
-0.230473892975991 0.187281531493046 0.764609702765153
-0.230473892975991 0.18066239380948 0.77553814237513
-0.230473892975991 0.181684079897388 0.783956785762991
-0.230473892975991 0.184949897984562 0.794523408631046
-0.230473892975991 0.182470582061879 0.804246450152838
-0.230473892975992 0.188554153598798 0.814435295142198
-0.218646228381653 0.181585137222079 0.810310916228451
-0.230473892975991 0.189044020061556 0.831541897975363
-0.219303583178781 0.185667299720957 0.824873916969151
-0.189657474510261 0.182798095812442 0.814638112133746
-0.183803624057292 0.186808840351401 0.828946331296428
-0.175735656106442 0.186353850976651 0.827323169405316
-0.191720756860053 0.191146608905606 0.842352062607975
-0.157089803531119 0.186326148993401 0.827224343353514
-0.149208029932104 0.187916500232573 0.832369517795666
-0.139456477802988 0.187836981273868 0.832123767064326
-0.144302290198813 0.193363839996666 0.849204342505098
-0.135415703159214 0.193054105189502 0.848247117251887
-0.123072343232258 0.195534218550864 0.855911826175181
-0.110443979552512 0.193176502386711 0.848625381771666
-0.0921169950399159 0.194422692304707 0.852476690801885
-0.0820536360850462 0.193317908076013 0.849062391412227
-0.0809690264289912 0.197653675017048 0.862461936803983
-0.0793566342283645 0.199200120038438 0.867241174374125
-0.0459630728082716 0.195416532464333 0.85554812118829
-0.049319450503991 0.196558710435309 0.859077984710868
-0.0416642064840025 0.19797074534921 0.863441832256384
-0.0240218364600488 0.199990976339128 0.869685289808275
-0.00358392138913851 0.195625225463523 0.856193080051075
-0.0130305430740396 0.203788490995908 0.880052318183317
0.0188739867542291 0.198655821618305 0.865559037975554
0.0235036443311809 0.200212935812111 0.870335235326967
0.0312810905119714 0.205035796999836 0.883442050732353
0.0517679808634706 0.203054794518337 0.878058393017156
0.0378869410268303 0.206889781495176 0.888480518894515
0.0762609799962706 0.202962360247206 0.877807189658468
0.0898805873069188 0.20377425641098 0.880013633661875
0.086524708723899 0.207057372293038 0.888935970869125
0.105069847163926 0.206714033542631 0.888002898684804
0.110458202744274 0.207979390183593 0.891441686422938
0.12992131513017 0.208426728400409 0.892657392039036
0.149506138908397 0.207373901956305 0.889796185522892
0.149859868659766 0.211018062299005 0.899699712715621
0.181485519292728 0.207946875912304 0.891353324238077
0.162621233359308 0.214002156968615 0.907809416989576
0.193707793027722 0.21340160927515 0.90617734269716
0.208468327212587 0.212658599719253 0.904158107907993
0.206288718937669 0.218242859339547 0.91837347140764
0.231487093179755 0.213697937841749 0.906982657980055
0.251323084811653 0.213058861942219 0.905245877774459
-0.0356147918123186 0.205641615318211 0.0682875396563553
-0.0356147918123186 0.203365253006623 0.0716984239242317
-0.0356147918123193 0.209068503175197 0.0799265275986919
-0.0356147918123189 0.207352506738698 0.0925374337619202
-0.0284474315920813 0.211709645690719 0.104275470281966
-0.0171921256825649 0.204074218665321 0.104820857926637
-0.0129742408280224 0.208826719947071 0.104481393549369
-0.000156527921076565 0.206327899505162 0.104659880723791
0.00962173678255024 0.210553628335044 0.104358042950228
0.0148027696301367 0.213344847989731 0.104158670117752
-0.230473892975991 0.195234404521405 0.489650088320803
-0.230473892975991 0.193144565823849 0.506150490256925
-0.230473892975991 0.193526795818246 0.503543928452769
-0.230473892975991 0.189629519007837 0.511654362604041
-0.230473892975991 0.198208059782365 0.527752429749787
-0.230473892975991 0.190102505528065 0.538870874908403
-0.230473892975991 0.19126802926035 0.549999353238451
-0.230473892975991 0.195647371470653 0.553182891428664
-0.230473892975991 0.195756065341361 0.571040057546
-0.230473892975991 0.197211872378294 0.567727675345889
-0.230473892975991 0.192978221908912 0.583457656924331
-0.230473892975991 0.197384546451833 0.588798001222633
-0.230473892975991 0.197765887725245 0.598266576932426
-0.230473892975991 0.193629196843277 0.611268178358992
-0.230473892975991 0.197096710995749 0.620598498005812
-0.230473892975991 0.197001545425648 0.63375950454562
-0.230473892975991 0.195943637732287 0.635405158581723
-0.230473892975991 0.193145082844487 0.647424909742796
-0.230473892975991 0.195424972767514 0.657023537836558
-0.230473892975991 0.18905500187011 0.670116593869954
-0.230473892975991 0.194480127594058 0.673012984635844
-0.230473892975991 0.190297911964628 0.678545370941766
-0.230473892975991 0.19840989710904 0.689909708459061
-0.230473892975992 0.195576862075025 0.701922620965386
-0.230473892975991 0.190975289800728 0.713467831321523
-0.230473892975992 0.195313292155475 0.723314326002984
-0.230473892975991 0.193103107485317 0.735085072484439
-0.230473892975991 0.193779061941013 0.742562216644669
-0.230473892975991 0.190281751685628 0.747932349559588
-0.230473892975991 0.189771674330844 0.754000187802423
-0.230473892975991 0.193391778893199 0.762285919835179
-0.230473892975991 0.198036935015655 0.774240009143484
-0.230473892975992 0.193846419343501 0.783961960218316
-0.230473892975991 0.192981019985617 0.788478657952159
-0.230473892975991 0.196023666263576 0.807851296625659
-0.230473892975991 0.193103049261728 0.809931325345353
-0.230473892975991 0.192201824195297 0.816541592704089
-0.230473892975992 0.191073113380342 0.829026430967508
-0.230473892975991 0.192569011156825 0.840255664597615
-0.230473892975991 0.196642249631133 0.854696127501414
-0.225225594522772 0.195083627517223 0.85451928937823
-0.20123987191906 0.192296068628952 0.845904430147198
-0.208670630612941 0.196773845253084 0.859742851802511
-0.186579589889834 0.194036451856289 0.851283027375992
-0.175133768333105 0.194338161121718 0.852215449955945
-0.158038355397891 0.194723709253284 0.853406973799336
-0.183136441754533 0.201705103520482 0.874390414596334
-0.172029408350698 0.20143167217402 0.873647325785641
-0.140269828153859 0.198135983185124 0.86395249436366
-0.12950773401352 0.20136367487859 0.87346253340523
-0.128743528651319 0.202653223838184 0.876967067231048
-0.117234704013645 0.203009817078458 0.877936160388233
-0.101673384475613 0.203447488938904 0.879125596297689
-0.0826101423868635 0.200027343910545 0.869797682593823
-0.0725779854839393 0.200700705008572 0.871660817915724
-0.0764633435551175 0.206484853082182 0.887380067988936
-0.0686755286873446 0.20775658142554 0.89083617174009
-0.0509040653906154 0.205326292632817 0.884231514183478
-0.0218559139133379 0.20345350442832 0.879141944250964
-0.0186033049138802 0.206492476591003 0.887400785965045
-0.0350863555760572 0.211844162313406 0.901944757715611
0.00943754747102838 0.206457371778009 0.887305383612405
-0.00514076810277632 0.212411836315208 0.903487493046868
0.00727443425830361 0.212047593339477 0.902497610638939
0.0352777727512333 0.208341475401403 0.892425704814952
0.0476121896564168 0.210640627069742 0.898673978470974
0.0369774868046316 0.216357733675839 0.91381640839392
0.0542425227412011 0.213793319790178 0.9072418720736
0.071204452829578 0.216339977122901 0.913773484077413
0.0957477458321492 0.215518476104069 0.911787604843615
0.0945945327371776 0.218186359245312 0.918236889271676
0.118258666694401 0.214663239381971 0.909606003045518
0.117910664573198 0.217771367483617 0.917233696940985
0.140103441561788 0.215857952698103 0.912608248400955
0.134233801561384 0.221461202162258 0.926153425458027
0.158298965500034 0.223592472569254 0.93130551358188
0.1834896188758 0.221457372550003 0.926144167834144
0.197087723607706 0.219014201229496 0.920238097021355
0.179395809381388 0.227375826720911 0.940451314100246
0.206890505866337 0.22586340299682 0.936795212893405
0.238121327230033 0.222284601450588 0.928143893528465
0.249814241364928 0.232930858618303 0.953542023872372
-0.0376563181469294 0.21984372611994 0.0291475405949072
-0.0376563181469297 0.21917875201269 0.0346448595605427
-0.0308443874229336 0.218904967142706 0.0443575850238755
-0.0266914022993567 0.218702254868611 0.0440934052448886
-0.0131071060635758 0.215104236217491 0.0403254410166111
-0.0356147918123193 0.214573503412858 0.0766855364578417
-0.0356147918123193 0.218262303806923 0.0841942008702617
-0.0356147918123189 0.220904736189959 0.0934290844365015
-0.0356147918123186 0.21759438321886 0.101037214646274
-0.0272651270110457 0.215809291100689 0.103982638466968
-0.0135921776851851 0.215007448615653 0.104039912930185
-0.0115812541059414 0.217112998018927 0.103889516544237
0.00516175900633394 0.220292478422387 0.103662410801134
0.0133374339499254 0.221307604017149 0.103589901830078
0.019949437359655 0.221184663339054 0.103598683307086
-0.230473892975992 0.207252191447771 0.485267625137453
-0.230473892975991 0.20153566490942 0.483155473114272
-0.230473892975991 0.205433667917284 0.491925592207551
-0.230473892975991 0.199846338116157 0.509992237812911
-0.230473892975991 0.203296388221629 0.515369603601971
-0.230473892975991 0.199884444906953 0.530064938951219
-0.230473892975991 0.199888814286296 0.53771917150597
-0.230473892975991 0.205807392932674 0.545924631127963
-0.230473892975992 0.206157672242232 0.555147500509883
-0.230473892975992 0.20477223972331 0.560579636624597
-0.230473892975991 0.200522003655413 0.569759047271141
-0.230473892975991 0.204328360221902 0.582813114888857
-0.230473892975991 0.207240156079018 0.593734344797511
-0.230473892975991 0.206672683590566 0.601657651961987
-0.230473892975992 0.206794939921405 0.609570483239183
-0.230473892975991 0.206013648664799 0.61449537191626
-0.230473892975991 0.2048260194873 0.624657107381206
-0.230473892975991 0.206258665245762 0.636112199877164
-0.230473892975991 0.207965556809602 0.647094773939688
-0.230473892975991 0.201814311442601 0.660058197761855
-0.230473892975992 0.200672129475933 0.664434113385798
-0.230473892975991 0.202398308495641 0.673044926677228
-0.230473892975991 0.20274311335027 0.681145376126545
-0.230473892975992 0.202080210388641 0.685408933851986
-0.230473892975991 0.204093900191831 0.701192796705852
-0.230473892975991 0.203669773394744 0.710841746551042
-0.230473892975991 0.206838063352624 0.719877072861313
-0.230473892975991 0.201526990904071 0.727897009837474
-0.230473892975991 0.207653765572587 0.73829342831728
-0.230473892975991 0.202131974829952 0.753645710580486
-0.230473892975992 0.206879998391742 0.757887812571047
-0.230473892975991 0.199874959398094 0.761236419718545
-0.230473892975992 0.202735004175766 0.777316240930188
-0.230473892975992 0.202262111732518 0.78614871919182
-0.230473892975991 0.20015431510796 0.791669802232838
-0.230473892975992 0.205334496067535 0.805992328490563
-0.230473892975991 0.206624691533638 0.807700848276232
-0.230473892975992 0.198836706887822 0.820371212213697
-0.230473892975992 0.201173120443464 0.830344081700117
-0.230473892975991 0.201383332638386 0.838162604485939
-0.230473892975991 0.199658986018517 0.842080933756655
-0.230473892975991 0.202165387919102 0.858099634919405
-0.230473892975991 0.204308570675151 0.870832743860944
-0.229811060972493 0.203154366000185 0.878328992767268
-0.223971376855771 0.203951718154915 0.880495911344922
-0.228723744445495 0.207627139896183 0.890484395861615
-0.197262684856368 0.203422862830365 0.87905867132386
-0.182945297124694 0.202959400948748 0.877799147341447
-0.196892792801112 0.209810379326791 0.89641766142513
-0.158351376720639 0.203947366442728 0.880484084944346
-0.176360461158973 0.209882712584507 0.896614237403506
-0.164873068478367 0.211159370451862 0.900083737841513
-0.147509989370573 0.213324093376777 0.905966682151188
-0.142921041825567 0.212156815043721 0.902794436249313
-0.1170656773099 0.21111180133034 0.89995446194687
-0.100130898411721 0.20890776699469 0.893964683253255
-0.108948016598602 0.214188879223281 0.908316861435668
-0.0853126188591947 0.213105090807178 0.90537151133011
-0.0691656478443659 0.212827720006408 0.904617716488618
-0.0761891244294481 0.216662716226894 0.914553666779393
-0.0672040827208403 0.219341397394923 0.92102905412963
-0.0386999199444542 0.216392459357422 0.913900353524059
-0.0343400535841463 0.21655642071945 0.914296710261947
-0.0303263159224941 0.219153043145031 0.920573730539173
-0.0185366780750844 0.221322448080337 0.925818004267334
-0.0128230585874151 0.222435360620378 0.928508335565331
0.00260291259752113 0.219816475918105 0.922177498930038
0.0226465378777943 0.218131144988822 0.918103415492753
0.041948059986786 0.219411130243931 0.921197624847842
0.0406498816067991 0.225906362844752 0.93689906312358
0.0467431867300565 0.226990408776855 0.939519612892471
0.0770818647923765 0.222613529747089 0.928939037853857
0.0678270306762178 0.229036720480739 0.944466323639581
0.0880238592970871 0.225603036466297 0.936165808334812
0.108011121155355 0.223309143804285 0.930620600602114
0.119208511865129 0.224845096009826 0.934333579063691
0.118330005222314 0.231813197153371 0.951117077227617
0.131870588715629 0.231968428004055 0.951453875571605
0.148896623531992 0.232940921865616 0.953563857708979
0.181044238206101 0.229124047107127 0.944677425184102
0.162884880920898 0.235553900051084 0.959233134929748
0.196882439466607 0.232020171725359 0.951566141912799
0.212211331062016 0.23525682963542 0.958588592793936
0.214678378943233 0.236684136889168 0.961685365872914
0.228140304293196 0.23827033800712 0.965126884793959
0.240018138152202 0.240588982815481 0.970157558325103
-0.0376563181469297 0.224259601735201 0.0240927898735809
-0.0376563181469294 0.229197806873662 0.0390625076385365
-0.0376563181469294 0.231970014462597 0.0479783190200061
-0.028754353798226 0.227608551731493 0.0531327712365142
-0.0356147918123182 0.229128365297748 0.0630357324779955
-0.0356147918123193 0.227739214400252 0.0791390158026126
-0.0356147918123193 0.230429819719427 0.0901409011603661
-0.0356147918123193 0.223900078811888 0.0982783117793982
-0.0356147918123189 0.231209192313594 0.101817814723171
-0.0226749782229036 0.228439978594609 0.103080446503117
-0.0128463407168641 0.226382154680377 0.103227433925562
-0.00270189935764902 0.233557236004906 0.102714928116668
0.00372142836823787 0.227982806989783 0.103113101617748
0.00831058086942925 0.226761047737205 0.103200370135789
-0.230473892975991 0.207702158735202 0.489729860190402
-0.230473892975991 0.215198132756589 0.506036016020195
-0.230473892975992 0.214528106966081 0.506900753212044
-0.230473892975992 0.212605412728284 0.511589941295178
-0.230473892975992 0.211116969923265 0.525360864299959
-0.230473892975991 0.21025313799775 0.537383127094187
-0.230473892975991 0.215829403246753 0.540057444197343
-0.230473892975991 0.216997117368319 0.553205048630068
-0.230473892975991 0.213655287720465 0.566926467376867
-0.230473892975991 0.210038526415676 0.565948585128753
-0.230473892975991 0.213519244443519 0.583268243829342
-0.230473892975991 0.214741378579181 0.588654221172222
-0.230473892975991 0.214268313175583 0.595378249815712
-0.230473892975991 0.208653294232157 0.608920875537917
-0.230473892975991 0.211739172796093 0.621937344379993
-0.230473892975991 0.210237828970902 0.630701752174798
-0.230473892975991 0.210728449713433 0.632763203848177
-0.230473892975991 0.212750459053989 0.64891876509996
-0.230473892975992 0.212740971642189 0.657610590752026
-0.230473892975991 0.208669300328716 0.665592631374396
-0.230473892975991 0.207974290754391 0.668598749732708
-0.230473892975991 0.213724729212095 0.680752456965532
-0.230473892975991 0.215559917265587 0.690498189576982
-0.230473892975991 0.211513206325179 0.700526016512516
-0.230473892975992 0.216539432195639 0.713909491204776
-0.230473892975991 0.211698097239195 0.714520990774093
-0.230473892975992 0.214981261472983 0.725151406804197
-0.230473892975991 0.213991019346308 0.73640189405126
-0.230473892975991 0.212951479042468 0.747483474453854
-0.230473892975991 0.210079886421622 0.755008712824744
-0.230473892975991 0.211436161629809 0.761538542794074
-0.230473892975991 0.215669032018576 0.774745346540282
-0.230473892975991 0.212354207074676 0.784102765139387
-0.230473892975991 0.212751289887453 0.792559747243974
-0.230473892975991 0.212275174825926 0.796544482348292
-0.230473892975992 0.21444320076575 0.811731655068479
-0.230473892975991 0.21670677164529 0.819373620860467
-0.230473892975992 0.214410746873609 0.825383417639393
-0.230473892975992 0.215600799603025 0.837011046885999
-0.230473892975991 0.210014128981342 0.846543697954027
-0.230473892975991 0.208072108748634 0.853265833848674
-0.230473892975991 0.21099802567375 0.874392093799317
-0.230473892975991 0.210176223451817 0.876728341732363
-0.230473892975992 0.215826044562268 0.893706845418765
-0.22340178366709 0.209169166488657 0.894675073783093
-0.230473892975991 0.21671148088826 0.903154719263908
-0.228018594616843 0.216498603977288 0.914156945289058
-0.210275100287675 0.21416458512739 0.908250838753719
-0.213221877628279 0.216100059645612 0.913193512628746
-0.204871457706137 0.21773681448801 0.917150169258284
-0.179486433989835 0.217073860393764 0.915547558015518
-0.165501917942025 0.214625458896526 0.909503329170118
-0.168701665952415 0.220381894849863 0.923544330728459
-0.147354445201435 0.217112966015135 0.915642091119707
-0.137688880413371 0.219927656613001 0.922446264796584
-0.122120385051037 0.219060166657471 0.920349212877325
-0.119262587119007 0.224619382970105 0.933787945122768
-0.0925753531675541 0.21797964489968 0.917737182373074
-0.100613449137393 0.222822805138098 0.929444935769529
-0.0914301871312164 0.226447085446133 0.938206194533903
-0.0842404117131138 0.225082470948562 0.934907404233294
-0.060378513143822 0.223030728158822 0.929947564493801
-0.0418798487042873 0.223302974739497 0.930605687635029
-0.0273548560941703 0.224677662365559 0.933928828503964
-0.0426438628388199 0.230564095366068 0.948158567468212
-0.0252565479853856 0.231259869959693 0.949840518293845
0.00253332996290727 0.228674771044718 0.943591354708074
0.00991972092408704 0.228521318327248 0.943220401345867
0.016138509584252 0.231615145746244 0.950687372786452
0.0258291379784377 0.230869436191088 0.948896691937612
0.0418630949918266 0.233460606611433 0.954691397505457
0.0464995856833498 0.235014372062065 0.958062542019664
0.0708491550137091 0.23191600545122 0.951340136396018
0.0650465155360883 0.236421269503784 0.96111503272267
0.0959399903984651 0.235792603565841 0.959751040668975
0.101646346691555 0.237444656576389 0.96333543588218
0.10845401085138 0.237453428741858 0.963354468508686
0.117010008224294 0.242476150340556 0.974252072363219
0.154945394966399 0.239235292730513 0.967220509556242
0.137840945177246 0.243280024505309 0.975996206897499
0.16746868587653 0.244682244718766 0.979038549600115
0.173858795611296 0.246569366173575 0.983132963681363
0.204560301389426 0.240527527696981 0.970024221542827
0.192699382929574 0.248023038934075 0.986286940975696
0.22169738093017 0.245141844969223 0.980035726402075
0.222505932576573 0.251460509811402 0.991808425482732
0.250029966350531 0.249070620479384 0.988559837942363
-0.0376563181469297 0.239932898774806 0.0219066958030871
-0.0376563181469294 0.233684076540061 0.0349269846827516
-0.037656318146929 0.234689837573517 0.0443024323824318
-0.037339042776134 0.236870985536656 0.0570950208484854
-0.0356147918123182 0.235519132127946 0.0731850830672355
-0.0356147918123189 0.238887081448824 0.0746210511186416
-0.0356147918123186 0.239749822661511 0.07784788393461
-0.0356147918123193 0.240511617451219 0.098002528384437
-0.0293716669134127 0.233365852645585 0.102728598356619
-0.0233007916886483 0.238404425656676 0.102368700284399
-0.00629279512633948 0.241930674467648 0.102116825369329
-0.00259114898728485 0.241116362137476 0.10217499053577
0.0159941596538967 0.23996932692329 0.102256921622498
0.0170520954193912 0.23873507397256 0.102345082547549
0.0210770641961467 0.245062507867123 0.101893122983653
-0.230473892975991 0.216998252569154 0.552766749106278
-0.230473892975991 0.219263663161805 0.583457795498855
-0.230473892975991 0.218841138554575 0.635588588622122
-0.230473892975991 0.22400959597404 0.64625026813993
-0.230473892975992 0.223460873222441 0.654418123744237
-0.230473892975991 0.220015311903769 0.664095272783515
-0.230473892975991 0.22208653100618 0.666755151698009
-0.230473892975991 0.220596069488612 0.67854802135505
-0.230473892975991 0.222994743298365 0.694784322309634
-0.230473892975992 0.223900251656453 0.705065043976986
-0.230473892975991 0.21926350408625 0.711140502189551
-0.230473892975991 0.22185728963453 0.722033256718768
-0.230473892975991 0.219023260444235 0.72977700245067
-0.230473892975992 0.218438753624307 0.731096000695
-0.230473892975991 0.218904450532122 0.744481663021165
-0.230473892975991 0.21908847413091 0.758750262433863
-0.230473892975991 0.218949222053298 0.767570856171498
-0.230473892975991 0.225021507706584 0.775837648186209
-0.230473892975991 0.2225222330123 0.781548448504414
-0.230473892975991 0.217930693297909 0.790423796405121
-0.230473892975992 0.225705704742615 0.80576777856104
-0.230473892975991 0.225065100090393 0.809619451835161
-0.230473892975991 0.22540368781182 0.825694324053223
-0.230473892975991 0.220918682593115 0.825349110884375
-0.230473892975991 0.221458011002212 0.840736304241846
-0.230473892975991 0.216993689318307 0.849208210234719
-0.230473892975991 0.221925158033411 0.85781931915665
-0.230473892975991 0.220296716045165 0.868033409857048
-0.230473892975991 0.222590266306108 0.876171259560048
-0.230473892975991 0.221098256057521 0.887127643517504
-0.230473892975991 0.221782604866033 0.891095151727955
-0.230473892975991 0.225362565913073 0.909250909191669
-0.230473892975991 0.225170205847692 0.915854048425903
-0.230473892975991 0.22473578382179 0.922366929962956
-0.230145581813044 0.223069548052883 0.93004140688682
-0.220355323343628 0.224366973944183 0.933177776867937
-0.202810870061375 0.222306041678504 0.928195722683158
-0.190236282293704 0.224018315806229 0.932334938040005
-0.191315928063154 0.226539904388906 0.938430573088194
-0.16936863243523 0.225612254288654 0.936188091304132
-0.150940764931706 0.224705234595667 0.933995481031407
-0.151379348984084 0.227640248317526 0.941090521290068
-0.138996429693645 0.227262471500087 0.940177291580595
-0.130495500611867 0.229902424078642 0.946559057255593
-0.116432914857331 0.226631598962319 0.938652233615715
-0.0958081912183466 0.228001062671413 0.941962746297969
-0.113479474756344 0.234985440655859 0.957999770671983
-0.0824798799357762 0.230106023903455 0.947051235177265
-0.0827454604383628 0.231722770950612 0.950920883009727
-0.0772529584248689 0.237417520564225 0.963276559931179
-0.0455338075669538 0.231605711451338 0.95066690356344
-0.0403375923415868 0.236324464858552 0.960904999446031
-0.0352391937364891 0.239362269749249 0.967496006659085
-0.00211091619094874 0.235156201813938 0.958370264520369
-0.0157869159700071 0.242833671209688 0.975027771498631
0.00199848406671786 0.236894470390062 0.962141718295609
0.0116045168380496 0.238860629881927 0.9664076181342
0.0246137578659032 0.240969515676827 0.970983185685708
0.0467760214669859 0.241697054606302 0.972561698626625
0.0582980789429104 0.242183873875716 0.973617931476203
0.0702716663768919 0.241560067776296 0.972264483625285
0.0617939874019974 0.24921355932798 0.988869966807127
0.0878627978553398 0.244648392027415 0.97896510073131
0.0896814985360001 0.251255056432193 0.993299323735381
0.114293739044441 0.247992149668075 0.986219921735707
0.12787352995598 0.248948641818697 0.988295185582732
0.129549219018328 0.254345917505977 0.997012726047543
0.152984129521952 0.254801216003857 0.995445593788009
0.165008947144984 0.25086569932335 0.99245455074792
0.183692594841213 0.253943883339296 0.993813102375452
0.210130305127543 0.252909929619546 0.992264269935355
0.216666422063479 0.256964939602428 0.989818638088792
-0.0376563181469294 0.251837466070876 0.0324099351635197
-0.0376563181469294 0.246280936231167 0.0394084511967281
-0.0376563181469294 0.244913797766401 0.0503102078143199
-0.0343005657180864 0.241823885065911 0.0577470824418117
-0.0356147918123186 0.248319603488239 0.0662371594206851
-0.0356147918123189 0.248995368375691 0.075326128882871
-0.0356147918123189 0.246161164532053 0.0872123938537024
-0.0343266701132359 0.247514670092427 0.101717968538988
-0.0356147918123189 0.245817163398809 0.0985917490777989
-0.0298861877404238 0.251614099758268 0.101425152134285
-0.00763495665220951 0.246354062222763 0.101800869101107
-0.00113948347414169 0.247730744113083 0.10170253468037
0.00687772400021588 0.245436710860919 0.101866394198381
-0.230473892975991 0.226583895216646 0.663300941548107
-0.230473892975991 0.229450698851533 0.669483064642967
-0.230473892975991 0.232196813770304 0.690471946176931
-0.230473892975991 0.226922727047352 0.696011669527996
-0.230473892975991 0.233098111947913 0.699370554123708
-0.230473892975991 0.229734219215326 0.703910795450525
-0.230473892975991 0.229688861872301 0.724663588339327
-0.230473892975991 0.231979350515654 0.728345275466887
-0.230473892975991 0.232926974437299 0.742177006396548
-0.230473892975992 0.233026166540576 0.748795141863959
-0.230473892975991 0.229329764036257 0.757255526399587
-0.230473892975991 0.228021172367262 0.763090417139564
-0.230473892975992 0.231211855476522 0.777329712114108
-0.230473892975992 0.232279874179209 0.781218047160358
-0.230473892975991 0.226731901244819 0.792299601428525
-0.230473892975992 0.228479042219703 0.798580159638783
-0.230473892975991 0.230014818878113 0.808496475522595
-0.230473892975991 0.233323793728093 0.826150434735099
-0.230473892975992 0.227004658793895 0.833507391875671
-0.230473892975992 0.231997055960635 0.840963265824201
-0.230473892975991 0.231228143384614 0.847151913635277
-0.230473892975991 0.229008203636523 0.861107936934058
-0.230473892975991 0.226168558963413 0.870608151430065
-0.230473892975991 0.228765761973785 0.882599393684135
-0.230473892975991 0.232538171581554 0.890375943167792
-0.230473892975991 0.231855025951119 0.897968213988653
-0.230473892975991 0.227033781220537 0.907444243526865
-0.230473892975991 0.227312889130442 0.91686560812903
-0.230473892975991 0.228493687643886 0.919021620314486
-0.230473892975991 0.23373715502948 0.931356892591747
-0.230473892975991 0.232406997536542 0.939650200810538
-0.230473892975992 0.235532333001094 0.948181777963521
-0.216103801696738 0.232969683701012 0.953626261145469
-0.217792432174343 0.236098529282839 0.960414795807949
-0.193667614394328 0.230284211577727 0.947481982302277
-0.192206770942561 0.235422504318969 0.958948050716216
-0.169029552930586 0.235446150402622 0.95899935470496
-0.153749636231826 0.232463145066152 0.952527243955036
-0.164033430402652 0.238811848250071 0.966301778523364
-0.163133491461671 0.241421976453979 0.971964872249901
-0.134627227235644 0.236704968723681 0.96173056389467
-0.136646103353167 0.241546369939545 0.972234763961227
-0.116321296578872 0.239606539490573 0.968025989223775
-0.09015557834619 0.240998633057815 0.971046360535649
-0.0851281507320643 0.242900396081643 0.975172541860182
-0.0762525356649672 0.244550207188357 0.978752072901767
-0.0738944131716943 0.242107853249876 0.973452992478711
-0.0548172020465853 0.245629772915881 0.981094364705583
-0.0493204754274398 0.244825368081595 0.97934907879824
-0.0475087948325169 0.249334753889965 0.989132917938278
-0.0318996103579244 0.250922242282916 0.992577229809861
-0.0130763811087043 0.246583325778 0.983163251292573
0.00105865608532395 0.248805009002964 0.987983551044442
0.0211681077454351 0.249087411260647 0.98859626824793
0.0333077555531021 0.251615829070386 0.994082078107752
0.0464261431623065 0.250201395460025 0.991013236472524
0.0516320044586968 0.25927538937098 0.997374500334474
0.0580603666639859 0.260117206434625 0.996822582282247
0.0828886759934065 0.252280734051476 0.995524696605003
0.095389545659364 0.253627443701546 0.998446600195548
0.115193885110185 0.258505514440109 0.995705857726935
0.139187893645727 0.26598544285212 0.991112296528918
0.156446765510518 0.260567311570342 0.992581801085034
0.168598399163917 0.262046420722737 0.991176479915244
0.190721163065356 0.267068608139744 0.987225441449413
0.215429626047976 0.270120738922907 0.983871009314219
0.233544923498851 0.26494149054367 0.98456057328019
0.251818524969402 0.268510014837345 0.981203441543518
-0.0376563181469294 0.251552727560013 0.0333793787251071
