ply
format ascii 1.0
element vertex 864
property float x
property float y
property float z
end_header
0.0488515179746181 0.296430393950587 0.888586424610595
0.0407237326253949 0.297151594691137 0.886304666045742
0.0461637347161587 0.19901397656646 0.823324807929956
0.051063281489609 0.200762542358682 0.834809735629701
0.0461410281971467 0.211194987231066 0.85540441991886
0.0436779998418295 0.215878791883013 0.87011051681437
0.0424589364577562 0.220381473210326 0.885436290914738
0.0466772504226636 0.220448478276498 0.884520791374886
0.0463914930717203 0.220391158254412 0.899512571219429
0.0490538592472197 0.300405771891178 0.973947068584776
0.0484479912549296 0.299719328994174 0.979613218794702
0.0465967724317945 0.298942937076106 0.984088167848758
0.0490747910073633 0.296239212211828 0.987681619236802
0.0456970121193529 0.291852475015722 0.993511919159178
0.0480786273450775 0.284154465596629 0.997555502980965
0.0422780136066072 0.273223247255536 0.999374390631016
0.0558414778362635 -0.328069867038891 0.573154632177265
0.0529176339090693 -0.340294603324274 0.573343502814084
0.0543003217563376 -0.363187191738623 0.569016211260231
0.0571787429759702 -0.376505225446337 0.566649167353244
0.0619632320595942 0.00860703796230964 0.0935323845571195
0.0564218066060584 0.00872128941537528 0.0994674455317122
0.0643031837938815 0.00902439948250205 0.111124429493937
0.0643860407145403 0.00907379829248646 0.114757138906012
0.061094224163944 0.00868678802204714 0.134200044284695
0.0639290318438706 0.00858341016024304 0.139585347618232
0.0587426975744242 0.00488338146987745 0.143105960622343
0.0571886320861959 0.000182533994811809 0.144320655663283
0.0642826108352776 0.0189653987128228 0.388744874304646
0.0591037381421046 0.0176228620752715 0.389733641017729
0.0604742928215208 0.172298451730372 0.541378297588871
0.0542755909926687 0.184368417172428 0.559617511867313
0.060946233003715 0.186679264372521 0.566941732831415
0.0521719367300794 0.19163751604771 0.582656891697499
0.0533397668549912 0.193373578106083 0.597365085383758
0.0569050918330229 0.192521130315617 0.60694390037239
0.0532586049205422 0.194784560750214 0.62260654802775
0.0602136354629295 0.194859890265311 0.622133257889239
0.0519497223164368 0.193345418343654 0.631648580331441
0.0580531468202994 0.192718288542856 0.635588793538687
0.0536527416396678 0.189531903040766 0.653581308697984
0.0580168389316763 0.18817310640902 0.655846307623852
0.0601905136422531 0.184685373305705 0.661660219906552
0.0570416499659162 0.183257063901342 0.66796220877254
0.0558729570274219 0.18594875256626 0.680645800471303
0.059032736858581 0.183984469947187 0.695243636518599
0.0609412016698391 0.183121965780852 0.701653454682243
0.0582788955062223 0.182551775769916 0.70589090005524
0.0519042861711676 0.18087515493624 0.714231860606992
0.0579502916746238 0.177873202518289 0.719537162235695
0.0577477787827646 0.175402630002144 0.724711658839296
0.0606890914883982 0.180213049634081 0.743442072580212
0.0607566282144122 0.180289841855333 0.757591895310154
0.0541292130893648 0.180347308959356 0.768180849783178
0.0543721405261736 0.17994298260541 0.773802670660521
0.0581998643969466 0.177478336157064 0.78004831591885
0.0540912506521733 0.297317181226263 0.885780777933173
0.0543996283840687 0.29546889839817 0.891628435785072
0.0604497678518443 0.200411357239107 0.827744554680789
0.0556813137707831 0.201041735586051 0.83903587243273
0.0593333380501141 0.208758616090841 0.850439627694276
0.0563363576120933 0.216417556387398 0.871802116612848
0.0523284242776513 0.21717772673509 0.874188881138905
0.0587300357022364 0.220241598354365 0.887347420529009
0.0536600621368505 0.220010643336447 0.898416880661949
0.0533702668442233 0.299092197654211 0.966015220744424
0.0578821108962283 0.300152326967274 0.976039095489055
0.0577229243654609 0.296998957173277 0.986671861689964
0.0516980862476535 0.294401781701227 0.990123701012943
0.0573509846019652 0.286411885508622 0.996594502354252
0.0502489726443043 0.281911005445315 0.998510560832615
0.0706338958183852 -0.319502577933403 0.573022268638993
0.0696101039383088 -0.329759170899209 0.573180731709265
0.0679580725129805 -0.337662136884315 0.573302831538948
0.0727594256329514 -0.360801318047608 0.568979389276267
0.0660028461447796 0.00878210003758261 0.100357663719004
0.0651069483122171 0.00875775193395604 0.0994688690631019
0.066512664550708 0.00906391961285715 0.112430301964902
0.0738279313595873 0.00876458014366951 0.130915050672389
0.0696702968652754 0.00874556510861756 0.131664065118233
0.0723966457669527 -0.00306000742255095 0.141832828227587
0.0663294945130645 0.0171884148793408 0.390382672733029
0.0672943452531923 0.172000514209214 0.540982759051316
0.063897818806668 0.186344114296449 0.565879476004919
0.0672159177810276 0.186063326502101 0.564989520213058
0.0625298449410372 0.191422843689011 0.581976488514659
0.0610937536933389 0.193413537370363 0.596838711866076
0.0652336778668215 0.192931103638055 0.608898050741238
0.0701999248354486 0.194805848764809 0.617143577043147
0.062928142336088 0.194891471266754 0.621934836639249
0.0617691646482615 0.19317365127895 0.632727780930834
0.0610935424314327 0.190945573613408 0.646726638955679
0.0649945794761599 0.190654502312693 0.648555419826671
0.0633889098871969 0.188354200111264 0.655544336529065
0.0638070414213854 0.183979179416083 0.662837361942499
0.0659007849840926 0.184848343070138 0.674255799137566
0.0643645048791355 0.185164991240286 0.686470430402706
0.0655208058897373 0.184031355203741 0.694895202295561
0.0657211124779303 0.183477246987903 0.699013133599701
0.0699952018462499 0.183102035643786 0.701801568232949
0.0630562833534859 0.179757854006217 0.716206448348077
0.0691742352726283 0.176912061132237 0.7212357717574
0.0693405506106355 0.176158831609082 0.728890886750935
0.0704649303222461 0.18023182786268 0.746902170510952
0.0690352563920797 0.180267686611518 0.753509544683841
0.0670495079342575 0.180352408477124 0.769120492773799
0.0630132599806901 0.179419893670349 0.775128227082271
0.0628160486281273 0.178851564776272 0.776568425803206
0.0589606623494603 0.296765125594113 0.887527389654583
0.0674489670807184 0.296183970259542 0.889366067969247
0.0637637690729335 0.198713973609933 0.822672357886378
0.0607035831084578 0.205044155939995 0.845932989760901
0.0658071897198905 0.205504419839393 0.846491413505982
0.06190964630555 0.215482251221014 0.868865468006465
0.0616934499166545 0.220009677703833 0.883080572497627
0.0687977897159674 0.220263069826158 0.887054052823122
0.0669588449285351 0.219797951174804 0.89340903365686
0.0586397582093094 0.299682618762676 0.967395480835924
0.0636042369667213 0.300797627917701 0.970712545922172
0.0613651618037484 0.299131201923131 0.983837949868076
0.0676175488610016 0.294719706713475 0.989701155031415
0.0650440348310673 0.293242508924949 0.991664460733754
0.0666708786305043 0.285277192843885 0.997077549551694
0.0622289278255745 0.26843076483123 0.99879658944119
0.0766327962151176 -0.325111535741979 0.573108926331107
0.0827967880538531 -0.34701809934657 0.573447379981308
0.0789657465434337 -0.343879185883589 0.573398884163416
0.0759834199284769 -0.373642548665746 0.567193196323254
0.0806425624696584 0.00856214157774076 0.0887095678135362
0.0810085299931345 0.0086957721367018 0.0939143709808894
0.0784264626449679 0.00904450461660817 0.116966475271431
0.0813740960920248 0.00899229261004639 0.119764629016317
0.0814579251632718 0.00880310254845602 0.129356695953655
0.0791452152743759 0.00864865988110782 0.137064126273231
0.0802172664351861 -0.00519826573224313 0.140412340867214
0.0778337487193182 0.0185945216282039 0.389984248689076
0.0801002599819433 0.0149543689522183 0.392495323136837
0.0715967318719035 0.171692083200813 0.540573289476869
0.0712740756762422 0.178008670259527 0.550603447346481
0.0718054271542893 0.189127613826565 0.574701766639809
0.0786444989082381 0.192483959873286 0.585339692019375
0.0755738791345877 0.193542570563005 0.59513898949296
0.0724138648095549 0.193650850604369 0.612063650404234
0.070186869998906 0.193718850936747 0.612362730274435
0.071034347773999 0.194855149732614 0.622163042328629
0.078981388892293 0.193069361986081 0.633383023352118
0.0790814543784799 0.191757866176557 0.641623060906304
0.072054015095986 0.191150705272796 0.645437810913201
0.0708032003051189 0.187780817179991 0.656500020700553
0.0750086416007943 0.18321336198342 0.667789365455693
0.0717610039695622 0.183081833825046 0.666770533473516
0.0731150316225978 0.184805757565444 0.689140124792453
0.0759396136099853 0.184466570795776 0.691660837853261
0.0785571267391182 0.184339405849984 0.69260588161204
0.072880977166771 0.182216088458981 0.708385606407882
0.0766772121727483 0.177833807770284 0.719606783932396
0.0749383236149562 0.177649315600564 0.719932833939932
0.0746417251807876 0.177224511389293 0.731507506517145
0.0788086084162749 0.1794071120492 0.736866561023489
0.0707168822033927 0.180249359762818 0.750132618530759
0.0709075900086872 0.180341387213015 0.767089702013308
0.077907000802982 0.180335397033542 0.765985944675826
0.0763676238707768 0.297994182318801 0.879347518945531
0.0750329157272568 0.298544820087588 0.880917395296207
0.0708700027417408 0.29607162685973 0.88972150370345
0.0755225494491725 0.19924356169809 0.823824112439721
0.070454288768698 0.200842033206242 0.836408941263689
0.0698175825613185 0.210589391541594 0.853502985177092
0.0723395179011828 0.213504193964518 0.862654811533677
0.0761142158093205 0.217731741047146 0.875928361915757
0.0781107175909682 0.219422597101706 0.881237270980611
0.0739247908206868 0.219649824997938 0.895432902216464
0.0741896137160871 0.297465409268533 0.962212187529868
0.0757059553910849 0.300346427212091 0.974436921225598
0.0705538771238666 0.296912872518009 0.986786274597894
0.0761135957966547 0.29732731307097 0.986235452286062
0.0766216944513313 0.290580077361471 0.994820071748069
0.0748893512764712 0.281944123757764 0.998496462118039
0.0732228422286058 0.27853053611758 0.999949652038144
0.0882078515458419 -0.31667409845708 0.572978568987119
0.0870638140619697 -0.338125121024331 0.573309984585633
0.0856232621070774 -0.36789817624169 0.568284868647005
0.088862657729202 0.00853112269153844 0.0876957036116893
0.0940644031432178 0.00897006298782063 0.103390473107338
0.0926601397991199 0.0091515688192105 0.112275468144933
0.0877753793644252 0.00907046021479366 0.116133713389606
0.0881152734396901 0.00899665190451003 0.119891703565311
0.0926826543873513 0.00672541329476622 0.138570013291033
0.0899688018841661 0.00012396227263707 0.140340558733704
0.0863802153740142 0.021238789641407 0.387958410265939
0.0912852837341123 0.0122049528394511 0.394239584253505
0.0842096800542701 0.184106582765038 0.558787628759659
0.0799501118918428 0.185488593214913 0.563167905356562
0.0825716252690858 0.192059779424612 0.583995253782779
0.0845491121767305 0.192981998270906 0.586918222729945
0.0860506233260383 0.193423804977128 0.596703459218436
0.0821951283977045 0.193207182378129 0.599556975205306
0.084228603444022 0.195212774740478 0.619916109114119
0.0832423213298231 0.194711047509225 0.623068426641527
0.0851732483388596 0.193610437146291 0.629983485505796
0.0817549751949271 0.191486660386928 0.643327028143732
0.0886615561249459 0.190317926921031 0.650670099756993
0.086872303247408 0.189317676671063 0.653937841871014
0.0859044909380224 0.183953283210257 0.662880147032036
0.0836215682870559 0.185352358023236 0.676249204012618
0.0880463639236524 0.185711705835718 0.682407445804009
0.0836042763736369 0.18362104325986 0.697944491856469
0.0829847477712305 0.182902225409978 0.70328648542631
0.0860540081386624 0.181664549753172 0.712484442045364
0.0797775267979415 0.177907613973449 0.719476347431298
0.0811327707329994 0.175639255783935 0.723485179924893
0.0801044935535949 0.179296798583057 0.736595702552351
0.0884194637986877 0.180222169815199 0.74512256760933
0.0872789669357517 0.180267059508262 0.753393993918879
0.0824275277268147 0.180331023824066 0.765180132083842
0.0864370291798698 0.180182913826872 0.773194662442281
0.0809743210869751 0.179025945637511 0.776126528345715
0.0781174447830093 0.298579190266857 0.88101538518114
0.0783138164492795 0.294614226790108 0.894332473859612
0.0805786661334083 0.199289785328198 0.823924640147272
0.0830395021614511 0.200883026734119 0.837233653576505
0.087840588481733 0.21106848049707 0.85500721712619
0.0824729898277572 0.210944381682355 0.854617574660414
0.0811433328685403 0.218792135755397 0.879257763649142
0.0813073567496042 0.220386868052887 0.884264865659586
0.0765797246045734 0.296005110523872 0.958798366360495
0.0811038423786381 0.297089949014143 0.961334453320084
0.0830477739364394 0.299878346647082 0.978300629049305
0.0767265286520739 0.299285669331481 0.983192803927755
0.0834725706266675 0.291369500710902 0.994153827923259
0.0776714593188329 0.288414594847147 0.995741933933454
0.0814593944052156 0.285342982932708 0.997049542216304
0.0817666934890976 0.274348037535007 0.999509999925791
0.0970381543591941 -0.326087083726953 0.573123998424678
0.1010002447119 -0.342770390566085 0.57338175341533
0.104160567384679 -0.372172956558066 0.567472480623213
0.0973687053580556 -0.373487713260484 0.567222621561415
0.102328201321255 0.00868072785679103 0.0894048941918913
0.0995112733647197 0.0087794010175617 0.0941742171404103
0.0949537066536002 0.009135315493136 0.113217550101215
0.10440889351799 0.00905723681304576 0.117662504328516
0.0981330267219547 0.0087630990571577 0.132244790227
0.10000234584004 0.00291294852794413 0.138510034119272
0.100882544533904 0.00373952402041184 0.138222517942099
0.098721695687227 0.0141291835219906 0.393900547790731
0.0944976077084482 0.169995597274833 0.538321053640516
0.0961985496178114 0.176357033883407 0.548588385070777
0.0976651197141848 0.190545621426004 0.579196136058371
0.0899686177466743 0.193248715520275 0.587763581985733
0.0960383079134257 0.193375035540644 0.597345886958301
0.0939451376533434 0.193343898253697 0.610713608926715
0.0890363457990706 0.193456251280279 0.611207761343789
0.0955751191439978 0.19480579731507 0.622473120158087
0.0970630569072098 0.193704182948443 0.629394487108189
0.0896679749707648 0.191945623392923 0.640443395288854
0.0904680751306868 0.190638090984021 0.648658531070786
0.0949292145283414 0.187645307413578 0.656725493245692
0.0957892166991992 0.18346701088625 0.663904656009935
0.0902167895994816 0.18305430578294 0.666975470249682
0.092997763382683 0.185195376385868 0.675628333621176
0.0979285962688407 0.184260482645035 0.693192410248494
0.0983077220458113 0.183892428773817 0.695927653138924
0.0921789353675181 0.182680395794388 0.704935042679412
0.0915867396804028 0.180494181818785 0.714905148194243
0.0971071372365629 0.176892860201319 0.721269705249968
0.0912736142604648 0.178717963366417 0.735174457918304
0.097994991306427 0.179048401828858 0.735985800901811
0.0913266928570024 0.180261544947329 0.752377874598925
0.0976269823969099 0.180320719305645 0.763281409705557
0.0939927108904814 0.180353290658396 0.769283044506264
0.0955584983102628 0.177648730603907 0.779616520409323
0.0855935823505433 0.297021785697003 0.88671536000029
0.0873568957101487 0.297091269700596 0.88649552423002
0.0887868989956579 0.294524505063037 0.894616338403404
0.0974817399374323 0.205198788306243 0.846120600358178
0.0920729057522787 0.201754088652726 0.841237405089119
0.0962086029127724 0.215477978590935 0.868852052905578
0.0974065354225361 0.217180597492868 0.874197894674949
0.0924387656604827 0.220122997734401 0.888967877297514
0.0957299105381886 0.219738083245349 0.894227017504943
0.0889480568041826 0.298451422326468 0.964517244808569
0.087854398068807 0.30048836083214 0.973265349322752
0.0910575100702699 0.29985583557611 0.978486443645206
0.0856386100913743 0.296389481086019 0.987481900729318
0.0879895898333977 0.290046932020163 0.995047035727789
0.09170848987495 0.27435008652596 0.999510246960482
0.112156511486294 -0.317545160887704 0.572992026792027
0.110878672149893 -0.319233927073083 0.573018118017017
0.106388174255572 -0.346136778472547 0.57343376368474
0.111557276878432 -0.363336631811415 0.569018517618688
0.111779806080629 0.00872707897265917 0.0896943924915241
0.113835275242747 0.00882384894801784 0.093499380576985
0.107262134836332 0.0091072735633366 0.10692372209995
0.105105804852743 0.00912902688652844 0.114060316116256
0.105356574277888 0.00886637342381789 0.127383965742297
0.105529489232937 0.00617187704730193 0.137125914530832
0.114552736395679 -0.00706435096509926 0.135871668144679
0.10447918436211 0.0190896193790612 0.39088710995986
0.104989432246645 0.011172287116128 0.395078991907883
0.102801417902605 0.175668968796585 0.547688640014771
0.107464118510255 0.189153027537161 0.574782315293964
0.106180312129631 0.193616787084945 0.59416135358228
0.106549382310938 0.193463863595092 0.596175776939214
0.101965585568527 0.193007992308811 0.602180856784827
0.101017908436754 0.195083798562212 0.620726457530629
0.101803843470929 0.194289379482375 0.625717737719311
0.100666165583178 0.192557920802939 0.636596372968064
0.106682595531712 0.19157949086043 0.642743780692791
0.103633858682951 0.189723936667616 0.653260327615734
0.105357757436623 0.189734626838389 0.653242477521297
0.101205064594255 0.183697452658153 0.669703968792455
0.0988229313223317 0.184058625898714 0.67113242740077
0.101177575587925 0.185520918087605 0.683825311155839
0.106727024215106 0.183988259855719 0.695215471292858
0.100100387749988 0.183126786701092 0.701617627351408
0.0995625003654867 0.182152634345847 0.708857174364075
0.104827319096284 0.179784638360626 0.716159112794648
0.103078829828924 0.177229440433617 0.720674872485825
0.108124561025013 0.177771340401338 0.732850164629109
0.0991337500991727 0.180196431679071 0.740380029137657
0.0994440638769022 0.180223936096882 0.74544802469727
0.10062859066044 0.180293437706595 0.758254470986257
0.0990836602900693 0.180367489484964 0.771899336568728
0.106162638392352 0.176912716422444 0.781481649375632
0.0985035405025126 0.298391872071638 0.882380635777007
0.101148120923756 0.295249646917653 0.892322110812562
0.0977868837642864 0.294782196587274 0.89380104550441
0.104954924518616 0.204082066236085 0.844765716515564
0.103853553611099 0.201978390678754 0.841930612233577
0.0999843157819736 0.215691463195745 0.869522346719545
0.103951840325288 0.218370309134306 0.877933322596653
0.102325045753321 0.220002356673192 0.890616212898576
0.105944152259405 0.219993168227323 0.890741755912651
0.0951792890255142 0.299687277135465 0.967406370971726
0.0978831390435634 0.300514829129099 0.973046870339243
0.097076289875285 0.297859257579485 0.985528458479946
0.10055712389473 0.294932075461259 0.989418901174307
0.0958730004844418 0.292216718077945 0.993027813045118
0.100801099419937 0.280837906746142 0.998967387015883
0.10303354865564 0.268171400441285 0.998765319414544
0.126773864117958 -0.31718220891301 0.572986419229704
0.121576415217152 -0.334914437500301 0.573260379929333
0.122137624949842 -0.364952606696764 0.568844650728057
0.115184959229523 0.00859462507497947 0.0870903170471594
0.116255631400889 0.00881467114532631 0.0926649912592445
0.118639375688618 0.00912824648292629 0.11479849731583
0.114711004473347 0.00915764268418431 0.113105971004733
0.120778450499309 0.00880787435133493 0.131144681523313
0.12284823818257 -0.000180920759503186 0.13630680167861
0.116029331324731 -0.000770321454787734 0.137009991053145
0.122587755018937 0.0203400189045266 0.390896527638197
0.122191067304472 0.0153746618249921 0.394160715118189
0.111470633701773 0.171979790954488 0.540955247088955
0.116436402174825 0.184670603336468 0.560575289706385
0.108050889998643 0.186440796264206 0.566185909115283
0.108821036842153 0.19390643792857 0.590345854568274
0.115024187523482 0.193817422967873 0.591518426657218
0.112583841756014 0.193118497777522 0.60072519554238
0.109650272345681 0.194689769758118 0.616633036976067
0.111068918948313 0.194493974700077 0.624432280102882
0.1151886830534 0.192587622408226 0.636409759834257
0.114723012781853 0.191979073148341 0.640233232786754
0.114858021926316 0.190713246825121 0.648186332113999
0.114635358794744 0.185986661754117 0.659490065801049
0.114429738721509 0.183092443507204 0.666691836032525
0.11447645538775 0.185536645649465 0.676978070984281
0.108183160531577 0.185433573842713 0.68447442190713
0.109471496520884 0.184500267867367 0.691410413437966
0.107886185790215 0.182442107281096 0.706705916491165
0.108067010600398 0.182833390443704 0.703798041931588
0.11404966865171 0.181635173623665 0.712702754786143
0.113533500772277 0.176400657707181 0.722139566703532
0.116917477052951 0.176759539681322 0.730365836960872
0.114596775506392 0.179388345831368 0.736820483339153
0.10845938198497 0.180222738115719 0.74522728331454
0.115452335153052 0.180307326524593 0.760813640514137
0.114096153187497 0.180213832054907 0.773116312752631
0.110062645523605 0.179000191794789 0.776191790998614
0.107079080496855 0.296766553058654 0.887522873395435
0.109561177685317 0.296439709713246 0.888556951095054
0.112675124618036 0.199536894807398 0.824462056819224
0.107546068232537 0.201154867182542 0.83938550650577
0.107768855905657 0.210932533880715 0.854580375218535
0.11023175046605 0.211712330916733 0.857028763147298
0.106463917606409 0.219798378649699 0.882417140822968
0.113117992097623 0.220268136058704 0.886984832183102
0.115050455756136 0.219839743921009 0.892838013551888
0.112430464652458 0.300537412937556 0.969393780471757
0.104466905780842 0.300694633629332 0.969761323981476
0.112160781555135 0.299342288154203 0.982725451500262
0.106600717152624 0.293645275928965 0.991129153436492
0.109854461559739 0.28604859524059 0.996749157752392
0.110228313721486 0.285486528345204 0.996988433855101
0.10835379792725 0.268412725484189 0.998794414544078
0.131804654817846 -0.322859091114159 0.573074126345134
0.128793104909464 -0.340541517950402 0.573347317613977
0.135728634171067 -0.363965515644602 0.569028223392514
0.131185654139532 -0.369444402801647 0.567991020578471
0.1251807314312 0.00901816144473653 0.0998328428265341
0.127636374877278 0.00921646938567348 0.11079199756863
0.133441561336685 0.00912959928365065 0.115494061001304
0.125069400966302 0.00896007767484287 0.123652857298606
0.126264252030951 0.00326979176689024 0.135233296453932
0.13104668469764 0.0210057869755575 0.39084693129859
0.129347941038292 0.0160891744626677 0.394018781643678
0.122635587618673 0.174727113031132 0.545581011587764
0.117149970117529 0.1864336226668 0.566163172426977
0.121183107902013 0.189589341863923 0.576165211808661
0.122813582832374 0.189730460212426 0.576612485850182
0.122819496115855 0.193413403033434 0.59684048145325
0.118195974600343 0.193042602226693 0.601724948885866
0.124681623334554 0.194395434006255 0.615338485973403
0.121196683194979 0.194293545139983 0.625691565180384
0.116965796415537 0.193221487110068 0.632427231709106
0.120180103115198 0.191513550803061 0.643158077517148
0.117380607314431 0.191645044795147 0.642331909850369
0.122507547314512 0.188704781391765 0.654958902674466
0.122067978698423 0.184504022607854 0.661961453404984
0.12206571144961 0.183070008259729 0.667222394158696
0.119883345638024 0.185862285641271 0.678265993779406
0.120365221943224 0.184603764429206 0.690641264525013
0.117806365830797 0.183522018124449 0.698680410749837
0.125646463095265 0.18191738913977 0.710605431420305
0.11966646736829 0.179566946782476 0.716543835576129
0.123513845040488 0.176705713472636 0.721600446616339
0.121447052370867 0.175425959376087 0.726575950280601
0.117921702956085 0.180232833006261 0.747087379419652
0.123324689456462 0.180277789054424 0.755371032396236
0.124035293693661 0.180345761555955 0.767895723458502
0.126575658622078 0.179472412054467 0.774995140571238
0.119205523030373 0.178360481313496 0.777812877356403
0.118533403029595 0.297243207053813 0.877316888981747
0.116966339081608 0.295163333720918 0.892595191336245
0.121980197169452 0.198889846287092 0.823054847903161
0.122015102534793 0.20049101510728 0.829347120453868
0.116786757987161 0.211184525872483 0.855371573597462
0.119268185220164 0.216327216384488 0.871518469250276
0.119685688563107 0.220403768541071 0.885131666709375
0.122766640918637 0.220335561452142 0.886063589653362
0.118297784579284 0.221029295043794 0.900719495131125
0.118568497478875 0.300484464421785 0.973297511715932
0.115412455392577 0.300735389246422 0.971226286630793
0.116419731356676 0.2989530205389 0.984074766176919
0.115536594381265 0.296935913667772 0.986755651196567
0.120166912194446 0.291924772922794 0.993415829864756
0.11643572661599 0.278564714690796 0.999935101962589
0.122799756807931 0.272639172239564 0.999303972169497
0.147140492645092 -0.319519056705313 0.573022523233945
0.147138064365545 -0.35564932984773 0.570810613892826
0.144593423603693 -0.351765964788342 0.572291117870189
0.150891592345397 -0.369211102598113 0.568035357427916
0.14294442377001 0.00860676202746387 0.0855624644316525
0.139600104838987 0.00857757906466805 0.085296887209722
0.13685114001601 0.00891983077277146 0.0934753173910993
0.13529489322867 0.00922863225890537 0.107086725156797
0.144574204417329 0.00913525502969989 0.115782131123511
0.140306430802069 0.00889707258468466 0.12763238605489
0.144776818414274 -0.00169444885697493 0.133301701850911
0.14273151035413 0.0207979841962578 0.391523768260416
0.142776683242355 0.0186683320014371 0.392933725730963
0.130800268622467 0.172647542586233 0.54184174672433
0.128438169592605 0.182052934498036 0.555537611075145
0.127827705723581 0.186198469247069 0.565417854603062
0.131431024814008 0.192013833282537 0.583849627669122
0.13493536804196 0.193370975401417 0.597399370169403
0.1298204283247 0.192583817731561 0.607370613739048
0.130993270413299 0.193717505281609 0.612356811798013
0.134363063023657 0.19395300578068 0.627831150445516
0.12827493440259 0.193214411935818 0.632471684540067
0.132549476629752 0.191259827795512 0.644752201642734
0.130201267210663 0.189904426697367 0.652958995331862
0.130939153820373 0.187978224813192 0.656169905236712
0.128384480188366 0.186063412106407 0.659361886800822
0.134505948620284 0.183158236514646 0.666202401100856
0.132626170680975 0.184973142830446 0.687896178207821
0.12881627215026 0.184924857652852 0.688255016136338
0.13462313478175 0.183482454938612 0.698974429998778
0.128285929878399 0.18213415814278 0.708994482804583
0.127749635711297 0.177981690144373 0.719345433820575
0.134452480691589 0.178339079246168 0.718713825880191
0.13405954072068 0.180201077129287 0.74123600512036
0.130465047605888 0.180216480865076 0.744074315137191
0.132599431952231 0.180245183013428 0.749363005899404
0.133475019472811 0.180344069670468 0.767583974698956
0.131471564342605 0.180359093069715 0.77035220346851
0.131318809125246 0.178065354870227 0.778560755443441
0.123742286610459 0.297340533627346 0.883329992534392
0.130102033978549 0.293241865112767 0.893514296955092
0.132330726317881 0.200561222519434 0.830759560910966
0.12949320542343 0.200776674962595 0.835094056913145
0.133140493002323 0.211133351213966 0.855210896638734
0.126973756931382 0.212215747597479 0.858609378701532
0.131651219069538 0.218463837537608 0.878226980821889
0.129982605838223 0.220226325123235 0.887556100810521
0.130256124420583 0.219710982001257 0.897554007539482
0.130364122040813 0.300712629823977 0.971414151210397
0.128924630528398 0.300296520927825 0.974848865910733
0.125784017101094 0.299532725137471 0.98115351513464
0.128978513350338 0.293793885682279 0.990931640024022
0.130652216432428 0.289040763387956 0.995475369278403
0.125691648478332 0.285246408896349 0.997090654509579
0.125106071682703 0.270517051636589 0.999048120671089
0.155185839578186 -0.318119315892975 0.573000897414587
0.159426862141122 -0.335992749136469 0.573277039708378
0.153458665242568 -0.362793965314397 0.569010142465751
0.147230677336726 0.00889232968981872 0.0904089235902568
0.146950172622304 0.00901991651994401 0.0959670882116657
0.14726019202823 0.00926781121561178 0.109203129325104
0.144613990195523 0.00900683220302435 0.122292373582633
0.152265420495582 0.00862132100045637 0.131164914852149
0.153366294716832 0.00410249196950524 0.131750424889479
0.15151937654329 0.0199840965800571 0.392467529991751
0.153813135781416 0.0173501583719444 0.394314673465555
0.141062489713296 0.175519777149075 0.547354787880616
0.135927182059671 0.186325204492706 0.565819541457542
0.139743732250029 0.190374126395342 0.57865258324416
0.141885634534078 0.193867038751985 0.590864850189105
0.141945531458874 0.193472863539096 0.596057222899996
0.137637863441244 0.193004637813148 0.602225044727579
0.143513103950546 0.194700985027019 0.623131648521964
0.136888276157883 0.194811144241023 0.62243952579177
0.142155802959913 0.192582656900536 0.636440957775991
0.138274966192936 0.192338366966995 0.637975814549358
0.136901350709811 0.190887859908409 0.647089250176492
0.137359580816157 0.187223986366126 0.657427087541888
0.139109898986197 0.183482831997275 0.663787185262416
0.145753826817657 0.183645977852788 0.669500383308877
0.14262198326871 0.185604536119897 0.683203892265223
0.138719952464773 0.184748751957055 0.689563769800019
0.137863303205324 0.184084454188142 0.694500589900661
0.145348478950126 0.182982598086797 0.702689184840602
0.140001119422128 0.178277484162264 0.718822681869047
0.143892341206599 0.17542805240696 0.726743208071225
0.141292008161721 0.180188512768525 0.738920881601457
0.139289245426036 0.180195375967607 0.740185502532916
0.143126731112748 0.180275821495733 0.755008487775908
0.144015094797855 0.180292921130749 0.758159286128658
0.142519529654022 0.180355572602599 0.769703518161511
0.139931877179859 0.176300836700922 0.783032209977928
0.132030658299954 0.295575860156401 0.885285433882877
0.138507010424279 0.293143940403249 0.890145163274324
0.136364673190861 0.200567249195777 0.830880806250019
0.142961150996213 0.202094380163647 0.842289078632807
0.142022355666768 0.207778102057839 0.849250000788646
0.134838642824369 0.214940349068715 0.867164016696732
0.135493863778781 0.220073428061571 0.883280734333507
0.143043698027691 0.220133379197026 0.883468967462876
0.135143799948086 0.296258748785331 0.959391310557357
0.137354062885499 0.297155964267602 0.961488780830523
0.134806869177329 0.300234638587262 0.975359665335562
0.139029349475081 0.297870600721524 0.985513382600723
0.1310592845295 0.296005388194034 0.987992388743124
0.137181811105595 0.28870302319889 0.995619147815853
0.135953680292209 0.28041483545177 0.99914749164634
0.132896684384016 0.272980959554359 0.999345179439482
0.165845724337818 -0.323822809019112 0.573089015665458
0.162706038055716 -0.339190984925579 0.573326452048742
0.170715169740439 -0.361893279599363 0.568996241882882
0.161285774801839 0.00923811535660176 0.102790234083524
0.159158404204007 0.00923085433373291 0.102861982540046
0.162991058613935 0.00923067351365917 0.111897248206582
0.163722918843127 0.00905828155015663 0.12067147694988
0.157654470233929 0.00706134043262871 0.130725777770907
0.160157951914396 0.0226519321071726 0.391489828693022
0.155640556326319 0.0166520032775151 0.394958313903071
0.148947568552041 0.17522458837853 0.546694232127861
0.150237430289691 0.175434283691491 0.547163475741181
0.150505266133608 0.18774270399607 0.57031230046762
0.151178201577369 0.193783224274538 0.591968917596816
0.154172090989636 0.193322709768831 0.598035161424961
0.15265535800833 0.193333311957663 0.59789550141042
0.147648378698307 0.194997199062326 0.617985176196301
0.147676398117914 0.195174825155034 0.620154543737358
0.151188667709015 0.192910532964207 0.634380935122352
0.15178525961985 0.191507409297573 0.643196664171786
0.151526449620103 0.191052316005473 0.646055983881638
0.147384575549987 0.189340725852051 0.653898370367434
0.15243203058966 0.183271188300474 0.665362055796211
0.147496101380311 0.184802830018464 0.67407579269425
0.152075441346425 0.185466097219275 0.684232719967625
0.15159053474541 0.185157155804147 0.686528660522442
0.149581314458492 0.182425878561351 0.706826522450714
0.150495278581451 0.182396489642363 0.707044930238286
0.154983009024394 0.181897035658274 0.710756691113272
0.153620724456071 0.175425308904958 0.726523969984744
0.150128368642098 0.176781926082025 0.730420803471131
0.147269332400231 0.180205934927609 0.742131108608645
0.148015053605202 0.180254665189259 0.751110202489427
0.146449022968825 0.180309594025374 0.761231452807678
0.151435509631527 0.180366090276812 0.771641516870525
0.152026682104787 0.176611950755941 0.782243817783245
0.139970879677484 0.295337756296147 0.882563241619606
0.140653492791409 0.292597126370911 0.890935721657307
0.148471060522169 0.289695852669086 0.896693403802712
0.145495741773769 0.202941203373478 0.843381543407062
0.145432334266584 0.208019756564036 0.849543192617383
0.149356934777079 0.212893713816593 0.860738040687046
0.146603927016704 0.220348858186275 0.88414552319701
0.148305843823815 0.220146926564458 0.888640934363825
0.143742727008467 0.296157954099556 0.959155677243752
0.144082620253718 0.295554601316351 0.957745186060741
0.141729352569072 0.299822104698981 0.978764870616129
0.141630379615503 0.297802286447764 0.98560417735026
0.148264478353922 0.293400610943873 0.991454331394463
0.146406144654925 0.29075690744829 0.994744793850787
0.140328910174817 0.280216711267836 0.999231834600841
0.149341855966916 0.272002037612035 0.999227156625219
0.171620348686599 -0.320017092897125 0.573030217830418
0.17513332354115 -0.335571726518351 0.573270534961925
0.181997523234312 -0.369824066993622 0.567918868416301
0.179358936803817 -0.371679006900695 0.567566351829756
0.165793971606883 0.00897104809234975 0.0904458422480908
0.168692072203303 0.00909776543306827 0.0953909654108372
0.171980419077936 0.00931078736013368 0.103990831184589
0.169468534244269 0.00910455514080964 0.118623033376944
0.170880280042146 0.00402228788161053 0.129634583648702
0.170626022342003 0.0202286758837779 0.394318380723536
0.172327580117533 0.0139550368417905 0.398661206208856
0.157518057663251 0.182736891068688 0.556372065379777
0.162106575048368 0.189022273952649 0.574367892330481
0.15882011089421 0.191606623313084 0.582558977298579
0.163004422570048 0.193344379119001 0.597749716427899
0.157481698595147 0.192876518805757 0.603532470772942
0.156924198005727 0.194764010370512 0.616959562920009
0.163551324536006 0.194361729424278 0.625263168033313
0.159480555869161 0.194278019104962 0.625789114185663
0.162454627525282 0.192099871498113 0.639474265101625
0.156276789575684 0.190749955086121 0.647955696646477
0.155026342535265 0.188373209067652 0.655511060301716
0.154958829575194 0.187341963952547 0.657230117182462
0.157839901716842 0.18348273747166 0.668854759266285
0.156965355542445 0.185116953098774 0.686827432448648
0.160349044805746 0.184869091530625 0.688669449732276
0.155050243323287 0.183462246565677 0.699124611297547
0.159623047579991 0.182220680588731 0.708351479364988
0.158885434824611 0.179926972372505 0.715907568213018
0.156515032284278 0.177376359765121 0.720415224343485
0.160325141125302 0.178120778159667 0.733708157585796
0.159390121508268 0.180200831909921 0.741190820718883
0.164483555982709 0.180230913459251 0.746733681486942
0.164215929547247 0.180294905531179 0.758524934026879
0.16450297316189 0.180080084431106 0.77345524177548
0.160085244184923 0.175823270090575 0.784242408559331
0.152790950838541 0.292550398079818 0.885770850048488
0.153156782769307 0.292567277732988 0.885557314162036
0.15063170463003 0.287488379311177 0.895938780460397
0.159422879634367 0.200830331685033 0.836173528770074
0.156190655642801 0.210749180962147 0.854004688146396
0.153905817154354 0.21432710027163 0.865238552912232
0.162145630958222 0.218105461870783 0.877101761545477
0.155305524865024 0.220079949146641 0.889556056140345
0.158969177934419 0.219686823484686 0.894927386745368
0.150422421955841 0.300249621163352 0.96872099371854
0.15436914210433 0.30062755260974 0.972116409588207
0.157485578885361 0.299230497215351 0.983648214711024
0.153217908662835 0.292133047519128 0.993139017439356
0.149250253782092 0.292602226046485 0.99251544428935
0.151763324728856 0.28182371084582 0.998547722799858
0.158614834389627 0.272189983037183 0.999249816090744
0.191460975993095 -0.330427908101528 0.573191063614863
0.184467266036839 -0.345926283446814 0.573430511563089
0.184682055022709 -0.34634002124256 0.573436903759954
0.181533283461919 0.00891947034419853 0.0882371946873124
0.183125071131042 0.00935123193397983 0.106826971578796
0.181798138882348 0.00934399533095012 0.103646708422478
0.174581690871585 0.00899966729186339 0.123551565370427
0.183707514582465 0.00889801566188255 0.12622571474502
0.179561538273528 -0.00863202664516817 0.127882599871398
0.174155450284511 0.0220852272024532 0.39350852495387
0.174185637920287 0.017666041676492 0.396427034859251
0.169933222844916 0.167197358381124 0.534606142824827
0.167077571738661 0.183724689138102 0.557577218435539
0.164373280853915 0.188215005007093 0.571809256634246
0.169254888437707 0.191606899493329 0.582559852650766
0.166018719683576 0.193059539284736 0.601501841204019
0.164895735770143 0.193431765467925 0.611100067552828
0.172336973163821 0.192530653456754 0.60713678599362
0.171497703762167 0.194674627367214 0.623297251877352
0.166376222377975 0.193038737498162 0.63357543489373
0.168172531896326 0.192593532954104 0.636372624282895
0.164871277184975 0.191688511251977 0.642058813105401
0.16868180880358 0.188368380205244 0.655518873111171
0.169945788998811 0.183960727702992 0.670745235037899
0.172082166610809 0.183934990808848 0.670643444307409
0.173086870040406 0.185051649253622 0.687312746942358
0.165528302738791 0.184473573756162 0.691608794391407
0.169959240785541 0.182955450162031 0.702890938371839
0.166960446982588 0.182315972908998 0.707643301400004
0.172875538338349 0.180919382603873 0.714153697770125
0.173976944565729 0.178705585197892 0.718066105879372
0.171472856327474 0.180208279164948 0.742563060468452
0.164290980923036 0.180225083910259 0.745659522106078
0.17302963246357 0.180289464140677 0.757522297174562
0.172333744171232 0.180315010588847 0.762229515003176
0.168656944484387 0.180014548684988 0.773621315502716
0.167519030276577 0.179481706050241 0.774971588714265
0.158753737520095 0.291358231272622 0.880574902302992
0.166573690381059 0.28896849719922 0.885055240897443
0.16640886626021 0.286051483330778 0.894513558518832
0.167899177361692 0.200919759626903 0.837972649962817
0.168716688537536 0.212206773933711 0.858581203408435
0.167420012717371 0.210522498668897 0.85329295654853
0.165225830404887 0.216035282919649 0.870601863597394
0.167734522674247 0.220267288642477 0.886996410548896
0.164485933345202 0.219584757627961 0.896321926743663
0.16272444170186 0.296601990153297 0.960193724893773
0.163636053424795 0.30036031396466 0.974322294901503
0.160347330843404 0.299314823902605 0.982952151456852
0.160454565442632 0.29378452564203 0.990944080213505
0.161637963814489 0.290367162957666 0.994910711010355
0.167127528270958 0.282844701247528 0.998113079510544
0.167880143759156 0.268772529348615 0.998837793962626
0.199014192499789 -0.320799702269772 0.573042309046715
0.195533893674763 -0.340020524875533 0.573339268336551
0.200680940048043 -0.350603320863573 0.572734367198685
0.202663607215676 -0.377931473733475 0.566378120201889
0.193583239268023 0.00872617859480106 0.0843532281490923
0.1841682397389 0.00926182520169901 0.0996706519473562
0.187991899487996 0.00935522480860529 0.106875857557546
0.190969943368914 0.00915993450249185 0.116926477172568
0.189313705606551 0.00378500371981694 0.127441011566774
0.189510955601556 -0.000634346155860973 0.128076243295368
0.190543715847331 0.0168164161070388 0.400977298443639
0.184502596291952 0.0181029470712957 0.398474037055871
0.181754854633173 0.174513051107679 0.545101996634989
0.17591793598135 0.189243623376094 0.575069458443343
0.177603038139927 0.192072452561717 0.584035421240176
0.179246270421334 0.193892609811439 0.590528008939443
0.176954875784063 0.19264932955772 0.605713295833207
0.179106397691908 0.195305055676042 0.619339194814294
0.181163529085306 0.195040720850045 0.620997111819746
0.176950855056343 0.193716255762441 0.629318634451998
0.177436687927033 0.191687419606224 0.642065671840244
0.176317384096392 0.191275555005707 0.64465338866774
0.181478345651103 0.184962918738778 0.661195456776744
0.175796980793797 0.184423446976824 0.662094839070042
0.178642326165559 0.183227669846668 0.667845953785412
0.180905812391982 0.185631411324854 0.683004165488694
0.180623914622156 0.18395318675677 0.695476121844441
0.175968833148629 0.183636796793744 0.697827417305906
0.174624825428835 0.181762861232255 0.711753826787003
0.182129931344809 0.177637113838381 0.719954397915563
0.175930355072133 0.176378441103106 0.72217882974617
0.175827552831848 0.178353594879704 0.734279804756799
0.174388794864904 0.180250865454169 0.750410058945213
0.174617598095609 0.180259198808235 0.751945572319656
0.176019585712308 0.180330276516164 0.76504243227302
0.181144691862982 0.180348134542547 0.768332972688446
0.179277745758457 0.176143785684555 0.783430191983153
0.181516855903154 0.186210981896196 0.795480700901034
0.167377188026107 0.287389505149124 0.881270931027465
0.169174842571893 0.284425837665926 0.895821053158479
0.169187775615244 0.272418295634001 0.890851639439543
0.179209519151779 0.210942397508193 0.854611344798224
0.177688864939943 0.216027785827236 0.870578324407428
0.176928661530679 0.21873544158905 0.879079756672835
0.175604194404188 0.220150398913019 0.888593491182414
0.178772077760628 0.220096719412998 0.8986647362383
0.171161479239272 0.297535271424732 0.962375508157682
0.173583314779839 0.299754809515625 0.979320349620961
0.170830113084555 0.297766576406676 0.98565163865019
0.168356034973479 0.295010533823671 0.98931462417666
0.174615385506802 0.291667524698503 0.993757731883286
0.175961850206695 0.284638651968286 0.997349381202675
0.172185113560233 0.277168813857752 0.999850084201793
0.209372077945498 -0.333179245595269 0.573233571432817
0.207256476880098 -0.342406102957687 0.573376125217635
0.207668160766919 -0.371484784817039 0.567603262193106
0.202202884524582 0.00888263423987533 0.0863554733178881
0.196436459051014 0.00934052046998338 0.100846340537509
0.19560450569344 0.00934219693075146 0.107929061092791
0.198712881900864 0.00913617213417376 0.118530409296566
0.196676123354473 0.00352268935703781 0.126601432022252
0.197282856421483 1.32097828027042e-005 0.127269494112653
0.193429830155927 0.170176773106912 0.538561580659008
0.184032407575551 0.184208004674196 0.559109085095349
0.183172726403426 0.18636653557834 0.565950540168253
0.182895728657372 0.190730203624546 0.579781168598861
0.182736479004121 0.193774741353819 0.592080661016008
0.182728801478109 0.193007765689342 0.602183841987123
0.186211797009601 0.195143217313834 0.620353133619699
0.185596000416018 0.194245584285046 0.625992899918131
0.184340240393167 0.192855620496466 0.634725946363026
0.190724172689898 0.190997566083237 0.646399973860134
0.185949724015987 0.190755167363531 0.647922948267645
0.191986620893221 0.18675182778451 0.658213215062681
0.18512699211353 0.183942911889572 0.662895715361719
0.184614850296814 0.184857889771339 0.674293556828284
0.185254372446033 0.185336303192338 0.685197302104001
0.185917464677837 0.185111328304032 0.686869233883239
0.184331913479911 0.182830491912628 0.703819582763347
0.188591918320892 0.181906167267541 0.710688828304919
0.184405416793105 0.180888182341189 0.714208837486345
0.19186586635492 0.175429551874376 0.726863033158565
0.18950083105943 0.179735447197728 0.737672739629419
0.185422172440875 0.180095020051357 0.738555617820102
0.186904563227351 0.180264570665573 0.752935396911587
0.18725874909961 0.180335672337913 0.766036672574751
0.188313845257048 0.178588448623379 0.777235186812199
0.189135238931399 0.177151552845032 0.780876415480419
0.184302037908652 0.1849107651886 0.794175725198521
0.18781431925093 0.190892205767542 0.805661482964689
0.181633365841839 0.281414391259799 0.888070499734384
0.180612243771676 0.280006879578215 0.895582698289547
0.186261373288095 0.275745904219688 0.899709303186358
0.183421445933592 0.212914239686409 0.860802487318109
0.181118097548706 0.21609804118296 0.870798910479114
0.1882563095336 0.220200547429253 0.887908305029198
0.188368300598207 0.219804087110479 0.893325197514197
0.184079568413357 0.298000622394259 0.963463384865625
0.175667752397387 0.299792543318596 0.979008881039144
0.182067355696076 0.299357959805088 0.982596091974015
0.178910629742374 0.293851070527694 0.990855637112317
0.182179999006207 0.29082919375706 0.994714021025732
0.177995176013657 0.281233145957854 0.998799130712242
0.182929882159442 0.275441857143878 0.999641875270447
0.224236249454868 -0.327873401018508 0.57315159680198
0.218371624595226 -0.340304969152797 0.57334366296483
0.220891715592711 -0.348666293667578 0.5734728443761
0.222203151083522 -0.375042510894734 0.566927144628332
0.206858239000121 0.00903943425248599 0.0886096092231221
0.210791762652487 0.00939249040628073 0.100490529360964
0.211943519200844 0.0094185416461798 0.104903532537818
0.205603035610374 0.00796337737477228 0.124871771991774
0.206218226173007 0.00459537996447475 0.125241766843426
0.210064546471619 0.00177085774936327 0.125352748437929
0.203492933602348 0.0212366211459102 0.405336850970717
0.195284054703798 0.17445991181649 0.544983084711517
0.198298915613709 0.173827774623635 0.543568525958153
0.194459644969806 0.187950569428081 0.570971129123531
0.200158298776838 0.191789403145987 0.583138297248386
0.192540976310667 0.193177448040348 0.599948658291965
0.194950911079542 0.193061587319727 0.601474862944987
0.195011752489495 0.194689802489015 0.61663318093349
0.198348353062513 0.194820332440903 0.622381796966772
0.192974307500207 0.193288049874678 0.632009022458181
0.193541269949895 0.190787393927165 0.647720470995011
0.193376916545952 0.191396703471543 0.643892221227575
0.200546380360607 0.186709367959298 0.65828384594767
0.193520606334004 0.183208377149709 0.665829657229786
0.193262661773827 0.18386346525151 0.670360557075962
0.198723950690479 0.184753110965818 0.689531375227761
0.198500651683056 0.185313001176214 0.685370474236991
0.197506338191097 0.184010202219795 0.695052403600782
0.198531336298565 0.181925611426279 0.710544326368911
0.199544472547298 0.177915808901546 0.719461864668307
0.201940835583931 0.175415753495204 0.725760380328812
0.197433146159147 0.178673639234661 0.735065626540036
0.197479311584514 0.180248219793632 0.749922566501492
0.193703714839299 0.180253314609396 0.750861343095454
0.200258990047883 0.180347801457545 0.768271598064256
0.201213404017067 0.180360846373389 0.770675269213503
0.194605435026671 0.179524212432263 0.774863873555566
0.201035218065924 0.190378222126881 0.804543665151727
0.193786961378595 0.194544610857811 0.813604777550498
0.199281428886077 0.200396642292344 0.827448517759687
0.193976988973804 0.274915779738716 0.891740615753379
0.188284906230028 0.27516184087201 0.90010411065388
0.196035922900302 0.215833214108411 0.869967412816791
0.193377276681928 0.219140063332433 0.880350178265194
0.195729552532205 0.219997804573397 0.890678408871294
0.194474133160752 0.219698546943513 0.894767207496614
0.195675234308615 0.220578391096983 0.900051707132292
0.191851141718049 0.30039023355373 0.974075327693266
