ply
format ascii 1.0
element vertex 863
property float x
property float y
property float z
end_header
0.282777499228141 0.245674017612173 0.427948860287186
0.287097593196435 0.250639415019619 0.447189775241038
0.288667330671088 0.254512548663639 0.462198168111617
0.29956764452674 0.260622229733969 0.485873182259143
0.296638411851101 0.260552252877102 0.485602021938786
0.30536300967465 0.26709877717018 0.510969803574463
0.30625035137669 0.271144923442331 0.526648620379048
0.310667255953592 0.274306240621532 0.53889872444845
0.314864242631055 0.277110279275897 0.549764374234115
0.308675536051843 0.277441608453 0.55104827479539
0.316769933686808 0.281725681827467 0.567649059121451
0.311830198582119 0.279536063817709 0.574232490604508
0.308937074679835 0.274603738195361 0.574232490604508
0.303938912508245 0.261189695728456 0.574232490604508
0.294999839931956 0.25339639059009 0.574232490604508
0.293920212892854 0.255308123058869 0.574232490604508
0.283325116408763 0.237726002153872 0.574232490604508
0.279581614742028 0.242802463864139 0.574232490604508
0.275639774418406 0.232922612880068 0.574232490604508
0.261479162521982 0.229710051302949 0.579271814634467
0.260957395777541 0.221953633984945 0.584359040392766
0.260605779020627 0.224608789008437 0.587787303772673
0.259843536279803 0.216587903189468 0.595219170495708
0.259559229407581 0.218178195392745 0.597991162499876
0.257610117370355 0.226426940211724 0.616995004862831
0.256927820659501 0.222332523486428 0.623647397793648
0.256647140138462 0.21250526540283 0.626384032873782
0.255329018634079 0.212863412070568 0.639235717541519
0.254509133803394 0.215340867405545 0.647229594640696
0.254060493306265 0.211760615197542 0.651603839487705
0.25301797845815 0.22206371022306 0.661768359256827
0.252083621043544 0.216703510519808 0.670878344049236
0.251886515488781 0.214166450916835 0.672800123208169
0.250775442610772 0.217494353090854 0.683633083768761
0.0154785403550243 -0.0229991287844213 0.40846196754728
0.0184131433846694 -0.0319066786488106 0.40846196754728
0.00650713832146506 -0.0408177258229613 0.40846196754728
-0.0126101091238154 -0.0520187471938808 0.40846196754728
-0.0106104527855885 -0.0575470127386418 0.40846196754728
-0.0224360846628282 -0.0692428094439571 0.40846196754728
-0.0286659467994916 -0.0733595462898381 0.40846196754728
-0.0335918612745515 -0.084509474727076 0.40846196754728
-0.0507710803987353 -0.093105662782743 0.40846196754728
-0.0533758279152343 -0.0997388024929364 0.40846196754728
-0.0611712159568604 -0.102045106852876 0.40846196754728
-0.0756934119455543 -0.1150613428359 0.40846196754728
-0.0807009441545468 -0.133424779327655 0.40846196754728
-0.0878982412619633 -0.128172741932599 0.40846196754728
-0.0977929827947495 -0.151194296873826 0.40846196754728
-0.104167848922284 -0.14926145651534 0.40846196754728
-0.115752228136705 -0.155383518372607 0.40846196754728
-0.1302164977519 -0.173440578338783 0.40846196754728
-0.136725203257619 -0.180778874170223 0.40846196754728
-0.150836165292882 -0.188238646307861 0.40846196754728
0.277510051785375 0.224242312832887 0.344901004267453
0.270212914587649 0.225657097286807 0.350383294026395
0.275609899965727 0.228223938012726 0.360329801839328
0.281961131003719 0.232887634427321 0.378401625445884
0.288157534041029 0.238365440955868 0.399628125744002
0.297239471577992 0.242566418066291 0.415906912046893
0.294268659301337 0.243119451114416 0.418049915108377
0.295360721096162 0.246455169796099 0.430975824999898
0.295908517192697 0.250820170841239 0.447890204049816
0.302765086686709 0.256520040161202 0.469977197664674
0.299350932771645 0.256609377726363 0.470323380729672
0.304520747639061 0.259971799341164 0.483352764487027
0.317939697272956 0.266778027740143 0.509726899533069
0.312140137208295 0.26862695183174 0.516891480388007
0.317766490036033 0.270423065623245 0.523851421330089
0.328857105629562 0.277460958502873 0.551123256238647
0.331700963577446 0.279598589941099 0.559406578061773
0.330101910813925 0.279606105290826 0.574232490604508
0.32590973436283 0.277139051057475 0.574232490604508
0.318167065259462 0.273185746348082 0.574232490604508
0.314983745571858 0.262298632658725 0.574232490604508
0.30646445076802 0.258615956895866 0.574232490604508
0.299589711243983 0.248838583666653 0.574232490604508
0.29740851503826 0.250885586366896 0.574232490604508
0.29297777981991 0.237760019231323 0.574232490604508
0.28122985007013 0.230367778540828 0.574232490604508
0.267841198295322 0.223330241477703 0.574232490604508
0.268610717698501 0.218371366538049 0.574232490604508
0.261515769318805 0.215105153038468 0.578914898365437
0.261406298519241 0.212101767200229 0.579982238661192
0.261043933949511 0.208666266238214 0.583515293216049
0.259086219321412 0.211258994417542 0.602603010840019
0.259516392913306 0.203124468018604 0.59840881831906
0.258258978203588 0.210551553812287 0.610668611738809
0.257280622603599 0.202851956371824 0.620207578838693
0.25597541528364 0.212534508170298 0.632933350208294
0.255380484899412 0.205225811879923 0.638733921454518
0.0659229999172345 0.0120632399121019 0.40846196754728
0.0585620104065414 0.00555424669908033 0.40846196754728
0.0538167650032778 -0.0023586795796166 0.40846196754728
0.0439493640057929 -0.010787317024663 0.40846196754728
0.042522913374278 -0.0198953673889267 0.408461967547279
0.0260301824184452 -0.0304083358496772 0.40846196754728
0.0196462039079448 -0.0318126016344446 0.40846196754728
0.0136949024813333 -0.0481897260955434 0.40846196754728
-0.00154811557037079 -0.0524107611321219 0.408461967547279
-0.00434663500922253 -0.0577223577174563 0.40846196754728
-0.0166765078917746 -0.0701647371412495 0.40846196754728
-0.0243101503990068 -0.0743586602819919 0.40846196754728
-0.0270031906612282 -0.0893757767989005 0.40846196754728
-0.0413142938245602 -0.0977926519435534 0.408461967547279
-0.0552047678180142 -0.106963909484805 0.40846196754728
-0.0590303548494243 -0.117227855990644 0.40846196754728
-0.0575840150041675 -0.119557544008388 0.40846196754728
-0.0682047678289912 -0.124972765290386 0.408461967547279
-0.0856525029248166 -0.143049891953746 0.40846196754728
-0.0902696706107629 -0.15040760671201 0.40846196754728
-0.0996946799691522 -0.169374764739402 0.408461967547279
-0.105660566291515 -0.169263603972767 0.40846196754728
-0.119274972323915 -0.184469981854314 0.40846196754728
-0.130723337282546 -0.194887951793606 0.40846196754728
-0.136858645050047 -0.200660031808179 0.40846196754728
0.283885673863684 0.227741665670098 0.358460996511645
0.293482914337508 0.229524629131357 0.365369979924024
0.287988506388324 0.232742855618481 0.37784060756163
0.301470529077985 0.237320093864023 0.395577405763101
0.305026267032508 0.23994959186269 0.405766710507938
0.309307144667915 0.245611778256454 0.427707682783773
0.307561540974976 0.248513782413034 0.438952948890523
0.310562194439944 0.252527112261115 0.454504602051836
0.315896089288936 0.253624563947113 0.458757227335079
0.322460418025484 0.261603780136991 0.489676690070855
0.332321744994822 0.263235789900046 0.496000727902693
0.322931772647362 0.265786257288168 0.505883789031666
0.326793424244479 0.266727290479229 0.509530292647029
0.333533115146459 0.27261945294242 0.532362422191895
0.335671804294078 0.269108740595556 0.536619074943834
0.335671804294078 0.273804367089268 0.547753084503284
0.335671804294078 0.280589018485956 0.563498474415958
0.335671804294078 0.273803288600358 0.573376961999542
0.329205944660941 0.273412397319722 0.574232490604508
0.326011717566213 0.25968103975343 0.574232490604508
0.319282214503265 0.25817879048862 0.574232490604508
0.315389797608643 0.248824536079172 0.574232490604508
0.304609690754443 0.246673632275041 0.574232490604508
0.303289588513189 0.23795292103038 0.574232490604508
0.299261678462723 0.235776674653667 0.574232490604508
0.29145388062481 0.228481107677774 0.574232490604508
0.279068568086912 0.218987306285605 0.574232490604508
0.272263528534809 0.211428826008535 0.574232490604508
0.273463261803097 0.206212633327231 0.574232490604508
0.261527998486166 0.196402208853181 0.578795663983668
0.260730560557483 0.200929994702025 0.586570683788326
0.259832225387413 0.198386584538988 0.595329451696513
0.258818558921801 0.196112685854685 0.605212699736225
0.101490385689492 0.0345345199715143 0.40846196754728
0.257630240620617 0.202607762857612 0.61679880317277
0.0845671817301108 0.0139651506190973 0.40846196754728
0.0808790189332765 0.0110628716886282 0.40846196754728
0.0745068037551789 -0.00255386684729256 0.40846196754728
0.0663028830976114 -0.00508455383521946 0.408461967547279
0.0561259102385984 -0.0155032570540156 0.408461967547279
0.0497240906042539 -0.0219233621600123 0.40846196754728
0.0460121387797418 -0.024740762825874 0.40846196754728
0.0341987413613312 -0.04178656914454 0.408461967547279
0.0223271022649136 -0.0459272750441005 0.40846196754728
0.0124304166246346 -0.0582858574097702 0.40846196754728
0.00967467506613814 -0.0593768509132418 0.40846196754728
-0.00317534126158255 -0.078897859084271 0.40846196754728
-0.0122318055203528 -0.0787090286867859 0.40846196754728
-0.0205569333926022 -0.0885562801836632 0.408461967547279
-0.023364208397702 -0.0992676556936684 0.40846196754728
-0.0337984308248547 -0.104764262154066 0.40846196754728
-0.0424171859928908 -0.111737571260001 0.40846196754728
-0.0448203636173183 -0.1181470369036 0.40846196754728
-0.0634313729764028 -0.135176098953306 0.40846196754728
-0.0717446748973316 -0.146228686781444 0.40846196754728
-0.0741102750130389 -0.15377585767208 0.40846196754728
-0.0807333955508644 -0.155649821854231 0.40846196754728
-0.093972156353775 -0.162479266163296 0.40846196754728
-0.102058228981684 -0.176798144178928 0.40846196754728
-0.112198249669116 -0.185504872844611 0.40846196754728
-0.118227106948991 -0.200473245797553 0.408461967547279
0.304079827049295 0.229459330996868 0.365116949652878
0.309785438640424 0.233251197208172 0.379810431221678
0.306202553982457 0.235211759583286 0.387407610425248
0.311454717018496 0.241866301698583 0.413193961122025
0.320412536602323 0.243651073558652 0.420109952079791
0.327626509020313 0.248666146090454 0.439543358140526
0.328954987120023 0.2524783609507 0.454315690723975
0.327131959786402 0.254991206860606 0.464052968624862
0.335671804294078 0.258000308304169 0.485238467152905
0.332352741741019 0.261785835006692 0.490382152690948
0.335671804294078 0.256906959293713 0.49397429566474
0.335671804294078 0.261231402998384 0.513401095940319
0.335671804294078 0.258228908417713 0.512773227454768
0.335671804294078 0.258396496147324 0.528870734108304
0.335671804294078 0.263326294965498 0.535359067834953
0.335671804294078 0.259675981616215 0.547004309214956
0.335671804294078 0.267822561912912 0.54940967013173
0.335671804294078 0.264111270861905 0.557773001380028
0.335671804294078 0.261483747430807 0.572517515079789
0.335671804294078 0.258232547427117 0.573284061994505
0.319120648715579 0.246220251751349 0.574232490604508
0.320668280416231 0.244571940279181 0.574232490604508
0.320600521668345 0.242474995736328 0.574232490604508
0.30343352060542 0.23358906013423 0.574232490604508
0.298433600226783 0.224786874992321 0.574232490604508
0.297129305406164 0.226777078755346 0.574232490604508
0.286906290852476 0.212799706209152 0.574232490604508
0.279516249349981 0.206595807141956 0.574232490604508
0.271574413838829 0.199322686370987 0.574232490604508
0.269346406850385 0.186554579011171 0.574232490604508
0.12717681551995 0.046733227359771 0.40846196754728
0.132362350927504 0.0438604845409562 0.40846196754728
0.118887268087705 0.0427798543715123 0.40846196754728
0.111793910327828 0.0237798343636518 0.40846196754728
0.107705477460892 0.0200582565898145 0.40846196754728
0.0987920133121172 0.0151464134255135 0.40846196754728
0.0885041055967063 0.00670028447449362 0.408461967547279
0.0792903502135676 -0.00801867759977714 0.40846196754728
0.0738082014724581 -0.0177579554643413 0.40846196754728
0.0584856512418116 -0.0181936288896822 0.40846196754728
0.0565404489780557 -0.0281565826167589 0.40846196754728
0.0526496988962529 -0.0336850744079896 0.40846196754728
0.0392345235256914 -0.0448360057000947 0.408461967547279
0.0332448972155373 -0.0491318112488829 0.40846196754728
0.0271745268791933 -0.0615514606898302 0.40846196754728
0.0191337485778106 -0.066751241825867 0.40846196754728
0.0161254039621362 -0.0733188487750363 0.40846196754728
0.00206605720244989 -0.0803634321305422 0.40846196754728
-0.00781529749059134 -0.096515128120642 0.40846196754728
-0.0170501632793553 -0.0999213350424368 0.40846196754728
-0.0234622709950596 -0.11957472635966 0.40846196754728
-0.0330745263358172 -0.114108266514657 0.40846196754728
-0.0391525282226951 -0.124544636390324 0.40846196754728
-0.0496210893189745 -0.142781370722962 0.40846196754728
-0.0607464655222703 -0.141638597325163 0.40846196754728
-0.0713328117766142 -0.155111875780531 0.40846196754728
-0.0761017103558365 -0.16183163726845 0.408461967547279
-0.0873148172758016 -0.175332168205045 0.40846196754728
-0.0935068942449341 -0.181462812698959 0.40846196754728
-0.105438813535909 -0.191514247843033 0.40846196754728
0.314953221095952 0.233876975430969 0.382235321835019
0.317143337191419 0.235098025956012 0.38696689261956
0.323193121751266 0.241950581500735 0.413520545355361
0.335671804294078 0.243018861465954 0.424616422233842
0.329361749147257 0.246285880737566 0.430319829898081
0.335671804294078 0.24521613739367 0.446121163390236
0.335671804294078 0.248028316421379 0.455577704119947
0.335671804294078 0.246479894500137 0.469597888910577
0.335671804294078 0.256422189904084 0.481453428000482
0.335671804294078 0.258852845736639 0.486000622597534
0.335671804294078 0.244017392446766 0.490290979546186
0.335671804294078 0.25401697447341 0.507421487470374
0.335671804294078 0.251874143655969 0.512417660364824
0.335671804294078 0.256482822622959 0.520331551913859
0.335671804294078 0.248702281299118 0.523279290098293
0.335671804294078 0.249581617927301 0.535941546662511
0.335671804294078 0.245850858091246 0.543053359885525
0.335671804294078 0.25385651493821 0.550108703812773
0.335671804294078 0.249060089171847 0.564870169287443
0.335671804294078 0.246219219088752 0.566772180199575
0.328675089200443 0.247038048028557 0.574232490604508
0.327209605859295 0.239845079944669 0.574232490604508
0.323869849359063 0.231504679245946 0.574232490604508
0.317923321153916 0.23160078227069 0.574232490604508
0.302831564725823 0.218920905403531 0.574232490604508
0.302442181858576 0.215373196025654 0.574232490604508
0.289654449130906 0.209045188690044 0.574232490604508
0.284023452505352 0.199335736210094 0.574232490604508
0.278189451825622 0.189652451375949 0.574232490604508
0.269567799621612 0.186539182126366 0.574232490604508
0.268928784751794 0.181948653242331 0.574232490604508
0.266506794367698 0.175255261000171 0.574232490604508
0.126220490447386 0.0293684798958905 0.40846196754728
0.119856847260076 0.0256631584151898 0.40846196754728
0.113350894350659 0.0147242417520144 0.40846196754728
0.0987121922071473 0.00366623116987441 0.40846196754728
0.0968105243770894 0.00506187410006604 0.40846196754728
0.0886355098207127 -0.00657204757941739 0.408461967547279
0.0823600427267569 -0.0130095579266301 0.40846196754728
0.0706902682057642 -0.0265368888867136 0.40846196754728
0.0579901879224869 -0.0389801758344773 0.408461967547279
0.0600039050203567 -0.0388057651543301 0.408461967547279
0.0443271878797404 -0.0556127819023872 0.40846196754728
0.0377391778435891 -0.0570830190103205 0.40846196754728
0.0246988166486809 -0.0718335530932339 0.40846196754728
0.0225664464635611 -0.0804997238025262 0.40846196754728
0.0113964845669982 -0.0904187376960769 0.408461967547279
0.00438897768816983 -0.0910371923333424 0.40846196754728
-0.00367015998823733 -0.104478069574188 0.40846196754728
-0.00608929918816071 -0.112884048847859 0.40846196754728
-0.0180796088183551 -0.120362217198118 0.40846196754728
-0.0327763631666574 -0.127659564716701 0.40846196754728
-0.0412061898821893 -0.141429145548963 0.40846196754728
-0.0462758955551768 -0.147072037074325 0.40846196754728
-0.0564161653231289 -0.157782699371936 0.40846196754728
-0.0626216473553658 -0.170194826173428 0.40846196754728
-0.069551317375254 -0.171898301878659 0.40846196754728
-0.07390139598172 -0.179380287617563 0.40846196754728
-0.0866425926663783 -0.190605083558613 0.40846196754728
0.327813623490386 0.236609143715694 0.392822473938327
0.335671804294078 0.229583474672596 0.401449489881678
0.335671804294078 0.233905012982109 0.410727143780746
0.335671804294078 0.236108744924512 0.421980564574781
0.335671804294078 0.23984126787391 0.433569780142894
0.335671804294078 0.238237574064012 0.446140749929982
0.335671804294078 0.236804376755984 0.442636421650052
0.335671804294078 0.238287214514641 0.459599542705825
0.335671804294078 0.240245979721473 0.468749167649181
0.335671804294078 0.239530862096529 0.475314064793952
0.335671804294078 0.241875909524631 0.485784036130345
0.335671804294078 0.235265689407717 0.492621861737971
0.335671804294078 0.237573864419849 0.497716074669377
0.335671804294078 0.23785488789277 0.507132792305038
0.335671804294078 0.242713747491909 0.525034596491892
0.335671804294078 0.239829071461447 0.523247299800634
0.335671804294078 0.236780194287807 0.538566037863324
0.335671804294078 0.231961784770495 0.545362611059274
0.335671804294078 0.235610179475067 0.549117850092048
0.335671804294078 0.240993285418309 0.563650526057411
0.335671804294078 0.230105442921029 0.560844729194249
0.325091890678199 0.232602285309123 0.574232490604508
0.328090873134421 0.225940593420865 0.574232490604508
0.319862828023043 0.224089446491716 0.574232490604508
0.317194203766345 0.215575358055329 0.574232490604508
0.311015758615912 0.214312037896802 0.574232490604508
0.297787334390874 0.198597790215044 0.574232490604508
0.295521351320118 0.195892068295975 0.574232490604508
0.282072983045132 0.185174199543863 0.574232490604508
0.279346181479111 0.181159005923796 0.574232490604508
0.271519629210935 0.171737151939303 0.574232490604508
0.265199423263141 0.164743605287932 0.574232490604508
0.265225432372774 0.160949903111672 0.574232490604508
0.125116463682492 0.0156355687108476 0.40846196754728
0.11574161820456 0.00578708455674783 0.40846196754728
0.107509452683584 0.00604974473658895 0.40846196754728
0.0976544660584771 -0.0105784096470049 0.40846196754728
0.0926573472178985 -0.018186092795958 0.408461967547279
0.0857339455204638 -0.021651001839547 0.40846196754728
0.0751418157831755 -0.0331576440011088 0.40846196754728
0.0725058274409873 -0.0423116060352901 0.40846196754728
0.0714406272423221 -0.0495264729191088 0.40846196754728
0.0614655665538811 -0.056365134922301 0.40846196754728
0.0481570821370011 -0.0682290997992403 0.40846196754728
0.0434022590067303 -0.0795392046734002 0.40846196754728
0.0324664827207827 -0.0780616825908095 0.40846196754728
0.0241746569874378 -0.0929032568040777 0.40846196754728
0.0139575193109546 -0.103020357822476 0.40846196754728
0.0127818715517168 -0.102350675169844 0.40846196754728
0.00620662776630136 -0.111460840097657 0.40846196754728
-0.0107983697415957 -0.135585040402944 0.40846196754728
-0.0193829003418495 -0.131740454090468 0.40846196754728
-0.0258512153587361 -0.142249160870229 0.40846196754728
-0.0421405564550789 -0.15985309387776 0.40846196754728
-0.0477453766874008 -0.160192193873434 0.40846196754728
-0.0525176928023787 -0.172197187475971 0.40846196754728
-0.0602856582946068 -0.182494166516009 0.40846196754728
-0.0757764921140045 -0.190919584317638 0.40846196754728
-0.0831388793554208 -0.198784024452765 0.40846196754728
0.335671804294078 0.225154941245763 0.392941931115399
0.335671804294078 0.220978425580398 0.396079300706655
0.335671804294078 0.218520324966892 0.402397340179325
0.335671804294078 0.222635469463911 0.413916849541335
0.335671804294078 0.221055189847794 0.417553854687195
0.335671804294078 0.229050418186168 0.437821458168794
0.335671804294078 0.222836913556304 0.430752800006957
0.335671804294078 0.223324220794293 0.453027877862175
0.335671804294078 0.229470781118104 0.46102628094983
0.335671804294078 0.222442746673998 0.464531528979643
0.335671804294078 0.229199377096956 0.483130696353695
0.335671804294078 0.228126867586165 0.489614219953291
0.335671804294078 0.224068612927101 0.488392248686246
0.335671804294078 0.221105102679085 0.499354620632934
0.335671804294078 0.230855191782928 0.512848043427847
0.335671804294078 0.221863341572191 0.520185092682736
0.335671804294078 0.218052128119082 0.517537430910787
0.335671804294078 0.228623972148019 0.538011167621735
0.335671804294078 0.225815140802296 0.542089856501182
0.335671804294078 0.228908125069537 0.557409423369762
0.335671804294078 0.220729974658549 0.554629519776032
0.334690767910858 0.231295931595253 0.574232490604508
0.328422686685923 0.220278030623471 0.574232490604508
0.330126924184116 0.216961263807325 0.574232490604508
0.314636858681961 0.209137281775291 0.574232490604508
0.314024402215255 0.201190511965541 0.574232490604508
0.308584383002068 0.197711813436013 0.574232490604508
0.304324749455093 0.191401390046383 0.574232490604508
0.294113494024643 0.177119394596221 0.574232490604508
0.281570927242325 0.171043367157231 0.574232490604508
0.278512117395259 0.158247186616769 0.574232490604508
0.26668686087488 0.15365928679464 0.574232490604508
0.266767585524598 0.15075240776741 0.574232490604508
0.131169858601287 0.00874540160178769 0.40846196754728
0.125293463182817 0.00209156931861281 0.40846196754728
0.111872780395987 -0.0113290141599638 0.40846196754728
0.109792272472302 -0.0185768013466903 0.40846196754728
0.100866516167403 -0.0288253283869547 0.40846196754728
0.0899968033494984 -0.0314991450226155 0.40846196754728
0.085124510919378 -0.0388241622705514 0.40846196754728
0.0857052734021655 -0.0430993207134944 0.40846196754728
0.0710260499341881 -0.0589856010882841 0.40846196754728
0.0665307260895228 -0.0693218739074595 0.40846196754728
0.0562090286684422 -0.0711274060829705 0.408461967547279
0.0541015242588627 -0.0757502843378176 0.40846196754728
0.0330512078535087 -0.0872553798087093 0.408461967547279
0.0316580124251925 -0.0959164350908583 0.40846196754728
0.0223503033787516 -0.107146108483516 0.408461967547279
0.0098517050146744 -0.121358051899378 0.40846196754728
0.00835619163970743 -0.130098411537137 0.40846196754728
-0.00495699694942037 -0.138958071622128 0.408461967547279
-0.0126376118521421 -0.145330053926817 0.40846196754728
-0.0180212849553376 -0.152886936775988 0.40846196754728
-0.0349348376705852 -0.162803895064621 0.40846196754728
-0.0377170838981492 -0.170457843907825 0.40846196754728
-0.0476084322849927 -0.186150797296617 0.40846196754728
-0.0535029622131894 -0.194098081361788 0.40846196754728
-0.064592596186109 -0.194963744444908 0.40846196754728
0.335671804294078 0.212898896470016 0.377364694993584
0.335671804294078 0.211002790361596 0.384509394277808
0.335671804294078 0.217782829049027 0.402792326729277
0.335671804294078 0.213280931092912 0.400104980784377
0.335671804294078 0.20732006706812 0.40947193492803
0.335671804294078 0.215620330976221 0.427994884877189
0.335671804294078 0.208709018765732 0.4316388182721
0.335671804294078 0.21140166266768 0.436084147374845
0.335671804294078 0.210465953755833 0.445114034743101
0.335671804294078 0.215925661221247 0.460959710992926
0.335671804294078 0.216202672590796 0.468350211685405
0.335671804294078 0.210011936644388 0.468448632688948
0.335671804294078 0.20870000291985 0.477615953423833
0.335671804294078 0.213985227306389 0.498454006777722
0.335671804294078 0.207430918730211 0.49660282732719
0.335671804294078 0.214275394328615 0.514742141153294
0.335671804294078 0.208354789456753 0.513442944072267
0.335671804294078 0.209088039481489 0.525738507077489
0.335671804294078 0.211709531757786 0.530115264255604
0.335671804294078 0.213916009272061 0.55025581295264
0.335671804294079 0.209051689402233 0.547497719001121
0.335671804294078 0.213885810536865 0.563089440714373
0.335671804294079 0.21301987552525 0.562036704814678
0.326655105108476 0.20210826871677 0.574232490604508
0.326970738164189 0.203982570729101 0.574232490604508
0.319068061044826 0.192540264924401 0.574232490604508
0.314865471720435 0.188505423108989 0.574232490604508
0.302043607556335 0.183460192097345 0.574232490604508
0.298212486578071 0.169507704638124 0.574232490604508
0.287988914609908 0.166410114588131 0.574232490604508
0.291867920884928 0.159011155101941 0.574232490604508
0.276020003981798 0.150544238379625 0.574232490604508
0.270275958375735 0.137280462945878 0.574232490604508
0.134368509004951 0.000969068249722216 0.40846196754728
0.129787525261851 -0.00247378111382643 0.408461967547279
0.126411668068526 -0.0167168197780946 0.40846196754728
0.114828569317468 -0.0179783943117151 0.40846196754728
0.115610322841377 -0.0283588828618608 0.40846196754728
0.100340292596834 -0.0336725619623836 0.40846196754728
0.0911648972558392 -0.0448372732051458 0.40846196754728
0.0873458548397517 -0.0537424708251662 0.408461967547279
0.0782412759153956 -0.0673737518869247 0.408461967547279
0.0660898959726726 -0.0731517505443889 0.40846196754728
0.0594320059904165 -0.0844324468490604 0.40846196754728
0.0565485570223172 -0.091530777251996 0.40846196754728
0.0507564647554084 -0.0959511005852401 0.40846196754728
0.0406946966681903 -0.101653906290507 0.40846196754728
0.0272055999630637 -0.118267402487847 0.40846196754728
0.0258305391013905 -0.121985092193775 0.40846196754728
0.00712821071411093 -0.136273786257984 0.40846196754728
0.00149053198988087 -0.13888452284728 0.408461967547279
-0.00622266464299713 -0.153370276959476 0.408461967547279
-0.0128070397009757 -0.166102791719626 0.40846196754728
-0.0240263458553084 -0.171841002456706 0.40846196754728
-0.0291246234375568 -0.182613440605731 0.40846196754728
-0.0402022928234756 -0.190335241276562 0.40846196754728
0.335671804294078 0.19664345449117 0.375870532342702
0.335671804294078 0.193744370299328 0.372269740800939
0.335671804294078 0.205255551128092 0.392541029544728
0.335671804294078 0.200378224208529 0.397640946805449
0.335671804294078 0.195780420886481 0.406875074860134
0.335671804294078 0.200889395454299 0.412585121550488
0.335671804294078 0.201205610883168 0.431953807253982
0.335671804294078 0.199331144016381 0.430213350894294
0.335671804294078 0.193309044388103 0.432154151926613
0.335671804294078 0.195783328679931 0.445195119325786
0.335671804294078 0.195521861644821 0.452119111052909
0.335671804294078 0.193135582565119 0.467274570691801
0.335671804294078 0.199913782080568 0.480108651715373
0.335671804294078 0.200329644568903 0.477701572878141
0.335671804294079 0.191440083060148 0.489969267896867
0.335671804294078 0.195844155670915 0.493657672392951
0.335671804294078 0.194889401095515 0.506227393650122
0.335671804294078 0.191842706331733 0.516284307417331
0.335671804294078 0.196429206431975 0.526174001761397
0.335671804294078 0.19857497426399 0.535957390515837
0.335671804294078 0.197695278618188 0.54339190128982
0.335671804294078 0.205007244544868 0.556537490876396
0.335671804294079 0.203325595239378 0.563286617194003
0.335671804294078 0.200553075849849 0.57030919165854
0.328901927115354 0.193330684798971 0.574232490604508
0.319596253917906 0.187385468859712 0.574232490604508
0.318265510534476 0.18083035627826 0.574232490604508
0.316746699311736 0.172049148010017 0.574232490604508
0.309155320815584 0.168154940449115 0.574232490604508
0.297616734209146 0.159026829198543 0.574232490604508
0.294931067166177 0.153559096672034 0.574232490604508
0.289466955313377 0.141209299776385 0.574232490604508
0.282368824220861 0.14105387138005 0.574232490604508
0.271434399469102 0.13227907896089 0.574232490604508
0.264238410894048 0.11944374196904 0.574232490604508
0.128365011334389 -0.0173098917682992 0.408461967547279
0.123246335304983 -0.0250418914891762 0.40846196754728
0.120915321225954 -0.0365639779932798 0.40846196754728
0.1126101283464 -0.0477357489830143 0.40846196754728
0.107721183024916 -0.0474771524137361 0.40846196754728
0.0932747745784196 -0.05657471458258 0.40846196754728
0.0768085081210566 -0.0788328284315587 0.408461967547279
0.0753301512126361 -0.0812336454424983 0.408461967547279
0.06888522897114 -0.0918132715558414 0.408461967547279
0.0594971502832358 -0.0989963963620987 0.40846196754728
0.0576043626427952 -0.0986603391585877 0.40846196754728
0.0378078537916799 -0.117634437804201 0.408461967547279
0.0309121042958935 -0.129923082278861 0.40846196754728
0.0337980675071345 -0.129802007956175 0.40846196754728
0.0218042232365184 -0.141749100468897 0.40846196754728
0.006173790821576 -0.15091342378095 0.40846196754728
-0.000815834217634787 -0.164677873982278 0.40846196754728
-0.00444252848078349 -0.167493291045485 0.40846196754728
-0.0160899637014478 -0.179337988330767 0.40846196754728
-0.0274665324239321 -0.190542590077101 0.408461967547279
-0.0389414543055854 -0.200262202708901 0.40846196754728
0.335671804294078 0.186486511121768 0.359291340653495
0.335671804294078 0.183830838993107 0.362676193160754
0.335671804294078 0.180979556363368 0.37379539499008
0.335671804294078 0.189074603577101 0.391054477386086
0.335671804294078 0.186329424371133 0.388002610830507
0.335671804294078 0.186360900900227 0.401713962130605
0.335671804294078 0.194120870868005 0.419307440655786
0.335671804294078 0.186061696650786 0.420869317791812
0.335671804294078 0.193318665274453 0.43429023760844
0.335671804294078 0.194038419075515 0.442947312052146
0.335671804294078 0.185326238268969 0.445382063431151
0.335671804294078 0.191564249667585 0.456821023105793
0.335671804294078 0.188211598118494 0.466234788526121
0.335671804294078 0.187941371951948 0.473593453830847
0.335671804294079 0.184011394124506 0.48065945476478
0.335671804294079 0.182945870397488 0.489232746923561
0.335671804294079 0.179633943751759 0.494453877885839
0.335671804294078 0.187875974008349 0.504630065285557
0.335671804294078 0.191341686012771 0.527328660100754
0.335671804294078 0.190503532528226 0.530468914942169
0.335671804294078 0.184898408829394 0.535689277743982
0.335671804294079 0.189017664530592 0.542297411666936
0.335671804294078 0.185218803118321 0.551373690799265
0.335671804294078 0.179977386089937 0.556854278406378
0.335671804294078 0.184510187327922 0.564316058100437
0.325340760701809 0.176666870951507 0.574232490604508
0.321574049685307 0.173523794286371 0.574232490604508
0.318094765442273 0.164059684839443 0.574232490604508
0.312574457110407 0.159936458310291 0.574232490604508
0.304730599289221 0.154600312306325 0.574232490604508
0.298261279674767 0.147448535115436 0.574232490604508
0.297059978605609 0.144983575959826 0.574232490604508
0.291431121565901 0.130443428283667 0.574232490604508
0.281321254920013 0.123740925610853 0.574232490604508
0.271608555694214 0.117234399632218 0.574232490604508
0.133415559983858 -0.0331000021032911 0.40846196754728
0.132159463990476 -0.0283477269772288 0.40846196754728
0.118747327618238 -0.0416355921458673 0.40846196754728
0.110117368805963 -0.0595256881564595 0.40846196754728
0.103661520873791 -0.0577084516057563 0.40846196754728
0.101349637308134 -0.0644682007997246 0.40846196754728
0.0908147580715576 -0.0765431630087545 0.40846196754728
0.0876532290127943 -0.082943138705146 0.40846196754728
0.0687915755308428 -0.094857834991519 0.40846196754728
0.0722405717895983 -0.100834234713758 0.40846196754728
0.0598319082698106 -0.105589618969999 0.408461967547279
0.0561640632714834 -0.114087992394865 0.40846196754728
0.0424945961282708 -0.137394370110772 0.408461967547279
0.0331629912316486 -0.137036349044301 0.40846196754728
0.0288467003339461 -0.150402465356782 0.408461967547279
0.0129462119503691 -0.157095463547623 0.40846196754728
0.0117355838335972 -0.157163167773064 0.40846196754728
0.000867511241788299 -0.178345974269062 0.40846196754728
-0.0014576490547136 -0.181558311619219 0.40846196754728
-0.0163876717746109 -0.192405037443983 0.40846196754728
0.335671804294078 0.176408226519975 0.358873415865397
0.335671804294078 0.179674254569717 0.363503950998674
0.335671804294078 0.173444813260502 0.366415268525489
0.335671804294078 0.170070774078896 0.382027011096528
0.335671804294078 0.173652019986484 0.383729531989036
0.335671804294078 0.172415330991154 0.389019982856613
0.335671804294078 0.173319523101456 0.402753216793803
0.335671804294078 0.179182915953825 0.416044832107503
0.335671804294078 0.178521087723385 0.427050759249271
0.335671804294078 0.173757782497729 0.424295005993417
0.335671804294078 0.166997164774688 0.436725909744213
0.335671804294078 0.173095859321249 0.446438163448381
0.335671804294078 0.172155937074073 0.44804889229198
0.335671804294078 0.173192196212676 0.462936441744137
0.335671804294079 0.17546232935176 0.474177150594357
0.335671804294079 0.177657493006711 0.482951621624995
0.335671804294078 0.175235011417481 0.492742651517588
0.335671804294078 0.174743136210835 0.501942210006662
0.335671804294079 0.178849881537623 0.510344079928052
0.335671804294078 0.169681607824614 0.512815327407645
0.335671804294078 0.165227794650656 0.520261439446895
0.335671804294078 0.174349747112046 0.542636785843672
0.335671804294078 0.170811141564966 0.537236255277111
0.335671804294078 0.166290051515088 0.545908368245477
0.335671804294078 0.17838109995433 0.56334410593224
0.332118670932547 0.175223823996678 0.574232490604508
0.332781357666183 0.166427045694149 0.574232490604508
0.323740354459099 0.163735281305178 0.574232490604508
0.317720010748218 0.152670631673307 0.574232490604508
0.308700559618615 0.146433705090584 0.574232490604508
0.304609843043746 0.140912070036637 0.574232490604508
0.30046679828315 0.13075699432519 0.574232490604508
0.292158622349642 0.125935850344333 0.574232490604508
0.280677999562902 0.113844287011465 0.574232490604508
0.281537996047389 0.108301547705628 0.574232490604508
0.2727555513278 0.105586156113962 0.574232490604508
0.128895334932001 -0.0452453272601214 0.40846196754728
0.13287905562258 -0.0494224316634032 0.408461967547279
0.117924696075829 -0.0612193821528223 0.40846196754728
0.114069718510792 -0.069875316968057 0.40846196754728
0.106232901571593 -0.0758950688146135 0.40846196754728
0.104578770239668 -0.0781099869438712 0.40846196754728
0.0887426043908037 -0.0966401118774878 0.40846196754728
0.0881995099233222 -0.102156169060306 0.40846196754728
0.0824574291297475 -0.108143887303729 0.40846196754728
0.0680498557437814 -0.121850482909892 0.408461967547279
0.0571319866580819 -0.130701597869649 0.40846196754728
0.0558022731410535 -0.128182651106445 0.408461967547279
0.0399918765191311 -0.146191991748817 0.40846196754728
0.0324448721207837 -0.159784612665214 0.40846196754728
0.0232494503946097 -0.168171982940688 0.40846196754728
0.0167340993013794 -0.174800391543492 0.40846196754728
0.00918027204468771 -0.18523696363674 0.40846196754728
0.00557762704631451 -0.189720179715514 0.40846196754728
0.335671804294078 0.166344127119521 0.349668663053074
0.335671804294078 0.165253281305919 0.349831719869286
0.335671804294078 0.163657804786675 0.366553442743472
0.335671804294078 0.162287591671192 0.361929700987134
0.335671804294078 0.162952885735188 0.377141608733245
0.335671804294078 0.156431905384235 0.381909538882406
0.335671804294078 0.161779777575348 0.400770549992513
0.335671804294078 0.160022535437377 0.408039858112376
0.335671804294078 0.166176828658213 0.414422382475854
0.335671804294078 0.159414373429245 0.417771328319957
0.335671804294078 0.160884107591223 0.432416980038305
0.335671804294078 0.158683401321971 0.436752528884369
0.335671804294078 0.167857291523169 0.454307197510656
0.335671804294078 0.157046027495206 0.459976563289015
0.335671804294079 0.166698053442966 0.473848529902314
0.335671804294079 0.159661726053628 0.48035586168502
0.335671804294078 0.168902192400356 0.486782745169107
0.335671804294079 0.156626275881215 0.484029126701548
0.335671804294079 0.157422938570182 0.498935548269046
0.335671804294078 0.167304000170605 0.517108439622948
0.335671804294078 0.152140096311031 0.514397264632105
0.335671804294079 0.164514293108873 0.537332717313187
0.335671804294078 0.159615576990153 0.534966340279247
0.335671804294078 0.159741887929884 0.544548290030831
0.335671804294078 0.157510520170188 0.545836533517218
0.335671804294079 0.159640973940101 0.566490570167703
0.335671804294078 0.16090189367859 0.56691996506323
0.329013140789682 0.159586000818759 0.574232490604508
0.320699807265039 0.147269193720755 0.574232490604508
0.312520832570799 0.136188372900813 0.574232490604508
0.309839941854772 0.135268077064901 0.574232490604508
0.30436914339781 0.12894879445701 0.574232490604508
0.298570791669378 0.112418662369695 0.574232490604508
0.288540851702735 0.10708559736735 0.574232490604508
0.283359298836046 0.105163489592619 0.574232490604508
0.2736023852726 0.0962736142320906 0.574232490604508
0.266040089915959 0.0883108138251992 0.574232490604508
0.265950434608295 0.0870419249401998 0.574232490604508
0.125237469192618 -0.06741549822737 0.40846196754728
0.117114422013379 -0.0727145381055203 0.40846196754728
0.112339608147486 -0.0759880327654349 0.40846196754728
0.10529502470375 -0.0892101750491826 0.40846196754728
0.0951228197456714 -0.106326758206903 0.40846196754728
0.0952814330676653 -0.111821667617498 0.408461967547279
0.0768873671427971 -0.122358661014249 0.40846196754728
0.0705489752182691 -0.128645738873364 0.40846196754728
0.0581953476397241 -0.142188699010167 0.40846196754728
0.0616935580625599 -0.135883081882565 0.40846196754728
0.0545070489368865 -0.148552129353798 0.40846196754728
0.0410841011982257 -0.167280798330016 0.40846196754728
0.0404350243242914 -0.164042639953034 0.40846196754728
0.0300518714107433 -0.178818998101876 0.40846196754728
0.0184384056371248 -0.192019038014326 0.40846196754728
0.335671804294078 0.146200230094444 0.332590306804793
0.335671804294078 0.14677552622623 0.339486948928539
0.335671804294078 0.153367137172081 0.356708269868461
0.335671804294078 0.149678563732557 0.361434225979688
0.335671804294078 0.147528614065085 0.366207583298843
0.335671804294078 0.151012548840998 0.382776117588292
0.335671804294078 0.15498387394068 0.391973319304331
0.335671804294079 0.146193910504393 0.394623426750875
0.335671804294078 0.148203546379933 0.398601367831285
0.335671804294078 0.143287490664097 0.413942931865508
0.335671804294078 0.155054336075272 0.424874687133652
0.335671804294078 0.146267459904547 0.430903653235517
0.335671804294078 0.152880375218802 0.443550561466743
0.335671804294078 0.150668220352427 0.451447520664992
0.335671804294078 0.148215756115622 0.452621822967752
0.335671804294078 0.141960554039387 0.466688584067795
0.335671804294078 0.145148957956214 0.472465982898035
0.335671804294078 0.145877912955101 0.486554446361663
0.335671804294078 0.147269993370424 0.492825864008163
0.335671804294078 0.148074531163639 0.506565357955663
0.335671804294079 0.14709675797482 0.502593871300207
0.335671804294078 0.153927915122919 0.524901350934724
0.335671804294078 0.151384268080436 0.529537942901883
0.335671804294079 0.146113846954393 0.533429567745032
0.335671804294078 0.153356611816007 0.548125490821937
0.335671804294078 0.147950945574899 0.551268951416414
0.335671804294078 0.143702301404963 0.555183336768059
0.33114581119847 0.146551770143599 0.574232490604508
0.333353343767662 0.140677358212687 0.574232490604508
0.323910901654521 0.136544577411067 0.574232490604508
0.324661546859473 0.129628619056642 0.574232490604508
0.303447708225439 0.118308400604781 0.574232490604508
0.301370936627177 0.109824143009556 0.574232490604508
0.299362673818696 0.109150724601793 0.574232490604508
0.290244584541192 0.0993789862595777 0.574232490604508
0.284005507921544 0.0852865018811926 0.574232490604508
0.277321486554366 0.081940517918868 0.574232490604508
0.270133614010156 0.0792983766590021 0.574232490604508
0.262954183974123 0.0696234109598418 0.574232490604508
0.262584151852683 0.0645733778724083 0.574232490604508
0.115717389844575 -0.0908898914308147 0.40846196754728
0.112478133294946 -0.0935565037549615 0.408461967547279
0.101454171177928 -0.113466223902519 0.40846196754728
0.102807883122705 -0.114481872039294 0.408461967547279
0.0887714977145508 -0.117124715126212 0.40846196754728
0.0849282269627286 -0.134990735397953 0.40846196754728
0.0781020482324106 -0.14427659576916 0.40846196754728
0.060689851075331 -0.158932983665434 0.40846196754728
0.0627932596851021 -0.157497094765011 0.40846196754728
0.0529337963951506 -0.167472694014658 0.40846196754728
0.039858437142077 -0.174129526159168 0.40846196754728
0.0299490060392082 -0.184323872053476 0.40846196754728
0.335671804294078 0.133546590185569 0.340930147591452
0.335671804294078 0.136723896840388 0.354376693540927
0.335671804294078 0.131470038297408 0.357811833410947
0.335671804294078 0.138430337686214 0.371933773945333
0.335671804294078 0.138533023156894 0.376243488312514
0.335671804294078 0.132959030046302 0.383440422440712
0.335671804294079 0.137163929008544 0.398977891879043
0.335671804294078 0.126447269629278 0.39538110887146
0.335671804294078 0.132017978468419 0.411418713568452
0.335671804294078 0.13111447448034 0.415623576806035
0.335671804294078 0.130018161588211 0.426365817815563
0.335671804294078 0.130791189940005 0.436231804105845
0.335671804294078 0.131637730161937 0.446840833041816
0.335671804294078 0.128971460371725 0.453324216215498
0.335671804294079 0.139202349272081 0.471939624037661
0.335671804294078 0.136862108585933 0.478610442057571
0.335671804294079 0.140678116538442 0.49193215328111
0.335671804294078 0.135452177021787 0.496601282900086
0.335671804294078 0.130883331556099 0.498575832340532
0.335671804294078 0.137280806793704 0.517056234420558
0.335671804294079 0.133248697500442 0.516969410361995
0.335671804294078 0.130095779181798 0.526851568200932
0.335671804294078 0.136849257718844 0.535829908355077
0.335671804294078 0.135574575978639 0.549077414258058
0.335671804294078 0.134191933272675 0.546866700448654
0.335671804294078 0.133354502532864 0.560846690881833
0.331263211921896 0.130424432329582 0.574232490604508
0.335671804294079 0.127840324956615 0.573485187405719
0.326070685976396 0.120228372927359 0.574232490604508
0.316030026901951 0.114901821173501 0.574232490604508
0.311376629202397 0.103738410224477 0.574232490604508
0.30171086200254 0.0953319581486318 0.574232490604508
0.298724018424272 0.0885212496067799 0.574232490604508
0.291617711639231 0.0820908922806009 0.574232490604508
0.284817514327412 0.083494078290277 0.574232490604508
0.280102804909528 0.0685484799473216 0.574232490604508
0.265384079132305 0.0589935123798619 0.574232490604508
0.267204560343748 0.0521954177571772 0.574232490604508
0.12816287946144 -0.0977791180986373 0.40846196754728
0.113661026170485 -0.107645134227059 0.40846196754728
0.112367470353461 -0.115384248432713 0.40846196754728
0.0995942265653137 -0.127847320906552 0.408461967547279
0.0886826520254607 -0.130369965437441 0.40846196754728
0.08702460194392 -0.145757990198853 0.40846196754728
0.0785632918524215 -0.148235747463799 0.40846196754728
0.0750538025999586 -0.155923576294163 0.40846196754728
0.0641947470099566 -0.159391475094762 0.408461967547279
0.0608544805307834 -0.179865150290119 0.40846196754728
0.050250975690704 -0.187700076869387 0.40846196754728
0.0453041164049891 -0.198989911121155 0.40846196754728
0.335671804294078 0.124878720799655 0.337355618308325
0.335671804294078 0.121717598832785 0.344718568867084
0.335671804294079 0.117056530138357 0.347891259402833
0.335671804294078 0.120077930723055 0.361304047176328
0.335671804294078 0.127456154688593 0.370628980572982
0.335671804294078 0.128688732023141 0.377520688229981
0.335671804294079 0.121793571942878 0.388691115270341
0.335671804294078 0.124207639632388 0.399006793225703
0.335671804294078 0.12355920791471 0.411206066842011
0.335671804294078 0.120223044544546 0.418736744778534
0.335671804294078 0.124516355981258 0.419922562798022
0.335671804294078 0.122472007391483 0.435224160965088
0.335671804294078 0.120613333347661 0.435257052738407
0.335671804294078 0.119276028382735 0.446235830054972
0.335671804294079 0.123120438560328 0.458651033012529
0.335671804294078 0.125927119154279 0.464377841445379
0.335671804294078 0.117175721292792 0.47282771769363
0.335671804294078 0.113559307421003 0.480059813883285
0.335671804294079 0.119854029532217 0.494107624002972
0.335671804294079 0.114420475005463 0.497700257294368
0.335671804294078 0.121727935173368 0.512406216579401
0.335671804294078 0.117796995150089 0.519641966453558
0.335671804294078 0.124385200743442 0.526006526287985
0.335671804294078 0.116258383466617 0.532874616861562
0.335671804294078 0.121059999228207 0.544080730651799
0.335671804294078 0.12475191840356 0.558468394592265
0.335671804294078 0.126169641949148 0.563949555115079
0.333931642018555 0.120307142207508 0.574232490604508
0.329267491434278 0.114378740583338 0.574232490604508
0.328521259319252 0.106211265621273 0.574232490604508
0.316495023195954 0.0981557997227442 0.574232490604508
0.316874868936318 0.0920461434124322 0.574232490604508
0.305741376356339 0.0791635767334559 0.574232490604508
0.298586833268902 0.0730425853690099 0.574232490604508
0.288628950661476 0.0674693874315379 0.574232490604508
0.284622602441588 0.0642947877091076 0.574232490604508
0.281902467725936 0.0547527249498538 0.574232490604508
0.268429548075539 0.0438141919157626 0.574232490604508
0.132851012481711 -0.0982998829443756 0.40846196754728
0.125074908725045 -0.107809606278273 0.40846196754728
0.11636674083349 -0.120621438914637 0.40846196754728
0.110333260226706 -0.128922412579816 0.408461967547279
0.109631249719826 -0.1396301275844 0.40846196754728
0.0928254931871082 -0.150482255925465 0.40846196754728
0.0898042012004846 -0.157539472286701 0.40846196754728
0.082003684083987 -0.164721467464528 0.40846196754728
0.0793178050095822 -0.171186610276807 0.408461967547279
0.0683213929158518 -0.176516094895501 0.40846196754728
0.0584543872524051 -0.188289195889946 0.40846196754728
0.181297374342983 -0.0686338214506314 0.0896555313635449
0.183527089841305 -0.0692399582887119 0.0919704530595739
0.335671804294078 0.113435506600084 0.346638229284274
0.335671804294078 0.108251020480651 0.349867620007778
0.335671804294079 0.107796840715475 0.357361672894968
0.335671804294078 0.112929756204145 0.37330132362159
0.335671804294078 0.103293804875843 0.373863011831715
0.335671804294079 0.106551842526906 0.382507520671367
0.335671804294078 0.106914268562068 0.390870011404996
0.335671804294078 0.102140118323113 0.400456218642916
0.335671804294078 0.106678084401501 0.41486123429634
0.335671804294078 0.0999504748033807 0.41288211916955
0.335671804294079 0.108161343120566 0.429402826854821
0.335671804294079 0.105588423793279 0.438481676444847
0.335671804294078 0.108255800098948 0.450727688622469
0.335671804294078 0.114148344110283 0.460326508647052
0.335671804294078 0.1110792495895 0.468629613802549
0.335671804294078 0.105687453772976 0.470635782640011
0.335671804294078 0.10321603344234 0.484335817361955
0.335671804294078 0.102443060085633 0.493826282282666
0.335671804294079 0.114054568028366 0.50858148920798
0.335671804294078 0.108898310072421 0.519401967492416
0.335671804294078 0.10067724921255 0.510519729077691
0.335671804294079 0.102148489709451 0.522958224213026
0.335671804294078 0.110851373336267 0.537998635625911
