ply
format ascii 1.0
element vertex 863
property float x
property float y
property float z
end_header
0.136123796153643 0.290453357234329 0.980102592824343
0.128779316243878 0.292180568646277 0.982159575032409
0.113743080876826 0.308565313244226 0.98637080155986
0.113087127248801 0.324355193590966 0.986554515717805
0.102260864365976 0.320702900715742 0.989064292069818
0.095235618870822 0.341120702550785 0.990357558565204
0.0859269613001771 0.349779838493983 0.992071174831205
0.188081332768737 0.209777395891977 0.001772995838892
0.191005848540987 0.213938560932069 0.0104364127320221
0.189263553923793 0.211459526447316 0.0305504322892454
0.188295111308801 0.205985281349547 0.0354846205392203
0.189110543685018 0.207145524261782 0.0424507492405269
0.193777645429833 0.213786138343385 0.0578826398664207
0.184905392013379 0.20707070361344 0.0692889182804875
0.18517709588801 0.212570231626673 0.0699018421021974
0.178444543528518 0.217223433591306 0.0698933852188218
0.168399402860172 0.229677388928378 0.0712365418309648
0.174602425655086 0.230659204366614 0.0831861920196739
0.160711408416472 0.252605748060613 0.0671516424342525
0.335671804294078 0.0255646256060788 0.355632661898873
0.335671804294078 0.0388673057922685 0.352859886546927
0.335671804294078 0.0352650553046575 0.359666583302871
0.335671804294078 0.0374273224381925 0.36947355713784
0.335671804294078 0.0333398122191398 0.382646910135276
0.335671804294079 0.0295991012896119 0.384461083379979
0.335671804294078 0.0225829612144758 0.402184084484552
0.335671804294078 0.0360134858265219 0.406557068828169
0.335671804294079 0.0348622314589255 0.424547814411557
0.335671804294078 0.0354091116926829 0.426025417935426
0.335671804294079 0.0375955488054385 0.432382329656006
0.335671804294078 0.0277382815717709 0.453506925006587
0.335671804294079 0.0312519206096982 0.463910128877635
0.335671804294079 0.0260915915357753 0.466589830472565
0.335671804294079 0.029626666483995 0.477182049853197
0.335671804294079 0.0264188408361954 0.491713852867614
0.335671804294078 0.0339946203446618 0.485447100870137
0.335671804294078 0.0271396304221723 0.50585688695073
0.335671804294079 0.030520120799825 0.514336524823327
0.335671804294078 0.0316254319562596 0.517576211058949
0.335671804294078 0.0230036765582717 0.536332347054837
0.335671804294078 0.0245054575397531 0.543762596954318
0.335671804294079 0.0355341058241036 0.5491142243624
0.335671804294079 0.0303781637930239 0.56831021588595
0.335671804294079 0.0347826981504842 0.564701188562363
0.335671804294079 0.0362694171012547 0.571658103306216
0.325242056795084 0.0439091761841771 0.574232490604508
0.317932379629035 0.0552537836368188 0.574232490604508
0.310984689627259 0.0562439495529045 0.574232490604508
0.307568261603323 0.0748331616737423 0.574232490604508
0.292201173019394 0.0821415750047584 0.574232490604508
0.291964352952441 0.0815378991102712 0.574232490604508
0.288601529619835 0.0891634424791534 0.574232490604508
0.279731694224931 0.104262835118467 0.574232490604508
0.268539612082749 0.110325630655123 0.574232490604508
0.263680486289186 0.111548347550196 0.574232490604508
0.215428818388692 0.173483180870133 0.526303861402461
0.218766377015772 0.176089463675717 0.534513652240052
0.208933444843115 0.179126931066432 0.544081674520805
0.21532443340831 0.179702895199491 0.545895961539943
0.209582474106171 0.182480144262866 0.554644296089572
0.207658946257673 0.186949276278715 0.568722061939497
0.213019172246246 0.189150165358408 0.576119310519637
0.200000768933487 0.189196938331683 0.576314754729394
0.200751800452667 0.192152819586144 0.588666115685537
0.194898328989488 0.19269099158744 0.59091490583381
0.198836182722835 0.197008004570461 0.608953852941428
0.200478151759807 0.198196174270451 0.613918704902106
0.204960192988877 0.200243154880814 0.622472159595405
0.197366474532319 0.201098418323677 0.626045938981655
0.193934506872392 0.203519187307136 0.636161295091112
0.190638000370949 0.206134736165503 0.647090552820715
0.18467372550591 0.207371502656656 0.652258469944462
0.185254144190776 0.207977533174117 0.654790811749566
0.189845948489532 0.211245295634907 0.66844539060358
0.184059148596959 0.213798320667511 0.679113388061248
0.181040372360101 0.214336685973096 0.681362985945302
0.185300756931273 0.217183741369327 0.693259610279548
0.181639151938248 0.218623268613855 0.699274777694185
0.173167035477573 0.219324329908389 0.702204212389201
0.173167291196405 0.222156047496436 0.714036746596398
0.176551303360937 0.2229516379855 0.717361178282846
0.176762975626427 0.225848827908346 0.729467293317594
0.165164867321693 0.22894186367771 0.742391764211008
0.173036732558049 0.232311459271541 0.756471860085229
0.171677367047548 0.232596274414186 0.75766198050271
0.162110226002596 0.233421517434348 0.761110317408388
0.167798929399482 0.235677505991535 0.770537126736632
0.164011339033571 0.239426638140769 0.786203143217358
0.169225035383233 0.240255307148833 0.789665795858202
0.162496202167951 0.240691590634646 0.791488837566774
0.156443227506678 0.243933856652179 0.805036877711465
0.158577701168911 0.246542988681359 0.815939322261968
0.154948483726451 0.249025736183462 0.826313660038615
0.154366298569531 0.250143969577256 0.830986278148394
0.154449803753713 0.25130540550629 0.835839421137575
0.159738137415274 0.254693646668984 0.849997428853117
0.145025225982569 0.256616150326382 0.858030747707244
0.1530281992887 0.258709870712504 0.866779507892109
0.148365122352929 0.260659164585217 0.874924771574521
0.148627001366467 0.262374406737487 0.883127627425699
0.138206994895822 0.262374406737487 0.894037115055259
0.149640919680536 0.262374406737487 0.90344888880285
0.141284112613894 0.262374406737487 0.90745379982092
0.150805641383173 0.262374406737487 0.923307595712486
0.14277585110556 0.262374406737487 0.937610795787223
0.140381470757665 0.262374406737487 0.945819137806636
0.143032821827455 0.262374406737487 0.961272875737462
0.14191397737619 0.262374406737487 0.962397962442638
0.148451589746204 0.262409940687533 0.976649924644135
0.14042087389345 0.274635996792498 0.978899102234667
0.126361841877257 0.275271603545713 0.982836641594193
0.123437587508191 0.288712916834269 0.983655642977945
0.116711736895549 0.307196189519881 0.985539364523145
0.106034762920593 0.314220988838395 0.988369560965966
0.0964402404357193 0.315666811234959 0.990135801658548
0.0866906954955017 0.333533754362731 0.991930580193355
0.0817378343838677 0.339907590378968 0.992842344677087
0.0691402876735841 0.348100344525489 0.995161407419551
0.180694976222401 0.199267673589943 0.00877943388430443
0.181170671822966 0.199944519966215 0.0144211960371252
0.182927607841803 0.202444387058277 0.0252124508608278
0.184514449617942 0.200605943885994 0.038685637268979
0.182800430325774 0.198167141119298 0.0491389493564782
0.185754729360122 0.202370683454871 0.0622852543238545
0.177169248191644 0.205221790005455 0.0670096901357263
0.173043692781696 0.210747361827005 0.0678996415331225
0.164918301091381 0.222619645997017 0.0694506754150345
0.163146525640468 0.224873574530283 0.0695593232151145
0.335671804294079 0.0171641907019837 0.331369964443885
0.335671804294078 0.0162906920442786 0.349121415331835
0.335671804294078 0.0167950333197887 0.355246549057309
0.335671804294078 0.0189491838588386 0.362170435803674
0.335671804294078 0.021487573186632 0.365525927479479
0.335671804294078 0.00958768980338567 0.383615760345343
0.335671804294078 0.0117902766744735 0.393619962373858
0.335671804294078 0.0215738114751175 0.39863698669976
0.335671804294078 0.0144822846905369 0.412217214743004
0.335671804294079 0.01442141034768 0.420850028450137
0.335671804294078 0.0179103770773683 0.427742094480709
0.335671804294078 0.0144412980338678 0.443645520076127
0.335671804294079 0.0244104175820349 0.436491417836781
0.335671804294078 0.0178309487621565 0.452859116997127
0.335671804294079 0.0109112112239156 0.468082017147863
0.335671804294078 0.0274223439999431 0.471145864927154
0.335671804294079 0.0213638702992936 0.483603885444182
0.335671804294079 0.0155038369753729 0.497838997479386
0.335671804294079 0.0183568139158964 0.499089700909442
0.335671804294078 0.0193891390136958 0.512443918981163
0.335671804294078 0.0148959204297871 0.523382604034996
0.335671804294079 0.0145981054234863 0.535840912543371
0.335671804294078 0.0139103655957738 0.544291142497558
0.335671804294079 0.0146449102803313 0.554476989580408
0.335671804294079 0.0230192816080878 0.556327597419076
0.335671804294079 0.0149927688395599 0.569439406718484
0.333236776529954 0.0272678083673574 0.574232490604508
0.324317864352065 0.0268547273008328 0.574232490604508
0.315388127738759 0.0362389174895665 0.574232490604508
0.31058140967798 0.0501501508942283 0.574232490604508
0.309995204377586 0.0527253630757755 0.574232490604508
0.300481725026489 0.062284705983865 0.574232490604508
0.295023526629022 0.0696188355823106 0.574232490604508
0.280139815068274 0.0787726552809446 0.574232490604508
0.278239975760418 0.0875276029869663 0.574232490604508
0.273478037468103 0.0994467595550782 0.574232490604508
0.265366361777399 0.108026103655779 0.574232490604508
0.213451928950684 0.171156523675629 0.518974891239774
0.205943426544807 0.173651015341593 0.526832539987562
0.209938487017393 0.175587632081174 0.532932882717241
0.201760841168213 0.174631426244999 0.529920834333289
0.202942378847321 0.177126121067313 0.537779123023581
0.202154553896212 0.182566917001344 0.554917630215779
0.199510115009708 0.184708741368484 0.56166437697227
0.199193314677826 0.18707853092139 0.569129214063922
0.1944595038255 0.188961472462676 0.575330843776763
0.186192549572478 0.190653278117531 0.582400174548832
0.188703471391054 0.191939615170108 0.58777522580424
0.186326029381511 0.194004292071886 0.596402625715246
0.19162295084993 0.195543250111303 0.602833271808521
0.185042139236186 0.198027710550098 0.613214767213486
0.189125853901642 0.199173589514539 0.618002904314903
0.186473375666669 0.20250373383132 0.631918150210024
0.179707219293018 0.20498599613141 0.642290460535398
0.176501248113226 0.205824168860874 0.645792825154944
0.172022108314572 0.206909396223436 0.650327525205648
0.174903662157541 0.209856938841539 0.66264404257415
0.173222099116832 0.213333598260307 0.677171512288289
0.166214346407541 0.214022957462078 0.680052048952831
0.166729331799402 0.214115742198805 0.680439756602729
0.169707504518611 0.217095066942938 0.692889077854998
0.16858860839656 0.22115529505776 0.709855031049074
0.168057436059128 0.222625732539616 0.71599935909826
0.164426340997257 0.224348492629211 0.723198035186924
0.161183319815958 0.225810592492794 0.729307523902607
0.160064278903139 0.226591391718751 0.732570149239644
0.162553340727496 0.228554131041876 0.740771595696985
0.155331222291373 0.231039432888466 0.751156606984524
0.152655565579015 0.23345552452528 0.761252418466924
0.160244046625156 0.23531554722821 0.769024656189883
0.155332954632507 0.238511799539341 0.782380424775681
0.142078216299349 0.239132105473523 0.784972417429225
0.147914112735071 0.241992266550772 0.796923804787732
0.148051841110819 0.243367947397149 0.802672185467234
0.146373933706182 0.245104612069468 0.809928962847997
0.137904383651754 0.246237294084042 0.814661955551751
0.141093889605897 0.249477883114077 0.828202988284401
0.141838509463968 0.251967947040119 0.838607898261073
0.143145219625207 0.253450405787615 0.844802458027397
0.129697057390198 0.255547423412608 0.853564995960404
0.131310092472879 0.257260326110087 0.860722482232011
0.12860777527326 0.257851441950385 0.863192501993256
0.134062148020805 0.261890071454201 0.880068203848489
0.133991252788625 0.262374406737487 0.89381039927732
0.127356715745278 0.262374406737487 0.894926055406882
0.140704608371852 0.262374406737487 0.916555609259287
0.130615809561012 0.262374406737487 0.920679229031522
0.13005944756699 0.262374406737487 0.924842666181014
0.130891194340778 0.262374406737487 0.93917506026629
0.125324520853419 0.262374406737487 0.946626630990749
0.135639756135427 0.262374406737487 0.96502440629987
0.130479794342347 0.262374406737487 0.966087577371214
0.132499795027539 0.262730564257381 0.981117573589488
0.121066842023366 0.2750241112403 0.984319622094513
0.119277927429295 0.276608253176932 0.984820646746628
0.10232364048028 0.290202890844764 0.989052735712762
0.0951339246701373 0.301234836422765 0.990376279292133
0.0945524891860292 0.303939745573214 0.99048331484432
0.0760165490295849 0.324609659196746 0.993895567182172
0.0738721169271602 0.328232339128253 0.994290332346123
0.066543772265385 0.342226369170025 0.995639395894757
0.162345330662889 0.208134276159768 0.00720209802863976
0.178809652032502 0.192488837971031 0.0354869835947569
0.175456077254243 0.187717183716663 0.0427003405136615
0.178154300458423 0.191556367000998 0.0529716836254333
0.174115221186598 0.188605205627947 0.0542891179488481
0.167908445609471 0.198865578371198 0.0602030047273761
0.163471268847985 0.204748550669129 0.061938503326444
0.335671804294078 0.00239063594630324 0.329884312621912
0.335671804294078 -0.00199489471874051 0.340900069648013
0.335671804294078 -0.000766943285611413 0.350998805832966
0.335671804294079 0.00701813032497114 0.349936945253389
0.335671804294079 0.00328851912414777 0.368435184531756
0.335671804294078 0.00549084706837385 0.369447528418421
0.335671804294078 -0.000294090595207163 0.384002885071489
0.335671804294078 0.000960198908199712 0.388993718423644
0.335671804294078 0.00649421512977073 0.401604745966655
0.335671804294078 0.00584776235080143 0.407383518167037
0.335671804294079 0.000901821644274551 0.422057017274539
0.335671804294078 -0.00194750909289144 0.432742971259321
0.335671804294078 -0.00404830313278007 0.446316464502265
0.335671804294078 0.0123820386608032 0.439075850948077
0.335671804294079 -0.00142728001211046 0.45905442133188
0.335671804294079 0.00471411596433305 0.461523503777751
0.335671804294079 0.00594421713958596 0.472969760971087
0.335671804294079 0.000782614588594669 0.484231402204484
0.335671804294078 -0.0030357179652221 0.499763507304355
0.335671804294079 0.000822760059246732 0.504117948808963
0.335671804294079 0.00191144832238863 0.512163964342825
0.335671804294079 0.00520724699121762 0.518687200958106
0.335671804294078 -0.00074589943018843 0.535319891112747
0.335671804294079 -0.000606614477828634 0.538741537631006
0.335671804294078 0.00466541277306196 0.547334513258581
0.335671804294079 0.00345333316690836 0.558329887781471
0.335671804294079 0.00868661533895753 0.56495555784552
0.335671804294079 0.00808815969855162 0.571694916082941
0.322130197179287 0.0123156684291904 0.574232490604508
0.315503304889221 0.0192781395580421 0.574232490604508
0.312664899332765 0.0244897267878369 0.574232490604508
0.306489194316568 0.0431094189615918 0.574232490604508
0.296438873388054 0.0517536057741726 0.574232490604508
0.287160443468629 0.0606060392877099 0.574232490604508
0.289327063531814 0.0589646357329815 0.574232490604508
0.279945130185434 0.0686261685336538 0.574232490604508
0.275636766195952 0.0830096057706076 0.574232490604508
0.200403440332048 0.163239715886364 0.49403694670359
0.19979019486011 0.164734330040126 0.49874498128794
0.195234561331236 0.166661122592267 0.504814377827183
0.18836992001622 0.169557803773134 0.513938923546917
0.19305216123491 0.174127979760363 0.528334977906688
0.187546795457462 0.173366963376188 0.525937776296535
0.188932149090361 0.178422941064372 0.541864106014315
0.193109816578768 0.181646987364588 0.552019851859993
0.188157415939837 0.182501976585188 0.554713067904887
0.190711426901858 0.183722940138129 0.558559103096652
0.181850641518438 0.187813711121473 0.571445031694184
0.187263016876202 0.190218976916111 0.580585415957184
0.175622748910516 0.191131243004731 0.584397384970347
0.176624932888499 0.191650588337993 0.586567506541476
0.172083931132889 0.193761219054296 0.595386927748883
0.174533346600038 0.195712068314944 0.60353869073088
0.173019580201098 0.199024332101247 0.617379221552216
0.169238093864683 0.198889688564302 0.616816603915692
0.166032357583432 0.202464258197463 0.631753198454264
0.171674677638007 0.205333678246804 0.643743275089005
0.168031036588279 0.206062858641495 0.646790207452541
0.158886255771421 0.206903537710573 0.650303044991185
0.165286871035655 0.21102602549494 0.667529154661576
0.153390132727717 0.212088356432696 0.671968180365774
0.161647232415325 0.214140809790845 0.680544503326607
0.152018371008461 0.216856668259478 0.691892911927678
0.154520383484336 0.218530852752348 0.698888611415744
0.15007767368218 0.219574246130078 0.70324850517269
0.156633129050099 0.221877476381375 0.712872717294178
0.156145695075708 0.223933072674266 0.72146217323233
0.149071462138511 0.226552905133094 0.732409330292436
0.145638700241401 0.229574865565536 0.745036807813709
0.138573839312057 0.22857337825951 0.740852021570674
0.152453557406656 0.231761053036916 0.754171948319117
0.137891198203746 0.234680857437773 0.766372559565557
0.136796827326024 0.235696540369962 0.770616663246491
0.141942302828251 0.236904324074675 0.775663473726897
0.132917840258389 0.239398299138108 0.786084726670526
0.136093675409455 0.241809306870637 0.79615929469574
0.135619807078882 0.244326844575011 0.806679005817585
0.134138175147926 0.245473982403959 0.811472403174264
0.132180512301963 0.248763269660254 0.825216924923782
0.126203686662216 0.251068161843168 0.834848081545241
0.126585702941491 0.250187249893096 0.831167128039584
0.122010788869884 0.252075553319118 0.839057538784035
0.12066783799071 0.255927708862974 0.855154045878004
0.121715253278274 0.257214760382929 0.860532082586388
0.120520345922751 0.259862591618509 0.871596234535059
0.124666239120043 0.262374406737487 0.885682555732929
0.115329013838416 0.262374406737487 0.887951681997579
0.123777419437278 0.262374406737487 0.90500071769717
0.113461423992513 0.262374406737487 0.914474437343355
0.118361382917865 0.262374406737487 0.924888755020352
0.121456634058725 0.262374406737487 0.930928251210731
0.119709584935901 0.262374406737487 0.937648191788568
0.122693923309783 0.262374406737487 0.955544992418303
0.114855730277602 0.262374406737487 0.960758855221351
0.122703015240886 0.262374406737487 0.974106982676622
0.111445172342106 0.262374406737487 0.980016262570629
0.115759771107943 0.265720821939551 0.985805983359585
0.100584337444784 0.286098071936671 0.989372921298118
0.0971817768768866 0.295216860240384 0.98999929337067
0.0873373892367346 0.308051436846671 0.991811531350309
0.0773497884597381 0.320134986843718 0.993650133213133
0.0682083069752216 0.32160810647401 0.995332974293957
0.05719591601388 0.335328627344113 0.996679391642345
0.0405394791460012 0.348475246356432 0.998199747049762
0.166867083558058 0.185629181998413 0.0340821500531868
0.166574175412659 0.186944792435918 0.0409787483218787
0.158954747074149 0.1911275114364 0.0336934067758162
0.157928400632637 0.194978135703991 0.0463267441812038
0.154582076632443 0.20336060964099 0.0553844455540948
0.153450824686132 0.202849097103563 0.0539913280424717
0.335671804294078 -0.0154451162855903 0.343248642746473
0.335671804294078 -0.00756431817457545 0.351662395156289
0.335671804294079 -0.0121920171669927 0.354637082151865
0.335671804294078 -0.0129177800748292 0.359722063899837
0.335671804294078 -0.0107712666368388 0.369189146737522
0.335671804294079 -0.00913145829076785 0.381299695094855
0.335671804294079 -0.00353324692570161 0.385975017886173
0.335671804294078 -0.0100187232451392 0.397701711663473
0.335671804294078 -0.0156638375375354 0.413974929295462
0.335671804294079 -0.00643316288357306 0.411070257098846
0.335671804294078 -0.00806049366516382 0.429346388566293
0.335671804294079 -0.00556696591652842 0.433142295129071
0.335671804294079 -0.012844168766175 0.447754930198014
0.335671804294079 -0.00895904094484716 0.461854298440235
0.335671804294078 -0.0152025830927005 0.471057665251423
0.335671804294078 -0.0189466999748285 0.479295886083865
0.335671804294078 -0.0153207577677155 0.489362190453448
0.335671804294079 -0.0193782692087463 0.498921930468715
0.335671804294079 -0.012470909152844 0.50008147984595
0.335671804294079 -0.0161351577305414 0.516037535367606
0.335671804294078 -0.00842370674220455 0.513022854376583
0.335671804294079 -0.0108634420119971 0.527055076877206
0.335671804294079 -0.00757238140865562 0.541490092736605
0.335671804294079 -0.0141441813631474 0.544040672425928
0.335671804294079 -0.0105521639234519 0.555672881957655
0.335671804294079 -0.0139793869428495 0.571008155460196
0.335671804294078 -0.00551244068720895 0.56998293482803
0.331248302510706 -0.000384762220813698 0.574232490604508
0.321126449039798 0.00679442343670942 0.574232490604508
0.308786827509049 0.0188537729703747 0.574232490604508
0.313014447848789 0.0245959008195629 0.574232490604508
0.300914261723822 0.028427196348118 0.574232490604508
0.291434014422172 0.0435428094566726 0.574232490604508
0.286546479068843 0.0453128886813504 0.574232490604508
0.281227386977316 0.0545628087564743 0.574232490604508
0.274922555506086 0.0639459599345003 0.574232490604508
0.264556953555333 0.076226710553041 0.574232490604508
0.183442032014231 0.160785448122255 0.486306003246646
0.188067498864367 0.161987692847792 0.490093074132089
0.18033233688392 0.164702872523834 0.498645890111621
0.180526852566516 0.168254344633254 0.509833027256294
0.186248170577369 0.17075942412773 0.517724027663893
0.182049256276494 0.173425009518694 0.526120621645432
0.17291390227426 0.175198711457793 0.531707782753592
0.175785991650018 0.177777410021594 0.539830683229564
0.175876791784959 0.182041665748406 0.553263088769022
0.174863790353734 0.181835189111705 0.552612687363416
0.163538171421987 0.185170232767316 0.56311807487859
0.169197123192705 0.187211510423504 0.569548099495581
0.161504252930286 0.188252438500566 0.572827022938329
0.168281416719738 0.191558788526838 0.586183914473434
0.164318732272052 0.192828833308117 0.591490887309492
0.164380463603234 0.194999296267749 0.600560321819387
0.160273582696745 0.198149809170767 0.613724965021283
0.15841044200934 0.199780395461257 0.620538486306542
0.152436504166769 0.200034937554756 0.621602108625804
0.156446219711414 0.201208135664416 0.626504400726884
0.147684074905813 0.203727075608539 0.637029971207688
0.14920351929371 0.205936407338765 0.646261821651846
0.148747601120168 0.208864246580324 0.658496007054073
0.14392089967219 0.20914151180542 0.659654579601795
0.145273712368112 0.213684567032423 0.678638060371774
0.146397087302277 0.213902115625748 0.679547102708165
0.140478696405936 0.217561021583746 0.694836102604088
0.136971376567711 0.219177926856859 0.701592456781023
0.139975954124304 0.219267269781848 0.701965782574727
0.13626415718978 0.223346110211898 0.719009508657435
0.134480804512208 0.223834306849794 0.721049473180073
0.132409031286474 0.225561303708813 0.728265852912403
0.128359821027468 0.226887155225222 0.7338060181774
0.13007826948474 0.229391435931276 0.744270333984834
0.12747287716453 0.23352630341585 0.761548173116808
0.12304879742005 0.234156578505707 0.764181822599423
0.122751751871322 0.235694418606296 0.770607797305456
0.127009807896943 0.238860349147303 0.783836864208953
0.124994561142242 0.242160793363998 0.797628006114426
0.11788746890595 0.24168492773002 0.795639567572447
0.121571253218049 0.243928270553224 0.805013535797978
0.110682960662763 0.246801437496192 0.817019269095376
0.115233283203335 0.249100063157947 0.826624240610572
0.113472154380308 0.250375167071139 0.831952353390697
0.117875055219052 0.252888160679823 0.842453076684124
0.107372662877845 0.254770718292378 0.850319478136585
0.108803997494395 0.256251557522369 0.856507270633333
0.101407608488656 0.257449211063984 0.861511751503654
0.103146204906602 0.260832871528342 0.875650618444006
0.109550474343794 0.262374406737487 0.884310214732822
0.102944559099148 0.262374406737487 0.89438313824841
0.10496267913399 0.262374406737487 0.905385550165279
0.106026030319315 0.262374406737487 0.913355044045658
0.107187588513566 0.262374406737487 0.927260226541264
0.0994462877320254 0.262374406737487 0.936601425964643
0.103796804420579 0.262374406737487 0.947156410908714
0.104437913782687 0.262374406737487 0.963090073726618
0.0978384121052143 0.262374406737487 0.958845742109187
0.10142884381543 0.262374406737487 0.977538508323692
0.103184566921205 0.262374406737487 0.988585328746623
0.0973850603340156 0.269246471951552 0.989961871235834
0.0844218561996367 0.288717327387993 0.992348247283677
0.0817767913295147 0.287858467304214 0.992835173153671
0.0748830212084645 0.303917495241693 0.994104236552324
0.0617272334257097 0.312790159566501 0.996265784999794
0.05280344961653 0.323107961295999 0.997080324332336
0.0447203499592848 0.337821724906288 0.997818128243825
0.0257214917775454 0.356393869184452 0.999552293659903
0.335671804294078 -0.0328852356943201 0.332251951150228
0.335671804294078 -0.0163284636727578 0.335436281391145
0.335671804294078 -0.0198887136977528 0.338053155531334
0.335671804294078 -0.0291545191394385 0.358234052286994
0.335671804294079 -0.0221026076809662 0.359609748104371
0.335671804294079 -0.0236817653757524 0.374158458932034
0.335671804294078 -0.0220632876719385 0.381776081073481
0.335671804294079 -0.0187247656211568 0.38349598382735
0.335671804294078 -0.0202522247338548 0.405500519611247
0.335671804294078 -0.0240764236193462 0.410330385394242
0.335671804294078 -0.0219205962985188 0.412379827168494
0.335671804294078 -0.025001011183855 0.428007109975301
0.335671804294078 -0.0262934797236244 0.436052388694977
0.335671804294078 -0.0245564387942813 0.446190141797875
0.335671804294079 -0.0172533796105696 0.452969445613856
0.335671804294079 -0.0204291777114317 0.462465824937345
0.335671804294079 -0.0197913062749742 0.475012355828535
0.335671804294078 -0.0274807254333525 0.488861484980528
0.335671804294079 -0.0266712051820581 0.492508034581731
0.335671804294079 -0.0247192865794828 0.502366140072692
0.335671804294078 -0.023937568524421 0.509090670208926
0.335671804294078 -0.0255179756135412 0.526127692755853
0.335671804294078 -0.0246041302949005 0.532158326864066
0.335671804294078 -0.0261420723466693 0.535859172657102
0.335671804294079 -0.0284775229705273 0.547132258697615
0.335671804294079 -0.025631752089213 0.556913048793363
0.333960762842619 -0.0296476939701837 0.571915271145845
0.332529715629486 -0.0260460890198569 0.574232490604508
0.327356977672952 -0.0217719207173975 0.574232490604508
0.320304240826437 -0.00504963558074687 0.574232490604508
0.319549052175853 -0.000194315533766459 0.574232490604508
0.30489991343383 0.00522557463160976 0.574232490604508
0.304433468201578 0.0180407783372126 0.574232490604508
0.295595154348399 0.0224446196917399 0.574232490604508
0.283434956912372 0.0405856779438818 0.574232490604508
0.284222480534974 0.0402884290358983 0.574232490604508
0.27542873899564 0.0458432300804842 0.574232490604508
0.179767351612068 0.154756121680522 0.467313624955189
0.185618100536526 0.157103526855787 0.474707951257274
0.178331731604058 0.16104862712961 0.487135017119813
0.179451424353569 0.162589308464256 0.491988163323952
0.177394971375896 0.164500948266582 0.498009828701279
0.17105506977891 0.164399975780054 0.497691765368715
0.170247039512053 0.168806990228829 0.511573860882353
0.170878748039093 0.172170358192194 0.522168469966954
0.168348114998936 0.174004686017267 0.527946602615935
0.163140120532236 0.175770018129784 0.533507398770366
0.158471165719679 0.179714539606164 0.545932641420959
0.164063043352931 0.181024540568462 0.550059144452198
0.153128184662888 0.182304744157234 0.554091785756834
0.156491962091674 0.18375222736956 0.558651357875656
0.156934435409256 0.187245954348732 0.569656597860052
0.149339738338361 0.190504651858395 0.581779129108869
0.145603108558063 0.192353172525643 0.589503304754158
0.149748523678159 0.19302562301481 0.592313187155319
0.153119851933011 0.196574758110061 0.607143501660477
0.1449739865898 0.196605196534262 0.607270690790175
0.138300597221516 0.199473435871362 0.61925583373448
0.143171948644746 0.201935458924916 0.629543572922549
0.143854053476383 0.204240868179573 0.639176890165221
0.141120021124179 0.205594716354788 0.644834041468798
0.140100073610285 0.207571357475425 0.653093577580028
0.137992830644792 0.209457664092076 0.660975644513894
0.128882665765698 0.211061506212427 0.66767741337393
0.134507755766349 0.213487033374579 0.677812651872925
0.1362257430819 0.214296521909453 0.681195157536507
0.126798995358478 0.218320497680732 0.698009627723637
0.123853179797112 0.219578503496874 0.703266294883943
0.129776173793683 0.221715418702726 0.712195547708397
0.125794967531633 0.224018553417978 0.7218193606257
0.126168729603645 0.224894273795136 0.725478620773111
0.119092704280663 0.226715833368006 0.733090137559745
0.116634148611556 0.228143395084454 0.739055306160621
0.116639642339677 0.230391984731715 0.74845119861524
0.118848443224313 0.234080882350453 0.763865520807824
0.109487951364503 0.235602563723966 0.770223975118577
0.105264987584188 0.236791182616315 0.775190704061608
0.110889515894618 0.239371782876706 0.785973926578238
0.107420778631703 0.239698522568675 0.787339231719683
0.110466643328154 0.243022555058628 0.801228938909844
0.10808637348232 0.244087685983341 0.805679664559535
0.110498452931785 0.24874476968208 0.825139621443555
0.102190999410117 0.249629767729353 0.828837648998232
0.102708742559429 0.252698852031322 0.841662036974315
0.100408751168446 0.254904887307153 0.850880112948324
0.0958687963365609 0.255845057466041 0.854808681112248
0.102485166465538 0.257499589719776 0.861722262315354
0.0902076749555544 0.25804795230401 0.864013634542335
0.0932611016701764 0.26200972140026 0.88056816969452
0.09188532851056 0.262374406737487 0.884067257237756
0.0874443445708038 0.262374406737487 0.896279549582191
0.0896677236919445 0.262374406737487 0.907846273732595
0.0921215572761275 0.262374406737487 0.923386032678742
0.095484850617682 0.262374406737487 0.928421931920712
0.098534935667956 0.262374406737487 0.943784449467243
0.0919678316630066 0.262374406737487 0.951488237047057
0.0847748696450118 0.262374406737487 0.958413681835607
0.0959115362903393 0.262374406737487 0.976624520031297
0.0944060007250968 0.262374406737487 0.984379325496243
0.0870307433640041 0.264127256462707 0.991867981311157
0.0874498650015315 0.272244306049555 0.991790825862044
0.0690321910032648 0.286667464248451 0.995181306767138
0.0624707774609924 0.284794905585486 0.996197916271106
0.0496040740689816 0.307966712747652 0.997372354851988
0.0445799165196807 0.309034400725651 0.997830946635957
0.0332094183679519 0.320963145197636 0.998868815568378
0.021408988087572 0.341043337602167 0.999945927565916
0.00866024987043479 0.356006794526891 1.0
0.335671804294078 -0.0381105629454153 0.332010268421528
0.335671804294078 -0.0409639610552174 0.339883602447156
0.335671804294078 -0.0421203086638644 0.350472452307314
0.335671804294078 -0.0415830435538757 0.356563509075397
0.335671804294078 -0.0352834843898359 0.359970441763043
0.335671804294078 -0.0453151927569316 0.380174065971881
0.335671804294078 -0.0375667745309973 0.377981162435143
0.335671804294078 -0.0437538713892708 0.396248454934531
0.335671804294079 -0.0349294649308676 0.397178423919937
0.335671804294078 -0.0379184820349941 0.40340270439658
0.335671804294079 -0.0437758061503045 0.421323019883216
0.335671804294078 -0.0368567124951849 0.433369690544932
0.335671804294078 -0.0390334542732849 0.436230036089266
0.335671804294079 -0.0383141292304075 0.441328870125317
0.335671804294079 -0.0373735403556313 0.456551241783471
0.335671804294079 -0.0419649536976692 0.470851871821086
0.335671804294078 -0.0449610810241586 0.480722653506432
0.335671804294078 -0.0327152770630048 0.475562776921538
0.335671804294078 -0.0458042491270257 0.494406711145051
0.335671804294079 -0.0366718845044209 0.503676641549912
0.335671804294079 -0.0368164592156361 0.506958865330893
0.335671804294079 -0.0373876891578541 0.516834321568916
0.335671804294078 -0.034570394402187 0.524439676815546
0.335671804294079 -0.0362837224212695 0.541514127393025
0.335671804294079 -0.0412114814512914 0.547447716705726
0.335671804294079 -0.0334939385798867 0.559424964321647
0.335671804294079 -0.0355196453101977 0.567347566618061
0.329609839871638 -0.0329275075644598 0.569710569244257
0.326841314122431 -0.0291573198215724 0.572244902323611
0.321738773258158 -0.0214769580613838 0.574232490604508
0.316414874364433 -0.0123610387599348 0.574232490604508
0.306679318886921 -0.00825519998945373 0.574232490604508
0.301099018075758 -0.000243882907210727 0.574232490604508
0.295154740396028 0.00882892646197851 0.574232490604508
0.283433544513401 0.0198213521417969 0.574232490604508
0.281349154078441 0.021462398703584 0.574232490604508
0.270251914098092 0.0382024209252013 0.574232490604508
0.268422353699128 0.0358071443022231 0.574232490604508
0.163560700386192 0.151362895990603 0.456624964031943
0.169570582699591 0.155786095207333 0.470558041564643
0.171533610217586 0.159218702590634 0.481370754822041
0.169740288748173 0.15994580603758 0.48366113067992
0.165966436544067 0.159894245863226 0.483498716130705
0.160150412598042 0.164804336016881 0.498965500114719
0.161796493222062 0.167078394216636 0.506128783443948
0.152587778040322 0.170640991175464 0.517350963864256
0.154874432595843 0.173947386849071 0.527766110236119
0.155200163290026 0.173676513887481 0.526912860407108
0.149685805956877 0.176258513211561 0.535046158277962
0.152144010344656 0.179925107675848 0.546595930840467
0.144278327110903 0.180724104348809 0.549112770360292
0.146826773347185 0.182709066655793 0.555365401627291
0.136220330756415 0.185331992951456 0.563627619458631
0.142863873105446 0.188573595970637 0.573838668969049
0.136561811452429 0.18994321227358 0.579433113700893
0.141357946810929 0.193234365566846 0.593185432819185
0.139745782874891 0.19477706359626 0.599631706727808
0.12977290646774 0.196179168294949 0.605490501361612
0.131461700594303 0.198828719574795 0.616561840638115
0.130260197797436 0.200048579626563 0.621659112997286
0.127795832355293 0.200309891650468 0.622751023954319
0.129696063728285 0.203469773226995 0.635954814827664
0.125470010234142 0.204439753248753 0.640007945632869
0.124093461610039 0.206596762879452 0.649021164446856
0.125693284399131 0.209673508438924 0.661877565534652
0.117836523820556 0.213040480674423 0.6759466995187
0.116850765856149 0.21564585373203 0.686833436937986
0.123812614748751 0.217066316103361 0.692768940418192
0.113082788264297 0.216853617836192 0.691880165516093
0.108100262597374 0.219115860415248 0.701333107721432
0.109288362076983 0.221393440218227 0.710850137612453
0.110567525024528 0.22244592202036 0.715248007999937
0.107444553112727 0.224478790268449 0.723742493179456
0.102675111802818 0.227269301455141 0.735402843495272
0.113196642740445 0.2294573823207 0.744545895683502
0.105739075700731 0.232801304612998 0.758518713833462
0.100700960503081 0.234325558093344 0.764887915876336
0.0961980043431865 0.235076648975486 0.768026402776715
0.0994654021139493 0.237141940691569 0.776656371733203
0.0917973271205837 0.239036915763113 0.784574660425012
0.0996011145191356 0.241608572381272 0.79532051129375
0.0874691977204246 0.244273404988963 0.806455704690169
0.0943120314705679 0.244875199992719 0.808970348098723
0.0887916598856271 0.248553466300401 0.824340246598679
0.0902543986302424 0.249442960030927 0.828057059686948
0.0862230929250237 0.252618268682267 0.841325313694335
0.083817086141899 0.254085884810015 0.847457852513857
0.0799399506846293 0.256155356468031 0.856105287656279
0.0754434598569181 0.258395919818619 0.86546764165695
0.073437180006205 0.261137454648121 0.876923340765943
0.0752498612050356 0.262374406737487 0.885045892108856
0.077119504031124 0.262374406737487 0.89286729489811
0.0774841392397884 0.262374406737487 0.899282895825311
0.0691004128314354 0.262374406737487 0.912555521141316
0.0830522755330705 0.262374406737487 0.922615489435893
0.080231280820967 0.262374406737487 0.936386146928064
0.075948668029916 0.262374406737487 0.941762157874484
0.0782665542768037 0.262374406737487 0.949660384225944
0.072815552977682 0.262374406737487 0.958853205249155
0.074233097615966 0.262374406737487 0.968052391632997
0.0762403918359527 0.262374406737487 0.982839995294798
0.0716566958916226 0.267597689705361 0.994698165752146
0.0677804463722605 0.26973601502634 0.995411738485598
0.0636838355616123 0.281590302366641 0.996087191543037
0.0391477436103351 0.297115450658925 0.998326780980496
0.0410996108426575 0.305385020022988 0.998148619713188
0.0278738315380837 0.321383680528082 0.999355833791596
0.0188525446848959 0.330057892350203 1.0
0.00796552243276086 0.3521425293969 1.0
0.335671804294078 -0.0514767128526799 0.333192471917433
0.335671804294079 -0.0561151201390398 0.337037304586534
0.335671804294079 -0.0501038566670053 0.345274606717204
0.335671804294079 -0.05252725552301 0.363959140614215
0.335671804294079 -0.0470243234501911 0.3624978754727
0.335671804294078 -0.0558204277935538 0.378206987522562
0.335671804294078 -0.0558165088861496 0.386818826990353
0.335671804294079 -0.0556289851380473 0.390543459322319
0.335671804294079 -0.0526189780828843 0.405904783786085
0.335671804294078 -0.0479882588227265 0.40963700606123
0.335671804294078 -0.049263851211649 0.420480549928038
0.335671804294079 -0.0533637239393502 0.431343944051776
0.335671804294079 -0.048431010189589 0.432877659557999
0.335671804294078 -0.0562844205826673 0.455357615619469
0.335671804294079 -0.0531398971408794 0.45764485789625
0.335671804294079 -0.0594768587073314 0.467695936967402
0.335671804294078 -0.0507156575292978 0.472042400685689
0.335671804294078 -0.0511988768086782 0.485956023780679
0.335671804294079 -0.0506888337877863 0.488755362205448
0.335671804294079 -0.0484488518771756 0.50592542004857
0.335671804294079 -0.0520981352318153 0.511285608950885
0.335671804294078 -0.0556287050542929 0.519874230582901
0.335671804294079 -0.0528198239581426 0.523228662558227
0.335671804294079 -0.0462532011560241 0.53100777953723
0.335671804294079 -0.0465389518128141 0.545991041396899
0.335671804294079 -0.0535240254980685 0.55128938900594
0.330378881265181 -0.047302343719601 0.560047755277766
0.328521468519435 -0.0441993971898842 0.562133566534398
0.319043394736274 -0.0347121589765754 0.568510920468842
0.316887556509702 -0.0339177970951986 0.569044893238965
0.320459870965342 -0.0273574657255803 0.573454770395059
0.310128247877131 -0.0255254151067939 0.574232490604508
0.298353604722479 -0.013542746403146 0.574232490604508
0.290819067969072 -0.00955496811455195 0.574232490604508
0.286840927515218 -0.00355069830623063 0.574232490604508
0.277975523749202 0.0136280007395041 0.574232490604508
0.272131637662879 0.0138053472993189 0.574232490604508
0.269714068904155 0.0224483392615995 0.574232490604508
0.164572262498322 0.149572922596249 0.450986547839729
0.157097991593652 0.150567161841761 0.454118401463091
0.154142729001908 0.15094282909376 0.455301753306888
0.158124590288989 0.155881330334367 0.470858032214801
0.156792652444807 0.158906931494089 0.480388675867924
0.152049708761559 0.160580057206835 0.485659021863076
0.147380549693009 0.163845568086836 0.495945381135077
0.145867314866779 0.165160355695525 0.500086962102445
0.147659955920937 0.167746153708743 0.508232225844083
0.141207369244213 0.169265246302338 0.51301736751391
0.146417820724167 0.172246377927663 0.522407932133682
0.143865714835113 0.17336995307907 0.525947193860614
0.140755849844288 0.177945301334964 0.540359540866677
0.131462087115966 0.179017745823382 0.543737741005198
0.133657132396775 0.181835850725644 0.552614771447324
0.138208770002799 0.184238664348615 0.560183634359681
0.135561467163541 0.18739187654438 0.57011625277634
0.121591017351659 0.188435956837394 0.573405105699336
0.12390534011008 0.191838151737758 0.587351253604779
0.12069614725373 0.19098321983818 0.58377885959583
0.122165699826865 0.196341730579334 0.60616977947851
0.115062474493044 0.195816984696807 0.603977091326521
0.116410816412465 0.198567336395784 0.615469632354388
0.117858474216159 0.200423408511116 0.623225362264883
0.115031671230325 0.202631064823518 0.63245021185599
0.114949341089243 0.203469796820151 0.63595491341335
0.104903745651048 0.205522166515253 0.644530886782168
0.108049088267704 0.207453710565592 0.652601981563944
0.109206335025745 0.211495983992396 0.669492909811662
0.102805409779068 0.21285150222832 0.675157039583198
0.104862795940888 0.21390246295055 0.679548554029664
0.101083929302701 0.21820105551021 0.697510530082525
0.106223775373831 0.218757227802086 0.699834535730721
0.101201475401176 0.220809247558059 0.708409046853897
0.0978199990939145 0.223369938170611 0.719109075484912
0.098484481161112 0.224614717493441 0.724310474798168
0.10151249919406 0.226983317463239 0.734207838957685
0.0850953385414532 0.228573823307367 0.740853881234932
0.0939210408546324 0.230440286227429 0.748653029865189
0.08965171555587 0.232097597052561 0.755578221527347
0.0889203925763607 0.232630103415843 0.757803337402492
0.0891617066847569 0.237418994205047 0.777814059628808
0.0854312342848398 0.238771406625128 0.783465211527004
0.0872763253175657 0.241493168958495 0.794838289848574
0.0766021883310731 0.241823381967746 0.796218108494373
0.0754016173379339 0.244021220030421 0.805401931827693
0.074678770200298 0.245900227286376 0.813253497861503
0.0733675640294357 0.248804389144594 0.825388745626201
0.0704212097244083 0.250910476297575 0.834189181229731
0.075392988904771 0.252336482044243 0.840147848099735
0.0692682524996361 0.254286380606533 0.848295638520732
0.0712850380245756 0.256892396311047 0.859185061286023
0.0630729397245978 0.258927267702957 0.867687916745074
0.0591792580194048 0.261751939961851 0.87949101154117
0.0570865886510588 0.262374406737487 0.884137747913332
0.0681750450865013 0.262374406737487 0.897022054156236
0.0624999559782295 0.262374406737487 0.908022269324014
0.0654030551002665 0.262374406737487 0.922704575045374
0.0565600582061386 0.262374406737487 0.923514311006564
0.0615585323040932 0.262374406737487 0.943238037856141
0.0627060365179728 0.262374406737487 0.945543555413715
0.0685564016872883 0.262374406737487 0.958977263962335
0.0666383870649088 0.262374406737487 0.97450417116375
0.0632442832250545 0.262374406737487 0.979417822512486
0.0552042095858372 0.262374406737487 0.986987665873638
0.0588146077244907 0.272017336939396 0.996531641753537
0.0512064934323605 0.286986645597757 0.997226090259904
0.0439034081957312 0.279514052390492 0.9978926965226
0.0372478695523184 0.294587847954449 0.998500196448668
0.0158660568541996 0.314912008838936 1.0
0.0144293514541291 0.323892551339635 1.0
-0.0017092843969784 0.338786312823593 1.0
-0.00623238370727776 0.342145908961787 1.0
0.335671804294079 -0.073826619095384 0.335581962662574
0.335671804294078 -0.0708581659904453 0.347007130014395
0.335671804294078 -0.0681836516614205 0.342581626135272
0.335671804294078 -0.0697737030740385 0.35200307304821
0.335671804294078 -0.0738420346813228 0.369288723380822
0.335671804294079 -0.0689958407231563 0.370278298167366
0.335671804294078 -0.0712315121966724 0.38333869150191
0.335671804294078 -0.0669210192981827 0.395581544600212
0.335671804294079 -0.0655810696989352 0.401250474006043
0.335671804294079 -0.0706547208538944 0.411292352826027
0.335671804294079 -0.0613671079528684 0.420647191328701
0.335671804294079 -0.0705465953232725 0.432363149481594
0.335671804294079 -0.0715709456294766 0.446787691015406
0.335671804294078 -0.0708208700676177 0.455942173813237
0.335671804294078 -0.0619670907892961 0.449786015269614
0.335671804294079 -0.0664532619488096 0.457574260889933
0.335671804294079 -0.0726838471388824 0.481934065629632
0.335671804294078 -0.0626729841075174 0.481733176653934
0.335671804294079 -0.0698325130751104 0.492681013521463
0.335671804294079 -0.061033569563514 0.493714043534274
0.335671804294078 -0.0666531874076778 0.505875374536383
0.335671804294079 -0.0699848708600302 0.51714355564867
0.335671804294078 -0.0688894928468939 0.525984764739719
0.335671804294078 -0.064136596822575 0.533207006330219
0.333164822535685 -0.0682366363887321 0.545975652236124
0.327998023826113 -0.0619191115744909 0.550222313996291
0.321527917144191 -0.0545419056812391 0.555181296997533
0.318263540590308 -0.0496511572778383 0.558468874780607
0.310949401388689 -0.0468819181625552 0.560330366773345
0.314789464542804 -0.0465604271697332 0.560546474116901
0.307088939416986 -0.0328878815289292 0.569737206000699
0.309094876030492 -0.0273827687958271 0.573437761584806
0.296865976302183 -0.0268676433566227 0.573784030664656
0.293810708481052 -0.0210215542755921 0.574232490604508
0.289408591785075 -0.0187307492471483 0.574232490604508
0.282528952416584 0.000563533650904412 0.574232490604508
0.274838823531211 0.00285128275552626 0.574232490604508
0.266398180936881 0.00838943252478211 0.574232490604508
0.151471731636283 0.144334846679607 0.434486608702303
0.156583426094532 0.147218160609237 0.443569047580641
0.155639410086007 0.149708438676723 0.451413423493223
0.144080695405815 0.150592103326183 0.454196967139023
0.138538384346335 0.15365119111261 0.463833093666264
0.137830748349575 0.15729601771536 0.475314297464927
0.136409618610174 0.159027633580585 0.480768887440386
0.130883781351383 0.159871658483286 0.483427565883893
0.131252053290611 0.160759121218773 0.486223073500677
0.126953584173104 0.1652798699342 0.500463431954273
0.12774505107254 0.167450597735556 0.507301224528544
0.129911282080059 0.168826162132332 0.511634252378389
0.127482928037144 0.172525984876016 0.523288694020993
0.126168327536552 0.17679313858118 0.536730228192261
0.121058285729664 0.176069419650236 0.534450513559789
0.115530684162256 0.178011903082939 0.540569336372805
0.117966256408119 0.180612230084374 0.548760366427322
0.113459111756304 0.183297209771982 0.55721805244329
0.117609317979611 0.188610080193247 0.573953594270272
0.109727359648606 0.187833137168882 0.571506223743523
0.113150942772095 0.192683179535546 0.590882262616966
0.11138226888162 0.192794224029171 0.591346269965326
0.10872091633889 0.196545614253609 0.607021721974586
0.100477916857571 0.196729124672894 0.607788533369456
0.10876566015915 0.200425888803616 0.623235726344256
0.102774334830277 0.200477285163629 0.623450489705741
0.107238678780839 0.202646413514569 0.632514347457884
0.101366235413842 0.204416085258233 0.639909047243909
0.104720085465673 0.206695859187521 0.649435245448432
0.0966678276783498 0.209138251120106 0.659640954595306
0.0936408651455175 0.209374000066638 0.6606260484076
0.0940274478588464 0.212643678318772 0.674288632532587
0.083687496623092 0.214567630121179 0.682328002564074
0.0847362422003887 0.217106447541614 0.692936632499466
0.0868783401693327 0.219027461728776 0.700963727495822
0.0808218519005579 0.221175219605846 0.709938287196435
0.0875416165025527 0.221834576306452 0.712693456266823
0.0804486323726561 0.223966046034413 0.721599954772943
0.0832899791096821 0.227695112097449 0.737182123679204
0.0698841421780548 0.228992251732823 0.742602314298446
0.0800831980399454 0.230611234053535 0.749367347567134
0.0764613326402173 0.233393288275542 0.76099235985195
0.0682979083921088 0.235904917870096 0.771487383514903
0.0739506311619973 0.236324719084347 0.773241552874457
0.0677432084290097 0.240116826697886 0.789087145402455
0.0681333387926134 0.241044802986641 0.79296476060904
