ply
format ascii 1.0
element vertex 846
property float x
property float y
property float z
end_header
-0.253919533080605 0.105650829858801 0.519270876233565
-0.243949569822923 0.102415271470406 0.519490341319702
-0.234494966996942 0.0891335590249898 0.520391228219579
-0.235665656816688 0.0926015387509564 0.520155998198074
-0.228405704349563 0.0753242017322748 0.521327904806416
-0.215740162990343 0.0748855334607741 0.521319521784832
-0.201777150232106 0.0633512103718566 0.517600467941867
-0.201963636349958 0.0530214337691834 0.521343288282964
-0.192143741818252 0.0551082289057175 0.520165364333109
-0.195143583898255 0.039987668432078 0.52506254907486
-0.181520875337698 0.0367324402003811 0.525501774942744
-0.182726302496848 0.0317669539450701 0.526171764834302
-0.173367438291287 0.0256161391714457 0.527001690346383
-0.160134227404765 0.0126394362514767 0.527939600531324
-0.155670840931503 0.0125843918847838 0.527925809403955
-0.142164204427869 -0.00152835720470123 0.526174460268228
-0.137493706627549 -0.00865259462200965 0.530230721080404
-0.134209926086155 -0.0105848848718474 0.531330891212176
-0.131133596912642 -0.0242291540247476 0.533816444756533
-0.125036910767844 -0.0278340405165202 0.534316314652672
-0.120823490614106 -0.0345380012873925 0.535245916231504
-0.106592780467657 -0.050493917682273 0.535593885120855
-0.0969205234606867 -0.0583994914330735 0.533829371010815
-0.088334201390555 -0.0617174055872242 0.534427167313335
-0.0850144073976624 -0.0708795075726863 0.539726770191949
-0.0791129244509136 -0.0754851386706569 0.54102633405947
-0.0700536465246719 -0.0813279367597794 0.54187711924958
-0.0615576361215818 -0.0950132521278385 0.543869873998166
-0.0600444860006238 -0.104945717603444 0.545316166407904
-0.0555689412462612 -0.103399211130664 0.545090975534733
-0.0440610590509301 -0.123472021449875 0.544013436429529
-0.0343210726666996 -0.12866023568097 0.546978629943371
-0.0221822260707482 -0.140207412046985 0.550349398994175
-0.017841721767204 -0.141663539746353 0.550553719311918
-0.0161585943952535 -0.143940690701167 0.550873243627564
-0.00676107776224479 -0.161911845614164 0.553394912629268
0.00772475523216416 -0.16366389446052 0.553640755886795
0.0135120403200299 -0.18471009637249 0.552996937061722
0.0217484715465371 -0.18761184490443 0.554688120666808
0.0237012886110916 -0.191908720236899 0.557192405595494
0.0395326956885789 -0.194357855820865 0.558058722501832
0.0491057277485157 -0.213093070755085 0.560849147321492
0.0459092771383559 -0.212358311626464 0.560739712222073
0.0601491604561193 -0.228041918187609 0.562561935105545
0.0778305252703189 -0.245765603764914 0.562307377366289
0.0812904652696222 -0.249669696205045 0.564463661239054
0.0863494556054978 -0.260168348593512 0.567430242653448
0.0958005930161673 -0.268831318911233 0.568517042898562
0.102972792970441 -0.273333731278298 0.56908188644352
0.112166466954264 -0.2770771564844 0.569551512366541
0.123346163536186 -0.301463708112156 0.567893716132524
0.129087897196366 -0.303355376593161 0.568235114292806
0.146120513178473 -0.309097879246623 0.570630067875048
0.148807452841851 -0.322573396508466 0.573069712399438
0.16161996340065 -0.332271628909258 0.573219548869264
0.174933999621259 -0.347313300265814 0.573451940798351
0.180028858830175 -0.363966574145779 0.569032038377528
0.197116495308328 -0.377340683149991 0.566490395256761
-0.138392556606249 0.00865993956680958 0.0881070730520656
-0.139227985350938 0.00917304678740774 0.107707077863718
-0.146187214989659 0.00897626439401725 0.119266683136751
-0.142530173647437 0.00675268429592886 0.132563368024996
-0.146759206508965 0.00872005827941515 0.130090682194435
-0.13599053628274 -0.00354625717540624 0.133988255761149
-0.126258560729572 -0.00811710352893076 0.134342044029061
-0.0086721695421147 -0.133149241408677 0.088549897991702
-0.289144286191164 0.1659853299568 0.483049951676553
-0.288818438366721 0.165541278604544 0.495906805188295
-0.303338865811083 0.177771506614473 0.515820149446524
-0.289235212497773 0.166955085681006 0.515924548214087
-0.303270016332755 0.169415571943907 0.52575055147106
-0.302199011574338 0.172772191497415 0.544874823985792
-0.305491845065317 0.183114183909886 0.553451478054904
-0.30312646672838 0.178104789621316 0.565819876245509
-0.303635654710819 0.184526952310681 0.575781674379817
-0.248369689072919 0.119432772159734 0.514004297501936
-0.243163732877883 0.117609186554227 0.514879415679695
-0.236872478704457 0.111247665516105 0.517932237922778
-0.243746257440603 0.107338648946099 0.51915639294601
-0.235924777866684 0.100736826403552 0.519604188775677
-0.228755916799932 0.0991049948931336 0.519714874475023
-0.219955886512356 0.0898002668182731 0.520346006015026
-0.21052605600317 0.0714869469999161 0.520223703162407
-0.201104710366718 0.0651108149354952 0.518167823656116
-0.189816337637882 0.0583876103170676 0.518314266524076
-0.192311151604137 0.056065241117964 0.519625163915074
-0.179288622233305 0.052069575534316 0.521880579458359
-0.177638838740813 0.0431731545887777 0.524632733460649
-0.173620832473892 0.0367938026337756 0.525493495348766
-0.158421861575701 0.0292461686674527 0.526511892783098
-0.155945770254323 0.0280654089771244 0.526671211934577
-0.142598406446623 0.0104764753361496 0.52739768005386
-0.141697527954046 0.00958728293102236 0.527174896752816
-0.137368410710506 -0.00397233080397584 0.52756596279068
-0.12454543588565 -0.0148111402915679 0.53251050029548
-0.121725185296595 -0.0163522666618504 0.532724199861447
-0.115991937858763 -0.0227527623754044 0.533611721600309
-0.109563283641003 -0.0301327066282217 0.534635058111902
-0.102267269203887 -0.045229864850143 0.536728498482251
-0.0905248047643796 -0.0536839840828506 0.534807032587731
-0.0872752672515566 -0.054938442852885 0.534497611423105
-0.0773538764743654 -0.0676898655772893 0.537881796633766
-0.067473678058681 -0.0695646363066063 0.538966213765294
-0.0668261145770667 -0.077633522319289 0.541339165850515
-0.0563447181356684 -0.0824562482702997 0.542041415654887
-0.0441604037718916 -0.0994733731964599 0.54451932395235
-0.0416173809789985 -0.103073276173965 0.545043515288825
-0.0332124675631505 -0.104737467867731 0.545285842616411
-0.0205191933941048 -0.124742714350248 0.544739669036442
-0.0186623761454425 -0.128425729881594 0.546844604044613
-0.012245311863252 -0.133498833868931 0.549408067526109
0.00209951867577126 -0.142996546865739 0.550740763647592
0.00467368389406632 -0.148612669105827 0.551528804340089
0.00914230658139153 -0.160505027057774 0.553197511251235
0.0211635006127763 -0.17169885507414 0.55272824738722
0.0360640291746136 -0.186816383297646 0.554224513426877
0.0339735666291423 -0.182596052928305 0.551764840078164
0.0468303385461506 -0.196646880453181 0.558399650063606
0.0548278940322211 -0.204615393082687 0.559586481145887
0.0669237788782311 -0.212989597209712 0.56083373596111
0.0696338493680698 -0.218699067586025 0.561684105060217
0.0881360302925406 -0.230157905496979 0.562062633158302
0.0833995923515012 -0.238730119048689 0.560039878626839
0.0966719074035825 -0.246393970401206 0.562654432889384
0.101150333965388 -0.261258443922129 0.5675669989653
0.111134696480778 -0.263953065598386 0.567905048778568
0.121532519296275 -0.275327047123319 0.569331954961535
0.136240782277296 -0.286218905137829 0.570698377046083
0.139335171146116 -0.302800161933887 0.568061401568356
0.149154399573425 -0.312404959483917 0.57200931036548
0.161594072952241 -0.324860533115823 0.573105048372128
0.176074961620793 -0.326270237246442 0.5731268281235
0.17472614722386 -0.340718555477116 0.57335005282148
0.195346228144833 -0.360887284211218 0.568980716020726
0.212927521527657 -0.377275906430488 0.566502705557467
-0.131053913743272 0.00870205376251436 0.0891172456072896
-0.138642360385888 0.00910762572509071 0.10495909043809
-0.13171393932722 0.009150568470401 0.107856385312437
-0.132677164134125 0.00908133201966554 0.113725587505684
-0.137152559138249 0.00599905293659033 0.133306412075953
-0.127968772764041 -0.00106150657841075 0.135507367197865
-0.128114475288257 0.00607572530761426 0.134378317615969
-0.117725791580999 -0.00676371091795794 0.135540909306028
-0.00888088341834968 -0.119777504312986 0.0979522542710446
-0.28866836509979 0.17572310368625 0.489357013185752
-0.288564800620068 0.172608795225799 0.497013294588643
-0.288349086290575 0.176628277082316 0.501510840916348
-0.29601787818006 0.181359903382274 0.518761355328106
-0.301747645155904 0.191067866155736 0.538494362148323
-0.302304883631241 0.186381439788981 0.544269283927195
-0.300990599509126 0.193658316657647 0.563412794124102
-0.304293707149506 0.188722618990488 0.565463652782787
-0.303656854306341 0.191742199578854 0.57843450606922
-0.303401579361864 0.193171618700181 0.591000303912937
-0.301873097640257 0.193384307428151 0.599934664855311
-0.240326632027306 0.117215465379341 0.515068358033743
-0.233393581139789 0.108662857751581 0.519066573024786
-0.300469051350114 0.190259179582071 0.618351790845261
-0.299963325999995 0.189686549081028 0.632134404256127
-0.211034794767679 0.0846601953748221 0.520694652550393
-0.298954732196 0.18641643978018 0.637561430744901
-0.199032391645312 0.0735697289869229 0.520895262151445
-0.29763438791564 0.183727836481893 0.654274014081089
-0.182239988890306 0.0593436039034458 0.517774641085245
-0.296893759711324 0.184276877081231 0.685050759647313
-0.296591713745801 0.186402477965275 0.682597442400552
-0.295838367914551 0.18237432355519 0.699822928955035
-0.295392071387355 0.183120339779782 0.70218994435867
-0.15511570710553 0.0261392679882271 0.526931104908986
-0.293814844853981 0.175805872625628 0.710495572077302
-0.292844976049029 0.181853860103587 0.730350806716041
-0.291878782215352 0.184465570567157 0.734094994300619
-0.291898876899537 0.181924892841531 0.745748629534841
-0.291970292698379 0.17659120453683 0.74629172766593
-0.291104083403746 0.181244734473203 0.759990772574175
-0.290935447446677 0.179016315334888 0.769814944874086
-0.289914516949595 0.178717854372658 0.778156562987319
-0.289244370490476 0.178138512915023 0.781223763949237
-0.070506295177948 -0.0543639465189717 0.534639315023861
-0.287342261412266 0.180471464367744 0.799921600800417
-0.0600946717612413 -0.0628124391368883 0.53506056377205
-0.0511793449344521 -0.0717525782697448 0.540231777447567
-0.0455530140601413 -0.0814507851087713 0.541895007520638
-0.0455222189613351 -0.0859585942770752 0.542551401464385
-0.0286465346010158 -0.0959730892095434 0.544009638398986
-0.0299102756777056 -0.103480364048792 0.545102792424487
-0.0163319603638696 -0.113500229453109 0.543670663821265
-0.0074072678486999 -0.123564121962468 0.544066074163901
-0.00319629776125838 -0.133116062267102 0.549354357940513
0.00510743950109219 -0.141642424878961 0.550550756524783
0.0166604654151979 -0.143385838670062 0.550795388132236
0.0174466698512495 -0.154322425766459 0.552329983588061
0.0371198701110657 -0.162429012844617 0.553467480284493
0.0404231125643224 -0.175454648005297 0.551808401275266
0.0464807362485082 -0.181382917570833 0.551400529907961
0.0625168733834228 -0.18928156656004 0.555661260088761
0.0617679138974358 -0.196204655594996 0.558333785048207
0.0726044074567913 -0.209299830653714 0.560284181754619
0.0760240172375461 -0.213858146262204 0.560963097745413
0.0793332767207608 -0.224725400560177 0.562581667706904
0.100389011085983 -0.232732184012346 0.561455189876495
0.111182210165794 -0.2427719601848 0.560653946902846
0.120538936052748 -0.253128718277732 0.566374126635366
0.126895060668065 -0.264252846769553 0.567942657386049
0.130753684759345 -0.272961791733201 0.56903522531299
0.136435714571746 -0.278310852487749 0.569706283890586
0.150826530523038 -0.286203120647535 0.570696396825986
0.163968227102857 -0.29646928333444 0.568439744206872
0.171256869504013 -0.312146622737178 0.57190156909754
0.17514670023912 -0.315723356560172 0.572963880144486
0.181512161022308 -0.331083203526908 0.5732011878467
0.194549302370911 -0.341717906132675 0.573365492663315
0.213450415498812 -0.363555368613252 0.569021893456664
0.226491033986163 -0.372081048300766 0.56748994705704
-0.118864306334185 0.00879729805132396 0.0944659506801111
-0.117691798736124 0.00912703874280716 0.108933288728561
-0.114641082652058 0.00895217780493963 0.120050373625957
-0.118607710482329 0.00884147041048025 0.125744669385556
-0.11663074993828 0.00585324741974138 0.135827661201854
-0.109229302992619 0.00257147268397219 0.137446503822831
-0.109622883568513 -0.00711252640637821 0.136464170576066
-0.00872113660832339 -0.100301644104663 0.0939405806944761
-0.008900349841549 -0.11258446922351 0.0998715788694167
-0.00911223763652339 -0.107648775385609 0.109793513588007
-0.288060698871241 0.185002495536323 0.50127306010097
-0.288035470460482 0.183474668019114 0.509104280491981
-0.301678467305053 0.19632255024399 0.539651052968078
-0.301054783113846 0.19934310492706 0.548458169721132
-0.287847103871745 0.180657475430884 0.535170338253675
-0.300165792672015 0.201912315518519 0.560948354501195
-0.299189078226832 0.19777440913416 0.572426989134747
-0.298766420588653 0.199189900613922 0.576419503994731
-0.298141056402734 0.202385718806252 0.586924749153308
-0.300513982782535 0.202556637728807 0.605430953704028
-0.299003192925629 0.202295789135207 0.611772864033381
-0.300178106781116 0.199016658252362 0.619652971221831
-0.298053769344769 0.200559788750205 0.626384541864578
-0.298722470615172 0.196898874227056 0.637812128430323
-0.299578000997275 0.193281775464878 0.638667648693037
-0.296401571506196 0.195812239287793 0.654182719237225
-0.296657793350357 0.19385963595516 0.660550737211541
-0.295256209535692 0.194148794196103 0.663391596585535
-0.292906213572393 0.19416368081596 0.672192095369658
-0.292887929178928 0.193130979631422 0.683364626751464
-0.292248404650705 0.192795366347978 0.688155689214408
-0.294895656245739 0.186601334756077 0.698189044130495
-0.292584050521693 0.190099888259689 0.699614223920724
-0.292179132448392 0.188197834584589 0.710868956284992
-0.291624347903058 0.187070455342193 0.71654813070227
-0.288130615330724 0.19532822032484 0.728529383041382
-0.288183910944775 0.187916307142135 0.73199377902077
-0.287035922475034 0.192297559663458 0.743683326309754
-0.287439500327473 0.188346379546072 0.752531471362976
-0.286517546471149 0.188353083029945 0.766708308737707
-0.287422809622116 0.187553856609821 0.764877240662336
-0.28691274343417 0.185768687634225 0.780809622207264
-0.289046162047686 0.184126045880788 0.79008542748812
-0.288338812919668 0.189093769223193 0.800456096432302
-0.287490528397228 0.184607621730375 0.804639989862719
-0.0587121363467946 -0.0628887557372887 0.535104707318565
-0.040496410279635 -0.070677546664802 0.539609950644373
-0.0394772031896671 -0.0753941766475334 0.541013088840149
-0.0383771668703645 -0.0781981406114832 0.541421381404387
-0.0275168123726516 -0.0922103646745042 0.54346173818747
-0.0164780565753718 -0.0976411693259357 0.544252531930013
-0.00751818294207464 -0.101063611753537 0.544750882769284
-0.000165433875773655 -0.114748131618651 0.543371872694528
0.0100227958190182 -0.123485113216527 0.544020918699888
0.017393007704409 -0.132424612053464 0.549130064696486
0.0207606946257692 -0.141008122993029 0.550461752817941
0.0319303398736506 -0.145799817748129 0.551134111839276
0.0436850964073141 -0.157572669864499 0.552786049980548
0.0478554709021036 -0.168023482786028 0.553628397361186
0.0550896113696631 -0.176682641099728 0.551507648626193
0.071777099243881 -0.187260079847102 0.554483106589521
0.0722627247627524 -0.192163866256728 0.557341108613997
0.0789948325172057 -0.207095043896005 0.559955800590466
0.0908368336881159 -0.204070109423416 0.559505266542162
0.102018825823102 -0.217839591166507 0.561556094554794
0.105286435211942 -0.225342457959528 0.562673572298784
0.115161831749611 -0.24389926869236 0.561276574873817
0.12566090342353 -0.249936826861754 0.564611201169478
0.127333961500109 -0.257565031048248 0.567103647266123
0.135158683795878 -0.266219729841781 0.568189409819292
0.1475757766335 -0.269032491599396 0.568542280723325
0.152696472241024 -0.279850077116174 0.569899385060521
0.160676638614147 -0.28414603163059 0.570438327738151
0.178730793298882 -0.308936681011911 0.570562838948398
0.190504807238244 -0.319838960825905 0.57302746571234
0.198869864723851 -0.333558158841924 0.573239425594782
0.21025942276681 -0.330063921609023 0.573185440069371
0.219913006903785 -0.345598397304415 0.573425445763461
0.233965689794345 -0.363666315554529 0.569023605737791
0.246985782788358 -0.370004928098134 0.567884497200847
-0.111252587504055 0.00887013483214662 0.0987611229599576
-0.107460192114946 0.00878007375904146 0.0954246733890137
-0.102997804697187 0.00902727591187711 0.106806470361987
-0.111483240011126 0.00887246027860048 0.12406621475132
-0.105311292530075 0.00869890532947841 0.132819074552662
-0.106405464634098 0.008594459065121 0.136240277512371
-0.0954657559780224 -0.00205005731884797 0.139250848026402
-0.0948938716863038 0.00173728695943931 0.139377162783924
-0.0848476539291626 -0.00797142759346924 0.139314454326039
-0.00860406649031291 -0.0942441893455077 0.0897721717012229
-0.00897153998811925 -0.0953735588579443 0.105530765690186
-0.00891992794494917 -0.087803588916656 0.121315975354293
-0.287357992418282 0.20142749220525 0.506518601988123
-0.286947963595718 0.201736110445224 0.517074329087731
-0.286907318155068 0.200018828384633 0.520355878583691
-0.286924363623688 0.196747091773355 0.524206310837536
-0.286477939022889 0.196333042989216 0.538337120192368
-0.294435100889013 0.2061927230721 0.561096780888656
-0.299282957598524 0.208818013993145 0.57351115432235
-0.292403811633362 0.209745292149399 0.572649964172397
-0.298797038763788 0.211160896117577 0.580372535641684
-0.297889158891784 0.203096391102528 0.59380959351517
-0.296976052539631 0.209514639744044 0.605704683395678
-0.296328682741955 0.206934859822545 0.614637513569761
-0.295599177748105 0.210797090407021 0.617410255413927
-0.29291707907114 0.208822441388672 0.635042874726428
-0.293176095199322 0.209023809685659 0.633589649803177
-0.294074679743434 0.202324413474924 0.64589945235859
-0.289013150610447 0.206435708018971 0.652223452719262
-0.290069701955424 0.205265367287331 0.660804327134413
-0.286212494960416 0.204497551717302 0.666194455735007
-0.291642100399578 0.203003769689194 0.677361540989034
-0.291201781890968 0.200804943628279 0.685904358132064
-0.285785822945836 0.20182254794386 0.685657904945354
-0.284878681012607 0.200980298938526 0.691745480107505
-0.285222427420125 0.199394799439833 0.703313043444017
-0.281978308241247 0.198539204015431 0.709409922266608
-0.280530622983824 0.196451417144423 0.72523761439798
-0.282117642521196 0.196737794897357 0.723138396992389
-0.280342453431371 0.195463145101495 0.733576159100026
-0.285304687825558 0.196329237536605 0.750365120420369
-0.285596715612415 0.196868723030848 0.760484984727472
-0.284914519197068 0.197698142666664 0.773462044695112
-0.284611961580368 0.199746591424527 0.777755832133127
-0.2780153921718 0.188207687475945 0.773783892667102
-0.279420776528237 0.192978965738281 0.788441043147812
-0.285369642853694 0.194593136955705 0.797065230803042
-0.283355723184417 0.20388453127767 0.815453160200855
-0.284329614691368 0.204616811299681 0.820330983181677
-0.286056304993431 0.196546477527679 0.828456184030261
-0.279536263398542 0.189899606749184 0.831289917153131
-0.0271760853159156 -0.0719528070968668 0.540347595113675
-0.0211735470123159 -0.0843051591251153 0.54231064042513
-0.0176375669930205 -0.0889722493344495 0.5429902277
0.00160704488340343 -0.10142086830089 0.544802903834349
0.0122038230910239 -0.110660957140351 0.544350484240579
0.0139611524953287 -0.121038684382213 0.542929338369385
0.029928798490156 -0.131407471512747 0.5485487435714
0.0329437714465927 -0.135579983805009 0.549700089452752
0.0306174205505066 -0.139064282357312 0.550188997800299
0.0437841237235243 -0.149414905030879 0.551641372145222
0.0561536153831501 -0.162573103283403 0.553487698706442
0.0677606257222986 -0.165763193454698 0.553935324445385
0.0740939019787325 -0.172173289930405 0.55261205166879
0.0826942541725104 -0.192949928839689 0.557799237958509
0.0854124137351972 -0.193681474933967 0.557957982263678
0.0909579082091752 -0.201557699280331 0.559131067919673
0.109844693601698 -0.211590503053786 0.560625354735091
0.113526834964965 -0.223951392366893 0.562466386847798
0.131125943986639 -0.238582825810697 0.560074634884695
0.140511421448916 -0.245120334664725 0.561950986380247
0.142389711690559 -0.24321394252407 0.560898059818928
0.152637848147043 -0.262694775972214 0.567747191897614
0.157139156220017 -0.269373886732831 0.568585109949455
0.160198017157655 -0.273399551731835 0.569090143852055
0.174616769723434 -0.283839258124052 0.570399841917483
0.184961128272838 -0.297759070515458 0.568103800502291
0.201575111475318 -0.306210174421318 0.569425729029571
0.197841159756863 -0.312358273979509 0.571989839827499
0.224308386162446 -0.332113315443434 0.573217102946145
0.228528185250187 -0.335302228702483 0.573266371254592
0.234540912850214 -0.348577026268659 0.573471465206024
0.253501439933731 -0.371902567172539 0.567523865976917
0.262386551667747 -0.373008571562867 0.567313678632898
-0.0986568832327893 0.0088590868880649 0.100165728923132
-0.0919601282611637 0.00896191077819915 0.1056238216981
-0.0954968410523299 0.00882065317511031 0.126480325276036
-0.0911165673259644 0.00897377650325249 0.118619878962818
-0.0904907254726581 0.00532040189732456 0.139132519699054
-0.0815623376775606 -7.51640676489103e-005 0.141375174183914
-0.0741583215612351 -0.00666445608427938 0.140839714098196
-0.00864797545317548 -0.0809071707736748 0.0936696349877514
-0.00904171854236411 -0.0760986187490541 0.111454745075265
-0.00904955087639393 -0.0711984334982917 0.114480748232978
-0.00873349745778351 -0.0744299349520342 0.130623461133543
-0.0087599187024567 -0.0783070500365366 0.129332224377055
-0.00533180983155953 -0.0782018381151176 0.140629050265399
-0.285484999518105 0.216880528828157 0.537303586419862
-0.285365379244361 0.212543259904576 0.544969729691086
-0.285747921688431 0.209351731856343 0.540734603677065
-0.285394411740188 0.206386204268368 0.551521012778474
-0.284419782803683 0.212890761788935 0.562801236777376
-0.292310606857131 0.211532246169366 0.578535872114483
-0.288406063850034 0.213204471202237 0.583737119302951
-0.282894882127572 0.213372678145943 0.588722492649497
-0.284183095675607 0.212330705787802 0.597636314893737
-0.288535751600028 0.211841738836819 0.603968465762595
-0.282615715978699 0.211316003739675 0.610366806376642
-0.283693158142847 0.210565088055117 0.619874354814121
-0.286053304480146 0.209082759596028 0.632785411447378
-0.282762923889189 0.207687102670038 0.642778840129796
-0.284027112270712 0.2068435805295 0.648989950890182
-0.284847896711877 0.206636284191287 0.650543180418391
-0.282004732207374 0.205116840666132 0.661461858806482
-0.278913435943683 0.205055017298443 0.661749534634871
-0.276474591900797 0.202515526710715 0.680119960141276
-0.27953665831332 0.201244790745825 0.689537693368713
-0.274960510904172 0.202763097270474 0.696338470822252
-0.278216845458419 0.200057578868187 0.698116413634748
-0.279374212986081 0.197872645931636 0.714352336258915
-0.273014324993168 0.201925804264034 0.719273171428191
-0.273272485266525 0.198313825991994 0.720681930689013
-0.272014113691189 0.201195809322707 0.731918106886837
-0.273548354835316 0.195462479433492 0.732743470096082
-0.272030918561264 0.195965143810887 0.741956581841136
-0.273103041742382 0.197438307906631 0.763503596152138
-0.274302194099905 0.199580162094558 0.770176274143159
-0.283143158041759 0.205418149286573 0.788808324421237
-0.282794399180303 0.208286284488283 0.803412412557105
-0.282551429103821 0.211354038119595 0.806988526636905
-0.275644982103965 0.199265380331642 0.807303984756708
-0.284054341838653 0.209445012564487 0.833774539772959
-0.283965077793398 0.209263761534132 0.833121119048056
-0.284099082262617 0.213240067567759 0.851765289330361
-0.285204186202719 0.208913156275133 0.852125754866841
-0.283683965351507 0.206185352134293 0.857938267186317
-0.282644123850934 0.209230213548226 0.869958265934963
-0.281685989010397 0.211577675257622 0.880261584661575
0.014665184884578 -0.101635530284679 0.544834161330142
0.0222251346827914 -0.107002214376735 0.545226514351726
0.0279357093971025 -0.116087003857532 0.543051300172212
0.0402887946664187 -0.124873587953191 0.544814466556608
0.0462455960118043 -0.129983475919605 0.547734894661458
0.0569493350379457 -0.142776420088835 0.550709875990541
0.0620544633842236 -0.158551363711037 0.552923377934535
0.0766872294009104 -0.164587731576733 0.553770386477029
0.0897996508249802 -0.172941817934473 0.55242382843353
0.0913181697869645 -0.179534441535805 0.551141208194263
0.105105535268303 -0.18968850110437 0.555898427790283
0.112029786919421 -0.193915019420492 0.557992766403277
0.111175243546612 -0.211011862418956 0.56053917194003
0.12234095008379 -0.212942798031627 0.560826765686762
0.129831769501514 -0.217244411419679 0.561467448422708
0.1416641696249 -0.241352680029898 0.560325747163395
0.155577243809891 -0.245433438901097 0.562123918150111
0.158140793311438 -0.251236357671843 0.565328949883405
0.161611304095723 -0.260065419084926 0.567417329782798
0.18257288799506 -0.269406540956827 0.56858920653727
0.182052779727154 -0.278306872553583 0.569705784593779
0.201472852261293 -0.286896370444757 0.570783367463297
0.209806756970463 -0.305641164234154 0.569188419085053
0.219261437386847 -0.312805942139148 0.572176543173981
0.224731160770064 -0.320793932947647 0.573042219911413
0.237068637744573 -0.325303685638391 0.57311189502282
0.247202143487439 -0.337366109004711 0.573298257945471
0.26221695039061 -0.360466201942645 0.568974217317714
0.269651575468524 -0.368400111450871 0.568189479849809
-0.0784421462570632 0.00876730604958113 0.0992104024359452
-0.0789632761735128 0.00908213921150328 0.112778347959194
-0.0715373017793011 0.00894443063774935 0.119839522132672
-0.0740938178335146 0.00882673578583666 0.125869898758762
-0.0775948198745609 0.00861836958941784 0.136531640519457
-0.0782712945886446 0.00230111218090073 0.141281800549199
-0.0677375071448076 -0.000341320633306592 0.143001086499428
-0.0608640370351807 -0.00851665542094177 0.14211136406074
-0.00865351618921646 -0.0626321868690766 0.0966424803471436
-0.0087651942933223 -0.0636194351802422 0.101335339671524
-0.00900672756938787 -0.0620130566448172 0.112044365183002
-0.0089746186909093 -0.0634013163236528 0.118187698105475
-0.00876098675844633 -0.0628851423080289 0.129061210896225
-0.00869152781538417 -0.0632356275626453 0.13260383661978
0.000389141108343094 -0.0651539980026965 0.143305346397202
0.00852151315545264 -0.0754269042019551 0.140368836656045
-0.284731734678167 0.224257879502529 0.543739383177123
-0.284092628148546 0.226178188583279 0.554142127516859
-0.284214717274848 0.218471639152889 0.560692113270045
-0.284151269540522 0.216946548666711 0.563499985487759
-0.283043305387488 0.222681565586228 0.578089272457532
-0.282778883783115 0.217871525395947 0.586416083521272
-0.282387203233752 0.218774980495166 0.591003803382692
-0.282059873555504 0.213087593368399 0.599820410511492
-0.280489427680494 0.22267038472074 0.612587468659857
-0.280615293865544 0.219387120524306 0.613578959004671
-0.27878293452851 0.221165162515182 0.634242105339901
-0.279822677041313 0.215364904841295 0.626552914291554
-0.278539256183055 0.217724542369993 0.63978957142169
-0.277882623821381 0.213279874979797 0.650971946922126
-0.278000747463485 0.209160084239729 0.653581337832283
-0.277073287962378 0.210052215948289 0.663822640451732
-0.276391643854482 0.213222440334132 0.668871590851596
-0.27538898661801 0.215023061389931 0.679119253424075
-0.274383334350734 0.211798185222056 0.694355248146922
-0.274655039347867 0.208609853656372 0.694239409842327
-0.274137317839367 0.207076144738351 0.701958421961264
-0.270702483630674 0.212554069980835 0.714932926199161
-0.272198856369399 0.207770403692729 0.721624331914857
-0.271500610561116 0.207353335896617 0.730451162513498
-0.271827008131312 0.202954356571338 0.731989342741072
-0.266078831138415 0.208044714692423 0.745132588834729
-0.270068881719235 0.204287194586207 0.751844910933425
-0.267184946885866 0.207051798742869 0.754919521497741
-0.268302379557695 0.209743501357748 0.774716021516468
-0.268542789326157 0.206664017348846 0.778537855988057
-0.274004030306501 0.209664934599099 0.801119922724521
-0.279153828670267 0.211142843770454 0.806068972208524
-0.279334467349111 0.214924597417541 0.81769605942366
-0.277431473627798 0.21770927070604 0.826095181843731
-0.280729102647361 0.21213776450765 0.834103788397962
-0.28169901523006 0.217489835191956 0.853013970913277
-0.279848012979869 0.219308281510728 0.852213648759222
-0.283260886438482 0.217288687854853 0.869445116172987
-0.283205367114403 0.212726836009851 0.872134047916687
-0.281529284843661 0.224475731821794 0.887251262746326
-0.28165233882871 0.221509135516608 0.893440410260792
-0.281134628969314 0.227452859945403 0.906858248923328
-0.279912414054288 0.223830581602167 0.911971770508117
0.0475335755576688 -0.125292113847291 0.545053664517849
0.0571949456037665 -0.135246324101375 0.549653271129955
0.0687841086964267 -0.136659326103539 0.549851540154147
0.0734846221731314 -0.148748306533015 0.55154783665589
0.079670780287141 -0.155228344066955 0.552457099853404
0.0817401933971202 -0.163944356131615 0.553680109590304
0.0952341677253921 -0.173336880259129 0.552327072155967
0.106297131808643 -0.185257674328079 0.553316073903113
0.121158309152346 -0.189547039077467 0.555815981548644
0.120713841732674 -0.193309064535973 0.557902515421087
0.130862704969113 -0.200894935040735 0.559032355746354
0.136502806697628 -0.217309977513253 0.56147721384336
0.149300832170801 -0.22026079446342 0.561916708820329
0.16380771612328 -0.237752173377388 0.560270640964503
0.161042955712513 -0.246307151368164 0.562606481545078
0.179223100647193 -0.260972125210251 0.567531079270919
0.178667695063947 -0.262974707213317 0.567782310261211
0.197781736152324 -0.274610801952529 0.569242099473333
0.203054894554529 -0.281560783522982 0.570113999225645
0.204100681057456 -0.28808201611269 0.570624329123866
0.221074375307147 -0.309256391624382 0.570696176645013
0.229176029026734 -0.314535836534217 0.572898008539935
0.236396674437572 -0.323966150207412 0.573091230268774
0.250761582872586 -0.327019553117314 0.573138404959384
0.26998073513243 -0.344884490213082 0.573414415988763
0.28550213096575 -0.36469000693919 0.56889455572488
0.289549977024395 -0.370324732187713 0.567823720975379
-0.0635890995315601 0.00886226310614885 0.105547147040955
-0.0638414694425423 0.00893206994598716 0.108535060266233
-0.0578752547218049 0.00896858770838919 0.111009995439016
-0.0653783571959953 0.00878976292824722 0.127630594259658
-0.0633629335535395 0.00861051731530775 0.136731674803341
-0.0620066486976486 0.00502910309510297 0.142670610230107
-0.051457342865457 -0.000526650370078187 0.144943707874997
-0.0085310610866622 -0.0483386267944922 0.0934722290877237
-0.0087150372937139 -0.0443126375048284 0.102048356962396
-0.00893890519018562 -0.0495877495613926 0.119812644068811
-0.00889122136611618 -0.0473549502003977 0.122209928558932
-0.00870820125198128 -0.0474772507812515 0.131533279393747
-0.00863992101546503 -0.0538528580909852 0.135100499304477
-0.0030359430514267 -0.056128306746274 0.143822518285554
-0.279406786689794 0.222627902223902 0.537073250834979
-0.283708482400208 0.22950796460416 0.557834932123987
-0.283319566246369 0.230993725377874 0.563792086613752
-0.280558218399803 0.234248875978819 0.57387061518914
-0.281321515866927 0.234242693330215 0.588710394013488
-0.282015926227731 0.227492601482307 0.587938884721456
-0.28071382765834 0.230247947721549 0.603483544616385
-0.280438082313525 0.228923826510758 0.608246774706005
-0.279451664233511 0.23262577683838 0.617443121034314
-0.278973333035339 0.229046862918486 0.625855241332171
-0.275909321632913 0.230297090527412 0.630363265946101
-0.277440055651813 0.2270562309887 0.645421738979897
-0.27571203784284 0.227060121064178 0.647090321327599
-0.276939737437843 0.223233243669858 0.654282615278128
-0.276761508384791 0.222969191514224 0.656582520614386
-0.276068528740428 0.222085013681842 0.665413689265718
-0.27529741250109 0.221125322465404 0.675221743433767
-0.272727662667156 0.219685175211783 0.685052919080504
-0.267137808353456 0.218702190976386 0.689810783357739
-0.267985070044575 0.216952934693527 0.697719660066881
-0.270203696944566 0.214575779887186 0.707067965456067
-0.264205710253121 0.213560494143695 0.710632645713604
-0.264272015780739 0.211392632952362 0.719037299942229
-0.265330512194242 0.209688904671997 0.728976146309147
-0.248623777297235 0.19822135396447 0.710105235874049
-0.263925821849942 0.208161314748799 0.743890024910458
-0.261179585244302 0.208031838913914 0.745032986547352
-0.259855595043785 0.207560313368368 0.758300997306649
-0.242396811273529 0.196882014533955 0.755517955736099
-0.265770527212774 0.213339949363446 0.78309976093138
-0.258220060871105 0.214589245917936 0.787730082958402
-0.267215636607903 0.212027530684921 0.797706171497063
-0.266247388716556 0.21654792734017 0.805420975128972
-0.270152737677278 0.21731249736477 0.824296157249354
-0.275619966398311 0.220193625384787 0.833579410409906
-0.279485101603007 0.224768718196492 0.850160343546568
-0.271514867880387 0.227167275643999 0.854522855670525
-0.278204367671817 0.226395138075912 0.868078652202578
-0.279532083115714 0.22685862214468 0.881937773328399
-0.279703191639376 0.227056368648966 0.885221788335818
-0.281265769729154 0.225519161508493 0.893046681557937
-0.279822817744869 0.232939143404177 0.908682638962625
-0.280485112905339 0.230983664388607 0.919080733666243
-0.277957622168441 0.223989975570708 0.920605304623516
-0.279367547273514 0.232273773868886 0.928963580182706
0.0794992384678644 -0.137694666630716 0.549996816633384
0.0816179054689332 -0.142094961522265 0.550614255372301
0.0844091149179746 -0.147707827527118 0.551401839157744
0.0971403842346989 -0.158126008333399 0.552863693096488
0.0981856988087132 -0.165043848950323 0.553834387763964
0.120380073234658 -0.182234085453965 0.551553879875568
0.121588817688832 -0.189326977405493 0.555687726226842
0.134969504378489 -0.197359171601156 0.558505738779701
0.146565370671076 -0.206739342449592 0.559902822380824
0.1496798015433 -0.208928398148995 0.560228860559553
0.152707423888678 -0.212536233516622 0.560766211926506
0.16787230323893 -0.223155506329589 0.562347847500375
0.185054824444535 -0.244603780505265 0.56166568642372
0.178026242964336 -0.250550575351255 0.564950182889337
0.19445757117746 -0.255984558029628 0.566905371339849
0.201632765054992 -0.264138477582333 0.567928309367282
0.215251494209386 -0.279349035106531 0.569836527569508
0.2305422689685 -0.287155197409409 0.570815838220822
0.239227650433355 -0.296710149982633 0.5683770070086
0.236958990625043 -0.304933196718185 0.568893155949658
0.251294312231 -0.319849619817004 0.573027630392411
0.261099113549399 -0.332589715462656 0.573224463266475
0.271414856740179 -0.337447444894973 0.573299514574737
0.287290663790976 -0.363744295964903 0.569024809235458
-0.0595628607683591 0.00852284943057747 0.0914379292652944
-0.0504799114286741 0.00852484859032375 0.0928827694663802
-0.0515491701918742 0.00891899357331718 0.10980637896455
-0.0481359644656088 0.00899453837914807 0.113591114216007
-0.0551007186139192 0.0088429995526186 0.124774772287371
-0.0495011398471049 0.00883904237950767 0.124897668905888
-0.0547665808624911 0.00855388280507165 0.139495456224177
-0.0412816550696695 0.00264271200126657 0.145719331460102
-0.0462691478191376 -0.00246946061641402 0.145151883248827
-0.0368262792637315 -0.00817754205600772 0.147998715563371
-0.00900059980723372 -0.0400726626553919 0.116536747927697
-0.0088029891132387 -0.036857433620988 0.138348439870303
-0.008600484758643 -0.0426941296828008 0.136952343408651
-0.0273078402975014 -0.0103574731688659 0.180262546057991
-0.0209613164104769 -0.0202254228530523 0.181398884150612
0.00608385564703908 -0.0573241317458186 0.143016892695422
-0.27285569772134 0.234265842116751 0.584600129986546
-0.271969798149649 0.234266737650243 0.589564311668693
-0.273294625890336 0.234261597188089 0.595570108265655
-0.273840271050498 0.23382857972594 0.611981387259868
-0.273414461127867 0.232445338496304 0.619109425503317
-0.220879983747717 0.186203984309249 0.565435334570596
-0.230902279086967 0.193494985198819 0.595765819740923
-0.229020970502269 0.193700279457784 0.593061529179018
-0.266250712191757 0.227305146633524 0.645360082167405
-0.266819449845942 0.224754080758807 0.658497634660255
-0.225970501573142 0.194391966916396 0.62507318795958
-0.234927932333043 0.193482825457596 0.630785260928611
-0.231135130327289 0.191443540938509 0.64359794465884
-0.229532010175314 0.190593332052551 0.648939748344617
-0.22869534558472 0.189698809985559 0.653307975129025
-0.220130184850154 0.18804201603843 0.656069654100638
-0.219298799519457 0.183155076990039 0.66622386369762
-0.221122658044609 0.183379345480251 0.668445838660954
-0.219921297142284 0.185521870355084 0.683818234249294
-0.223867437686207 0.183957656875523 0.695442901543033
-0.226350719312001 0.182478566315788 0.70643496616777
-0.215174569897633 0.182953260721366 0.702907209500833
-0.218866644967896 0.17925350074358 0.717097783656959
-0.217798132521381 0.176535686720703 0.721900932126555
-0.215835328655071 0.179534138853506 0.737178456635247
-0.211101711141529 0.179477354821321 0.737039031806344
-0.257116339615241 0.216357662407059 0.795076937905408
-0.212536488799786 0.180288995389272 0.757435924503266
-0.260738109161715 0.223410161848424 0.822192096384224
-0.26341053264775 0.227553325762294 0.836248371027942
-0.258847756534663 0.22771674886408 0.836427150410704
-0.266835036855655 0.228297597494396 0.857348512585084
-0.265195708026129 0.229550598193338 0.860761614701085
-0.267679001284098 0.233736080872261 0.872792394422084
-0.276575514182434 0.23834172371537 0.886518597917068
-0.276219821885627 0.240557372863303 0.896269128834573
-0.275369580382833 0.239361817011413 0.908081431018443
-0.27747360809409 0.237733672483041 0.915047974345119
-0.27736697523698 0.239576312153599 0.921436177008597
-0.278814446499723 0.237739635169513 0.941235810705081
-0.277870184479275 0.231661958766073 0.937490540021298
-0.276704833514435 0.236725753451074 0.949490231345131
0.0928739613823324 -0.142770981158776 0.550709112813027
0.105811046681135 -0.154357340583228 0.552334882750723
0.114612701185888 -0.150791954230567 0.551834596359107
0.119877644650446 -0.171279541036009 0.552830943247917
0.136691989320493 -0.182056018780098 0.551494958916383
0.142949036016204 -0.187633416011629 0.554700692639341
0.153493957221936 -0.192897178851695 0.557768494455452
0.154214097122914 -0.200695307070594 0.559002623136158
0.159011135853407 -0.213845932750351 0.560961278663713
0.174518506638225 -0.216117074870449 0.561299542802297
0.186607606015266 -0.227500686969437 0.562689647497743
0.193639961055498 -0.243633533300144 0.561129805567136
0.199602153383365 -0.249822715663783 0.564548175987656
0.208798800582897 -0.262009097503909 0.567661171110276
0.218340757716792 -0.26724629932027 0.568318196588718
0.233069772330237 -0.273746289820076 0.56913364337075
0.242025660274488 -0.296045236886042 0.568550193230467
0.253600415536728 -0.297466254557549 0.568180068648779
0.262973400766204 -0.30732900246561 0.56989234461415
0.279187891826677 -0.323750786187833 0.57308790292178
0.283478190122142 -0.331926784676882 0.573214221069282
0.283710163343578 -0.338922248650608 0.573322300107121
-0.0373190634972451 0.00844341246645183 0.090053890350908
-0.0332160250613279 0.00964534336524561 0.103965991671607
-0.0394067126915017 0.00886672926075157 0.109356761535909
-0.0325526995634349 0.0101682547489682 0.114667783837395
-0.037423041483543 0.0087459649401232 0.13720233847686
-0.0311924866111647 0.0100906512623193 0.136636785931345
-0.0395617907916887 0.00682922961773253 0.145015729628594
-0.0355346527862998 0.00142060059686742 0.156756939783344
-0.0312867400498847 0.00629145389907589 0.166650597526977
-0.0305110749356176 0.00492437711861811 0.169318922895088
-0.0289027375552608 0.000304760697015942 0.187961575861742
-0.0284381314608898 0.00663787505148678 0.189498068870352
-0.0289027375552608 -0.00124212156737267 0.202945604804771
-0.018570092579531 -0.00999879197639661 0.204119645908916
-0.0181080051748649 -0.00584209073928182 0.205139900050182
-0.0106449193355859 -0.0228450952639984 0.204119645908916
-0.00620917179527933 -0.0234586638434932 0.204119645908916
-0.0151120159792545 -0.0130710193306391 0.231932093546481
-0.0163736452188924 -0.0100307213079265 0.278318532008225
-0.0154342890837801 -0.0122976497280319 0.292495113245823
-0.200926990596404 0.175035027236677 0.546270043556873
-0.206215677595391 0.175230141310583 0.546706658146663
-0.214503463491675 0.186545963182508 0.566519235242481
-0.216671185889766 0.193389566831237 0.588210009652835
-0.212210213575135 0.193692821267889 0.589171173377677
-0.213566466339738 0.19269756554278 0.605250271082118
-0.223002870965522 0.195017139650778 0.618072879129468
-0.220764701939019 0.194034306604067 0.627320342989604
-0.221764003156736 0.192355387752204 0.637868874131922
-0.22241841977993 0.190620232801641 0.648770732796773
-0.21405058477038 0.188592053069537 0.655152652905191
-0.210883479635717 0.186777630504748 0.658177187806396
-0.211914917819425 0.188055110161828 0.656047684136808
-0.211030864027828 0.184999179330804 0.674852364250365
-0.208220002326456 0.184313043251829 0.672138661023167
-0.204328377640077 0.185281480164602 0.685604726963708
-0.208708834138098 0.184659849996415 0.690224456929818
-0.212285061881899 0.182972302660951 0.70276569671169
-0.203453777987872 0.182159982031008 0.708802569032706
-0.202346427550426 0.179462999858866 0.716727539281701
-0.20187830730226 0.175979019122473 0.72288472170892
-0.201188276486637 0.17542166553077 0.726232821523904
-0.206089955686691 0.180254455708863 0.751071603391445
-0.210047374792283 0.180285405259778 0.75677440312663
-0.205477751149284 0.180335040681631 0.765920282864175
-0.240996695236429 0.215789352350109 0.817293147283449
-0.258621192239201 0.227957437015646 0.837212994176787
-0.2630427805436 0.230926866929148 0.855922619202756
-0.256686828263169 0.234143277862258 0.857949024273192
-0.262263026937364 0.235422294348775 0.875452721307585
-0.261999627263596 0.236414984858103 0.874296324622141
-0.266174399846118 0.240956030908304 0.89311938091551
-0.273379724352248 0.248930785018667 0.916479884211584
-0.272151064008569 0.250666041611919 0.921341502491402
-0.273753012660287 0.248242927528704 0.930947764868296
-0.273627138971018 0.248683904684747 0.941868714089899
-0.277011124589456 0.246793681032691 0.953656926731595
-0.276955382938238 0.248639397664763 0.960628206703764
-0.277161325840862 0.251184744198778 0.966788558624461
0.110145292141955 -0.14982887848646 0.551699459899488
-0.272178163640331 0.25516971182671 0.989526532069956
0.133935470823687 -0.154984276168499 0.552422852836069
0.143544082060698 -0.171365516011391 0.552809886776413
0.146479020934509 -0.181280198127955 0.551386119452293
0.154680895451599 -0.187553076329703 0.554653869438978
0.166918809712808 -0.197583330284814 0.558539124996865
0.173416994725741 -0.203034156060626 0.559350971542841
0.185795104498898 -0.210870891593304 0.560518175730905
0.192531323005332 -0.22266052814581 0.562274125399292
0.19736527159302 -0.238162588907248 0.560173796681775
0.210838122089256 -0.242653215504579 0.560588362585143
0.222760510079537 -0.247158341139088 0.563076605345642
0.230922526302965 -0.258836480162521 0.567263155051371
0.240726256584011 -0.268330084811084 0.568454161309116
0.247002315583894 -0.275383617933843 0.569339051969661
0.256039747834009 -0.281826605491593 0.570147347531139
0.275126361438578 -0.305614448707879 0.569177277175469
0.276903099598541 -0.31353820722702 0.572481939793047
0.295860947635376 -0.323735763668375 0.573087670825746
0.295000816164097 -0.331800359465532 0.57321226781568
-0.0236346186537433 0.0161668602402069 0.0923557825382066
-0.0241136063865864 0.0157995747595467 0.110773214635296
-0.025192051155098 0.0144680864638677 0.116095695158005
-0.0276526227641959 0.0109926072671926 0.127208957664729
-0.0235267036974403 0.0167885394304376 0.141069638578822
-0.0258380705291009 0.0135563464809508 0.146983731358467
-0.0231391033723348 0.0173252131267659 0.160145864052578
-0.0260632505235331 0.013151834814862 0.16677358757174
-0.0267241525199637 0.0117026178377951 0.17843196996858
-0.0242975889136935 0.0157297499785951 0.18772223793521
-0.0266881141463725 0.0115398244626787 0.200124573343997
-0.0258617653994213 0.00455688936990459 0.204119645908916
-0.0196901369622451 0.00202180329519135 0.208825696883867
-0.0169718212833161 0.00857841763056385 0.216250433617903
-0.0193238987488939 0.0029039714028593 0.227237050348206
-0.018497449185532 0.00489664065256712 0.2401762380358
-0.0200303926254186 0.00119881758398021 0.240946894863242
-0.017901248677028 0.00633389294743793 0.253254874937889
-0.020098685233616 0.00103260576869382 0.262304527522292
-0.0192334424464561 0.00311907063700555 0.272082336646617
-0.0189463050719402 0.00381115119868136 0.280081468999247
-0.0188034014638718 0.00415483309433961 0.294990867700048
-0.020061120521432 0.0011206775747449 0.299079829646252
-0.0199088226154906 -0.00150538675844187 0.315414704279606
-0.0189228003940226 0.00438444115921559 0.324268841572225
-0.201076558146348 0.185624363713472 0.563598229409059
-0.202546173711618 0.191200585811418 0.581272043060006
-0.211054512141511 0.193704433157595 0.59300681351745
-0.20056918028522 0.193514703423846 0.595506076433403
-0.205982333774954 0.194265618455195 0.614767529673591
-0.208555275907577 0.19420293668115 0.626260851866695
-0.206847922691212 0.193910088286476 0.628100798096237
-0.208861574724697 0.192745372697948 0.635418625663598
-0.206960375265501 0.190956329227084 0.646659062178105
-0.205651329237237 0.188977272669606 0.654510357369925
-0.205603906535641 0.184611984009172 0.661787166191082
-0.201569761823132 0.183520322939528 0.663606863600277
-0.198978706991903 0.183264084067747 0.66541288393394
-0.201467469909608 0.184985135058209 0.687807056320262
-0.196658519596249 0.185042098439078 0.687383725132298
-0.197002206935012 0.183976793785395 0.695300682969153
-0.196372094371564 0.183115455394854 0.701701837509886
-0.192229538419841 0.181707570797602 0.712164725245401
-0.187423271436495 0.178736733758091 0.718011057536111
-0.186006562451514 0.175782038780818 0.723232841859377
-0.193899771787368 0.180195869722839 0.740276482438229
-0.194438944880002 0.180204079485462 0.741789222711405
-0.196371645600151 0.180300482655707 0.7595525813867
-0.190747340052232 0.180326132314913 0.764278816999191
-0.193551725484658 0.17896968001755 0.776269110703826
-0.242582312223055 0.222676434112024 0.838567883028637
-0.181746330797939 0.177097097107576 0.781014411426515
-0.239651221207362 0.227368883725782 0.852571728857684
-0.250046908391686 0.237580816978367 0.869214880125926
-0.256668227608752 0.245130382869297 0.895668531407528
-0.255419782803987 0.248334406025479 0.906567841087938
