ply
format ascii 1.0
element vertex 845
property float x
property float y
property float z
end_header
0.193640329471662 0.0567061789160768 0.507622991164385
0.175021728401341 0.0427241459530012 0.50046865627757
0.16360517445206 0.0297114460001335 0.495853195948564
0.154135856472282 0.0213069462821907 0.492150468750392
0.151651521009001 0.0139931728215499 0.491344492174439
0.136559364153187 0.00371968224467481 0.488398403100097
0.128969852557365 -0.0041071361938973 0.487006903680635
0.124833259652329 -0.0152041290022975 0.486479622462418
0.108228870674215 -0.0220978528940413 0.483089140987011
0.105614984337984 -0.0328234937894222 0.482868526710889
0.0999911178649529 -0.0385877064401481 0.482397904457689
0.0908675046501538 -0.05219069101982 0.481854548192207
0.0790783543773156 -0.0663878077039223 0.481063355900429
0.0746967678305422 -0.0666550513749187 0.480637267698878
0.246813546432467 0.116341947501848 0.704578009791963
0.24707795688242 0.117804964252062 0.71558978749768
0.24350167450096 0.116564627862447 0.717660134847881
0.238112698918411 0.105793756235166 0.723979117743807
0.23629641213501 0.101578988234427 0.724091860170103
0.0202421299566028 -0.125955435062574 0.475917291953972
0.00294910855952531 -0.1386069681842 0.474743472537027
-0.00217352787896046 -0.140430114709813 0.474682744760635
-0.00920541247305898 -0.155952809866739 0.473155918926259
-0.0197601129177874 -0.170988247446177 0.471780349480165
-0.0303743996909443 -0.179459064577344 0.471134209768528
-0.0504231366329108 -0.195626785351909 0.468296115664375
-0.0499708302914039 -0.202986613347932 0.466206923807261
-0.062154554687304 -0.214912761164502 0.464078268847291
-0.0710001785871996 -0.23029436518592 0.459156215761635
-0.0985954635105413 -0.255070430724213 0.447406893916235
-0.103145598002787 -0.255340587714271 0.448067586700336
0.0976283615302076 -0.0517451775905996 0.148110305621921
0.0991495685763716 -0.0528503968357185 0.152363332190915
0.100298614528858 -0.0536852226243861 0.16335843304403
0.0962140197428298 -0.0585854802660857 0.169504615729193
0.0923094080689058 -0.056896167186958 0.170827510785236
0.0823489855044269 -0.0730338257733521 0.170372726705576
0.0791755560948823 -0.0756857247582428 0.170694098659874
-0.00691434689845717 -0.166916730122227 0.120684958425701
-0.00977783744492759 -0.175729653299966 0.120153710701164
-0.00804594086650673 -0.170399436730129 0.130797274456273
-0.0104591998081038 -0.177826687430498 0.137521943128126
-0.0228484530794518 -0.182724496366134 0.140812153077227
-0.0346670922969274 -0.192091019060035 0.136810102639283
-0.0408035865553456 -0.206302892013465 0.131899220285323
0.234768671124187 0.0959092975703819 0.507056485316168
0.231622643423352 0.0906828865909515 0.513069561933779
0.228916486202447 0.0828640791567707 0.517966064618111
0.22664854947622 0.0788310301140017 0.522117249191212
0.209442595166385 0.0705435929581202 0.514663371933767
0.206227165539274 0.0634293500759848 0.512604679217758
0.192515112147472 0.0392438199932468 0.506335024427335
0.185523275038089 0.0322123392329325 0.503556668999235
0.165485631057375 0.0158008717150982 0.496020920136387
0.156273449296002 0.0115872775924624 0.492979845365391
0.149501316891399 -0.00513022647427373 0.491522307892198
0.142865831689082 -0.00764328978088927 0.490159214348797
0.134342785729107 -0.0164283206203279 0.488596403485748
0.11935009259204 -0.0237529435512649 0.485572241703711
0.108908123166045 -0.0402972251010701 0.483784208638472
0.1085784569822 -0.0445366938464461 0.483824003378595
0.096670828833361 -0.0614442526140278 0.482672122089737
0.0877143575856061 -0.0709418098410245 0.482037080184352
0.257771198689815 0.113861149787255 0.699392524063811
0.260826133113446 0.118600004729455 0.714674204247016
0.257301203482182 0.115248776228949 0.721276184160366
0.256082883642253 0.108598549012277 0.725416512239686
0.248474752471757 0.104112758646144 0.725578359688282
0.23519390483909 0.0885002996765014 0.724625431026872
0.0254001521981838 -0.136190198610664 0.475176333640474
0.0200970544475591 -0.139440240605989 0.474669642518282
0.00465075350886434 -0.157762492727312 0.472572831240668
-0.00742270289373317 -0.172263179872362 0.471298467444285
-0.0116353815879256 -0.178101004780422 0.470767536699817
-0.0260817995127173 -0.183837991255365 0.469877384106608
-0.0285628938351746 -0.19411160463519 0.467090986995781
-0.0432377670611138 -0.20842641082438 0.464040180525596
-0.0523719838699104 -0.219143424514424 0.461950817641308
-0.0865386100540878 -0.254384061851753 0.445637397346013
-0.0829842940917764 -0.250160653823602 0.447680275498048
0.104473852715824 -0.0567187192244639 0.138271525951641
0.111309344761876 -0.0616849894636954 0.144612958817368
0.108018320795604 -0.0592939189501471 0.15199741853899
0.110120534690475 -0.0608212614892961 0.16274523028642
0.103616151216804 -0.0695921900314219 0.165535140987858
0.0992180699064637 -0.0718921751687005 0.166238106080318
0.0879553527852318 -0.072498799435013 0.169027745595329
-0.0131152263375083 -0.186001079229018 0.117269673905206
-0.0138661287928209 -0.188312117472349 0.116100836840141
-0.0195038875564867 -0.205663340932373 0.107403552214417
-0.0182772743702245 -0.201888251391553 0.128230392941834
-0.0224409570003332 -0.202910931573053 0.134735107393385
0.237305804633913 0.0811408802003373 0.502285398441051
0.234837986759978 0.0832556086728188 0.506935956072246
0.236060983467933 0.0759258234504556 0.504517867872064
0.231882728013014 0.0801748302545011 0.512386277035504
0.229698158007824 0.0716488097217724 0.516297197256837
0.21831868774427 0.0607079290477816 0.516948128660322
0.213699600305289 0.0525737055869309 0.514869984265105
0.192558728652995 0.0394986899403542 0.506363220651293
0.180830292500882 0.0175763137487418 0.501263826796706
0.168178337052431 0.00885799476390577 0.497186425425574
0.159900159158182 -0.00158005990092521 0.494678749027095
0.156864794811562 -0.00127677239870632 0.493619488938804
0.14490241928228 -0.0164317737706814 0.490901053903788
0.142304706895691 -0.0251826127716688 0.490630230416474
0.127903663461604 -0.0323331513902799 0.487719882128917
0.121006012702074 -0.0457922403927705 0.486569284985816
0.113277174468153 -0.0538090772806217 0.48509384634008
0.108936659763454 -0.0607373346461742 0.484329183102061
0.27505301448841 0.118432403299872 0.708224608793681
0.269575341541767 0.119483609871821 0.712943710449866
0.274744063287928 0.116584760704585 0.718640330543955
0.268061148648367 0.113576037910114 0.724703017951551
0.256317153951948 0.101155633212623 0.726473154330324
0.254836908471793 0.098151873271667 0.72687417948663
0.244369635046492 0.0848762240487415 0.727874807363402
0.0215352709193516 -0.15003618232407 0.473534623673566
0.0190006892785722 -0.159170904225381 0.472451945511772
0.00974004334278986 -0.165845894798525 0.471536192370538
0.00112606237081883 -0.170125351788112 0.471299514367492
-0.00677119038778968 -0.182795664169439 0.469634019802032
-0.0204331223413138 -0.190866472174978 0.467768361940186
-0.0362386579511668 -0.211150668997768 0.46260215869563
-0.0481449843827215 -0.22284617045946 0.460510606855647
-0.0657376457547627 -0.252102265060145 0.444765516975965
0.118834790631806 -0.0671525467669532 0.131459490440994
0.1175414761086 -0.0662128990906158 0.135397943119271
0.118834574601398 -0.0671523857140203 0.144926945118912
0.121023172783024 -0.0687424909416735 0.153550330764024
0.116330921792762 -0.065333370532783 0.159596975839258
0.110220438380693 -0.0788563536032006 0.162097682982264
0.10101620798674 -0.0798621726960544 0.164281932288365
0.101126433439121 -0.0854690903804753 0.163203429330435
-0.0217271561839712 -0.212505857276861 0.105390872528865
-0.0229644173741975 -0.216313797360127 0.124403285094924
-0.0245183444106415 -0.22109629297363 0.117894620271892
-0.0316821623230138 -0.217919514647688 0.129277101012088
-0.0416975138291804 -0.239518456789057 0.121745770889114
0.235765653647764 0.0627207393873222 0.504993666380945
0.236969235588431 0.0651121367749805 0.50281018438884
0.233399307252466 0.0607971781316265 0.509368073685134
0.220756601399521 0.0494661279899599 0.517335587182824
0.218872938462412 0.0413866522836425 0.516270659273833
0.202516306519247 0.0327829605028972 0.509681600432802
0.199149746558186 0.0178378447242762 0.507691047310139
0.195501874724906 0.0213336063433555 0.506445063469051
0.167563079142053 -0.00341618634158854 0.497389122035099
0.167809034955329 -0.00527836741170216 0.497537132798761
0.163710295081345 -0.0208088880296636 0.496646145184262
0.153821695531603 -0.0315694677682135 0.493589122587686
0.144041729963315 -0.0348361542272651 0.491307824922255
0.13313360939869 -0.0527560948018015 0.489399559293528
0.118015594914032 -0.0621410004325609 0.486347566053712
0.285163540878928 0.114621785704829 0.701173285018401
0.284655318976822 0.118345830980839 0.714702007393348
0.286256245339928 0.117594844091004 0.716013380594424
0.283612707877801 0.113688679145793 0.724000937286123
0.276839997380662 0.109867618987693 0.725241560169507
0.272608387695412 0.104749609726768 0.726023780762528
0.265814256115249 0.0914836670496869 0.72797799267124
0.2618247630684 0.0851261556806762 0.728820808256185
0.246271032674325 0.0801344317281891 0.728205808723946
0.23407090776904 0.063733665284481 0.725010215833806
0.0188234066428702 -0.169812026324202 0.471267326782594
0.0113066950731888 -0.175747136911848 0.470401856091436
-0.00385100501615694 -0.192047226040926 0.466982549178906
-0.0154371846814055 -0.20831316643217 0.462782294325958
-0.024769378884478 -0.220603376944053 0.459624619591448
-0.0518139539991044 -0.246424938400981 0.44712092262566
0.124346419855359 -0.0711569772783314 0.126333168291724
0.127727336857068 -0.0736133558375462 0.135472466398196
0.120233035885283 -0.0681684269277375 0.144437908031673
0.123192501903257 -0.0703185992288748 0.155199843735311
0.121213963845481 -0.0719719150683433 0.160553162646199
0.107473349089549 -0.0809032465087966 0.162422463305494
-0.075541469844855 -0.281191159776103 0.014300132934539
-0.0340572849820799 -0.248001736171444 0.0843248589955188
-0.0334280849918644 -0.245374592207707 0.0830178044534624
-0.0277427883693901 -0.231020113024289 0.114402093799902
-0.0329370206713864 -0.24700632078301 0.115372511152628
-0.0347030226316636 -0.246251150508987 0.120394225281575
-0.043924919983077 -0.257455421777711 0.116090954319988
0.238057791004907 0.0580215789807941 0.500984340452528
0.23446105649327 0.0513504020115025 0.507390321274565
0.23189849265605 0.0437385531816854 0.51207192745446
0.223767816232835 0.0353188031292566 0.51780220184052
0.214818827236212 0.0276490353024942 0.514076166097824
0.216412030567367 0.0239491683156308 0.514487756541628
0.203780016147428 0.00915984187548233 0.5097389430079
0.176936276968827 -0.00489426418408067 0.500678435535724
0.176246430710636 -0.013049097487935 0.500715966923569
0.170199045737046 -0.0255367994433401 0.499048583576809
0.15922961505743 -0.0307237358066911 0.495433145264799
0.147704798165186 -0.0497589339201684 0.492500577206049
0.141063148352858 -0.0504989146899575 0.49107060800183
0.13604079829589 -0.0651576311057232 0.490360895303959
0.296228780983172 0.113788498601694 0.703169748818671
0.29163620421127 0.11815331794069 0.714343231542869
0.296780739522359 0.113192886181092 0.720282622997552
0.281365637708307 0.104161599952294 0.725910612874463
0.287306431387128 0.103225649820738 0.725511773259889
0.2760900367065 0.0938606974895077 0.727518435427885
0.269997450348633 0.0871681004334202 0.72855735392341
0.259405740173555 0.0765794568410908 0.729069787682572
0.251346152299186 0.0727244882587203 0.728930508023814
0.246613801762033 0.0617128233725973 0.728799066855431
0.235159248943391 0.0584408123304113 0.725626783436667
0.011242750648716 -0.200362982207953 0.464258185240947
-0.000949497094980532 -0.204221236682344 0.463519490219724
-0.0111968409705925 -0.223243867936372 0.458516238551312
-0.0316288438697879 -0.238532456460306 0.450516462110506
0.129914304951762 -0.0752688485506039 0.12213028988991
0.13172211718311 -0.0765157319732307 0.13546766043994
0.128712403350489 -0.0743290469258535 0.138419715396583
0.129577331137694 -0.074957449971059 0.146795284662475
0.128392745199963 -0.0740967965698925 0.151288700035075
0.124123925273795 -0.0814460871936642 0.158028688430728
0.120037830016349 -0.083810360183703 0.158639192020629
-0.0544907583346376 -0.288692494395015 0.0127812113910671
-0.0589298507253686 -0.282687944195438 0.0291721389997383
-0.0634966711172433 -0.286550426410043 0.0414475933374453
-0.0613420591694968 -0.288988904198762 0.0448685611693249
-0.0401921001736643 -0.268137018060344 0.0824515068811109
-0.041205231461309 -0.272453199642076 0.0873577933278841
-0.0388067484932881 -0.265071475899523 0.104073561753853
-0.0453450888715417 -0.273805085700115 0.110996624968909
-0.0534218041674212 -0.289094385928269 0.105568209084972
0.23606443589202 0.037145492157719 0.504747583042596
0.2340655092492 0.0303952566162596 0.508345500817119
0.229219424440712 0.0275280765203882 0.516961933479195
0.222597787325012 0.0221021006721618 0.516735471043928
0.214017808229491 0.019549776314 0.513352339867841
0.209140205300534 0.00239703341291653 0.511998575513221
0.187562577854974 -0.0137078768861368 0.504649023946125
0.183513364790538 -0.0146921397536568 0.503282955663319
0.18090357434637 -0.0257975110886614 0.502756805229529
0.163826666720878 -0.0352319028697572 0.497143293087366
0.152722907248734 -0.0507950189070345 0.493716124219156
0.143290487529593 -0.0605279329043331 0.491821040430478
0.139816848306091 -0.0725076853324373 0.491378707931655
0.136902873146839 -0.0763810225467094 0.490844853041332
0.300823775929257 0.106701223739447 0.715488730848756
0.297658443897266 0.105765650126801 0.723401922609423
0.298529751213958 0.105914107686237 0.723153144060398
0.284603012483448 0.090392929366059 0.727534697554895
0.281035836576864 0.0925601832851479 0.727580532900641
0.282012105112994 0.0857660919566788 0.728443179787093
0.266587972477803 0.071439022410426 0.729337216336075
0.262325452053189 0.0576337784924465 0.729689183109025
0.25942331623746 0.0576088602779861 0.729644639473662
0.24305615241608 0.0501924520895469 0.72880289768119
0.237847084759008 0.0412559842149865 0.727193839376213
0.00367457629899686 -0.223258151597221 0.458101788772391
0.000828822167538868 -0.228566250254887 0.455948361043114
-0.022830482756308 -0.247986272063737 0.444271144796567
0.140486742622303 -0.0831861454311394 0.116855869047883
0.141518929343352 -0.0836335296221154 0.132882243923283
0.138103176646092 -0.0811518377464024 0.141950197883882
0.138218901455299 -0.0812359129870697 0.15103891326417
0.13363458235529 -0.0939094323098998 0.153242883264492
0.128352770511758 -0.0963353068332728 0.154150075162044
0.124221899789229 -0.0995973502177809 0.154603981218737
-0.0451640148949082 -0.287226737711762 0.0231047213765164
-0.0472860846634148 -0.296499580979894 0.0222814779186098
-0.049103925548838 -0.302094324242246 0.0328068688999701
-0.0513420066005186 -0.294924390478761 0.0459267886237746
-0.0512926826587241 -0.287771222203972 0.0604989873094105
-0.0505216358093745 -0.297984821304754 0.0683610165007892
-0.0495930562555394 -0.296967726170709 0.0741805316854761
-0.044332842501796 -0.282079050257439 0.101575411737811
-0.0496616904400274 -0.298479541111211 0.092234983344208
0.238051026529497 0.0224696720595787 0.50146823925332
0.233271281801129 0.0211624284782651 0.509860266198152
0.228690741894402 0.0227371461841775 0.517919828489205
0.229489403108976 0.0172862763632067 0.516591469357579
0.225405109988294 0.0106079753641983 0.517882964319646
0.199722165233931 -0.0140287061209306 0.508986200380205
0.196138211294351 -0.0222077311070606 0.507905117491098
0.194349829238006 -0.0234172668228985 0.507323180665828
0.186048384136275 -0.0341464093943494 0.504794331254991
0.159714655639084 -0.0625357120310602 0.496441870158425
0.153895779702249 -0.0662254420079881 0.494528164312732
0.1548284092564 -0.0713393035357974 0.494985261389569
0.137565353742688 -0.0905477893580422 0.49057920860752
0.301707739444741 0.0981648048415647 0.712002580573629
0.301861570976407 0.0948173003669204 0.713135995569549
0.29966899309848 0.0897323415681388 0.723910002179253
0.299727917419878 0.0936430246828607 0.723583348082268
0.286365930876913 0.0758783887674533 0.728411835664363
0.275963401707576 0.0760619010959276 0.729055272102283
0.276370831595478 0.0647998038665122 0.729389820742163
0.267182030653199 0.0618413299850657 0.729622703863723
0.257190695886942 0.0465118207386679 0.729889996319426
0.251109187825382 0.0359641421457396 0.72977988879477
0.241201115242235 0.0261635177079393 0.728873297527913
0.0043098143696397 -0.237390741160112 0.450249387706711
-0.00516882282002936 -0.247824879935211 0.443886119920623
-0.0138235131481398 -0.254296551161353 0.440015979803529
0.148600400634233 -0.0887785169870213 0.116656620752745
0.147357812923725 -0.0878757228644789 0.136716975851548
0.148479641103849 -0.0886907788440408 0.13533243193333
0.147504030057891 -0.09312728622601 0.149814150938478
0.143647374036055 -0.0988557248699329 0.149735465711618
0.1386387440503 -0.101305468805358 0.150567769676649
0.128798449947029 -0.110458467868032 0.151390138875281
-0.0530336420338124 -0.314188753049161 0.0263139659895783
-0.0564620731625142 -0.32474038399795 0.0216870358407435
-0.0556743394904437 -0.322315985996748 0.0353958695297927
-0.0562238457666653 -0.318846442317906 0.0488811742220324
-0.0621907319711614 -0.325360375709959 0.0455513238006472
-0.0553373599138449 -0.315947418258816 0.0762141778547095
-0.0509425122659788 -0.302421507539169 0.0919153996647941
0.23018681745494 -0.000416110861646072 0.480097274899079
0.237382096454087 0.0068966003489754 0.503136490953731
0.234228396833927 0.00704285197951821 0.508641226777028
0.231127040752987 0.00290266890539223 0.514199890059336
0.228950755087955 -0.000542577040266248 0.518133241941148
0.218316017650858 -0.00699074051378956 0.515792636244938
0.21480000719744 -0.0201495879547619 0.514905794915906
0.207439719844039 -0.0309872258845174 0.512483946606485
0.188996158966055 -0.0465281057167131 0.50613940721232
0.169930402465982 -0.0580431429721075 0.499853938936348
0.16929785899501 -0.0646482002991111 0.499809428593416
0.153964115680739 -0.0838138976219616 0.494778200193695
0.141622391350484 -0.0919681135630668 0.491389496400787
0.301974417839291 0.0871661931852618 0.708231074351829
0.302486461648819 0.0825275368203978 0.71316099817934
0.302176019819081 0.0760758382014574 0.715297182631977
0.296479911249913 0.080992736697057 0.725766485966094
0.289342069594371 0.0682222407592525 0.728352349646962
0.291036557200833 0.070358380766662 0.72812142843965
0.284560319125943 0.0624242546165262 0.728997079203959
0.27232471941397 0.0583594445842965 0.729647984020095
0.269084244037077 0.0404903382878454 0.730071702772842
0.258979754568374 0.0352201786623922 0.73004952419814
0.254819823036194 0.0252563528159659 0.730106168834895
0.248014995691562 0.0190587179754364 0.729691400279746
0.15414698676891 -0.093281242305634 0.111089444101291
0.152239682543439 -0.0914226089233654 0.116212539416833
0.155732758889792 -0.093960475876941 0.131603993525748
0.151896371693705 -0.0911731745136588 0.142659455502124
0.15399987650286 -0.0988700635301159 0.147064147416259
0.146911083867598 -0.103477201145976 0.148028632224094
0.137849773661628 -0.11569650318932 0.148075927125038
-0.0588373474994109 -0.326716146861511 0.0595959001160055
0.233982683672128 -0.00154221672005751 0.488595188106678
0.237995827227101 -0.00145123299097662 0.502332153052054
0.237063485737201 0.00148190705111877 0.503866821160791
0.235188389525714 -0.0103333002253074 0.507524949748618
0.229976802235598 -0.0172702824906739 0.516899771050805
0.229482344780448 -0.0203626608372256 0.517871588258516
0.207921896172479 -0.0338980207128553 0.512743996725335
0.213776505756941 -0.0384634421131255 0.515082439547068
0.200092849102926 -0.0459343291247839 0.510095084555622
0.184413867859034 -0.0646488591148981 0.505033418447372
0.180885583648881 -0.0663309642858887 0.50385840726965
0.169209683187332 -0.0765770482736583 0.500093368274897
0.148047544870425 -0.101827459883976 0.49228769773154
0.150543723072985 -0.104923364264766 0.492674805645369
0.134888920266526 -0.116724015500015 0.488625324918168
0.302713785818771 0.0696415918456666 0.71247519965238
0.301758512083508 0.0735282847705202 0.71795013277968
0.298638605474296 0.0659727312496967 0.725253514813632
0.294243283086481 0.0618978563804659 0.727293882975129
0.282370929585147 0.054554893304862 0.729451330959266
0.28004468095619 0.0392916850904579 0.729917147506861
0.276230491181535 0.0362777352030274 0.73000984490008
0.272379924768839 0.029887110235859 0.730143840389762
0.257711392109634 0.0293874407886703 0.730099855159085
0.248464730546601 0.00891401462862143 0.729737568649021
0.238530280911671 0.00349851104732373 0.727786344730988
0.159352795465379 -0.0965905862365429 0.118175452886569
0.164211324382108 -0.100120513557621 0.123029452919262
0.167170024855009 -0.102270130517441 0.133383075807586
0.162519694314338 -0.102454070255109 0.144196713117723
0.155937376243834 -0.105789131940977 0.14526887933258
0.153928932382724 -0.118048920935068 0.143490544545294
0.146836230510671 -0.121574222297635 0.144658633507268
0.254370858007813 -0.000418211251504455 0.494120167493322
0.256823307344935 -0.000418211251504455 0.496661799741775
0.240743707866683 -0.018987024710592 0.492131268740199
0.238927460845745 -0.0153033029178305 0.501149046251024
0.235338428313307 -0.0134995482284848 0.507368947269498
0.234472537282286 -0.02284239995203 0.50920368215191
0.229064064032832 -0.0213612527426319 0.51863895936405
0.229655080325796 -0.0308985281357162 0.517922995591955
0.211416085015347 -0.0442773391349497 0.51434139596819
0.201719124320962 -0.0526369386819129 0.510887887256002
0.204079732736448 -0.0602777804804438 0.51198363288075
0.183503459075555 -0.0743868136452953 0.504975454855659
0.181117711719243 -0.0873088342181718 0.503992702660842
0.162567107819121 -0.104071160886059 0.496736383667154
0.153869839636748 -0.113475837453546 0.493229943010685
0.147022701718931 -0.122047186659488 0.491012300302604
0.30117776698465 0.058211664693792 0.703370257468822
0.302456562032626 0.0559235564783206 0.714680039848676
0.302150900788563 0.0574009632002687 0.716392713380384
0.29991662177277 0.0546803723713329 0.725015885647383
0.294068986473403 0.0428241569091312 0.727836842016566
0.291055829389311 0.040828649851812 0.728870422244113
0.281230326360526 0.0306045837819169 0.729945237871754
0.274186768406233 0.0235314933101744 0.730192389525062
0.265601879901557 0.0145779535052596 0.730393974061084
0.258175881070779 0.00724035033640284 0.730211004989267
0.255903996772565 0.000900499578800674 0.730089772974567
0.240694121446597 -0.0139481644253983 0.728502895295149
0.236370885236117 -0.0267240231245532 0.72621159008509
0.169263257026359 -0.103790954472098 0.114421263518356
0.170995065481747 -0.105049183855699 0.132784527965052
0.177263088784961 -0.109603164489647 0.138308344098276
0.166032395887467 -0.110834248582301 0.14172175336794
0.16037269781038 -0.120355215107162 0.141397567144001
0.155988761215733 -0.126430090168941 0.141389907181759
0.263540019656599 -0.000418211251504455 0.509308825489175
0.264679594049557 -0.000418211251504455 0.508844460069051
0.270771335610363 -0.000418213599721416 0.529813852049854
0.239429433344752 -0.0268979821450394 0.50064749303507
0.271453838840872 -0.000928891090669666 0.545040331465813
0.232138460731319 -0.0294516502457161 0.5135208281272
0.26755573201516 -0.000418225175182172 0.566963944769026
0.265738672067427 -0.000418225547911587 0.568527999717654
0.21429626687185 -0.057325352056153 0.515776508701351
0.271179133760772 -0.00095536314972901 0.591586675015676
0.269034271605411 -0.000418234423114305 0.595826685369367
0.271052284899355 -0.00178977723776485 0.613080091447115
0.266336594249773 -0.000418241042466238 0.617203653186913
0.265669407888651 -0.000418242991384143 0.623485477602766
0.269825663192341 -0.000418248068925075 0.639176484182901
0.141658419806866 -0.137661185880294 0.488600008176477
0.3016119311473 0.0428732916232166 0.706019995774778
0.301748164872813 0.0419382105097614 0.706826099841919
0.301312585645734 0.0398073400584244 0.721857193370549
0.300088029755628 0.0424274578825243 0.72519274908904
0.288974549186743 0.0309688545806922 0.729204160596786
0.286142334948419 0.0303791260929505 0.72948709559132
0.280651946796029 0.0216357763822553 0.730106561631978
0.276379495295559 0.00608931445768825 0.730178242384259
0.265549273607784 -0.00172401795425549 0.730191074943724
0.262696219338147 -0.00506382237275377 0.730104613013135
0.251275886303512 -0.0194906847565306 0.729613164759139
0.18086738229526 -0.112221841628567 0.114643232651667
0.183649005965041 -0.114242808632653 0.114213560636082
0.177694910139113 -0.109916907633898 0.120397175299947
0.181723570125758 -0.117373008046378 0.136452335328802
0.173915194102387 -0.116752550417618 0.138581353317967
0.161569308124414 -0.123490147236845 0.140501985862463
0.159245491823619 -0.131665835177378 0.139569827676022
0.261443414196138 -0.0201440126247208 0.500107669084183
0.264994397462976 -0.0170771420387332 0.50785527116774
0.271531259560834 -0.00708690487187248 0.531922075961178
0.271482329638837 -0.00907178520700446 0.540212818011853
0.271389192457809 -0.00161535551872248 0.55599408868871
0.271370575830518 -0.00724803589000433 0.559148511349278
0.270137856967334 -0.000418228080236512 0.575686803108958
0.271216556272074 -0.00659050132276822 0.585245761819122
0.271139933476335 -0.00404783719698945 0.598228816129324
0.271142485043967 -0.0106696713065595 0.597796475586057
0.271066741668318 -0.00142941764599331 0.610630519948443
0.271044358167185 -0.00435596619587388 0.614423206029144
0.270016497823797 -0.000418246417501754 0.633932230032903
0.270900115317143 -0.00777194877974015 0.638863879824412
0.270873426035302 -0.0130655162847995 0.643386138635664
0.270814472812031 -0.00572022679716838 0.653375244026308
0.270759758447578 -0.00325735842339125 0.662646108634962
0.302351674943211 0.0241138136522913 0.710625014355439
0.301354193822183 0.0246824510480974 0.721839142807219
0.297101350386465 0.0231144880332103 0.726777204437678
0.296107631465449 0.0157719777077058 0.727317966235912
0.28713803962681 0.00518543454455908 0.729481327126053
0.276295124584028 -0.00294948187252033 0.730054817904184
0.269607280621166 -0.00517246164179829 0.730118228763817
0.268787991311428 -0.0176698530881777 0.729950876511802
0.255000185284357 -0.0241656870729475 0.729621517257098
0.24389254652221 -0.0434369838186381 0.727147056925425
0.191298440151755 -0.120231304454647 0.099344667457986
0.184082570379252 -0.114570315971506 0.104949625089001
0.186813022667649 -0.116541601174012 0.119783218139347
0.191714901387783 -0.121263123255745 0.133148250285813
0.181536569627947 -0.1173540276495 0.136504094393039
0.184581836841172 -0.123501361450218 0.134567802781765
0.172875040997704 -0.140999521776619 0.13430840965588
0.271422401359274 -0.0156358072475566 0.550367134371263
0.271372805589756 -0.0134770072710931 0.558770698388951
0.271358958220326 -0.017716608341356 0.561117012244938
0.233759091831988 -0.0699707043377842 0.511725411795588
0.271226360225793 -0.020530932189775 0.583584564749491
0.222297515381517 -0.0799998547607227 0.5194055462613
0.271114986551367 -0.0158831632857445 0.602455849353371
0.193171593684026 -0.116003255455822 0.506751317899173
0.184726713239267 -0.124699823068577 0.503392198363469
0.164377360391128 -0.148032608650944 0.494138717762765
0.165367992384464 -0.148880112166212 0.494393667525666
0.138159237347917 -0.177394379282419 0.483516151142621
0.270796481678865 -0.0166043700978791 0.656423675192018
0.125706221832554 -0.192707156281399 0.476834999117475
0.301870788342114 0.0196548435111621 0.718907276853876
0.301719691360964 0.00490425746836637 0.719790968491421
0.297235004726458 0.00706205253118235 0.726800042789298
0.2940116187494 0.00500221300881307 0.728182024594621
0.278046483465314 -0.00817476521749933 0.729956697908058
0.27612814884417 -0.0177021699609804 0.729850678432091
0.275704273206887 -0.024299815439107 0.72964628791575
0.254637486415682 -0.0424263050489881 0.727979344301107
0.258212673444052 -0.0402986151064426 0.728210937445407
0.240099160583599 -0.0573822737056719 0.725179040713999
0.241811801138571 -0.0612917772207526 0.725300769962489
0.193791854190947 -0.122363187246019 0.0960382972215664
0.197319141047961 -0.12517975594366 0.0929139302269802
0.194780279204193 -0.122330148924444 0.115035485246277
0.196901658499018 -0.123871419732448 0.120328337106158
0.19546695014827 -0.124209986915375 0.131629161548044
0.193980665577733 -0.129152269951011 0.131086683842895
0.185194240809664 -0.146271018380603 0.130145553195269
0.238828765709655 -0.0711029887159133 0.50281833155104
0.233844095184649 -0.0734034009493509 0.51166138078204
0.234317641878787 -0.0815881348247553 0.510847094807758
0.231336374905569 -0.0792999508330519 0.516228640611922
0.224484121503444 -0.0883980814693269 0.519882759614637
0.213696100723267 -0.105322320227908 0.51497518637116
0.208672035080309 -0.112578348119108 0.51271859978435
0.191628861321539 -0.131540404082606 0.505351450484175
0.173946964785526 -0.15141840313602 0.497108045328354
0.161945703111665 -0.160528808777514 0.491975192289953
0.144270018049222 -0.18581138715554 0.482806526272242
0.138342383770907 -0.191464224861353 0.479940903961144
0.130166147478624 -0.202352951470441 0.475131221276188
0.30161693911033 0.000181818169799947 0.706482850967462
0.301827701700647 -0.00297647415736246 0.707685278978285
0.299512160260089 -0.00429513379181974 0.725702141641138
0.297948872616635 0.000640791990002134 0.726428784188775
0.292810805455937 -0.0108562470163108 0.728503613817085
0.286288444456575 -0.0220886596489231 0.729218126991703
0.275120555036191 -0.0244783319620871 0.729638097114205
0.266916453440451 -0.0445782509010657 0.727934365371046
0.259150530030228 -0.0479159635641223 0.727539787390319
0.252556893863536 -0.056146154654288 0.726703178804399
0.20259379865885 -0.128949376631558 0.0916880782879749
0.200476738938962 -0.126468865251838 0.102244652469071
0.204562967800227 -0.129437685135426 0.113716209415427
0.203619657271327 -0.128752330563571 0.115799759023905
0.205378569621766 -0.130030250091004 0.126578520300538
0.195024233365063 -0.139894373650347 0.128805859824387
0.186042873278865 -0.146776815535601 0.129832068620528
0.239520512569912 -0.0841281075084987 0.501365869467877
0.236331439892183 -0.0952225176708912 0.505947751917788
0.229476492299212 -0.0966113746685385 0.518045514418517
0.222991308513198 -0.106865061275094 0.518458680140497
0.222965762940244 -0.106457343633398 0.518467747473109
0.20287438350026 -0.129248072653339 0.509731253588039
0.194300615853484 -0.139037379150225 0.505604891776559
0.194702314592989 -0.147348180057426 0.505018970526165
0.171767429043412 -0.161570663248025 0.49536283914681
0.150967173253332 -0.193716568486194 0.48226111376182
0.147145241630161 -0.194366742007105 0.481064764959855
0.114980890768357 -0.236769770413822 0.457982219629894
0.111442779433799 -0.231415876855265 0.460749066931747
0.302056852403402 -0.0100412011640895 0.70895543481889
0.300926477658483 -0.0140825929717533 0.724230863218906
0.301585125581033 -0.0146248229948804 0.720406309888572
0.297065581190724 -0.0160663787374357 0.726633537728628
0.291153104339013 -0.0314494659913393 0.728035328604143
0.280702722290147 -0.0356157129946518 0.728553457843837
0.270938870899423 -0.043914676938257 0.727939640540105
0.257836811112899 -0.0603037847726202 0.72635990144937
0.256365281438725 -0.0658962853862328 0.725490738833158
0.242314455644119 -0.0812184620350806 0.72238437333932
0.214798309539802 -0.1372784940007 0.0919145647576521
0.207641841251069 -0.131674613886815 0.0976212538665925
0.209482749336351 -0.133012114257722 0.114881704516458
0.209054197890549 -0.132700751001317 0.121217824491957
0.210114530112388 -0.135500131014834 0.125738902686526
0.204918033529647 -0.145808268090354 0.125147895957614
0.194975242755872 -0.157854126686387 0.125454913677405
0.237646177834294 -0.1062852604122 0.502539081730424
0.231409106877861 -0.105851317518187 0.513716963125719
0.22567517919963 -0.115701416552724 0.519076830120608
0.211234248289003 -0.133456152579461 0.51262997534332
0.207884327882109 -0.13904722968128 0.510936843272058
0.190055754235572 -0.156063295334091 0.502509854412132
0.174770443632307 -0.178249031565322 0.494857708843833
0.179552244306181 -0.175590279574337 0.496912750046242
0.147306421313469 -0.204393838791773 0.478320443871523
0.129409232209298 -0.236595702605551 0.460883546190286
0.301186004189635 -0.0252284777525885 0.703556576918537
0.30249770871818 -0.031765865615714 0.714313229775726
0.299559771856087 -0.0266267205080596 0.725148944516781
0.291474597843722 -0.0357114039667443 0.72764041012411
0.283059158134593 -0.0460779592389076 0.727435824543909
0.285727867768084 -0.0479948312414666 0.727059216170548
0.272513342817318 -0.0605902348039331 0.726351546931698
0.265171159406667 -0.0789220188142361 0.723589809637114
0.256941672180702 -0.0859515312776782 0.722440738998056
0.244417949607021 -0.0963182744319822 0.72028334570918
0.223139987752676 -0.142934671002594 0.0925712893659913
0.220643642542036 -0.141120972087168 0.100000562588564
0.222947714670755 -0.142794979759507 0.111052589660914
0.221115785507595 -0.141464005797444 0.110758488139486
0.214978335496702 -0.141667630421916 0.123330057804304
0.21366186616489 -0.15114323194165 0.121894790845277
0.206870353473221 -0.162158633726348 0.121582479225469
0.236848857295482 -0.116044077536462 0.503005747686848
0.234673199560245 -0.131960137970222 0.50505441571725
0.22780429586285 -0.125464347542835 0.518451659891609
0.227392647868859 -0.139470250745731 0.515446999704514
0.216900872528213 -0.140259310219924 0.514293639322375
0.198745066317901 -0.168454331845631 0.504803103739586
0.202729560527298 -0.16427507536712 0.506792439360203
0.181655322075531 -0.18873589645911 0.494637879934075
0.172126697156289 -0.200229212708328 0.488326516271325
0.1424589271612 -0.226215964551371 0.470288181859104
0.121570457330918 -0.253555839342262 0.448482871336884
0.302624218026398 -0.0336760689131581 0.713429033521417
0.301960452910751 -0.0464193232358561 0.716267442676593
0.301578609924349 -0.0467973975005416 0.718429857788539
0.294135212945374 -0.0496935178050161 0.725478664333482
0.282521351851875 -0.0627301607987351 0.725777816704093
0.278319258658916 -0.0756560212357574 0.723988908361721
0.265947018277922 -0.0859866034785477 0.722511941314715
0.25813687611586 -0.0941242757586381 0.721196326177408
0.25355349974526 -0.09980434311949 0.719814218518229
0.24064265157771 -0.114915897409429 0.714527493949322
0.228732908556636 -0.147882762247464 0.0836444534089873
0.223990653535227 -0.14355271628145 0.0962955165951008
0.227780506551901 -0.146306205841062 0.103501043398333
0.226617760419114 -0.145461420517306 0.11702945143798
0.224827795589326 -0.155272671018024 0.118243100515488
0.211933786794763 -0.16022379752257 0.120639610958482
0.207201203158197 -0.169265226534664 0.120166238663603
0.235432823559814 -0.138203559702111 0.501571478736862
0.233742066985327 -0.137841778104635 0.50470375668375
0.227505791445841 -0.141459862702906 0.514566515043123
0.227274586859036 -0.153448221383013 0.510885813750048
0.221055548846769 -0.16183787505104 0.51428868138809
0.21233134485323 -0.171486299604617 0.510062881293885
0.201323690490618 -0.184535230220454 0.503125698014763
0.179837545223128 -0.211308220080975 0.488249717965849
0.301320069960162 -0.0557561812957221 0.701981083393273
0.301933487950228 -0.0494484295126477 0.71617407245567
0.299661353991843 -0.0532579982376213 0.722920298951241
0.299361860753378 -0.0690596844894357 0.721139620435157
0.292336705077866 -0.0722120902785348 0.723527073859334
0.283019322408715 -0.0800868398414453 0.72309451131322
0.274313841923209 -0.0907036091282232 0.721729665345253
0.26833393518013 -0.100479672590303 0.71971281592559
0.253832385485115 -0.118901154249864 0.714289146500225
0.242244272189102 -0.127375877812743 0.711373118546141
0.234635994544173 -0.151805462446904 0.0845795162011428
0.237931388210816 -0.153681247656435 0.0897165111246882
0.237710753883915 -0.153520948921794 0.0977519940540003
0.238245433571442 -0.153909415729351 0.114562215899707
0.231496748936765 -0.155636361254835 0.116455887276724
0.228481983034405 -0.165688109945559 0.115350498690992
0.216033467454416 -0.175796044229701 0.116666376753275
0.216258855431438 -0.175302507683318 0.116700709100903
0.233890577206592 -0.151257691599648 0.499902510509014
0.227688119266733 -0.156520844960795 0.509101093696888
0.227579089624053 -0.171239212817872 0.504332544889783
0.221238004174943 -0.174661881979918 0.513406279659729
0.217915660898913 -0.171310613111678 0.512350128044476
0.188134857429352 -0.206485814675734 0.492459045608578
0.185224303504273 -0.218219127723149 0.488406902340459
0.301504403112868 -0.0830240233542727 0.699306570242467
0.30120576943584 -0.0696786559228141 0.718029410975772
0.300344503342198 -0.0688390757383339 0.720766321830042
0.29070923723153 -0.0879150109233376 0.721418528575275
0.285100807235911 -0.0869852934207129 0.721907290431197
0.276332308585454 -0.112950522179 0.716024556870136
0.269475382050257 -0.11605989317102 0.71516905438464
0.260268190210019 -0.123771693437401 0.712906256810033
0.241285521356202 -0.146383373840248 0.704061013141843
0.247078715961063 -0.161039233013939 0.0790275004710015
0.243476628912824 -0.157848907919054 0.0846652852644323
0.245483072545493 -0.159167866659598 0.0975271881202226
0.238798523014403 -0.154311260767094 0.10695510283709
0.242863552420464 -0.163823607123809 0.111992456855995
0.238526061993464 -0.168954444718209 0.112149640186385
0.224687758298588 -0.180450035667301 0.113563892740495
0.229455363160449 -0.184276589956547 0.492727133849581
0.228071694452351 -0.171281930756763 0.50344831922649
0.221393228956574 -0.192717786973517 0.497885248580672
0.220042544682825 -0.184742581847148 0.507818586854761
0.200422476668161 -0.206976652116795 0.497530238273358
0.302619261655746 -0.0884002245967772 0.707255963727385
0.301715912792051 -0.0937404851609596 0.711683305192083
0.301301073197128 -0.0929739653032097 0.714167119694121
0.297831809456716 -0.0951730025038832 0.717978002405739
0.280103052988143 -0.120330128474422 0.713873497183995
0.277696838115086 -0.123544151109287 0.712953351069756
0.254022572466431 -0.141290088960108 0.706593673420808
0.241286490876732 -0.160885201696036 0.697908763152002
0.251249969563376 -0.164677960955222 0.0729329567934938
0.250166523850345 -0.162570590283281 0.0887234150991603
0.250641481910089 -0.162915669618741 0.101403972120043
0.253288423189898 -0.170165722462348 0.108117396789263
0.243798865457304 -0.178547733012984 0.108993772111288
0.239352868222936 -0.177892409410031 0.11026257733781
0.230043164988819 -0.182885449190524 0.493053898901271
0.22576722784155 -0.196419684400318 0.487583144745223
0.222410946610999 -0.205067771005346 0.485078728761659
0.218874256561197 -0.199698587488613 0.496188037433341
0.203237739302962 -0.230807219760246 0.485609707511183
0.302633156511141 -0.0985650483624802 0.704995521040257
0.301135716231115 -0.10261817045292 0.712638520094727
0.296657750228954 -0.0994866801214738 0.717331235913462
0.28311782539466 -0.121232212587854 0.713503350927243
0.266535481865923 -0.145304244614393 0.704836211403687
0.263670419415236 -0.144748177012244 0.705091444308151
0.257103113247754 -0.168639088522128 0.0733020268531015
0.259117358271207 -0.169073748911543 0.0851986018128454
0.262269558922739 -0.171363956110371 0.0868357694155671
0.259711804703424 -0.169505642067595 0.100541458053107
0.253855293271045 -0.17216097621128 0.107597593234009
0.247508255274545 -0.180498205214451 0.10767228733419
0.241696195280993 -0.192545880379443 0.106914170926698
0.210859930407319 -0.22787460023723 0.475862076717378
0.209969030729948 -0.22744159446477 0.479102631450331
0.302174267179426 -0.112590649945583 0.696959837020769
0.302008493831689 -0.118006612222988 0.702929850778126
0.298945366573183 -0.118368152877556 0.711229872382971
0.290289048284927 -0.125321319994032 0.712009433251447
0.278296958248206 -0.15036570893093 0.702597283144379
0.268922921572818 -0.160213830002574 0.698219628278819
0.268287939029493 -0.176914632809654 0.0579532312419105
0.265130411424764 -0.174773455672958 0.0616799828930897
0.26740185402452 -0.175499939152953 0.074799618250995
0.265892065591729 -0.173995859629598 0.0835865934113593
0.268153987953216 -0.175639244446272 0.098764820841958
0.261154779656869 -0.178283600684503 0.10456929110652
0.264310455838912 -0.183929208817602 0.102698503486656
0.25542892961211 -0.182948869797886 0.10517155426379
0.251910413185937 -0.199166552099405 0.103041244364114
0.301627115526029 -0.140414688456577 0.689924002678321
0.301606329293292 -0.133860138962804 0.700187039328012
0.290994761871314 -0.141300356272894 0.706240817728088
0.280024724705072 -0.162027450624885 0.697446003470697
0.276778651983925 -0.181889312721236 0.0506837536801997
0.273963169313261 -0.180763167219358 0.067945090372779
0.271099185905861 -0.177779052154595 0.0818353337194054
0.271046606552315 -0.177740851321147 0.0834601156626064
0.275929589974783 -0.181288546922175 0.0942378527058779
0.271381733182248 -0.195458362665885 0.0916410041973492
0.260349550589403 -0.199040679320232 0.100889406073825
0.261800669216987 -0.200130516500185 0.0984887175573407
0.3009631874451 -0.150352837042962 0.693145176020016
0.300523193780189 -0.155533657555177 0.693112003138837
0.28982426769812 -0.160905778256282 0.697928040939149
0.286517496306379 -0.16121423897156 0.697795440017481
0.281254967603793 -0.18570787038331 0.0597971515537516
0.283074688705012 -0.186941885845975 0.0662275046015199
0.283502630703916 -0.186790679157493 0.0845914132772296
0.279713837114078 -0.18637206000537 0.0897255473296091
0.274942817154139 -0.191191461786663 0.0911307300570984
0.269861691480455 -0.19885090331204 0.0905952609745716
0.265632279674471 -0.205438192862747 0.0899792675526225
0.288898280866028 -0.190890988466095 0.0647365753526061
0.29060640608475 -0.194204417395519 0.0713702757171245
0.28646189451787 -0.197903809267294 0.0729826938186932
0.281034566416929 -0.209093454758112 0.0699914640521374
0.269784435929793 -0.213567615335554 0.0788458080702374
0.283588002450837 -0.219967806962254 0.0323344447077297
0.282352982585856 -0.21671373990353 0.0393642713657948
-0.298278194450091 -0.000606088637304199 0.025072665336158
-0.295923739514892 -0.000606088637304199 0.0348544689823732
-0.301754347332568 -0.0339573640805826 0.0287776918717786
-0.287670554365279 -0.000606088637304199 0.00653808617834746
-0.291431282924359 -0.000606088637304199 0.00765892923997978
-0.293376219466802 -0.000606088637304199 0.0220316580235131
-0.289086424604004 -0.000606088637304199 0.0308750971477137
-0.289961176445055 -0.000606088637303775 0.0339570801559471
-0.288017290877209 -0.00600422636065446 0.0476999514297339
-0.293336330014478 -0.00275577091719244 0.0591515627218113
-0.286614178084508 -0.00297383536295764 0.064677004291518
-0.285574031606929 -0.00272584246192704 0.081129441182216
-0.288903876206822 -0.0162466182942438 0.0771053112955312
-0.280072949036948 -0.000606088637304623 0.00469036715997069
-0.277860884146716 -0.000606088637304199 0.0232994933495678
-0.275381199892191 -0.000606088637304199 0.0275870428437622
-0.279165553631571 -0.000606088637304623 0.0367270524415771
-0.283756623752306 -0.000606088637304199 0.0472901920900315
-0.284177585880904 -0.00534922426772447 0.0492904047111324
-0.283682634571594 -0.00306892850012789 0.0632729225016566
-0.281957771635361 -0.00272584246192619 0.0822412128357959
-0.284959903733957 -0.00272584246192662 0.0789070977191239
-0.276562260590842 -0.00557419036039115 0.0939906685286915
-0.279349252302068 -0.0256483412652417 0.0901775736727278
-0.277041199548009 -0.0174514303191269 0.0933353803188398
-0.264248033638912 0.117490643217365 0.71583009297358
-0.269308678331359 0.114531754201277 0.719054876364601
-0.271289075003495 0.104155439116484 0.723784549365859
-0.273679806737818 0.0933127200335795 0.723763220962117
-0.268080172820387 0.0856413272250033 0.726762396320529
-0.27047146704045 0.0508209920994663 0.726786129607495
-0.274653484152821 0.00220446383623545 0.72540251135028
-0.272388933977015 -0.000606088637304199 0.0132542307355309
-0.265935686553341 -0.000606088637304199 0.0121420255373011
-0.26842462913847 -0.000606088637304199 0.0302667840728855
-0.267589905476385 -0.000606088637304623 0.0330727719203957
-0.265760738647764 -0.000606088637303775 0.0477789936429884
-0.272478080348721 -0.00400899386135188 0.0507200762269406
-0.273350167575223 -0.00340409271828824 0.0587722301234339
-0.270820880040707 -0.00297524617570746 0.0745482661950988
-0.265570687735787 -0.00272584246192619 0.0815181428995074
-0.265201117543415 -0.00272584246192704 0.0923962357888781
-0.276647170689663 -0.0237950441155564 0.0938744642390228
-0.27527845310871 -0.0332472489800839 0.0957470751642459
-0.267435416390235 -0.0249085143312821 0.102171732211851
-0.257293130662262 0.11843600590318 0.708371422750052
-0.260636248104232 0.116223374388284 0.718711748870528
-0.259116112695777 0.116250718969738 0.718818418522135
-0.26073060164577 0.109744961298828 0.724714487738597
-0.258488688219577 0.103551022609403 0.725719515136792
-0.261291821530608 0.0934310940902593 0.726871440025628
-0.260872206063294 0.0683550380698425 0.728620277409555
-0.267376280984305 0.0571920134285064 0.727957301593968
-0.266483993530298 0.0565493603002014 0.728370625878974
-0.268272459421863 0.0272322168667884 0.728090165631737
-0.272542549499147 0.0249284915219952 0.726259037816927
-0.268164735944579 0.00965315644651495 0.728295173603319
-0.269109620892583 0.00620351856319054 0.727851562559346
-0.270247662628998 -0.020377299635584 0.727061955844793
-0.270160172240229 -0.038520885173945 0.725708635089242
-0.274748141754801 -0.0596165717648736 0.722047136709289
-0.261849791348211 -0.000606088637304199 0.0138980750590128
-0.259305896788986 -0.000606088637304199 0.0253414033059156
-0.262002906197519 -0.000606088637304199 0.0388775535121601
-0.263840718958044 -0.00753182369262051 0.0471423743514998
-0.258044105621798 -0.00390060279763125 0.061328483104337
-0.259859441942991 -0.00384171996355112 0.0643119347152789
-0.257667125630088 -0.00311057308535312 0.0782439794237465
-0.265176378434852 -0.00272584246192704 0.0865881945738481
-0.262558141800547 -0.00272584246192662 0.0899366021615202
-0.259210312341612 -0.0134944996625204 0.104792501948959
-0.259400783012233 -0.0100470817171808 0.104731818983943
-0.261290028754917 -0.0232968738112325 0.104129827983827
-0.261909644541437 -0.0317943387707454 0.103932385414893
-0.246622501494758 0.114451613704075 0.70052458263028
-0.253214283989427 0.120079226125105 0.711730847357693
-0.246288229551987 0.113987738418127 0.723835792897148
-0.248302152900504 0.11250506763444 0.724900262156302
-0.248170403803477 0.0981788795110573 0.726943509450597
-0.256985528155267 0.0822215291557931 0.728583843420564
-0.25684812404592 0.0748000163008929 0.728822010317827
-0.257143658855531 0.0640974501848985 0.729116790936467
-0.26031947468071 0.0523278570749018 0.729163608384816
