ply
format ascii 1.0
element vertex 858
property float x
property float y
property float z
end_header
-0.197683012854959 0.284041475855149 0.576810017183149
-0.201096470068082 0.290569059332926 0.604085991001003
-0.202681716418652 0.291617155723728 0.608465536633994
-0.1993097128112 0.292053211245884 0.61028762578015
-0.195847366707564 0.296969517034607 0.630830760683024
-0.202707371455794 0.2989758390241 0.639214320424836
-0.198360710806521 0.304123378325215 0.660723681075922
-0.199264561020896 0.30539337967299 0.666030472421984
-0.197343010424183 0.306196466739136 0.669386229091238
-0.19546714675611 0.309919204948046 0.684941956607041
-0.195150666417767 0.311719016050284 0.692462595855678
-0.195975075238356 0.316326685753003 0.711716072827753
-0.198195729040934 0.318499088043816 0.720793610971507
-0.196907062108619 0.320943274976274 0.731006820653562
-0.200001028034513 0.324088128182303 0.744147814407329
-0.199489081704366 0.325963202144946 0.751982944894083
-0.19622669364904 0.328073096562182 0.760799289423249
-0.19449228189305 0.33342310630199 0.783154687264591
-0.195829365000894 0.335256226907891 0.790814512653538
-0.195260697763663 0.336992912381593 0.79807137695436
-0.191618738287106 0.337748308924597 0.801227855366195
-0.195856594341869 0.34288855296336 0.82270673224246
-0.192268854276946 0.346450451692509 0.837590380503546
-0.191279502832463 0.346886225662875 0.83941129316543
-0.19578377603447 0.350844556331616 0.855951460602668
-0.19422252419456 0.354663008289146 0.871907134853778
-0.189674146256878 0.354879938725012 0.872813594175077
-0.192604922214673 0.357100419913047 0.882974729123137
-0.195453260622194 0.357100419913046 0.899803215815414
-0.194219967622739 0.357100419913046 0.904017370079394
-0.195279314599682 0.357100419913047 0.914320171224414
-0.195806187691657 0.357100419913047 0.921853094042246
-0.189757144770222 0.357100419913046 0.930339246624382
-0.192077308337346 0.357100419913046 0.932096864115137
-0.198223151747695 0.357100419913046 0.945197127686515
-0.193760772044914 0.357100419913046 0.954018040822283
-0.191378656073104 0.357100419913046 0.959564768377981
-0.19557425387171 0.339518711562322 0.959457153844993
-0.191667772092187 0.328841081347605 0.961196957189845
-0.19554420963869 0.310741878831081 0.959471857264296
-0.195114936462636 0.308129145401074 0.959681940294169
-0.194516866188328 0.295509344318445 0.959974631341065
-0.199847199408882 0.281738398418413 0.957366006773605
-0.197437343502965 0.220761012066876 0.331410963799161
-0.192091241497562 0.223836809084468 0.343329677242328
-0.195796875828533 0.225908245215779 0.35135649225116
-0.194842879284134 0.230046861899928 0.367393631902236
-0.189057161530538 0.234381772409836 0.384191410128129
-0.194350799302318 0.236328755540322 0.391735969758763
-0.18998770364094 0.241084829529869 0.410165756468257
-0.196466660166741 0.241961575571598 0.413563147379958
-0.196955436984815 0.24756893684947 0.435291672331711
-0.189671802509855 0.249270848899979 0.441886581527432
-0.1925350595241 0.251569061063447 0.450792153660872
-0.18928021309203 0.254284098101271 0.461312922182438
-0.188418475929824 0.257164151977686 0.472473130953546
-0.193058751493124 0.261666973652821 0.489921564944694
-0.193209681692614 0.264857123211205 0.502283394483435
-0.190809588043873 0.268845698660603 0.517739124349851
-0.189771597002346 0.270377706479131 0.523675654646648
-0.194941336043686 0.276161782390626 0.546088948803691
-0.193580396843036 0.278186429842645 0.553934457680264
-0.191089448319249 0.280861871168474 0.56430179281785
-0.188256240440874 0.282306259369839 0.569898797098142
-0.189333911586037 0.286179190483817 0.58574261045294
-0.187695059994881 0.287585278141949 0.591618048167276
-0.192059578045327 0.293647589202034 0.61694984795406
-0.18981503794592 0.293096546086964 0.614647274937517
-0.190019088522905 0.298201632200201 0.635979241910687
-0.192164922397984 0.297486477050979 0.632990915037149
-0.188283841314767 0.303417441924778 0.657773875402668
-0.19267089995347 0.303643246622181 0.658717416459674
-0.185385612803071 0.308194771287136 0.677736287381096
-0.184120219251546 0.309909574789508 0.684901716301718
-0.184052416168714 0.310786348421517 0.688565377549758
-0.183392090206493 0.316512981093046 0.712494521212933
-0.182909759183268 0.319766885127136 0.726091191641094
-0.190729373042723 0.320578389476014 0.729482120527479
-0.19082965078842 0.324399593712112 0.74544929537117
-0.186648226499857 0.326328680452712 0.753510122108679
-0.184326523500917 0.328731892332387 0.763552114605891
-0.18460413918677 0.333026908456871 0.781499146268915
-0.190417277276568 0.333449222627478 0.783263816196093
-0.187248711400743 0.338029300110464 0.802401997107142
-0.190836478379661 0.339247786066131 0.807493527707608
-0.187333590424044 0.342397307338379 0.8206540273095
-0.188525007185518 0.345736346701742 0.834606441792127
-0.185848656505883 0.347030817036117 0.840015478546478
-0.185265099266098 0.350511322665204 0.854559019925162
-0.182360874762039 0.352652828629557 0.863507455561924
-0.184909057975207 0.355575478365105 0.875719956242607
-0.181917946318973 0.357100419913047 0.884317004942586
-0.183480378775617 0.357100419913046 0.886695361005546
-0.187677620035029 0.357100419913046 0.903452860076802
-0.181420935363028 0.357100419913047 0.915103489685387
-0.182326795768257 0.357100419913046 0.921900133182522
-0.183128329510981 0.357100419913046 0.928537044922175
-0.184642999803518 0.357100419913046 0.938153401693012
-0.181273460697929 0.357100419913047 0.945827444831701
-0.18419603566231 0.357100419913047 0.952558210057101
-0.184767718383856 0.351668250629961 0.96382650917406
-0.190150378805173 0.345317773476636 0.961775222910282
-0.182800351018788 0.326576347662424 0.964576256201716
-0.191961839399527 0.31496214940573 0.961084890631497
-0.189284737647143 0.311190304164446 0.962105111418537
-0.189940038846873 0.299316751061327 0.961855381685575
-0.185859268253897 0.285599305660891 0.963410528770433
-0.187154285449579 0.270505979964531 0.96291700869357
-0.183745823603571 0.222661332563442 0.338774705723354
-0.186417060770735 0.226756908904175 0.354645064043693
-0.188759216848775 0.227167541625595 0.356236265839195
-0.181109442202313 0.232058048719605 0.375186980828484
-0.185956359544098 0.233379245591358 0.380306618706524
-0.183350706206637 0.235977795643006 0.390376000156662
-0.18578035836944 0.242303051419978 0.41488636629243
-0.186113943335959 0.242964947381961 0.417451213145114
-0.182783202584702 0.247267415791284 0.434123278231241
-0.1809879197986 0.248001820964246 0.43696909827647
-0.180233031453454 0.252604181465988 0.454803245220719
-0.182332930428896 0.256732764156475 0.470801503146354
-0.179975681154175 0.259313710746752 0.48080267118368
-0.179578850383069 0.262257664605232 0.492210492385289
-0.186221506910177 0.264795822022609 0.502045852377624
-0.1801332905524 0.265870115882901 0.506208741086256
-0.185252657897015 0.271179555021139 0.526782817746928
-0.177615660255425 0.27381046594579 0.536977597579952
-0.180509530279651 0.277463893981638 0.551134631218861
-0.181160047695534 0.280095885247496 0.561333597374063
-0.183256220853348 0.28377218304158 0.575684757926449
-0.183056884552441 0.286766398567131 0.5881963013725
-0.182537320321081 0.288163659282055 0.594034855074148
-0.180643480169739 0.292088633649406 0.610435640823437
-0.177516949023 0.293150251298223 0.614871685998849
-0.180781553874618 0.299156386188725 0.639968749648447
-0.177812860246049 0.299000219516522 0.639316196053885
-0.182570362893712 0.304410675446419 0.661924172618096
-0.18412342386537 0.303844577008372 0.659558689859117
-0.179055752159267 0.308381744241243 0.678517567225041
-0.178906502825799 0.309191705091219 0.68190204649101
-0.175230230516467 0.312647771956906 0.696343468751205
-0.176914931569244 0.316872432559001 0.71399651483853
-0.181454349547577 0.317247503954134 0.715563777453908
-0.178774133554318 0.322778051072475 0.738673563626974
-0.182713885693269 0.324391155510708 0.745414035743876
-0.181210346351821 0.325187068448573 0.748739814805671
-0.178714920236884 0.329472409180166 0.766646417148396
-0.173623544649109 0.331597496575671 0.775526246622471
-0.175454567860078 0.334981119268324 0.789664955731059
-0.17514593578146 0.335715341362383 0.79273295519552
-0.173194124431073 0.341306672312025 0.816096730949382
-0.17358769698858 0.34382683958807 0.826627429924282
-0.174127357240889 0.345943720095504 0.835472966330342
-0.1773544974238 0.348720463851294 0.847075788452754
-0.17757194839608 0.348363648722476 0.845584810950193
-0.175498640543592 0.352016248673309 0.860847460744744
-0.179625033699877 0.357100419913046 0.883715267086765
-0.176797021818705 0.357100419913047 0.887250536210401
-0.172678696140982 0.357100419913046 0.892685225535552
-0.179825499852842 0.357100419913046 0.898580016337502
-0.174582507592501 0.357100419913046 0.916217787924349
-0.179096739730537 0.357100419913046 0.926446520876897
-0.177472119666638 0.357100419913046 0.929998470947935
-0.177956386026813 0.357100419913046 0.940839194377224
-0.175737010106323 0.357100419913047 0.943931633008409
-0.178203109518001 0.357100419913047 0.949344111816664
-0.176909643192974 0.357100419913046 0.959167208475133
-0.174807699022511 0.353122526100759 0.967622188132734
-0.176698481241823 0.334290838717077 0.966901627054999
-0.178779754619216 0.330052969349387 0.966108471411499
-0.182172537922722 0.303007912567603 0.964815510451358
-0.178026290965036 0.308447549196732 0.966395610023839
-0.180792780158241 0.289697828853825 0.96534132444074
-0.186041570192925 0.271911446163385 0.963341055046639
-0.177366701367151 0.225471303406202 0.349663342739047
-0.178003563484788 0.227282718815559 0.356682577450304
-0.175125219527704 0.232666281908085 0.377543884433844
-0.174201735414669 0.231523758377593 0.373116605753189
-0.176357045801169 0.236529626234372 0.392514343698206
-0.174086150371877 0.23984719396835 0.405369918667372
-0.177325914838673 0.24466191404472 0.424026958963308
-0.175372365222787 0.246224968150727 0.430083793624084
-0.178609169860156 0.24978619368228 0.443883542558853
-0.175524966156014 0.251312739320734 0.449798906907858
-0.170939089589024 0.255112315316573 0.464522263891735
-0.173697443463427 0.258294954630441 0.476854991232972
-0.17618746610249 0.262259799694428 0.492218765855923
-0.170406414097456 0.263496169585783 0.497009699184925
-0.17415510920334 0.269670487829731 0.520935182380223
-0.169162842538756 0.272373606005249 0.531409765310356
-0.175648100154895 0.272463422622553 0.531757804702407
-0.173145823531723 0.277035324671633 0.549473925142596
-0.167791797714194 0.280473545070852 0.562797029189565
-0.169894150479854 0.282312612512508 0.569923415525985
-0.171916232795637 0.285230174191901 0.581777078090288
-0.174795203404047 0.287073376985441 0.589479032620441
-0.168972462447569 0.290015200019527 0.601771650298585
-0.16889491486967 0.294390771835731 0.620055289673435
-0.17060070582624 0.297001706035096 0.630965264720783
-0.169872209450961 0.299380796160885 0.640906462746402
-0.166773326938618 0.301222782176272 0.648603332882129
-0.175220918292314 0.3042656712482 0.661318262218395
-0.170669080286479 0.308930779317845 0.680811749509412
-0.174546398416028 0.309190436810351 0.681896746888813
-0.170175405652844 0.312533129276699 0.695864426123199
-0.166954964383774 0.315474334746753 0.708154463265924
-0.169269886903586 0.318717765639931 0.7217073709267
-0.165773709626568 0.31984011886183 0.726397204032493
-0.169813708402824 0.322069833300877 0.73571422508137
-0.166512262663556 0.325221614544228 0.748884168133941
-0.16985563511167 0.329553173113542 0.766983895012858
-0.168094862477963 0.333685955915577 0.784253023149937
-0.17264403739941 0.335253546309901 0.790803311583362
-0.169729965247089 0.337011825458941 0.798150406598995
-0.171616958420059 0.339977805234962 0.810543964948796
-0.169320162797354 0.342606461486176 0.821527992855652
-0.172055105376245 0.342814590546686 0.822397675001356
-0.170344788099273 0.348816647163105 0.84747769729139
-0.165496962801733 0.35149691618897 0.858677392863757
-0.164020134308579 0.354740194615607 0.872229663432204
-0.169912631858105 0.357100419913046 0.882775992728869
-0.171810203080829 0.357100419913047 0.882774375978045
-0.163564487517897 0.357100419913046 0.889314535297029
-0.16628382344745 0.357100419913046 0.899091585928781
-0.170303047801284 0.357100419913046 0.914118018691338
-0.16812508435057 0.357100419913046 0.923085490974734
-0.170829987361414 0.357100419913047 0.931054386753657
-0.166397513096535 0.357100419913047 0.936460505568561
-0.171071442620763 0.357100419913046 0.943531814729685
-0.171649166339418 0.357100419913047 0.9527383320027
-0.167948431618864 0.357100419913046 0.968318849618313
-0.170579862443394 0.342812147900128 0.969233380818399
-0.171656732386627 0.338435276830359 0.968822994810453
-0.168845535735314 0.319537663169828 0.969894318026902
-0.174087204237061 0.311852596583675 0.967896762588642
-0.168848743358849 0.297585686429721 0.96989309562876
-0.173381592695772 0.29709699264202 0.968165665166348
-0.173488413463317 0.282528086712781 0.968124956677237
-0.172502282977823 0.264954549001192 0.968500762646934
-0.169250691097163 0.221518429271163 0.334345955465771
-0.162183025975725 0.222319079350546 0.337448474523383
-0.165714848924642 0.22771022199718 0.358339152279089
-0.168075813614609 0.230966617143163 0.370957683469771
-0.163950333248961 0.23483459121969 0.385946083016312
-0.162062244126638 0.238779438063612 0.401232364536513
-0.161838519436043 0.240501602058119 0.407905750015222
-0.164066815099073 0.243129939069405 0.418090555933958
-0.165127930189995 0.247072780319421 0.43336906577777
-0.168495390273404 0.250202079317546 0.445495099395506
-0.166263001096757 0.251489070466199 0.450482190096537
-0.162864169836886 0.255452555581294 0.46584069491753
-0.162946427522177 0.258173403533538 0.476383980732471
-0.165643455838909 0.263329871781665 0.496365295193965
-0.162567929132221 0.263510579962111 0.497065539393196
-0.162767071650925 0.268206409382923 0.51526187839884
-0.159723602549922 0.273362112702216 0.535240228761099
-0.162574912751828 0.275422800533412 0.543225394106988
-0.161574168965117 0.276287223777357 0.546575034177275
-0.15943219158754 0.279812617139896 0.56023593345711
-0.160450432576646 0.284132058329964 0.577188522524338
-0.161540196924988 0.286563908520029 0.58735018224711
-0.16545130713708 0.289940521890315 0.60145960240152
-0.162156210743894 0.29252922325464 0.612276675959595
-0.164245222298561 0.29317756373702 0.614985812975251
-0.157966038346598 0.295810268452933 0.62598675768103
-0.157833128665537 0.301021288737344 0.647761378155176
-0.165664881648571 0.301034574864656 0.647816895187157
-0.158867349877702 0.304079487805132 0.660540281402721
-0.157152025356033 0.308999524231109 0.681099005039838
-0.165642279015671 0.311946639360976 0.693413736118212
-0.165200563126247 0.311930635587044 0.693346863205712
-0.161153525345283 0.316895920830834 0.714094662260119
-0.16446686335922 0.317505340795976 0.716641167114459
-0.164357949672376 0.322235969105518 0.736408435407904
-0.161238722127445 0.32450046086868 0.745870775989687
-0.164591789267911 0.327237995480883 0.757309759904966
-0.159370149472646 0.329433350847687 0.766483209116252
-0.160586407060039 0.331811656429087 0.776421128867102
-0.160056628560878 0.334122637313792 0.786077727563902
-0.164077180870085 0.334967349484267 0.789607417704817
-0.159738937121243 0.341526498369069 0.817015289830596
-0.155683265632424 0.341632930503138 0.817460024105099
-0.163278188019565 0.34612242547742 0.836219699533349
-0.155615799304797 0.34822676066847 0.845012814438808
-0.162841242572912 0.350136005888776 0.852990731966519
-0.155286399947593 0.352602573300052 0.863297460077924
-0.158852381862931 0.354154960975199 0.869784222863358
-0.157698753264081 0.357100419913046 0.889474136458923
-0.154613076665629 0.357100419913047 0.901957088054793
-0.156004659019456 0.357100419913046 0.899351154738995
-0.154396333003503 0.357100419913047 0.908016133226008
-0.159113334589773 0.357100419913047 0.916241978090449
-0.155240244826467 0.357100419913047 0.925658097886253
-0.155788181269159 0.357100419913046 0.94159881333469
-0.155029587946424 0.357100419913046 0.947157728762943
-0.15738137358694 0.357100419913046 0.952551651205938
-0.155768840672866 0.357100419913047 0.965435651915913
-0.162751046751815 0.352774509485004 0.972216876122353
-0.15823167928668 0.34013775304266 0.973939168757697
-0.156992409014256 0.336498759584632 0.974411444154611
-0.159242581524977 0.322826545745947 0.973553922482969
-0.162681226881637 0.30940488727326 0.972243483883093
-0.162866752821001 0.291914787123405 0.972172781520097
-0.159314666944845 0.291110849393611 0.973526451340445
-0.164706155217692 0.267113141516588 0.971471800857273
-0.156867913810455 0.225025347994892 0.347935265520222
-0.154713655413376 0.226898970466673 0.355195552598371
-0.157181097506309 0.230306980605139 0.36840159188493
-0.161136962285688 0.234628532723231 0.385147606342534
-0.158923897641553 0.237229825642917 0.395227616406319
-0.155120277559766 0.242465381389638 0.415515394924859
-0.153044956844873 0.243309062428871 0.418784658951889
-0.157494959909507 0.245802605001574 0.428447136421112
-0.159840013483786 0.248512545667086 0.438948156499974
-0.156457484050391 0.25249780148051 0.45439102277699
-0.156071031373705 0.255866289991057 0.467443915755359
-0.154845278231622 0.258650398027521 0.478232334396659
-0.158960210201802 0.26160152484144 0.489667950800597
-0.158075392638571 0.264832715634799 0.502188815124861
-0.159148676733068 0.26825481236473 0.515449439953341
-0.156225486782604 0.270807604835043 0.525341510775805
-0.152294728322029 0.27346733408054 0.535647961602106
-0.156190840938941 0.277245956433336 0.550290123219191
-0.152650729209327 0.279933564439742 0.560704604244018
-0.153086584519015 0.283424631887611 0.574232490604508
-0.15295908069777 0.285423208888653 0.582583687358858
-0.152760436338662 0.287543533868883 0.591443616740536
-0.156365322364881 0.29279952206924 0.613406138863457
-0.151285651349338 0.294532237421417 0.62064641372791
-0.151490886924528 0.29717988898543 0.631709814906112
-0.150112491725948 0.299383400185843 0.64091734385069
-0.149120621855129 0.301692270538766 0.650565123539688
-0.15141957767702 0.303648074070277 0.658737588296361
-0.153125590614717 0.309230245417049 0.682063089995371
-0.155762643135237 0.311533193239654 0.6916861219684
-0.15297039113073 0.31221072571847 0.694517239826311
-0.154865172509405 0.316851239983935 0.71390796014986
-0.14891973672458 0.317663681854815 0.717302806538894
-0.153903805865639 0.320393198279539 0.72870828588506
-0.151958142353835 0.32380936243387 0.742982971815662
-0.153529276336993 0.326656237304875 0.754878841812361
-0.147469192182352 0.328433708975645 0.762306134150935
-0.150820874965705 0.330071211560422 0.769148555665895
-0.152603937578846 0.333414899999507 0.783120396643501
-0.152406351853178 0.33839590078672 0.803933864218641
-0.14693543611772 0.340924685115834 0.814500570165297
-0.148001765743363 0.341888399498809 0.818527519551297
-0.154283227691255 0.343267161564775 0.82428877532694
-0.154580328595816 0.348528685466085 0.846274428771702
-0.148799209248726 0.348492315474351 0.846122454163382
-0.150095110731653 0.353197821163545 0.86578474579323
-0.153654676411212 0.354635628972699 0.871792728424337
-0.153966475713808 0.357100419913046 0.886801768434507
-0.151604809225408 0.357100419913047 0.893489678796651
-0.154082506615258 0.357100419913046 0.903004104829236
-0.149904704882743 0.357100419913046 0.910351133754712
-0.151432135771375 0.357100419913046 0.919650801398684
-0.152147389318574 0.357100419913046 0.932078577931202
-0.149136169834105 0.357100419913047 0.937049966489188
-0.150813726895929 0.357100419913046 0.944181033128942
-0.14765185350186 0.357100419913046 0.954439903321405
-0.150139091169564 0.357100419913047 0.966352628084844
-0.147315953317227 0.357100419913047 0.974240322172404
-0.147949357367305 0.346154359005312 0.97742455542532
-0.147660162976609 0.335798774200841 0.977505550638547
-0.149064159440729 0.32838867568313 0.977112330726127
-0.155066132492422 0.305372213575419 0.975145531810192
-0.153221348960458 0.302856607371729 0.97584856317806
-0.149984576659927 0.285505948659284 0.976854547756176
-0.154864333179324 0.281725190555949 0.975222435817988
-0.152789694137464 0.269140425190847 0.976013063172448
-0.146416776123725 0.221014224333408 0.332392161331969
-0.14365579453429 0.224336299204126 0.345265201456003
-0.144274562328174 0.227016286008769 0.355650150323995
-0.150754344811299 0.229837712059578 0.366583176270879
-0.147323280246618 0.232797252320762 0.378051394782968
-0.143936788441392 0.238631880790943 0.400660580104919
-0.142584730752528 0.241693363939717 0.412523827306416
-0.148561441949497 0.24392808735502 0.421183380540717
-0.143106447768202 0.246631678386352 0.431659795787131
-0.148075030345326 0.250561659614921 0.446888473047834
-0.1423507547782 0.254787131819022 0.463262177838725
-0.144569045976468 0.25528934919496 0.465208270170486
-0.146012896733895 0.258403424541964 0.477275312140124
-0.149307600071533 0.260079844070024 0.483771437811358
-0.150061755706679 0.263018249530275 0.495157758969831
-0.141474955727752 0.268841861453224 0.517724255171256
-0.142088328530119 0.271890928545344 0.529539390153224
-0.149312435544588 0.273872479482119 0.537217900033225
-0.145820168541592 0.278095964294015 0.55358390367932
-0.147917107721354 0.280654612289104 0.563498664660293
-0.149174019020185 0.281402165903431 0.566395434915809
-0.148539595139855 0.286627157580232 0.587614472962961
-0.143735731234904 0.288942374550072 0.597288772444077
-0.14863477238091 0.292664237761138 0.612840843718886
-0.142643721063436 0.296397082240542 0.628438801007826
-0.148613934236166 0.296998602438593 0.630952296121109
-0.142979726937501 0.298659650905288 0.637893105785514
-0.14441115059405 0.304381397961447 0.661801834555891
-0.141071394886322 0.307144173761602 0.673346290577965
-0.145233799327012 0.309160694949874 0.681772468400391
-0.14483389301847 0.30941989983775 0.682855574539018
-0.146851291688747 0.313616637406726 0.700391942237954
-0.145918820523401 0.31582443448257 0.709617380019157
-0.140894950963037 0.318542410185945 0.720974635636833
-0.139670913608513 0.320734742189203 0.730135451507586
-0.140639264188151 0.322735733424889 0.738496736313848
-0.144572591081444 0.326697979656052 0.755053265208346
-0.14566005993074 0.327688405729149 0.759191831299502
-0.143945595672875 0.333352134357291 0.782858125924242
-0.145409673489386 0.334306846069815 0.786847457008713
-0.141480084242204 0.336249846462733 0.794966422936267
-0.140818207081415 0.338497882527638 0.804360002207477
-0.141084132508203 0.342194703621985 0.819807433208855
-0.14470069692619 0.345441847406802 0.833375855452553
-0.141710515063701 0.349630862328192 0.850879953516934
-0.139770739423827 0.349787169822365 0.851533095546155
-0.145429057888046 0.35405112572658 0.869350339860199
-0.138269057048684 0.356642324266434 0.88017784804459
-0.13727553932266 0.357100419913046 0.890518223384777
-0.137563922332715 0.357100419913047 0.895588538410802
-0.14376764284676 0.357100419913046 0.904330855614004
-0.144090972360313 0.357100419913047 0.914407026246993
-0.137417385301158 0.357100419913046 0.920669280612979
-0.143074595245886 0.357100419913047 0.93154481685373
-0.144245111325212 0.357100419913046 0.936226678013215
-0.143373632559847 0.357100419913047 0.948936533614564
-0.139063193213549 0.357100419913046 0.958820045028617
-0.137716610780985 0.357100419913047 0.960542654246871
-0.136955165852869 0.357100419913046 0.974178786627373
-0.139720270074312 0.357100419913047 0.978069292372239
-0.141394573915315 0.331459285990393 0.979260365871278
-0.144497290556831 0.333704141994428 0.978391382225508
-0.146077996027282 0.31753152243595 0.977948671091587
-0.147629527292521 0.2972698586776 0.977514130831818
-0.146588306493192 0.289014465191986 0.977805747486122
-0.147032297032203 0.277274521793097 0.977681398226472
-0.14700948297308 0.263680981928746 0.977687787802628
-0.140309875003848 0.22092255176699 0.332036930137102
-0.13603339391102 0.223645286913757 0.342587528830821
-0.135330676740932 0.227930926272193 0.359194381344765
-0.138760137398678 0.230404336541964 0.368778846140127
-0.135244237398133 0.232400813685854 0.376515195072698
-0.136460263453571 0.236372037371589 0.391903686854921
-0.134268836438183 0.239915131522855 0.405633176691078
-0.142128216200114 0.244816033068387 0.424624170180015
-0.137873085940471 0.246975374233226 0.432991617193767
-0.134075653144543 0.247230321617985 0.433979538309707
-0.140863930962889 0.25481390926456 0.463365940440187
-0.138810056641111 0.257034469785147 0.471970612457459
-0.132660650949916 0.259296603799662 0.480736381763704
-0.137987740419284 0.261890593417822 0.490788091534072
-0.137432924158835 0.262242114308086 0.49215023498385
-0.13539797105139 0.266362495550577 0.508116712298499
-0.133986779391836 0.270756150065963 0.525142123545621
-0.1352695158363 0.274909093483918 0.541234779290197
-0.133047546032012 0.277120695621146 0.549804737571957
-0.136281549130451 0.281883911863756 0.568262200512068
-0.131474625308165 0.28283950323857 0.571965117089475
-0.131813974669214 0.287378840959696 0.59075543565572
-0.135396038137838 0.289560028373873 0.599869683064959
-0.138601553383258 0.293336163766459 0.615648534526835
-0.131371054576115 0.294331480811336 0.619807537892932
-0.131014126018068 0.295350542269893 0.624065758987611
-0.131444981459092 0.301035407337918 0.647820373736146
-0.13846330803247 0.302203167681141 0.652699943741757
-0.135186100437909 0.307254671128715 0.67380801171912
-0.129977596614982 0.308443307445646 0.678774813472013
-0.138235346279993 0.308772464532252 0.680150219869611
-0.132876208511299 0.312674836999321 0.69645656196415
-0.132968990391228 0.315360426327549 0.70767848879996
-0.133221362448731 0.316795577072152 0.71367536869705
-0.133024577535295 0.320127544521167 0.72759823268044
-0.134714527255384 0.324970205707929 0.747833638353695
-0.13636441032045 0.327836926232906 0.759812434833063
-0.131371914731703 0.330288469267975 0.770056382515311
-0.137881489273209 0.330293999666341 0.770079491679914
-0.135100966188151 0.332221323067234 0.778132950176503
-0.13178505955417 0.335795698739187 0.793068734234309
-0.136067368220991 0.339464204808274 0.808397848880135
-0.134254915643291 0.342768651761918 0.822205716507861
-0.130378738528451 0.34370772552115 0.826129703287507
-0.134858754569348 0.348452544379221 0.845956267801592
-0.130618645931866 0.350812171760762 0.855816139360173
-0.130350600398315 0.351728386875853 0.859644609662516
-0.128288147010118 0.35554930988074 0.875610609361509
-0.13273812701511 0.357100419913047 0.886814944811254
-0.136620000995008 0.357100419913046 0.891205210438787
-0.132924376342653 0.357100419913046 0.903244824125106
-0.128107438257499 0.357100419913046 0.908350134053955
-0.135781636761556 0.357100419913046 0.915384707360146
-0.135838513776931 0.357100419913046 0.925649807606259
-0.134576426209959 0.357100419913047 0.934044716552046
-0.131506317273429 0.357100419913047 0.948509433524255
-0.134647002121003 0.357100419913046 0.95486125944795
-0.133852849635402 0.357100419913046 0.965052226161562
-0.134947922044573 0.357100419913047 0.977168358181118
-0.128676238964009 0.356260614842392 0.982822413699374
-0.13468287953301 0.334149521343304 0.981140122654604
-0.13155673746078 0.323543387332577 0.982015667104513
-0.138505208199916 0.316634339401655 0.980069595924624
-0.134932142173952 0.305351539858073 0.981070311201124
-0.136636212596505 0.292800323469653 0.980593049014618
-0.137011751207226 0.282506423603869 0.980487871214395
-0.133075618987283 0.276140750075041 0.981590271118063
-0.127490929344453 0.22256888663298 0.33841647774281
-0.133447912663577 0.222476571708053 0.338058757408719
-0.127767505762638 0.229035366829176 0.363474088503072
-0.12773905071055 0.232963288457786 0.378694784813936
-0.126222415902233 0.233289013248046 0.379956968376194
-0.130626523211778 0.236118533685967 0.390921360073136
-0.13118615015651 0.240132102177918 0.406473937979446
-0.128374693831472 0.242948875091256 0.417388933018635
-0.127035238277559 0.247714287076238 0.435854904460438
-0.132440540433197 0.249684699709668 0.443490253414979
-0.125233474784066 0.254269081301147 0.461254732081959
-0.130248479645765 0.25607564878171 0.46825518106914
-0.130031673268935 0.259454435848748 0.481347980953913
-0.128625989703884 0.261324194369559 0.488593295222056
-0.125865214235846 0.264638364404934 0.501435704109133
-0.129488971664249 0.26692814340769 0.510308597744812
-0.1304580880584 0.271859695337964 0.529418361474622
-0.12978968569112 0.27412210068155 0.538185182181021
-0.124384910491636 0.278814804648776 0.556369410054021
-0.127953330936641 0.279913271383584 0.560625968651401
-0.12607176943583 0.28360211984563 0.574974136714799
-0.125187979002747 0.28459112934694 0.579106783559559
-0.123285312836986 0.289693363864368 0.600426834935959
-0.129404936004213 0.291167116112296 0.60658501397194
-0.123587980175065 0.29417168987803 0.61913984006447
-0.122568790869559 0.295863920385131 0.626210946112001
-0.124405161089785 0.297382473240189 0.632556327684923
-0.126135283324737 0.303801862832978 0.659380205626222
-0.124993477311811 0.30392286710221 0.659885830608371
-0.127838359261014 0.306599191065055 0.671069041453112
-0.129691600095505 0.310105098471481 0.685718725972821
-0.125713472351266 0.312541605448639 0.695899844413087
-0.12632970850067 0.317162520200737 0.715208666770069
-0.12206515941498 0.318455353865042 0.720610864581628
-0.125522269945659 0.321247201073507 0.732276797559859
-0.123252210477603 0.324124604112201 0.744300231685827
-0.122852917415921 0.327857385816016 0.759897926662484
-0.126912285285194 0.327569579444788 0.75869530718271
-0.124826940249421 0.333039607950852 0.781552212011619
-0.121808111223006 0.335782634735824 0.793014145363113
-0.12687728133111 0.33712460736699 0.798621673857624
-0.123087956297703 0.339780402667046 0.809719104218576
-0.127873567658074 0.344148102398202 0.827969849523761
-0.123997692345354 0.344833348292807 0.830833198440504
-0.123597074768497 0.346786463798803 0.838994431090559
-0.125397911053386 0.348056534570881 0.84430151253103
-0.124999540591955 0.351571556485528 0.858989282674373
-0.119366564702088 0.354604824199075 0.871664008477411
-0.123732327868764 0.357100419913046 0.887484549436348
-0.126346925920535 0.357100419913047 0.89504758764992
-0.120504788213042 0.357100419913046 0.900244249494908
-0.124300146717844 0.357100419913047 0.911284471323759
-0.123942721295431 0.357100419913047 0.916510032778144
-0.124294935148049 0.357100419913046 0.9312422454825
-0.119282213512448 0.357100419913046 0.942026948571518
-0.120915301091723 0.357100419913046 0.952475180536025
-0.120394837058847 0.357100419913047 0.95261604598442
-0.122824897329267 0.357100419913046 0.966768808794523
-0.118852028800705 0.357100419913046 0.971427495100906
-0.125106903231246 0.349662518726129 0.983822084225689
-0.122741461966329 0.340725264904072 0.98448457777948
-0.128401789159411 0.335453206391186 0.982899279368829
-0.124568924744589 0.321991390219936 0.983972756865409
-0.123571672145146 0.317324203596591 0.984252059263837
-0.125447986491958 0.303269034204137 0.983726556399706
-0.122464701004142 0.291352789326234 0.984562090739158
-0.125391586912758 0.278679399073111 0.98374235233521
-0.123230486088193 0.222349873141734 0.337567800464233
-0.122298228069605 0.225089577681529 0.34818415555594
-0.118029299960155 0.225386948007416 0.349336465568751
-0.121131819007045 0.228393883768636 0.360988341643479
-0.115567845975311 0.231645061269368 0.373586654458815
-0.11964635515386 0.238205924888733 0.399010000983852
-0.121188975612726 0.238877241059802 0.401611351146748
-0.120151622946237 0.243510607436206 0.419565645855314
-0.118084549774573 0.244409809583976 0.423050054177924
-0.119844670001023 0.249764276762408 0.443798614494347
-0.116202968534678 0.253646392997127 0.458841814903884
-0.122295702023399 0.254050463465404 0.460407587968456
-0.115846969923878 0.257462911887654 0.473630825604675
-0.114229197285801 0.261701589191416 0.490055700156753
-0.116303655617767 0.263283547054263 0.496185786875283
-0.119148794957923 0.268291462624451 0.515591459709761
-0.122594413073991 0.269051160192619 0.518535287786413
-0.117982366744802 0.275383584612393 0.543073432413037
-0.118685007381228 0.276187835822337 0.54618990585157
-0.12060963379731 0.278645899315663 0.555714901888207
-0.120268722211574 0.285380055484132 0.582403367775686
-0.113668105045319 0.285372376126985 0.582371279033319
-0.114941353835697 0.288321512173383 0.594694454655768
-0.117731717938655 0.290987816331462 0.6058357970306
-0.114457677546809 0.295389571458268 0.624228845239041
-0.11863668080344 0.297501199693073 0.633052434648761
-0.1166118734592 0.301014910862894 0.647734727751224
-0.113058684339573 0.301928716361436 0.651553129298702
-0.115793254420893 0.304508990059902 0.66233498725301
-0.114533293802707 0.309225734416796 0.682044240458601
-0.113723252008276 0.310121512235578 0.685787312058509
-0.11659769132974 0.315051722624142 0.706388548325013
-0.115058007559812 0.31470452477616 0.704937757317373
-0.113795242889941 0.317341389014923 0.715956082886486
-0.120105587502866 0.320993963829381 0.731218627646902
-0.11149188614825 0.32439130999673 0.745414681274751
-0.115574218978528 0.327923596720584 0.760174593656571
-0.118985037230795 0.329270468983149 0.765802595610863
-0.114770833382333 0.331144209062272 0.773632152370054
-0.119381804076882 0.334579511874443 0.787986810549485
-0.115176532728904 0.336509837099182 0.796052812381427
-0.118627708114426 0.340311295848588 0.811937479298587
-0.115796978258354 0.341753466061378 0.817963690544891
-0.118302947711127 0.34456085746652 0.829694576059234
-0.117316194366902 0.346726554632224 0.838744096358785
-0.111009057939493 0.350005313448726 0.852444624270594
-0.114982547066781 0.353290724132826 0.866172947486298
-0.114104739586993 0.353522711953304 0.867142325164724
-0.113784726509229 0.357100419913046 0.884265445574853
-0.116169837520623 0.357100419913046 0.893101180342901
-0.111549818435949 0.357100419913047 0.905776116144443
-0.112383966934341 0.357100419913047 0.910063511626646
-0.117373398371034 0.357100419913046 0.926689663872248
-0.118385563076855 0.357100419913046 0.931991038270816
-0.115931072670298 0.357100419913047 0.941618726674129
-0.115871336562124 0.357100419913047 0.94264805031523
-0.118290773261567 0.357100419913046 0.957841504184459
-0.116172364403885 0.357100419913046 0.965742382188469
-0.112361380423718 0.357100419913046 0.972177236325915
-0.110863536559829 0.357100419913046 0.986858036216917
-0.117344041703277 0.351740896620868 0.985996243355117
-0.111296616794848 0.339622741677401 0.987689956946018
-0.111564104169433 0.331819807168256 0.987615041257341
-0.117585685646404 0.314532623285897 0.985928565684567
-0.114585939869457 0.307543203676088 0.986768710087944
-0.117225883348507 0.287887475758124 0.986029336186262
-0.116237312264864 0.283023529152433 0.986306207136342
-0.121670194332839 0.263700878208639 0.984784609706756
-0.110779022371651 0.221626246417496 0.334763746907812
-0.11034319312329 0.224899098252716 0.34744604776929
-0.111077076306327 0.22662192160714 0.354121988267682
-0.112500594362064 0.231301026401036 0.372253519344029
-0.111679329259358 0.233167583855799 0.379486429481234
-0.107483773569523 0.239378382422669 0.403553273927857
-0.11195322571616 0.239044103182022 0.40225794187035
-0.113194427837728 0.243607183156052 0.419939876769718
-0.109893011911194 0.245782805941169 0.428370415062046
-0.106170872729853 0.24904972802529 0.441029738138013
-0.11119600644406 0.251399579840009 0.450135413920051
-0.106753690832802 0.254775911439965 0.463218698869879
-0.109038384748794 0.257653190942899 0.474368156943749
-0.111674187234041 0.258847039305103 0.478994319347286
-0.110781742091835 0.264736758754068 0.501816982212028
-0.107129336391279 0.266507079274667 0.508676974229348
-0.112827719394652 0.272925516829403 0.53354841975395
-0.107069548940717 0.273261144433467 0.534848976719699
-0.109662705993488 0.277314102120906 0.550554187758527
-0.106182749692201 0.281214483013055 0.565668163715604
-0.106378439492796 0.282379271055784 0.570181717381179
-0.106599789795116 0.285655148357609 0.583552862997
-0.109654984004955 0.290087252510309 0.602072726777924
-0.104154116857927 0.29095434925516 0.605695952461764
-0.103462546282418 0.295782264938568 0.625869742996004
-0.105791817060255 0.296005047855347 0.62680065732683
-0.110747461560471 0.297999265595583 0.635133638598533
-0.111593186393065 0.304473681429557 0.662187447619067
-0.104623188002056 0.306644736797653 0.671259357550039
-0.110440439508337 0.307000512332872 0.672745991036491
-0.106800069243063 0.309442327922286 0.682949291892256
-0.108354559356751 0.313059498220133 0.698063896351115
-0.109185179903852 0.316320595014378 0.711690622241357
-0.105263594423354 0.31805126207746 0.718922338183519
-0.103494959642299 0.320889434091099 0.730781842669083
-0.108746158634939 0.322416652785707 0.73716343507155
-0.109947424212421 0.327799725162853 0.759656987504625
-0.108518014600784 0.329994900621548 0.768829684957029
-0.103334209211613 0.333197584684406 0.782212329076828
-0.110357286663388 0.335709475281835 0.792708443358943
-0.104161669989239 0.337753342925222 0.801248890297381
-0.107075858864183 0.340209365007847 0.811511553999778
-0.102048032358015 0.343346987536779 0.824622333852817
-0.107411062119312 0.345557051308212 0.833857243183448
-0.102311656255713 0.347995159487008 0.844045052359132
-0.107800505770015 0.350518198721827 0.854587752018909
-0.105804623697969 0.353491065990963 0.867010090250654
-0.106547445219339 0.356381270154865 0.879087014792675
-0.101516058432161 0.357100419913046 0.884112507722954
-0.102266191934275 0.357100419913046 0.895530798601909
-0.105154223808045 0.357100419913046 0.907074199600154
-0.106931713685589 0.357100419913047 0.909571416074388
-0.107026793878851 0.357100419913047 0.924612985979858
-0.108597895194036 0.357100419913047 0.934621285632765
-0.107576133623493 0.357100419913047 0.943968884876715
-0.107407322157171 0.357100419913046 0.951686329235996
-0.109110440164479 0.357100419913046 0.96042068389184
-0.105524520766106 0.357100419913046 0.964973859809867
-0.105026728491589 0.357100419913047 0.973160002264361
-0.103582943290746 0.357100419913046 0.9767180706503
-0.109568196992237 0.356322820281402 0.988135798493943
-0.106215376568997 0.345345735224771 0.988753013980778
-0.108233220535654 0.327937750611838 0.98838155222947
-0.102973970898545 0.310422111214306 0.989349719299395
-0.103538254192871 0.312614175438091 0.989245841267095
-0.112049316037274 0.291252317547636 0.987479147063123
-0.112640327250018 0.285984795289453 0.987313621448741
-0.113615723549499 0.263866346417679 0.987040440385071
-0.100945074594261 0.134177660099787 0.128481365714052
-0.10382083883165 0.133619323176187 0.128428413293889
-0.099134150869656 0.221989286301018 0.336170526456461
-0.0978626795149589 0.222757699459426 0.33914812744529
-0.0992333578907963 0.226583433919422 0.353972848477775
-0.101934195638103 0.231225356313085 0.37196029775322
-0.103952758111718 0.233878672732701 0.38224189887923
-0.102699679122365 0.23708428915403 0.394663662511882
-0.102131708695843 0.237651384937391 0.396861158672404
-0.099284415041541 0.24322723072046 0.418467561081795
-0.104709876346883 0.247833343206915 0.436316246966812
-0.102399304527968 0.249189960480132 0.441573138900524
-0.104322337963212 0.252571543804802 0.454676774283621
-0.0974579750636674 0.256256479441376 0.468955899875348
-0.104072360031381 0.258957723911112 0.479423222195574
-0.104038100713351 0.261141409022083 0.487885002000586
-0.0961961227514206 0.26692333557411 0.510289967389688
-0.0962192279871478 0.268556316250397 0.516617767510306
-0.101965802156348 0.272264356341102 0.530986422861784
-0.100719597510186 0.27239793008763 0.531504021129579
-0.0972621346854489 0.276870986921251 0.548837116359863
-0.103814313804547 0.279217258748451 0.557928919690262
-0.101703711082337 0.282325838880578 0.569974667702255
-0.0962971239486394 0.286332777384481 0.586384384287857
-0.0961670851503434 0.288398514605905 0.595016214820234
-0.0988315075546691 0.290962323221422 0.605729272249362
-0.100013177438267 0.296327926431728 0.628149828520992
-0.10044338604692 0.299243370523448 0.640332219904254
-0.0956727911235832 0.299192333784285 0.640118959244178
-0.0965711311010286 0.302551537217896 0.654155630734627
-0.103300370213782 0.302693772232479 0.654749969902704
-0.0958831007689814 0.307922398568127 0.676598158519519
-0.0967501559433049 0.310745776802016 0.688395846139697
-0.0973809007649398 0.314838144598799 0.705496097290542
-0.0978637912617743 0.314925151366657 0.705859661284807
-0.0962495397401311 0.319131230025513 0.723435061395025
-0.0952257073475965 0.322573267063806 0.737817859019323
-0.10186092159775 0.32325519871344 0.740667359126722
-0.100181341154572 0.327471786833992 0.758286673773313
-0.0944691600647922 0.327505546707183 0.75842774181486
-0.100942766485677 0.331941435198006 0.776963418722942
-0.0976162216137359 0.335652163489645 0.792468961941577
-0.0952516174142212 0.337764415832598 0.801295159231776
-0.0935819295694295 0.339331486322392 0.807843275206984
-0.0971693551222071 0.341962850001724 0.818838616295619
-0.0977881169757575 0.344411596061891 0.829070876618463
-0.0989594828398558 0.347680607813512 0.842730675723449
-0.100530294057906 0.351717200934213 0.859597868406378
-0.0958397224802153 0.352656920305533 0.863524552922253
-0.101052479593759 0.35544138901998 0.875159654336193
-0.0989216336571171 0.357100419913046 0.882234012291297
-0.0953490172611359 0.357100419913046 0.895013052055411
-0.100097564935912 0.357100419913047 0.903622867375833
-0.0933578038075714 0.357100419913046 0.91030997817368
-0.101117702014826 0.357100419913047 0.915773999246995
-0.100846746256011 0.357100419913046 0.931703119341416
-0.0997582489329233 0.357100419913046 0.935484389097112
-0.0978041024121011 0.357100419913047 0.952370230884754
-0.100197861216897 0.357100419913046 0.951438889176221
-0.0940855798184442 0.357100419913046 0.966235749582636
-0.101064559248727 0.357100419913046 0.978348028675927
-0.0996553847121398 0.357100419913046 0.983922581222772
-0.0968157291481422 0.357100419913047 0.98511702630542
-0.0931428929346316 0.340949866984876 0.991159507121477
-0.0967438699308739 0.333905075443325 0.990496608877833
-0.0957874967778484 0.323355960739226 0.990672666121207
-0.098455150508024 0.30227477476525 0.990181581903166
-0.0993582715897546 0.295798534457001 0.990015327750613
-0.10247200127735 0.281413454722174 0.989442126104715
-0.101278372332643 0.274820409655711 0.98966185939705
-0.0984650655042981 0.129664499803232 0.128767033350728
-0.0951830269835955 0.123554480289508 0.129151683412248
-0.09231975289873 0.111873777637936 0.129792397128964
-0.0902921508613324 0.222991305999688 0.340053352788807
-0.0899160227910685 0.229115971076835 0.36378642996275
-0.0951666770525584 0.230858159561947 0.370537410342557
-0.0895951926913276 0.233212965558612 0.379662283579636
-0.0957916856705654 0.237075384311519 0.39462915624715
-0.0956751159043857 0.238331292268337 0.39949579957982
-0.0930935530000556 0.242444723387306 0.415435345165826
-0.0912122621826685 0.245769827317777 0.428320122896399
-0.0897626705197259 0.24963050260174 0.443280239621756
-0.0900107274964062 0.249821661313636 0.444020979630355
-0.0909669538534779 0.254382222872581 0.461693155671266
-0.0911179194458464 0.257479842487801 0.473696431680243
-0.0923522634465213 0.260863006657831 0.48680619283911
-0.0930986376825552 0.263887040086427 0.498524322374918
-0.0917118552737441 0.268096653577904 0.514836574654392
-0.0938338060132316 0.272910240034111 0.533489222172198
-0.0920558834865979 0.273605390035284 0.536182928426742
-0.0948758883820627 0.277122010868108 0.549809834153933
-0.0919167314923865 0.280104467693758 0.561366854353328
-0.0872784232037739 0.282086288580976 0.569046410291299
-0.092331401376622 0.285886159756962 0.58451816063001
-0.090469619446198 0.288202746248971 0.594198182757333
-0.0905967749174196 0.293136514676399 0.614814286543373
-0.0886196907179451 0.294681294695222 0.621269260193455
-0.0933434226642173 0.294981181587458 0.622522358993153
-0.0881724272427877 0.299239536484753 0.64031619909971
-0.0902130537957105 0.30439320198556 0.661851158513796
-0.0892105460407903 0.303658647353985 0.658781769517572
-0.0908005007872289 0.308524287797989 0.679113195658587
-0.0852536343045775 0.308795228752388 0.680245341789469
-0.0864835723559049 0.312496030960067 0.695709408157268
-0.0921869115770431 0.315644671795858 0.708866228792536
-0.0890962109196404 0.317536296352532 0.716770517118642
-0.0903324487526465 0.321035662193223 0.731392867238668
-0.0881172042347938 0.32403087557521 0.743908580299116
-0.0917820286917832 0.327493200729994 0.75837615326732
-0.088477923599175 0.328768784399694 0.76370627074428
-0.0868371018607281 0.334215483099393 0.78646569031088
-0.0895198734240098 0.334593053734604 0.788043396179443
-0.0847208114647851 0.336705485550605 0.796870343410586
-0.0869796316417921 0.339189189700291 0.807248678607493
-0.0860210404833464 0.340364234092101 0.812158685530412
-0.0854145421543952 0.344575070826787 0.829753967600348
-0.0916681198520626 0.348406316888019 0.84576310292764
-0.0866914546673493 0.350330833709836 0.85380483393309
-0.0876937867960627 0.3522953625487 0.862013758009771
-0.0911162594676615 0.355214183563095 0.874210260105638
-0.0911603904780495 0.357100419913046 0.886327827371445
-0.0841975787128877 0.357100419913046 0.898865089060959
-0.0887262520995965 0.357100419913046 0.906113408978718
-0.0895794021764133 0.357100419913046 0.913560156666463
-0.0894076979491519 0.357100419913047 0.923738684519805
-0.0917831931224684 0.357100419913047 0.924868145698578
-0.0850028079844708 0.357100419913046 0.938781955033799
-0.0869891849633794 0.357100419913046 0.949663876123592
-0.0865383359495179 0.357100419913046 0.959057421484067
-0.0883390516485775 0.357100419913046 0.966861539071404
-0.0912588733342157 0.357100419913046 0.971267493767744
-0.0854313335095727 0.357100419913047 0.98459766556191
-0.0838796947126215 0.357100419913047 0.992620056768589
-0.0897662027173928 0.345660458349451 0.991781116761491
-0.0888809835696305 0.341051729697993 0.991944075374918
-0.0877781974366168 0.321200596282466 0.992147085555614
-0.0887958083074176 0.308979353952147 0.991959755156206
-0.0925165673661424 0.296818982000914 0.991274806419343
-0.0942301413410664 0.280227061107259 0.990959357256654
-0.0897079373760357 0.27706631232024 0.991791842737383
-0.0869864622530079 0.26422406545181 0.992292834851761
-0.0837575842663697 0.120554212503208 0.104689683341404
-0.0862553868208392 0.123093827270478 0.129421495603092
-0.0822943922729244 0.118087765526269 0.128007292636113
-0.0893374121666064 0.112993654314847 0.12982132327807
-0.0859433207418916 0.222593487784937 0.338511807206647
-0.0850327839003656 0.22453462899679 0.346033729402576
-0.0845522629038542 0.227306338296119 0.356774102937474
-0.0786442160643091 0.231095925138254 0.37145875195075
-0.0794341734741532 0.23243999452081 0.376667020808151
-0.0864171345264553 0.237048608520236 0.394525400055926
