ply
format ascii 1.0
element vertex 842
property float x
property float y
property float z
end_header
-0.129246128536282 -0.0828507058864497 0.162545055874357
-0.140270470478707 -0.0792132370911691 0.171173960983098
-0.120544736293679 -0.0720708187071236 0.169623128583386
-0.122627355652546 -0.0701796799027429 0.172047003794874
-0.111037853869263 -0.0612849271659695 0.173981952154898
-0.106079325992993 -0.0525488122652681 0.17570404909575
-0.105295628771122 -0.051105784980873 0.175860038794573
-0.0968162163793041 -0.0501866352726649 0.176512044494367
-0.0862653457861924 -0.0329910179860988 0.175878992264644
-0.0822463735896934 -0.0352497995747251 0.178781029446351
-0.0796771709257185 -0.0253959910321844 0.17422424569676
-0.0726582237997067 -0.0207434436081386 0.183726370343742
-0.0669078890135249 -0.0116693161415085 0.187923619520826
-0.0632859131155552 -0.00812724669170586 0.191861973011153
-0.0590424086761685 -0.0097097837661461 0.200304670471002
-0.0595168639338417 -0.00530465189490227 0.202423574977452
-0.0595168639338417 -0.00557088727128727 0.210273439455389
-0.0595168639338417 -0.00380698469095723 0.219800170899127
-0.0595168639338417 -0.00262784311690552 0.229065861883189
-0.0595168639338417 -0.00434871078472883 0.243340528856238
-0.0587661053728687 -0.00716978987754963 0.248714753288009
-0.0595168639338417 -0.00209420385562597 0.255972674795471
-0.0595168639338417 -0.00387493863462712 0.281017289896877
-0.0595168639338417 -0.00304909824170671 0.279846914051795
-0.0563896034226448 -0.00437162911774771 0.283413637780198
-0.0485401967307119 0.00734778903924513 0.288033442062411
-0.0482746014466962 0.00796751136861412 0.289768171146313
-0.0500697426745018 0.00336096416090881 0.309182511701173
-0.0495041366419413 0.00509859591304322 0.316986188589336
-0.0699086973191156 -0.0166212089854033 0.359011790693101
-0.210809890117902 -0.165986788113477 0.549256162176835
-0.210144451574031 -0.158308479659588 0.547188296420282
-0.217409345519824 -0.173704400650007 0.575974616253336
-0.217600407298237 -0.163535772577172 0.577389290723481
-0.219566843846705 -0.171263689470361 0.602226146521155
-0.219898047305614 -0.165015289032815 0.595881142614571
-0.219257350437241 -0.172691051387372 0.608155237827708
-0.218579314215549 -0.173227234760165 0.621144683241776
-0.218066277075742 -0.172223041447531 0.627701460132152
-0.21759014959304 -0.161424186389473 0.631148629898452
-0.215321671075307 -0.17060809278189 0.647572476876345
-0.215149091815948 -0.162515351419856 0.64882195457526
-0.213970435215243 -0.154181384708194 0.657355471419236
-0.212025494894482 -0.159058249148858 0.671436917009832
-0.21193354545205 -0.154692359215629 0.672102633011012
-0.21072121440464 -0.151831176858014 0.680879956109251
-0.209719358475791 -0.163050369676419 0.689013429214474
-0.208970591950528 -0.15639049927037 0.699406197153357
-0.207976420174802 -0.15725842370419 0.713205203856101
-0.208059554158137 -0.157255822889853 0.721924839930617
-0.208327606907356 -0.158876816139476 0.726226420260216
-0.208511954796622 -0.151771937863679 0.729184745651702
-0.209578483805241 -0.154464261986111 0.745597323643192
-0.209489554576717 -0.158394497009909 0.744872889361925
-0.211851595716823 -0.155127077930597 0.75793176080505
-0.218667832161625 -0.170297620280753 0.787110659257661
-0.221329351321075 -0.174050424648974 0.796327930662793
-0.221650634619733 -0.166085212446755 0.797440586700283
-0.230007059799829 -0.178852967989387 0.82304241747116
-0.231007624214747 -0.175790929089848 0.82604701045725
-0.239416463837634 -0.190403904121871 0.851297899031108
-0.242869550473244 -0.191467467728156 0.861667166347652
-0.274529433026136 -0.218319315677562 0.902224503689089
-0.320507573579078 -0.271497985755891 0.970258534677158
-0.323397847054223 -0.271165718439298 0.975301855035503
-0.324026413533145 -0.267815446571075 0.984353089610765
-0.318156844689656 -0.265762842026739 0.989714157977175
-0.310687550291233 -0.262046653571492 0.997517310976132
-0.313255451423419 -0.258093888185948 0.995966921086127
-0.300139451317654 -0.251239090338482 0.999770337685448
-0.295148894317449 -0.241508909913526 0.999412725577531
0.151976006857082 0.208366729336294 0.529505544780167
0.152569628190112 0.214675910393521 0.529278462747094
0.163679230746599 0.21915367691678 0.531722067118638
0.174341907828043 0.234608730498588 0.536031828687814
0.182459547765015 0.239515372129178 0.537477912762295
0.194549728487217 0.251940298989684 0.539003600844883
0.202203806417149 0.257686478605196 0.539353280141116
0.207375165209272 0.26534983038212 0.53958953550647
0.223515693805548 0.291166481415723 0.537030176891014
0.225692629499956 0.292280218308273 0.537512284973156
0.245491839620764 0.30574066924794 0.541678086409499
-0.156359370658393 -0.0961375516795819 0.166356551499603
-0.153821660508497 -0.0826797504931122 0.167684539562672
-0.141539840552681 -0.0786388144798984 0.171103860279329
-0.136148235191891 -0.0654911367609902 0.165727111863976
-0.12078014471912 -0.0571636597916813 0.170858978540954
-0.112783284680656 -0.0450164168022392 0.164610969766833
-0.0592986802431594 0.00610464013696813 0.119730400699651
-0.0628921151688301 0.00694795340461526 0.129028868284367
-0.06579006771639 0.00627506956182459 0.142027875703671
-0.0656875258213614 0.006180218308923 0.147800752008237
-0.0611079188021771 0.00194408181617727 0.156136797150053
-0.0641156214854083 0.00472620679816658 0.169207364401848
-0.0627889026220662 0.00392335660900177 0.185464914264401
-0.0620627404503709 0.00436300292243848 0.188218881628456
-0.0616110996080705 0.00825081902242371 0.195120325448135
-0.0589586341061431 0.0127788429636929 0.201998696558886
-0.0565506800559159 0.0116006405114548 0.212342800432343
-0.0259766476156424 0.0473834907482453 0.178235762020559
-0.0198600875985911 0.0539202709304379 0.177056879369666
-0.0151139875662543 0.063294399316006 0.177279049526533
-0.0595168639338417 0.00508989731292608 0.250122513058984
-0.058214029720427 0.00827394118243347 0.263017192381819
-0.0594407398530541 0.00582052091717822 0.27270336134423
-0.211414596071474 -0.153085376666887 0.551135302921727
-0.214272896695268 -0.153330307241448 0.560017543441838
-0.216542027982937 -0.143892661518868 0.569552783150242
-0.218713724309159 -0.149323119194633 0.585632583065966
-0.219747686036753 -0.15484822992429 0.593288301339291
-0.219768409835724 -0.157202707951314 0.598364652696774
-0.219519969789351 -0.150356033247809 0.603124112511041
-0.218852523636295 -0.151196476713646 0.61591064826907
-0.217444002574023 -0.156476417097617 0.632206736400795
-0.218042327762778 -0.149398322526685 0.627874853499627
-0.215448775871809 -0.151599606825597 0.64665222643031
-0.214468390480979 -0.147097366013082 0.653750253335903
-0.21368118173258 -0.148866433525856 0.659449676037506
-0.211579110945043 -0.146989902977657 0.674668749941657
-0.211687715923051 -0.149810893288061 0.67388244666348
-0.211201748290688 -0.14514154490355 0.677400869635222
-0.210351864439564 -0.14450405134054 0.683554061672072
-0.208606421631654 -0.146094375962656 0.7044608221742
-0.208709253736132 -0.140830976502531 0.703033523657453
-0.208091161373579 -0.13871703987028 0.711612590842022
-0.208232891244878 -0.142109742810296 0.724706469310986
-0.208786545039962 -0.13634117908705 0.733591236511771
-0.209391949635508 -0.143971722189668 0.74330655877893
-0.212113714737027 -0.144007931076593 0.759354083862973
-0.215088716618168 -0.150049504607004 0.774715603134456
-0.219708415415099 -0.156315828929033 0.790714367400375
-0.218942874078397 -0.155028108733794 0.788063173909179
-0.228351426029304 -0.168760934136205 0.818070717958086
-0.227320747483968 -0.156475826343876 0.814975695306813
-0.235790947403469 -0.174561160563635 0.840410842599133
-0.240910095035171 -0.18243274387393 0.855783121324656
-0.280183988243663 -0.215017337843128 0.90621267491047
-0.32559792433344 -0.26333977558369 0.974637040759785
-0.325261318710278 -0.263848952951609 0.978620541070181
-0.322310310126687 -0.266571532133053 0.985538610900221
-0.317870767814165 -0.262644486693131 0.990183096462787
-0.314238339601119 -0.257290947962385 0.994951430069015
-0.312631697580401 -0.254339143156575 0.996343517225264
-0.305355503826159 -0.249401093246332 0.999049957752141
-0.301827005586002 -0.235628528465054 0.999537272502667
0.141630054590018 0.214231274598552 0.530868305806037
0.14992729508002 0.224046072655152 0.530235585492326
0.163589384682226 0.233982508107132 0.531664102699026
0.166656618914597 0.252319413040724 0.533642936756258
0.170818945116314 0.249471455791519 0.535404244483999
0.182027519404571 0.253242524084035 0.537400950584863
0.187761803547969 0.269851986714544 0.53842246117721
0.200402146529767 0.277373683549208 0.539270970571767
0.210029186608842 0.297871176870469 0.539710785294199
0.227048148279729 0.29886146474657 0.538143110258912
-0.156175163373646 -0.0774759655247534 0.160176098055702
-0.156074372301707 -0.0837234206966415 0.166990131538889
-0.0707172003585708 0.0137080096753835 0.134997084858642
-0.0697844450519512 0.0104167785494075 0.140011275690896
-0.0736477585967938 0.013543433626198 0.152419585522217
-0.0682921724759096 0.00858951646437973 0.16523445192286
-0.0695272238405198 0.00961962971859044 0.168629134445362
-0.0726289002812309 0.015111368041489 0.179320435422714
-0.0654168848712142 0.0103265987988919 0.189635844521819
-0.0670704728716148 0.0200153039208955 0.192050825597998
-0.0633739646005914 0.0179795448408963 0.197035583337019
-0.0269373557307484 0.0560127104205738 0.16215951559362
-0.0243881473163282 0.0635452204142302 0.161704952295429
-0.0230100930587938 0.0603945599380688 0.169132451055647
-0.0183094035941781 0.0661815133676679 0.173423492920321
-0.00463928946854374 0.0814614711973736 0.176205686234606
0.00405343159345039 0.0946120628240156 0.171930995748671
-0.208305081769672 -0.127102679159568 0.541472413429222
-0.212932525243257 -0.13239851929491 0.555852308760045
-0.21744973265015 -0.142791092281477 0.576273664002893
-0.219181435963655 -0.139743153654728 0.589095644610745
-0.219590496277343 -0.147799245298819 0.6017730058026
-0.219041454868101 -0.14574025745258 0.612291211491809
-0.219165218660283 -0.141076138808313 0.609920214351045
-0.218766109805352 -0.136352014897031 0.617566101112213
-0.218484676540023 -0.137303634045407 0.622957727622437
-0.216790077940563 -0.135140873090658 0.636941160074708
-0.216141009917638 -0.134642879690641 0.641640421819073
-0.214378847932311 -0.133963935526213 0.654398540215678
-0.213627505598499 -0.136711195835844 0.659838289023091
-0.212733294646692 -0.133587192283659 0.666312410115632
-0.211362154755515 -0.129845943767409 0.676239515130158
-0.210156970633855 -0.130696686847675 0.68496509552641
-0.209917647927661 -0.127259873999082 0.686697800041256
-0.209344191731594 -0.130666360025717 0.694220667996797
-0.208273678441745 -0.135311348704773 0.709079245704008
-0.20798330033033 -0.127395662835958 0.713109706987064
-0.208293266399705 -0.126046877055729 0.725675340472186
-0.209431845895303 -0.134643576621176 0.743946812429108
-0.210413049562487 -0.13483977049467 0.750125865388854
-0.213656764131509 -0.135049177748895 0.767727054018219
-0.216886049194061 -0.141998272771276 0.780940056600614
-0.217577520636792 -0.142410883926645 0.783334734066649
-0.223571525339184 -0.142600456911554 0.80371716323077
-0.231027455770629 -0.156306529914469 0.826106562598838
-0.231588603230883 -0.151614823262579 0.827791631244197
-0.236546336756593 -0.163534924349489 0.84267919985662
-0.283145377688736 -0.212726168417095 0.906614492447479
-0.324335634191877 -0.246363375568156 0.961394584714562
-0.325601431357028 -0.257614055384756 0.974595537503194
-0.324911192810066 -0.254089239412065 0.981353330354332
-0.324657929615264 -0.254343985345211 0.983316087859435
-0.317200482373471 -0.243840627336458 0.991281831335876
-0.315076100387457 -0.241404022028108 0.993981363284573
-0.311714713881471 -0.240030252519882 0.996897153125922
-0.303090153015201 -0.228673005437845 0.999362821409755
-0.299563819479059 -0.223096150355958 0.999849837196778
-0.291800667659838 -0.211126527954946 0.998577850867036
0.159715228961195 0.244984554999367 0.528061657433532
0.16143737585898 0.251266655280117 0.530275728669435
0.164840442214905 0.264146878154405 0.532471225685297
0.173042434924725 0.269265826233676 0.535800338755601
0.183875890537834 0.281246461686052 0.537730220717879
0.189271399994323 0.290959346618537 0.538691381781596
0.210339470945822 0.309189267516982 0.53774834738082
-0.0834167756889816 0.0223716036013868 0.143549099261546
-0.0781395793134135 0.0175730159660193 0.150362680542716
-0.0813874753988456 0.0208704672983769 0.163839303522326
-0.0805892817482441 0.020730421075374 0.166834659030033
-0.0751141609851151 0.0197886443730627 0.177914881272498
-0.0724486007534506 0.0278082160774635 0.185613097527418
-0.0695408462395429 0.0203501393173207 0.18851140536603
-0.0196694529946212 0.0793709929991773 0.148750383990814
-0.0203442640423504 0.0767079173088805 0.159358107412444
-0.0178330837133017 0.0747033218368083 0.168569906159376
-0.015204933652322 0.0792615986641249 0.170087471103482
-0.0123984064432524 0.0929155514694235 0.165852587056495
-0.00711526065690693 0.0941676862149631 0.172433455693149
-0.00192746699054336 0.100943498469966 0.173878121335998
-0.210121958309526 -0.11888872723479 0.547118403840845
-0.214052355216579 -0.120989913867183 0.559332210064511
-0.217604551259523 -0.124716908371175 0.577419987478083
-0.218426504413609 -0.124694135788986 0.583505941373269
-0.219726300577247 -0.136212409252928 0.599171337438021
-0.219769223413821 -0.12564100404217 0.598349037638219
-0.219004633305374 -0.129689783937052 0.612996602255483
-0.218432722176818 -0.12629438117484 0.623953056023461
-0.218304758788131 -0.126275459216633 0.625974849132722
-0.217038210141567 -0.128036241896797 0.635144679400051
-0.215475948565108 -0.128446039613311 0.646455486839587
-0.215021324769903 -0.118239134055081 0.649746977238152
-0.2128152736 -0.119957042253098 0.665718874447964
-0.211859488028449 -0.121585926226637 0.672638799880966
-0.211753209245264 -0.122286461282411 0.673408262669596
-0.210183425514505 -0.119485646372827 0.684773557172477
-0.209380473971147 -0.120500797745889 0.693717068763937
-0.208354280733474 -0.119387324682587 0.707960483645554
-0.207935427369793 -0.116549242036516 0.713774185838487
-0.208048889373234 -0.121332125748316 0.721753696642245
-0.208405438063546 -0.119882059710922 0.727475416853132
-0.2092172143503 -0.118089963011095 0.740502466968112
-0.209450790784296 -0.119237884119662 0.744250848058436
-0.212171790038998 -0.118388486654568 0.759669214909263
-0.216971041080874 -0.128544349710465 0.781234397253849
-0.217201215887871 -0.121133481624636 0.782031529846031
-0.224941779244814 -0.136683851622684 0.807831896088173
-0.230428961116956 -0.141619505039234 0.824309344137113
-0.228533377413335 -0.132601340188557 0.818617099424502
-0.293791301703377 -0.202195517273831 0.904768071503626
-0.242696836761588 -0.149855262090404 0.861148524670109
-0.32471265643395 -0.240957920076537 0.963250486159278
-0.325462380427664 -0.243668168460287 0.976241111380062
-0.32557916127049 -0.236432554957064 0.974859088943014
-0.32356342513812 -0.232958481328013 0.984700357932954
-0.321775732802475 -0.2301420472385 0.985703098379309
-0.31600460134094 -0.226611708618389 0.992906225907666
-0.307614780884872 -0.221355873978451 0.998737932929879
-0.299126776498202 -0.212011689221147 0.999910196442182
-0.286082476721227 -0.19885534072682 0.995617060716068
-0.292034365702526 -0.20057770527711 0.998705498548309
0.160503244559959 0.271325167935869 0.529505219098926
0.164305354982673 0.278341112848844 0.532126012780604
0.16962790362413 0.285502845010953 0.535192070604114
0.176704900543824 0.283123184799037 0.536452773657069
0.190509030292691 0.29078153142937 0.538818999917047
-0.0809065878822952 0.0258305235471872 0.132098736690658
-0.0880494111542963 0.0249892640904524 0.147873546902089
-0.0841378370401661 0.0223233590480384 0.160957235019553
-0.0835348763053069 0.0268130542379655 0.171975972787283
-0.0798643212703354 0.0252997566127793 0.173825390933587
-0.0137966051296343 0.0965410238748494 0.14524524955519
-0.0133380279550853 0.0943668573519273 0.162185561445825
-0.00971041635465719 0.110276538720488 0.153540538274976
-0.00574189278282647 0.113240494422386 0.163845085095992
-0.00623155770274112 0.106121721346476 0.167740516790371
0.00737311157919841 0.117315393041248 0.172241886986011
0.0130356835400646 0.132397525446836 0.170545637899242
-0.207867122432663 -0.106376539578728 0.540421892829237
-0.210759521933581 -0.111923125530864 0.549099649743408
-0.216902581207789 -0.113119813560252 0.57222242353823
-0.216925979709964 -0.113459111588181 0.572395671993563
-0.218956134463883 -0.114700628981036 0.58742746289276
-0.219879222123031 -0.120142424509398 0.59624174297317
-0.21949966728824 -0.120035674317128 0.603513027834445
-0.218891851441705 -0.115315491398986 0.615157196662971
-0.218377960977881 -0.114640003281055 0.625002157065503
-0.217616058486997 -0.114877836074127 0.630961049136639
-0.216024829342246 -0.112784492456675 0.642481570842127
-0.215539979738825 -0.109604623754753 0.64599189194444
-0.214964064321559 -0.105055845870942 0.650161540433493
-0.213753132810297 -0.110191191595184 0.658928733677896
-0.212818440137304 -0.106491452311032 0.665695943807665
-0.210329188306027 -0.113612050568646 0.683718226783082
-0.211034169711547 -0.107593006820621 0.678614131743526
-0.209381544882068 -0.0995967609982485 0.693702190427833
-0.208728912891175 -0.101940253356842 0.70276063088924
-0.208309455185347 -0.10257859831058 0.708582662889208
-0.207804042188608 -0.102825360730847 0.71782450794257
-0.20835290841874 -0.0993506097024354 0.72663244662627
-0.209286817591325 -0.101704940526757 0.741619457204897
-0.21045617869978 -0.106955619458871 0.75035990106483
-0.212509249088163 -0.106995191727274 0.761500351720161
-0.216676374905054 -0.116241993432562 0.780213920618614
-0.220006677179108 -0.116378359113148 0.791747296139169
-0.222843235101539 -0.121853336159256 0.801530181855816
-0.29469868146228 -0.19574602847162 0.897437642175457
-0.295938583880724 -0.197869474920112 0.907548633220547
-0.239895813010743 -0.134200452996125 0.852737335754959
-0.324338058362035 -0.227193393553763 0.961406517752978
-0.324693854968319 -0.225165371482042 0.963157935473049
-0.325406261647022 -0.226364737623919 0.976905239263614
-0.324710170467828 -0.225979279717475 0.98291122790526
-0.324817377041561 -0.221685946779525 0.982080390612239
-0.316969515347951 -0.218503112419258 0.991660433510511
-0.314176540986645 -0.210947898569207 0.995022988423385
-0.306472640650457 -0.212853535806577 0.998895671929736
-0.307195848790226 -0.203800692804768 0.998795790912311
-0.289600834001245 -0.191074284766225 0.997456550645889
0.143040761044937 0.264461454026582 0.531025047601248
0.156480099006788 0.285258568636592 0.529970599004941
0.165396664055727 0.289777542962847 0.532830073637102
0.169352249608726 0.292453397144028 0.535142965216542
-0.0962442692518858 0.0328446070421296 0.137728929569722
-0.09553522233933 0.0315287839144946 0.141468816978807
-0.0940135832631492 0.0293246349633667 0.148719226059692
-0.0969102074727976 0.0325733624393319 0.163230209205269
-0.0929369483795527 0.035836691566594 0.173418027502551
-0.0879142072091449 0.0410692979968054 0.177941359829092
-0.0845453040570396 0.0360526754376569 0.178537900291344
-0.00540178232489622 0.120382717661536 0.140839919767464
-0.00622565570646984 0.119052966340674 0.142990376199267
-0.00459643709494372 0.124890502232018 0.148463824257079
0.000160333874777945 0.138206014250996 0.154482513710324
0.00416618908339388 0.127857126454048 0.169011534212071
0.00879851789289655 0.135666758271478 0.169692311498014
0.0138811519223415 0.144583189254267 0.169351729336969
-0.202619731432888 -0.0889413664270806 0.5321760068659
-0.212265018985231 -0.0935008579331061 0.553778022124779
-0.217203341368244 -0.101014043546437 0.574449333994023
-0.218174904177717 -0.107131066175514 0.581643034349004
-0.219165433439251 -0.0990108294485984 0.588977172250951
-0.219954680454434 -0.0966879043888404 0.594820962246104
-0.219547955918146 -0.0994212871807431 0.60258792413634
-0.218813370671984 -0.100854927472328 0.61666068951799
-0.217920465733822 -0.100439783623056 0.628757136327521
-0.217224969911667 -0.0975677012102829 0.633792536000566
-0.216705396369697 -0.10093529329374 0.637554255855686
-0.214801950711931 -0.0977286660359211 0.651335246691891
-0.213617305489514 -0.0945452719801366 0.659912123221737
-0.213710219881082 -0.0936229128910818 0.659239419071329
-0.212297781765198 -0.0921855049369488 0.669465525664049
-0.210856467882615 -0.0911188567738126 0.679900694066829
-0.209383618089992 -0.094087589234707 0.693673410843501
-0.209165024832768 -0.0918644169306757 0.696707452532554
-0.208508720207402 -0.0871505729660932 0.705816863826801
-0.208172551543235 -0.0920633736393395 0.710482891616352
-0.208655100367589 -0.0961700428868695 0.731481876250561
-0.208707980268072 -0.0957712846575842 0.732330467210407
-0.210096544720391 -0.0971101337438958 0.748408451049874
-0.211084816484441 -0.0905965208388426 0.753771031681925
-0.212705856615273 -0.0857586301775999 0.762567193107536
-0.21473955477415 -0.0980223324824126 0.773506399184447
-0.217260854206021 -0.0994459389453398 0.782238066989522
-0.220808638057983 -0.103370796664678 0.79452461639653
-0.297903155457175 -0.19154310555686 0.901641822682931
-0.237580257925571 -0.123297627602959 0.845783959776282
-0.23947783507778 -0.127207189248134 0.85148219061188
-0.318523969573393 -0.207125753748927 0.952428756920979
-0.324120349620224 -0.20638167583866 0.960334841009903
-0.324937323911771 -0.216005471599327 0.981150817644067
-0.32284522942304 -0.213181273441832 0.985239046642344
-0.318552377454623 -0.207860272323519 0.98906579891112
-0.31815935318286 -0.200980007472626 0.989710046043968
-0.313062638328637 -0.197829992300692 0.996083333462391
-0.304908458910467 -0.191395712644768 0.999111698347357
-0.298415560380313 -0.187660240944304 0.999989238766595
-0.293171220040051 -0.179352935211879 0.999063698378959
-0.286170695328037 -0.171693832452323 0.995694385464671
0.15346907122772 0.289032521847211 0.529903015937246
0.166802154006989 0.309285173584807 0.532813040025709
0.172657235269438 0.309968036368706 0.533534740942708
-0.10545366380339 0.0377970745257665 0.146297763936846
-0.105716838415883 0.0377866369830828 0.151543634984188
-0.101810700005542 0.0358316843342254 0.161087996648978
-0.0979895222297466 0.0391076464427076 0.172298305083101
-0.0942615250888738 0.0411830602296543 0.17643203749845
0.00516673062943345 0.149451903361555 0.13460433950909
0.00292564928330028 0.145078944808813 0.155728343705013
0.005888797288899 0.153720499977406 0.155352786332425
0.0125394717700761 0.162098523339942 0.16276081975853
0.0110085233571204 0.158815327870532 0.162505928049148
0.0195084208667592 0.173658220035169 0.164363055652789
0.0341570068584989 0.187227937744825 0.161851449284672
-0.202442320988009 -0.0696623382359787 0.531897220894268
-0.215963945336676 -0.0880920867048718 0.565272529081764
-0.216512700028853 -0.0827568795118249 0.569335652942519
-0.219084134349392 -0.0946839836995772 0.588375214285537
-0.21961827760099 -0.0894130338664587 0.601240734112442
-0.219029125386334 -0.0895371054023437 0.612527360675587
-0.218494317934221 -0.0898743231479498 0.622773020258535
-0.21848143909411 -0.0891363110280184 0.623019749783141
-0.217555167174142 -0.0811154442385927 0.63140190311027
-0.216139856058773 -0.0923122420317094 0.641648775773711
-0.21596890851929 -0.0862821997088702 0.642886438397988
-0.213513282044001 -0.0878786793634525 0.660665254658788
-0.212808975746415 -0.0868040674269806 0.665764459368981
-0.212049577370381 -0.0807043335248124 0.671262531091774
-0.21108640803222 -0.0732893267119555 0.678235912068493
-0.210856544392928 -0.0731848857604616 0.679900133754222
-0.208838699609173 -0.0776523215730461 0.701236790365061
-0.208655420355225 -0.0740007518053867 0.703780677756641
-0.20799070233086 -0.0717060004307176 0.713006966885866
-0.20794473825712 -0.0787230061380357 0.720082330115741
-0.208868642733676 -0.0794146093437168 0.734908700426667
-0.209071768311407 -0.0707821325975829 0.738168419516745
-0.211400973323752 -0.0790924718236327 0.755486571518197
-0.213486746741685 -0.0831046540938819 0.766804497335351
-0.219964918600383 -0.0907332165926849 0.791602679425727
-0.298851032815689 -0.178184666025757 0.889450435771746
-0.302767277608712 -0.179306077476353 0.899449496771146
-0.30321918185586 -0.178431259576985 0.909171876968373
-0.23568064604631 -0.100916391519442 0.840079618862675
-0.242958489434789 -0.113374103827484 0.86193424098679
-0.242293831427684 -0.111845586938143 0.859938340716384
-0.325717213644789 -0.201657238896738 0.968195444230293
-0.325356341775209 -0.197843844884565 0.977496007246025
-0.325044272852422 -0.202984400972258 0.980321976974623
-0.319913543504925 -0.19251422191808 0.986834569472536
-0.318618573706544 -0.190305950589054 0.988957289720801
-0.30985858619063 -0.185351565153324 0.998017804373109
-0.308739897638478 -0.181820627688816 0.998582545013327
-0.29718792196969 -0.170014302919856 0.999772580644367
0.143421397557164 0.296135084564107 0.531067339448538
0.146060499196487 0.305676940855578 0.531360567552264
0.132270882344329 0.297115744578266 0.775083346654092
-0.112075477604564 0.0488181876849277 0.130076896251404
-0.109931575054295 0.0408238788873997 0.152824409526344
-0.106067007633871 0.0380248071606396 0.15627097294679
-0.110768734711974 0.0422981203496498 0.159452787318355
-0.109872568806796 0.0447558088912412 0.167210185257201
-0.10460510415076 0.0513367356639707 0.17590100829212
0.0137451560549769 0.178480737598009 0.138434084275067
0.0107250574943351 0.169835341615615 0.152046455884625
0.0149010001348828 0.178372256604948 0.156219387283329
0.0205630089553946 0.179710576326874 0.163025499880587
0.0316562383639759 0.197644347674203 0.163485711678016
0.0410933000920569 0.206779929127365 0.159196440657568
-0.210096307765023 -0.0700805433396339 0.547038701316725
-0.213922082691288 -0.0665583233072772 0.558927392989985
-0.214572790808388 -0.0711998864338166 0.560949484064389
-0.218495885017273 -0.0786009477068414 0.584019669696934
-0.219910358841644 -0.0835241149675079 0.594492798231106
-0.219873011015765 -0.0770497797119255 0.594216267562501
-0.219412778081195 -0.0680334206549514 0.605177551590508
-0.218736510664325 -0.0741400133232174 0.618133153884938
-0.21793619297458 -0.0751793623823147 0.6286432708801
-0.216173459820131 -0.0733026198994193 0.641405484062159
-0.21563214611579 -0.0765983691335142 0.64532460300295
-0.215639721563582 -0.0687747854244992 0.645269756652883
-0.213356740885762 -0.0704773831809204 0.661798612570547
-0.212851236637745 -0.0609013393360644 0.665458479658196
-0.211963138394554 -0.0605487405786346 0.671888345486857
-0.210990729488282 -0.0654422011627688 0.6789286256727
-0.20917850006888 -0.0643271182050443 0.696520399413284
-0.209062947784987 -0.0554738894069648 0.698124242584388
-0.208421718716299 -0.0616976702759377 0.707024440016289
-0.208053661344972 -0.0592935263048256 0.712133092930411
-0.208166461732707 -0.0584471917586606 0.723640440763634
-0.209390351185857 -0.0665685033380447 0.743280969105612
-0.210894619312698 -0.0717947604143522 0.752738985287136
-0.211940227639204 -0.0649865173871139 0.758412699680728
-0.214057346832724 -0.0648055022402869 0.769900715479724
-0.218215143804432 -0.0795133577604285 0.785542926244964
-0.304720653336258 -0.169087804439847 0.891833205162726
-0.308742213525508 -0.164710289523164 0.907931437217282
-0.232982473706408 -0.0870441442385174 0.831977282254603
-0.23587221666497 -0.0936211539034962 0.840654885910538
-0.318760702459087 -0.186357340453726 0.952755995170485
-0.325174595809022 -0.192025096277697 0.965524394321437
-0.325889144898347 -0.191918502319763 0.971190641974757
-0.324741750418194 -0.194251195655598 0.982666487311824
-0.321521730440817 -0.178963502073873 0.985781253973009
-0.31885375611343 -0.182486670475625 0.988571777674298
-0.316496518879947 -0.17284911807679 0.99233662074942
-0.307883047529884 -0.171850185522348 0.99870088309046
-0.305909002716118 -0.16861513557804 0.998973514983825
-0.299931981979066 -0.154010156695294 0.999798990914696
0.12825575197711 0.307468052346123 0.694980058399228
0.132924569586615 0.304935314562124 0.716125843543101
0.135405099236844 0.303906946928844 0.730732443157659
0.134207235123361 0.311352933655352 0.739872559721499
0.134158801569417 0.314202986588211 0.746219010849916
0.134482398452249 0.302341840372056 0.758931899332103
0.134704994054158 0.299448930984405 0.778739303757375
0.123746483692012 0.299311646596436 0.792270293421835
-0.116422126012579 0.0458176578794765 0.146624533669368
-0.118057245072294 0.0467888932362485 0.154323507474993
-0.11639144097549 0.0513968399266313 0.16867166515179
-0.11483810477965 0.0525741275645317 0.17138513752206
-0.109348821598426 0.0531339321272685 0.175127913969681
0.0242048930781415 0.206996713047895 0.129138508080071
0.0186148650267666 0.187907186947471 0.156302217305077
0.0249237371033463 0.203220654884893 0.157031948310241
0.0313074168445976 0.211865876757074 0.159738039257736
0.0346093796880111 0.216305779125079 0.160630255883022
-0.204133058669869 -0.0434715146140933 0.534554092193016
-0.212891301135098 -0.0605452244794519 0.555724214393146
-0.216059164464118 -0.0541889504816162 0.565977568141864
-0.216772775958616 -0.0575152535401631 0.571261331442653
-0.217901744471072 -0.0552676229317175 0.579620507610622
-0.219249622837124 -0.0624598692374798 0.608303177241264
-0.219003842504077 -0.0590166688294363 0.613011686984137
-0.218683415981628 -0.0644887055732506 0.619150328235113
-0.218281349142396 -0.06104658557331 0.626144335301763
-0.218182100051742 -0.0520201403110758 0.626862900133798
-0.216050385543975 -0.0562745699168727 0.642296543577069
-0.214628205368461 -0.058067347065275 0.652593155663678
-0.213637938770416 -0.0560735003352807 0.659762723786944
-0.211564412001805 -0.059471423460233 0.674775139754556
-0.212305223007292 -0.0492928628950593 0.669411635533802
-0.209736270328313 -0.0516071511733796 0.688778619170931
-0.209578190553278 -0.0421073081531128 0.690972737407242
-0.208874009136681 -0.0504050050629605 0.700746680595866
-0.208063611654851 -0.0464337016358909 0.711994982180515
-0.208117037268491 -0.0509094771605122 0.711253432253596
-0.208816450671896 -0.0511464427658558 0.734071155238378
-0.209176050016481 -0.0559640059558275 0.739841920681719
-0.210277602785706 -0.0536792196348287 0.749390923477512
-0.211530961480629 -0.0525032600706399 0.756191922366702
-0.217627069876773 -0.0645939704999296 0.783506331100319
-0.309419178868844 -0.151925309966262 0.890794022948488
-0.310914138843787 -0.160000866941776 0.901415002498741
-0.307973232744162 -0.164876895245578 0.908185070305866
-0.235300812093508 -0.0798231766231947 0.838939016205363
-0.233937998047077 -0.067440436890276 0.834846624487052
-0.244451376012755 -0.093279136522831 0.86641722726364
-0.325911863054714 -0.176821522405449 0.969153610833691
-0.325542176640801 -0.176573460872112 0.975296777067351
-0.324655488993669 -0.174457456539472 0.983335002365967
-0.319499585293808 -0.168375695306804 0.987513131611801
-0.317630531272509 -0.164584528648663 0.990576893269464
-0.315386610403677 -0.164731126703433 0.993621815000761
-0.309157752288271 -0.154173759648618 0.998440938185845
-0.297008552648857 -0.143337989536626 0.999740924889789
-0.293548624121761 -0.142838441593889 0.999130304033325
0.120847169862629 0.311348115052554 0.659948809736324
0.125412875255364 0.308494885843761 0.67662694552157
0.128325041900214 0.307515534576524 0.682986402216534
0.126685521986026 0.309013252644838 0.69555333192175
0.127498013374507 0.308802580291264 0.702173266166019
0.128120641724539 0.313900667858576 0.709314220737076
0.130215848166208 0.325618212827839 0.723426005789856
0.132299441377029 0.328534133854085 0.731808124038866
0.132249580616218 0.320009746941061 0.736335641660696
0.134213309892033 0.325764107570507 0.757504350690654
0.129046507598044 0.315588425077489 0.768338069538031
0.106631804787348 0.301249035224588 0.800595378705645
-0.121283328924892 0.0568944937585354 0.127695397305707
-0.12471811279322 0.0532739981928066 0.137881073426583
-0.131209371168308 0.0564668441306481 0.151295269765654
-0.128103193586868 0.0550703725119489 0.157447168114983
-0.12630585556321 0.0554189731442899 0.163597769562601
-0.11898994061867 0.065687553321252 0.173799211579213
0.0262795620339125 0.214307221966514 0.133247719167131
0.0254234628089571 0.21473592949573 0.145612032713402
0.0296952803678215 0.224281990532571 0.150816936517664
0.0322631516072376 0.219883241352631 0.15746312877702
0.0359074819110157 0.231613199952892 0.155981321064088
0.0529591451267793 0.245860134403406 0.155702135841934
0.0529190391048134 0.254926076498595 0.156911383014789
-0.204306595496908 -0.0295540215746555 0.534826793530994
-0.21036370925025 -0.0297332934520339 0.5478696640453
-0.215963943235248 -0.0439839375892955 0.565272529081764
-0.217822461521991 -0.0420803003115283 0.57903348082156
-0.219832927100424 -0.0489809628268924 0.597128569962156
-0.219488219095978 -0.0465339038091215 0.603732277897139
-0.218738754618452 -0.0474745569091167 0.618090164785734
-0.21853769240743 -0.0442781402979931 0.621942063195413
-0.217124763847168 -0.0464873811103557 0.634518029336892
-0.217296280987868 -0.0419541933346535 0.633276242791682
-0.216193568293579 -0.0419546095953313 0.641259898427557
-0.21482592706756 -0.0412746063425675 0.651161640412142
-0.214856126763741 -0.0377147371778509 0.650942994181018
-0.213348158746105 -0.037586538289193 0.66186073590508
-0.211019027689444 -0.0402704121477104 0.678723736643699
-0.209759792308032 -0.0418617066626768 0.688452130809209
-0.209719271307279 -0.0373153149542326 0.689014553416716
-0.209314622243049 -0.0343498990003018 0.694631022640015
-0.208033137063325 -0.030703064699729 0.712417970885363
-0.207821294415517 -0.0332720920847945 0.715358356391454
-0.208300753982735 -0.0287092086362503 0.725795497568022
-0.210122830424897 -0.0451228582982316 0.748551097089623
-0.212496047613369 -0.0418356574132256 0.761428717231436
-0.212409320992017 -0.0400828908549092 0.760958116993467
-0.213431210476987 -0.0388557240127288 0.766503143737402
-0.312840362058695 -0.143429027796263 0.894525526318413
-0.312617228942859 -0.151820782160535 0.903576702213645
-0.227662706035125 -0.0607624753196266 0.816002561992275
-0.233394925382899 -0.0582800022728595 0.833215832612589
-0.237208723111517 -0.0685888066753661 0.844668278586996
-0.244911435213467 -0.080926286837667 0.867798738165922
-0.324983936699338 -0.164677424219303 0.964585870071078
-0.325880789713851 -0.162998439432883 0.971289519942751
-0.324623975726095 -0.158097087375274 0.98357922617626
-0.324727203451766 -0.16119198795735 0.982779224448988
-0.317380253090642 -0.153287656600318 0.9909871503774
-0.313917110432647 -0.151683718776982 0.995323390360796
-0.305652706029917 -0.139206335925683 0.999008911673067
-0.301253964747324 -0.138225993011422 0.999616414175509
-0.296175070778472 -0.125365796668288 0.999593828957155
0.113338897396775 0.316151811131613 0.595319846058835
0.113348428618282 0.314537134365676 0.610753984782602
0.115983614958103 0.313225420469856 0.62458836923057
0.11404415674982 0.316233191239121 0.636405111882392
0.114760855276071 0.315037744552669 0.638987052734371
0.116280247654237 0.320017421250106 0.651352390570236
0.117424325687953 0.322684396526299 0.660355179452253
0.119321792807563 0.3244342750091 0.672130103426285
0.121342242210934 0.32141878556607 0.679942685913237
0.122564748243685 0.323563527454695 0.6884684985085
0.123296763379922 0.324398636083828 0.691987102821358
0.12699990004614 0.324435945167791 0.709293556391116
0.128699646309438 0.334948684167685 0.712324985296706
0.131010967795032 0.337683347101807 0.72248041611747
0.101454305109339 0.295476648055188 0.796530527718546
0.0963344080497546 0.300633321770249 0.800991005784423
0.110794495311451 0.312839224206284 0.800607050335541
0.118640760276378 0.322703863635312 0.797546396178253
-0.135822249888604 0.0600153694062356 0.146904142088775
-0.134506625378746 0.0589640434536496 0.149170203223707
-0.132330385969717 0.0592393256351413 0.161670465667234
-0.134060035928228 0.0667364512712059 0.169044292802559
-0.12846569123765 0.0658633577805106 0.171821516174589
-0.122269679205505 0.0674200346231405 0.173414334968809
0.0342999821093591 0.240807536922549 0.138438903862809
0.0358412383983411 0.244847651992591 0.146358146423185
0.0406831145307278 0.259983473849782 0.142523968268488
0.0419324188949499 0.249557646826089 0.154223063444195
0.0454821903143956 0.259000042762236 0.153726861665301
0.0535386622978157 0.269171227462164 0.155676681468803
0.0621963932452972 0.281361036552972 0.153478373944299
-0.210288831553032 -0.0238542379537964 0.547636980597241
-0.215223426311374 -0.0315848023163033 0.56297135604084
-0.216899135610693 -0.0293512087376141 0.572196940994297
-0.217462934700878 -0.0276785850794647 0.576371456185424
-0.219177765071257 -0.036107021725897 0.589068501196281
-0.21947998094171 -0.0319558463014827 0.603890086137291
-0.219141497198048 -0.0325631322943803 0.610374556207462
-0.218917307121307 -0.0285265884736672 0.614669501607449
-0.217820219765824 -0.0271655298225606 0.629482918565747
-0.216190542702402 -0.030370676158836 0.641281803750838
-0.216583465296333 -0.0315688519311056 0.638437038566086
-0.214965266696619 -0.0226236465254495 0.650152819510195
-0.213806833274818 -0.0252108588951206 0.65853991001038
-0.213154770549114 -0.0259846316753156 0.663260869877479
-0.211162989111484 -0.0278725834664023 0.677681445920523
-0.21010682246844 -0.0293629009884949 0.685328134180977
-0.209733725270551 -0.0182459243931115 0.688813921474769
-0.209286489063668 -0.0214808868410054 0.695021498383749
-0.207901836147575 -0.0258259637958958 0.714240433517902
-0.207787932182426 -0.0173962648322875 0.717565982387801
-0.208470257837431 -0.0169007512660436 0.728515613102281
-0.210424605436844 -0.0275121556190656 0.750188599107712
-0.21269320951521 -0.0299691252782566 0.762498566794109
-0.21352242167899 -0.025309074600806 0.766998078426416
-0.313609492388522 -0.140918474923199 0.89478732978757
-0.314449835927643 -0.14106754926953 0.904796985187249
-0.22603887928868 -0.0398756021648299 0.811126375731552
-0.226482641367104 -0.0331692154176279 0.81245894803619
-0.230940616452125 -0.0392663784544691 0.825845792973812
-0.238422337400874 -0.0498587340133107 0.848312638637434
-0.244746550341715 -0.0601659046910714 0.867303605696897
-0.325060728555205 -0.14482954857239 0.964963879908012
-0.325649249029713 -0.148777246753737 0.974029647628281
-0.324635286355143 -0.145180618592402 0.983491570241618
-0.322763866384244 -0.137894205817682 0.985300073670828
-0.316640825613523 -0.136405557531078 0.99216952392262
-0.314152962156403 -0.13009437370233 0.9950502910143
-0.310703053489114 -0.128288273640395 0.997507950802192
-0.289789996893379 -0.118053866958689 0.997639454903436
-0.290203184019849 -0.115359992472855 0.997857539690737
0.100928756699367 0.32995819300248 0.580080421609036
0.104050196837014 0.32439872903715 0.590674822668769
0.106297057724695 0.323274960500689 0.601300346995521
0.107732482300679 0.321833250590608 0.606903756924122
0.108877147600387 0.329609941365276 0.620418322633837
0.111939454472585 0.333406420695915 0.631791868733625
0.112932616028147 0.334381447935958 0.636165654423251
0.115785416175113 0.333155233056405 0.650370938241278
0.120661138341001 0.343467672523342 0.656177311403283
0.119839860042012 0.329743198359467 0.671634303442017
0.121334999997261 0.339288203445475 0.674057771043925
0.0792987528938215 0.299428123695219 0.800403900586152
0.0872863352214901 0.303473824996595 0.802272111602338
0.0991678252987439 0.310995313233003 0.802856064171283
-0.136842338866169 0.0672894735341696 0.128185434912442
-0.141745472227086 0.0657090025784226 0.136959817334585
-0.142197009652183 0.0647136936621547 0.146142864101801
-0.142882398065255 0.0669482783198826 0.160155008443704
-0.137240784515546 0.0697564771293298 0.168997629437361
-0.136839373570708 0.0707721282425127 0.169916071704037
0.0845663203508257 0.318970172097301 0.0149185846871804
0.0883119994901385 0.315375067003543 0.0401846603901044
0.0887901252789063 0.317096631503491 0.0444144189958446
0.0924298722269688 0.323182319430234 0.0526642112471732
0.0896895926726967 0.323877088354636 0.0524875298059064
0.0452520435310663 0.273179005170111 0.134012500233659
0.0437790167311163 0.266124540704369 0.14779252828181
0.0490142156206876 0.284609861761834 0.141119449695238
0.0562552212559263 0.283180311256172 0.153286107149327
0.0584607904138292 0.29310294020579 0.151439155742888
0.0734810718677772 0.304260021669859 0.147462669834905
-0.216097996304415 -0.0143489855859056 0.566265103206555
-0.217713575340861 -0.0228582815312159 0.578227266150598
-0.218536570147683 -0.0205938334215111 0.584320933542928
-0.219871890186366 -0.0169252375780911 0.594207990014384
-0.219475818967659 -0.0148330026690495 0.603969803010543
-0.219311295074154 -0.0209183129320763 0.607121659148294
-0.218690359300428 -0.0185553239910946 0.619017309909557
-0.21820428065467 -0.0139045452026102 0.626702312252209
-0.217150259896608 -0.0118417480385069 0.634333437575262
-0.215120627138829 -0.0242676043729527 0.649028007692519
-0.214560699694781 -0.00964666904127255 0.653081890374297
-0.214023013013567 -0.0164511142808817 0.656974757147901
-0.211837498315899 -0.016208239400849 0.672797968799949
-0.210769060047272 -0.0117431855256527 0.680533501991788
-0.211132987775622 -0.00678830277263979 0.677898649268697
-0.208959125037367 -0.00603393074559981 0.699565253808004
-0.208531533262406 -0.00255172650391702 0.705500209163481
-0.208290405446852 -0.00560576780393376 0.708847074118703
-0.20779586664886 0.00155066790706709 0.715711294939492
-0.208162034758329 -0.0030158473638699 0.723569398828946
-0.209316652173592 -0.0153948988870645 0.742098304869959
-0.210556681390817 -0.0126497294504492 0.750905276156275
-0.313987775156306 -0.130501621519562 0.888788867581768
-0.315741829204911 -0.128167486624343 0.891523644926529
-0.316397037542491 -0.131744400793359 0.904254756145786
-0.313157433471365 -0.118662965509257 0.904757810763918
-0.226463328559106 -0.0187049378723426 0.81240095364164
-0.23709179697155 -0.034654891944824 0.844317161302794
-0.237318727281087 -0.0390217361379456 0.844998609899406
-0.244396788232883 -0.0515005376080575 0.866253305722873
-0.244759077292823 -0.043801155029095 0.867341222854647
-0.325077831618142 -0.134143674645455 0.980061900814207
-0.324954141799837 -0.133496481733185 0.981020481153423
-0.320101451363054 -0.125207774016456 0.98652655007644
-0.316765975439448 -0.124469131976175 0.991994077033047
-0.311215592619544 -0.126487519025695 0.997198501393844
-0.302981478894831 -0.118859683940694 0.99937783020337
-0.298327389561177 -0.106846185905544 0.999973678057559
-0.294490151266324 -0.0934715109034962 0.9992964681916
0.101111827672435 0.332683311808403 0.58166848097703
0.104163498484222 0.342297399857746 0.587892053362422
0.105987267145045 0.3374654690534 0.601550257872551
0.116747371536316 0.34237982006888 0.642330880478022
0.0608621382390135 0.296836704305266 0.795634563853239
0.0739642601645387 0.305629715974023 0.801355744813301
0.0867483140883049 0.311719733935942 0.804188180672185
0.085961422009403 0.322324807629786 0.804796928486794
-0.154274600885854 0.0734893948305306 0.147946486355002
-0.15038653323502 0.0734633069077732 0.161208206896587
-0.148744257738266 0.0739527415872794 0.163436051735428
-0.144545524922593 0.0734057865166797 0.166900685851554
0.0745397246717378 0.320612444288067 0.0185611117968983
0.0701073515279832 0.319389842766697 0.026472979049458
0.075641615019023 0.318892434464509 0.0388314040697737
0.0761902447027528 0.325127423094284 0.049657195955757
0.0788903911962294 0.331783858126576 0.0562354642789278
0.0805973156909409 0.330072110724175 0.0557314012310338
0.0882886147061799 0.339868049216894 0.0642404245635115
0.085126810290976 0.338206941084369 0.0765216822006534
0.0539939522694266 0.299113154556747 0.131051289536869
0.0567991790759475 0.308010108281225 0.138384181452015
0.0556404134660966 0.295400674994265 0.147827240144084
0.0612628657983257 0.303609764819013 0.14983345476723
0.069726087572731 0.313517745174733 0.150711035553305
-0.211775770515436 -0.00472509236239712 0.552257683357044
-0.212220099992495 0.00519997202825727 0.553638449775466
-0.216228664461535 0.00310801647421947 0.567232610269315
-0.21984587530599 -0.010325579148866 0.594015371451947
-0.219865011271125 -0.00754365958777643 0.594157060078939
-0.219280942883608 -0.0108423393450318 0.60770311903387
-0.219352890312477 -0.00148729520917962 0.606324784538593
-0.218009489837137 -0.0078720294418504 0.628112600549672
-0.217335504278426 -0.00705239062579705 0.632992265608551
-0.217187898601361 -0.00564334293548788 0.634060932815969
-0.215089316521245 -0.00530969001265016 0.64925469701044
-0.214167450236859 -0.00328079366405543 0.655929022059015
-0.213697502240135 0.00126639791594392 0.659331461558192
-0.212857691338692 0.00678724085644107 0.665411723310206
-0.210261178618744 -0.00440350561189639 0.684210580754103
-0.209733570527491 0.00348797496786598 0.688816054475414
-0.209151266291326 0.00342119139016532 0.696898354189632
-0.208764585922787 0.00737578288713198 0.702265427726263
-0.208230013845163 0.0136741970428547 0.709685312273923
-0.208119925913202 0.00415998470480256 0.722893656534089
-0.208672441842139 0.010569768793815 0.731760183315581
-0.209720390064044 -9.17063225601011e-005 0.746367379793158
-0.212469539031371 0.00592862401211641 0.761284875066229
-0.21224724868042 0.010226720297065 0.760078672282979
-0.318720477925902 -0.124524802672207 0.899816589798603
-0.223252187652368 -0.0132521747450021 0.802758224695982
-0.223977316458034 -0.00951815465179967 0.804935712612832
-0.234074396955116 -0.020710277969277 0.835256216509609
-0.237486625893061 -0.028907915838765 0.845502792323235
-0.241562231836323 -0.0344112491770768 0.857741421689428
-0.324542956141925 -0.119864425142719 0.962415132214625
-0.325754540140186 -0.127411543875122 0.972783598417012
-0.325301694785837 -0.12112405985754 0.978142717473503
-0.324872445966896 -0.114992728929758 0.981653613454256
-0.317274572932596 -0.115618161920162 0.991160381762106
-0.315239137351109 -0.113684331190174 0.993792578197403
-0.306956970402368 -0.109743477830684 0.998828781990685
-0.300663176779764 -0.0943308808683266 0.99969800687343
-0.288277825884117 -0.089737489759257 0.996885485272344
-0.294383824408891 -0.0840842036311459 0.999277703238439
0.0455794693193412 0.295873804266136 0.792454882194853
0.0525540801632478 0.298751099148143 0.796904856721808
0.0661503845389791 0.308989407869603 0.801259650231863
0.0734923162898088 0.326455091593633 0.80291841252312
-0.152582384243182 0.0766350950657597 0.130305711549746
-0.159984251287158 0.0779876648772831 0.140801811298491
-0.163486794324318 0.0807552315296111 0.151388081460318
-0.154984010824678 0.0815262876484231 0.166130272777676
-0.153886387743636 0.0834566941945253 0.167881511001978
0.0580448163131384 0.323310166711521 0.0253766252634172
0.0629765284763552 0.321707360258477 0.0325850370021633
