ply
format ascii 1.0
element vertex 831
property float x
property float y
property float z
end_header
-0.283954032145791 -0.0570380619769395 0.540531895276629
-0.276638978920997 -0.0524539546678349 0.543916889809288
-0.262286431735821 -0.0526497849670074 0.551104805807934
-0.262644255243247 -0.0530523103520857 0.550949824794265
-0.252250130927027 -0.0543682482551254 0.556225121441521
-0.243073962012862 -0.0572887203927551 0.556449521421596
-0.228984074807041 -0.0523918029960449 0.554390393487078
-0.217653058137184 -0.05192669818853 0.553195542182624
-0.209405478063022 -0.051603449315189 0.552327868040139
-0.201797682970141 -0.0559631733115204 0.552145907265645
-0.188351439756844 -0.0596528239261787 0.551291139389908
-0.171502642227982 -0.060216394566465 0.549681082090289
-0.160237014171211 -0.0584148603501631 0.548315338603302
-0.140835869740608 -0.0549087306358288 0.545909732866072
-0.139025898388081 -0.0563274499117928 0.545917091988471
-0.123190566849078 -0.0617907515483088 0.545058894049301
-0.105936230517535 -0.0623673313885039 0.543132495747749
-0.100732243432776 -0.0594389364027923 0.542177592664254
-0.0823519190743767 -0.0566656170293868 0.541021752758563
-0.0686100956231375 -0.0566376572637447 0.541018749307542
-0.0616238336545187 -0.0548359108917654 0.540825204874761
-0.0397381102899184 -0.0545586752020875 0.540795424088109
-0.0348468676612126 -0.059645178541057 0.541341818641131
-0.0296054722955715 -0.0563657081533521 0.540989536407694
-0.0121188912633458 -0.0612795126712831 0.541517379573085
0.00226056594724867 -0.0590915668219278 0.541282349412927
0.015432946970005 -0.0594364702795193 0.541319399102663
0.0231209836281693 -0.058091136768441 0.541174882751554
0.0303105446182181 -0.0646047058721523 0.541874573372366
0.0451286980718988 -0.0649293750581011 0.541909449487236
0.0581107798313824 -0.0627298785904827 0.541673178554296
0.0775540215823444 -0.0604086315184159 0.541423829114833
0.0835342165877198 -0.0640936963327855 0.541819680490115
0.0979839423223322 -0.0629355767564211 0.541819292401752
0.110547367442042 -0.0613409260840043 0.543193882517049
0.118672213986652 -0.0676173077583847 0.544867830058072
0.136905201524323 -0.0586637985136772 0.545693588663802
0.14410289042426 -0.0653112649474266 0.54729590840197
0.150110833207547 -0.059596071685087 0.547137925075112
0.161544173000231 -0.0602167412365092 0.548363662244303
0.176112438482768 -0.0596994712035992 0.549751813439198
0.187831744061466 -0.0668926322476623 0.551878743987479
0.205005809886234 -0.0661494770822702 0.553497485578101
0.220158265274901 -0.065881801666954 0.554977193191778
0.231567339811108 -0.0632184363394791 0.555764498960879
0.243878770751502 -0.0669625656461563 0.557492731363788
0.250660745933781 -0.0684764933683871 0.558371925488564
0.310100135757903 -0.063920697099738 0.529476121232973
-0.150113064483724 -0.0439519130023951 0.145206914836261
-0.148756822965522 -0.0493761231168687 0.145118075166456
-0.132138642977154 -0.0479904420474317 0.14885117528271
-0.127548126844194 -0.0457943075984757 0.150011252217329
-0.121683287550259 -0.04476563909943 0.151367076035884
-0.11365146462389 -0.0519959443543565 0.152609929821037
-0.107320257268528 -0.0498100810597984 0.154149990257657
-0.0962196462791999 -0.0448826747400268 0.15692801198481
-0.0925132835307812 -0.0474104430735326 0.157559010643084
-0.0825027176761416 -0.0473378207992709 0.159753621693595
-0.0719841870321411 -0.0495803682536591 0.161894805424646
-0.0642439153674629 -0.0501842147554303 0.163544798622829
-0.0282636814133609 -0.0534760511841165 0.130298920713832
-0.0282800423026296 -0.0544329935837083 0.149600076045412
-0.0288160660619894 -0.0457960278296889 0.162273439885567
-0.0285072955314197 -0.0513370481540244 0.163740809604533
-0.0168192595398059 -0.0492041564765005 0.169904400896436
-0.0148921950263123 -0.0507460614566104 0.169549809880806
0.00258303843154277 -0.0480404415990142 0.170172019748203
0.0138895413148336 -0.0479643541907611 0.170189517526417
0.0268147052731118 -0.0486452966156623 0.170032921582345
0.0263499721566073 -0.0486543153582715 0.170030847547211
0.0756579029631178 -0.053001489088772 0.141859200446048
0.0606201844048358 -0.0482001800314908 0.164163772001758
-0.315159538096569 -0.0481148587496039 0.524398644437753
-0.312202428651997 -0.0465207467395815 0.525782426801511
-0.308819521155077 -0.0475672751290527 0.527536098238009
-0.301489892480299 -0.0432444279881219 0.530943912805919
-0.295834612767639 -0.0405678933710773 0.533612428650421
-0.288490531069481 -0.0436152983112272 0.537465642310288
-0.278568242861667 -0.0465635856523111 0.542602066534521
-0.271828369336212 -0.0494570487011532 0.546144024030878
-0.269703298166504 -0.0438348574206253 0.546872311881321
-0.263389929780273 -0.0475208323969027 0.550248132835077
-0.253468333041344 -0.0450860786631529 0.555064181430165
-0.248802435058598 -0.0447475559831428 0.555357341095401
-0.235973275587462 -0.0465920082839869 0.55431930384888
-0.224532313527586 -0.041912303677846 0.55255390668402
-0.205251044335169 -0.0440256824039769 0.550906362480893
-0.196350827073253 -0.0507873551262433 0.550914054200206
-0.182445486232462 -0.046306433334146 0.548928610556579
-0.167929782140177 -0.0498950398799484 0.547953481477641
-0.167684585489449 -0.049233272830634 0.547841102313541
-0.151366816056579 -0.0515492863125015 0.546516810888711
-0.124816332419425 -0.0474622319354491 0.543319144770856
-0.123119939488237 -0.0523134184461825 0.543793573230823
-0.103710424394743 -0.0531103005558552 0.541864223053763
-0.0931840986039698 -0.0448565399851179 0.539753216213275
-0.0860821048982905 -0.0484358402532388 0.540137706311837
-0.0674283785280352 -0.0443035031233693 0.53969380873652
-0.0539350120428368 -0.0482225558239576 0.540114795199303
-0.0442730133489925 -0.0459488408677677 0.539870551681822
-0.0353238087814461 -0.0455693474623868 0.539829786323817
-0.0266797940372448 -0.0454764516898322 0.539819807416749
-0.00807180892154149 -0.0542685520370741 0.540764258922865
0.000426839357352613 -0.0498509401237208 0.540289716997703
0.0101047408191109 -0.0465910048418207 0.53993953323441
0.0312509405372449 -0.0547955281853078 0.540820866945662
0.0381380056062968 -0.0502438248086735 0.540331920853183
0.0558043159844406 -0.0482502166976275 0.54011776654321
0.0686580001474996 -0.0485886850682174 0.540154124972908
0.071005486625133 -0.056082781819133 0.540959144329359
0.0842182843454672 -0.0511986126066942 0.540434484602259
0.104114419951281 -0.0480923910526765 0.540979165647865
0.120512602301352 -0.0466994584007914 0.542465883185636
0.117071524266919 -0.0522008795884105 0.542852171538938
0.1278307564964 -0.047120983149508 0.543253662336319
0.150346426473097 -0.0473121916150164 0.545530615124965
0.159558640593547 -0.0481717807263596 0.546565959881123
0.168455082722754 -0.0503756425218184 0.547748199794409
0.181776244731819 -0.0502701754419704 0.549066313658982
0.192048195002279 -0.0579913719387643 0.551118613300707
0.203360813383394 -0.0517315826008367 0.551418794238352
0.22587706412717 -0.0541882377658807 0.553996577123558
0.222660267328107 -0.0522678804996087 0.5534199412207
0.239730075309649 -0.0507565858332848 0.55492627498996
0.248605097143344 -0.0500367049194354 0.555718202187365
0.296670983928684 -0.0603258153481776 0.535976976016268
-0.154884856920362 -0.03592166394122 0.144733922704787
-0.140979274377814 -0.0355542899484593 0.14780137453053
-0.143901495887691 -0.0381799905231148 0.146975649981142
-0.127448559733564 -0.0423491970881935 0.150277853860721
-0.126459407882279 -0.0382769544116688 0.150783586888558
-0.114146020051157 -0.0365168604825858 0.153601776448364
-0.102259953388005 -0.0349945161309005 0.156309609370546
-0.10030770326428 -0.0390238434984792 0.156450251678238
-0.0890078067411479 -0.0362618020376915 0.159117979435874
-0.08327041300634 -0.0362258300007759 0.160375383694176
-0.0710337740798443 -0.0420364143158548 0.162638781013228
-0.0685141577700361 -0.0353936954517085 0.163661917446392
-0.0515227397551553 -0.0360803714920927 0.167329378972011
-0.0515365150994834 -0.0352970924252393 0.167382029418838
-0.0464763695603562 -0.0372232866310435 0.168351869772534
-0.0308915607165848 -0.036339182519806 0.171823312928504
-0.019393283023586 -0.0435145695673137 0.1712128319779
-0.0104093888877708 -0.0437692914798729 0.17115425372383
0.00129543945086942 -0.0444247596804623 0.171003516072705
-0.00211888068223599 -0.041492020033925 0.1784287808437
-0.00481944244191918 -0.0403734107270379 0.19400583695775
-0.0171599823720944 -0.0352617917209526 0.222665315778236
-0.0111272521796531 -0.0377606303847993 0.222816326170234
-0.00192507338981334 -0.0415722976429331 0.222673603721682
-0.0072228175498729 -0.0393779001618536 0.227901600777808
-0.312957592254929 -0.0369879893698424 0.524827873671754
-0.302023266247825 -0.0392835373355818 0.530438508423164
-0.301893731156641 -0.0385103542960852 0.530454952028787
-0.290713969685495 -0.0318884631377287 0.535630964566963
-0.284620486411558 -0.0407042357395383 0.539227597587495
-0.280025489078898 -0.0384030300453419 0.541382365301987
-0.275924268215481 -0.0318383792328408 0.543022685057915
-0.264316786871721 -0.0365016903903615 0.54911788267714
-0.262374517338034 -0.0363061689798564 0.550076797355827
-0.245662019482562 -0.0350611412285926 0.554458825754767
-0.247014856020499 -0.0408606886922709 0.554662543274957
-0.23537176800614 -0.032911891514522 0.553429800607125
-0.210525534916524 -0.0367488849873806 0.550945177298163
-0.210937422205239 -0.0370229465309765 0.550986366027035
-0.188019536405504 -0.0421720303086249 0.548937111576662
-0.183958596400829 -0.0368581662392051 0.548288483446594
-0.168571901096918 -0.0388764447675639 0.546749813916202
-0.150682911199708 -0.0395062476424378 0.544960914926481
-0.13580706357241 -0.0422434022820955 0.543725339993058
-0.133057253071 -0.0351187854587917 0.543198349113611
-0.119842127500456 -0.0421878831100326 0.542121475383258
-0.101246122089747 -0.0386312018305767 0.540017236015485
-0.0976012669338659 -0.034746566851892 0.539652750499898
-0.0853645670307438 -0.0411587693434037 0.539355999972115
-0.0769976953165211 -0.0432826085186723 0.539584143763542
-0.0587940005203138 -0.0362026292595383 0.539268610010298
-0.0572868693485237 -0.0424613569040797 0.539495924533362
-0.035892491875924 -0.0346864489070198 0.539268610010298
-0.0289387382444494 -0.0410644492378378 0.539345868062532
-0.0101924304564925 -0.0378221047765145 0.539268610010298
-0.00459729233330396 -0.041729958834274 0.539417357412729
0.00477698506705902 -0.0363682100448927 0.539268610010297
0.0281160528974765 -0.041307931748704 0.539372023067026
0.0439519176269758 -0.0449166962975644 0.539759678232321
0.0491995471768246 -0.0375526084120437 0.539268610010297
0.0700896241160521 -0.0363115197125094 0.539268610010297
0.0746219911823067 -0.0441924107679156 0.539681875144057
0.0889418254212983 -0.043425764728997 0.539599521670198
0.100079695056587 -0.0450179216970851 0.540152445062994
0.105225727750314 -0.0442287774830995 0.540609175790725
0.126043915035061 -0.0381904379161696 0.542175396361159
0.139973747599907 -0.0387543168227471 0.543568379617644
0.147371364513083 -0.0382046477313685 0.544308141308961
0.164904564432152 -0.0433344543145307 0.54645832464786
0.175750574809693 -0.0377124960461386 0.547146062338622
0.187502337299718 -0.0396430923362538 0.548321238587625
0.201553355223375 -0.0393014489294432 0.54972634037999
0.205784946692889 -0.0463905056870102 0.550952099519274
0.218607737762149 -0.0421278149363351 0.551668442509786
0.229533936665172 -0.0397940617961229 0.55252439852417
0.25483784507366 -0.0416132499373927 0.555223137021399
0.250647141550249 -0.0460767751226922 0.555396666568192
0.317070158055964 -0.0424459143710581 0.524714401925879
-0.143546593156203 -0.0241772083506385 0.138584122116427
-0.149537881827152 -0.0264799080601566 0.14536166087557
-0.133502685454206 -0.0327710851425674 0.14963439562383
-0.134489786295344 -0.0255615410264905 0.149930845304042
-0.122090403942963 -0.0325600401982274 0.152145418345413
-0.11661315802317 -0.0308053130064445 0.153468067065662
-0.103467955024503 -0.031950921012198 0.156261694040267
-0.0935115248410723 -0.0248795308342374 0.158941828550328
-0.0918800507926429 -0.0273863012077187 0.159120512357967
-0.0832272658519173 -0.0251392714421981 0.161172680911724
-0.077693202393533 -0.0253521096225278 0.162367932441873
-0.0669042979399926 -0.0332215620951646 0.164168377705851
-0.0608353481788765 -0.0340731164875281 0.165435226295916
-0.0506371499009908 -0.0331459977979938 0.167731599500034
-0.0458417568585581 -0.0299406062584327 0.169008208181926
-0.0287969151372681 -0.0312949866117271 0.17263990416762
-0.0310090346802988 -0.026530724472797 0.180734554571747
-0.0250513769004652 -0.0319930690812643 0.184564222171648
-0.0266115539833258 -0.0313468225738398 0.196823059802898
-0.0302308547644591 -0.0284094169795831 0.215942643984487
-0.021438405608113 -0.0334896107910215 0.216172642324307
-0.029970960094349 -0.0290368582169515 0.221022347354716
-0.0208320875764391 -0.0337407559428521 0.226637068587941
-0.0302144761361748 -0.0284489584861214 0.240720558212955
-0.313318388529043 -0.0232498443620203 0.523788841471708
-0.311999788196781 -0.0265303105659663 0.524653170775585
-0.303440416603409 -0.0270333239319914 0.528964294907648
-0.298211274366815 -0.0231819126900287 0.531338152823322
-0.294065996658038 -0.0234564720282864 0.533427951636352
-0.285610883464316 -0.0289510783939551 0.537998921131068
-0.276611421933619 -0.0228869087307759 0.542119641292466
-0.273400670221852 -0.0251437162518682 0.543866067618418
-0.267782264175131 -0.0247788233717788 0.546652464836774
-0.256372147218277 -0.0241172301413751 0.5523161737383
-0.250202450050863 -0.0313431968091786 0.555010074859603
-0.238015210028679 -0.0269299434892423 0.55371723226436
-0.227747965240773 -0.0246611712357907 0.552667420330588
-0.222149896559464 -0.023460809558674 0.552107613462457
-0.198428214748733 -0.0279821353762371 0.549735445281384
-0.195552802715074 -0.024287549144156 0.549447904078018
-0.185290079919274 -0.0254611474269318 0.548421631798439
-0.17114319156384 -0.0297946823681326 0.547006942962895
-0.157340363431384 -0.0324265202184104 0.545626660149649
-0.140214417402361 -0.0314556712601927 0.543914065546747
-0.130204479387117 -0.0248173905510707 0.542913071745222
-0.113390334733336 -0.0301707945904414 0.541231657279844
-0.103315786174521 -0.0331876378948614 0.540224202423963
-0.0991097677769836 -0.0247579726505834 0.53980360058421
-0.0845858966840331 -0.0298999455613355 0.539268610010298
-0.0713339489814779 -0.0251640028851318 0.539268610010298
-0.0591477692724201 -0.0288680341565618 0.539268610010298
-0.0424184211954537 -0.0341029620026247 0.539268610010298
-0.0332012326902117 -0.0260840987024824 0.539268610010298
-0.0224396329903927 -0.0332136141803286 0.539268610010298
-0.0147546218495437 -0.0304781659264251 0.539268610010298
-0.00299477340827138 -0.0295272335493214 0.539268610010298
0.0211451389022301 -0.0257320087889596 0.539268610010297
0.0193160967327096 -0.0348959311506958 0.539268610010297
0.0368908111070703 -0.0282563132231788 0.539268610010297
0.0581906101322043 -0.0307574214816724 0.539268610010297
0.0636219538094914 -0.0326950860823155 0.539268610010297
0.0726633189213111 -0.0283297917065851 0.539268610010297
0.0932351632874074 -0.0314395248106211 0.539268610010297
0.0961355245049864 -0.0291739244436413 0.539268610010297
0.107285110208349 -0.0361531379415059 0.540299515878488
0.127272135762383 -0.0339672063968169 0.542298218433891
0.132958743921829 -0.0283190665943198 0.542866879249836
0.150224590832484 -0.0340079130594152 0.544593463940901
0.165168910033966 -0.0345298633941894 0.54608789586105
0.163821788861085 -0.0349311179952007 0.545953183743762
0.178462859464326 -0.0341625649083865 0.547417290804086
0.190845773874195 -0.0373628675698267 0.548655582245072
0.204114988150838 -0.0352557779369659 0.549982503672737
0.219832111909407 -0.036152372508463 0.551554216048593
0.241043533474776 -0.0299089371110721 0.55367535820513
0.242599282873863 -0.0329298282698387 0.553830933145039
0.285593767967914 -0.0305744851615253 0.539717036546527
0.315427510865826 -0.0353077911453115 0.525095996721558
-0.139225206658621 -0.0225302030691777 0.130153349884688
-0.127428741900475 -0.0179827436433165 0.120276761994714
-0.13356881072124 -0.0203025177009389 0.13745696270954
-0.129500090530944 -0.0226488047121152 0.151229153311121
-0.12162343366932 -0.0178013106274687 0.153296372444636
-0.114727433866685 -0.0239712528520632 0.154366160021638
-0.103498480372529 -0.0197227892356301 0.157124003343424
-0.101433074916011 -0.0213105272464099 0.157462904535772
-0.096299724264011 -0.0209154228765245 0.158613717704769
-0.0873626609306676 -0.0212188120078774 0.160546817752534
-0.0773940731766425 -0.0240234711313988 0.162527775149419
-0.06721148432629 -0.017829801994151 0.165194998935361
-0.0586057304698851 -0.0184327827454455 0.167034346668094
-0.0515472238267961 -0.0198413123544797 0.168478043986738
-0.0464486667423077 -0.0154122042426441 0.169907921628787
-0.0336143172053897 -0.0202410160669098 0.174555487260243
-0.0349355022270463 -0.0170513932692212 0.187667152775918
-0.0357659497740062 -0.0150465155385123 0.188416553301918
-0.0350503201602835 -0.0167741982575968 0.204341947998645
-0.0322838163125268 -0.0234531293672084 0.212073440424772
-0.0345395746680309 -0.0180072469519143 0.219811571615131
-0.0342547140569652 -0.0186949613025354 0.227208850943214
-0.033216502080188 -0.0212014267374877 0.238753927207016
-0.0352295314635172 -0.0163415438987986 0.254114272251844
-0.0352298931925537 -0.0163406706076546 0.261143240893798
-0.312949789530729 -0.0197903427439073 0.523756922119732
-0.30438396624001 -0.0155414850939326 0.52777428016197
-0.299117029995211 -0.0189372503575536 0.530619983613345
-0.290299736921388 -0.0171438561043212 0.534916543009429
-0.282503966911275 -0.0223119834829083 0.539137435975647
-0.277449216240384 -0.0208669449688706 0.541574496403965
-0.274389194142363 -0.0174845440246002 0.542893107393959
-0.270192570365165 -0.0228063412121055 0.545324031606777
-0.261511961554408 -0.0211105968552878 0.549558351989854
-0.251851815886869 -0.0188368606766779 0.554246316312461
-0.242585755075834 -0.0186611198347491 0.554339915375911
-0.233001487586532 -0.017946127194754 0.553284927219322
-0.218403372256767 -0.014636266171131 0.551732961032187
-0.209910586839796 -0.0210946315876554 0.55088368249049
-0.192675194469499 -0.0176609615379675 0.549160143253461
-0.172945890818835 -0.0177192923809604 0.547187212888395
-0.165512982061536 -0.0215935043393066 0.546443922012664
-0.165005912205883 -0.0193012992429512 0.546393215027099
-0.139134990611264 -0.0153728183295412 0.543806122867637
-0.123093560852803 -0.0220828813569929 0.542201979891791
-0.109281062465246 -0.0177076550825864 0.540820730053036
-0.10421251951845 -0.0217514868970367 0.540313875758356
-0.0882842858550465 -0.0182461415984202 0.539268610010298
-0.077488002528353 -0.0146150065338415 0.539268610010298
-0.0803882757097175 -0.022882858007534 0.539268610010298
-0.0573723413930608 -0.0226372928865329 0.539268610010298
-0.0518492219456538 -0.0186840232246178 0.539268610010298
-0.0350130775749757 -0.0151400888303982 0.539268610010298
-0.0221540083637596 -0.0234206769214023 0.539268610010298
-0.0140678002726726 -0.0195788439670722 0.539268610010298
0.00510801642270687 -0.0182034603656871 0.539268610010297
0.0219294384156582 -0.0180671148139218 0.539268610010297
0.0240353709181118 -0.0193328388511859 0.539268610010297
0.0336565514780807 -0.0225361986379272 0.539268610010297
0.0558107463619203 -0.0241366862762802 0.539268610010297
0.0664480330585253 -0.025383110583971 0.539268610010297
0.0696251516830224 -0.0246372569560057 0.539268610010297
0.095680003804604 -0.0225749414802515 0.539268610010297
0.0932771696840531 -0.0210555893603734 0.539268610010297
0.117600111889304 -0.0196886090136199 0.541331016046583
0.127656863117018 -0.0208347048418205 0.542336691169355
0.131041291806069 -0.0168236885010487 0.54267513403826
0.154850284153684 -0.0256385236274851 0.545056033273021
0.166470209351911 -0.0179403595995283 0.546218025792844
0.170376682758034 -0.0246958933877841 0.546608673133456
0.184752174837907 -0.0226997040189867 0.548046222341444
0.192719252965006 -0.0243191095531567 0.548842930154153
0.200987813716192 -0.0239800856340437 0.549669786229272
0.219495785565282 -0.0207020099150515 0.551520583414181
0.23391525865279 -0.0205521400803872 0.552992908326764
0.248061357330403 -0.0216071952162366 0.554550043525167
0.26602307346174 -0.0244073015892033 0.549116934826345
0.304682499449192 -0.0272976258636313 0.52996786709977
-0.116695068489006 -0.0138443381389184 0.111454615997854
-0.104029701223205 -0.00890354272089639 0.115747308391438
-0.0974501086045027 -0.00633649993837539 0.118060316799738
-0.109876766879434 -0.011086089145615 0.13887691234459
-0.111680024452201 -0.0117598532912802 0.145842162189996
-0.112113141140796 -0.0134350014303162 0.155686695307302
-0.097720649079579 -0.00729293343893136 0.159271016556619
-0.093583945471143 -0.01347474725136 0.159736463974251
-0.0852824225051602 -0.0128805616380042 0.161594348158871
-0.0772371238515577 -0.00768336742542363 0.163723302853179
-0.0707854138631802 -0.00762483482582335 0.165138541279983
-0.0599043641219155 -0.00962638105644885 0.167376139609685
-0.0543589192793352 -0.00576258783711924 0.168863584029603
-0.0377077434828988 -0.010786361611544 0.172148416320103
-0.0392008750588546 -0.0067538723300921 0.176088514342653
-0.0365053085911186 -0.0132615454547787 0.185095120348744
-0.0386099245173045 -0.00818055314219312 0.198036707651203
-0.0365110216470805 -0.0132477529175933 0.208074893270716
-0.0388894996979607 -0.007505598949351 0.219486747987291
-0.0371423498152643 -0.011723591891655 0.22681590129927
-0.037475091398061 -0.010920282649702 0.232865123480349
-0.0374272811398362 -0.0110357068235282 0.23737171874285
-0.0359723001963873 -0.0145483415501974 0.251021403037322
-0.0378033173530869 -0.0101278750975548 0.267041248392248
-0.31095932445329 -0.0120978028674467 0.524271370916174
-0.305831937019622 -0.00634953101876206 0.526475797642465
-0.29899811443774 -0.0131654520207995 0.530318703996033
-0.2857117323224 -0.00489113123201519 0.536444750004404
-0.279351395535276 -0.0133506203052425 0.540153636465042
-0.277057684512275 -0.00725135038922971 0.540919287606793
-0.271998083808943 -0.0122664645593945 0.543762532594093
-0.266327258429376 -0.00758592507293423 0.546305411565973
-0.258903713519267 -0.0125783997777589 0.55032921369008
-0.245867249220692 -0.0106283034138564 0.554816092731185
-0.238665332583333 -0.00792766878145344 0.554053388585818
-0.222048390714669 -0.00604307478958894 0.552233236628076
-0.220376493848973 -0.00720672051889478 0.552031308563425
-0.20254107216337 -0.0082651599335582 0.550146731022848
-0.193740715934107 -0.00704824517204447 0.549266695399922
-0.188525785250229 -0.00975463105908075 0.548745202331534
-0.172601188021906 -0.00770501622561283 0.547152742608701
-0.157837405949335 -0.00711511055694585 0.545676364401444
-0.145201362707899 -0.0143292323327776 0.544412760077301
-0.128495641550027 -0.00634135516230422 0.542742187961513
-0.130936467559868 -0.0112094583459974 0.542986270562498
-0.106599138728357 -0.013054343107368 0.540552537679347
-0.0897899466918406 -0.0127537319858082 0.539268610010298
-0.0842632676573659 -0.0115766897970012 0.539268610010298
-0.0774107778021114 -0.014024445754347 0.539268610010298
-0.0589684275731995 -0.014776227078776 0.539268610010298
-0.0544718432870264 -0.00622844442128323 0.539268610010298
-0.0297958675669159 -0.0103516356268807 0.539268610010298
-0.0202185692192079 -0.00617249836538376 0.539268610010298
-0.00598798973857618 -0.0118185754954256 0.539268610010298
0.00492058465147005 -0.0133609011425494 0.539268610010297
0.0152679258223015 -0.0131006232119872 0.539268610010297
0.0201723838953046 -0.00674131430620597 0.539268610010297
0.039723345821814 -0.0122890032549768 0.539268610010297
0.0501607917393101 -0.00950103225717043 0.539268610010297
0.061285463716864 -0.0107316316623487 0.539268610010297
0.0727090511177098 -0.00772400699803904 0.539268610010297
0.0839910170544166 -0.00932523411263113 0.539268610010297
0.103070467963198 -0.00856426645109136 0.539878051653973
0.112152454489491 -0.0110950903439576 0.540786250306602
0.123273382227234 -0.0113448599609316 0.541898343080376
0.138198190955555 -0.0137538475330629 0.543390823953208
0.144535115586496 -0.00821400318931913 0.544024516416302
0.161839782464201 -0.00910406598870882 0.545754983104073
0.163898471723424 -0.0123861213254287 0.545960852029995
0.183361894102769 -0.0139028978736582 0.54790719426793
0.199358422766231 -0.00641488365776745 0.549506847134276
0.204275055248916 -0.00555895987195036 0.549998510382544
0.219812024489643 -0.0123453546436877 0.551552207306617
0.226005191713374 -0.0123074957964433 0.552228520948551
0.261138479651886 -0.0132358388713577 0.550861015311406
0.288837951079852 -0.0138119905741668 0.537047289078848
-0.0892373714268283 -0.0031785133157519 0.109150643457489
-0.089051039250477 -0.00307710378785253 0.116542486758836
-0.0754762752775396 0.00218882679095618 0.113584490269207
-0.0705940842811782 0.00412063414611351 0.122192830067555
-0.0743389995361157 0.00272416780906348 0.137365597780986
-0.0811355541575448 0.000103857216555717 0.142983652028482
-0.0805517322202373 0.000384117491143043 0.156580421536555
-0.0731415675088216 0.00327298845415492 0.158618582259963
-0.0708360722999223 0.00304582888834223 0.165885766564235
-0.0555462532762295 -0.000351668409389906 0.168988421631477
-0.055249883150025 -0.00269743174567913 0.168886541493618
-0.0423785211606815 -0.00349963698302373 0.171644679358643
-0.0399280519551155 -0.00301420328074738 0.172215128191515
-0.0402923735126123 -0.00411876195972175 0.196469898325213
-0.0391009191476421 0.00428927338422453 0.192818108023386
-0.0404086716827799 -0.00383799334002331 0.202723724409858
-0.0405488274962009 0.000793713412061635 0.218127256678066
-0.0408117560006871 -0.00286486171295129 0.225969629580515
-0.039379815204099 0.00361595874223443 0.243893109528012
-0.0393995085006285 0.00356841491866592 0.246604847221436
-0.0389727219536473 0.00459876878862622 0.259086269913114
-0.0403713766650549 0.00122211761526848 0.264954003608459
-0.0391293530842024 0.00422062778895125 0.272391261173189
-0.306906387214868 -0.00086735919666329 0.52559593680596
-0.295767981968257 0.000555945836665604 0.531076182864683
-0.291241730955284 0.00443621584850406 0.53309679149543
-0.284523467741765 0.00188585311214374 0.536615320773212
-0.275772282018057 0.00147618091935381 0.541016518147115
-0.270092428866707 -0.00335047473204849 0.544158110701003
-0.265571262261295 0.000791277460814254 0.546159834491655
-0.253315322178674 0.00184087302046213 0.552222204810488
-0.253043084521446 0.00261379750790847 0.552310015858635
-0.24249825143039 -0.00175071537713972 0.554565059477218
-0.239028009448795 0.00120156561459355 0.554220480937481
-0.220357001864143 0.00173057636592046 0.552153271910733
-0.208286596689228 -0.00272326959572649 0.550750256808497
-0.193923452454876 0.00458924888298972 0.549284969051999
-0.188354744648099 -0.00318660184459267 0.548728098271321
-0.161266934760645 0.000107562657626871 0.546019317282576
-0.159311872247497 0.00133680530988273 0.545823811031261
-0.141596418145627 0.00437825711543781 0.544052265621074
-0.132397113386001 0.0037264439637924 0.543132335145111
-0.121916462448203 -0.00359550959240955 0.542084270051332
-0.105796885979955 0.0044459659269677 0.540472312404506
-0.1027924805564 -0.000338889387516531 0.540171871862151
-0.0751219401764228 -0.00353205635556878 0.539268610010298
-0.0673586541281785 0.00302967944413724 0.539268610010298
-0.0582024932933513 0.00186400057253017 0.539268610010298
-0.0532949471508603 0.00282143044183725 0.539268610010298
-0.0380194434756326 0.00128656017385344 0.539268610010298
-0.0206356964769021 0.000984170916950719 0.539268610010298
-0.00644243428082593 0.00438582572165393 0.539268610010298
-0.000667953953832586 -0.00497737520836341 0.539268610010298
0.0141730685574619 0.00505693822061657 0.539268610010297
0.0253101031954946 -0.000395138077634013 0.539268610010297
0.0427682262414839 0.00197170084584862 0.539268610010297
0.0469973506272369 0.000348781022522813 0.539268610010297
0.0609807691601914 0.00347054575421901 0.539268610010297
0.0756110208979561 0.00423512491392566 0.539268610010297
0.0885136599954817 -0.00311218181259808 0.539268610010297
0.104938410384821 -0.00409854344070509 0.540064845896135
0.113701919826788 -4.85704727864741e-005 0.540941196840331
0.124548956752375 0.00212234382768894 0.542025900532891
0.135805298460864 -0.00198901154342844 0.54315153470374
0.145403145025798 -0.00445839384156987 0.544111319360232
0.16103285895562 -0.00373344237502026 0.545674290753215
0.17315920790191 0.00396346017465986 0.546886925647844
0.179557850207385 -0.00408698091247658 0.547526789878391
0.200317214359773 0.00145664404800895 0.54960272629363
0.204330020388702 -0.00246972229457483 0.550004006896523
0.221330620360593 -0.00444677106319352 0.551818300863981
0.232703912924864 -0.00499249175580255 0.553074420583725
0.242956016403525 0.00196787444965544 0.554310214945318
0.288672791212471 0.000449220606464596 0.53623854331375
-0.0527384641071636 0.011028192574832 0.113452652677565
-0.0527622502764098 0.0110789766819711 0.128770901646429
-0.0638979794013934 0.00677340977598625 0.134823849372686
-0.0653815832786364 0.00629000322486241 0.158651842243174
-0.0506635582325017 0.01200046170683 0.155708412549474
-0.0620819195555271 0.00590436882930637 0.168003562311012
-0.0502433437302054 0.0122025859512347 0.165597659650706
-0.0474475947603353 0.0109983247947456 0.171566292229078
-0.0347907077364272 0.0146950442298748 0.175191360700175
-0.0359415491920919 0.0119166671794692 0.181964386318986
-0.0366808681979846 0.0101317932085219 0.1918621256205
-0.0351187159808337 0.0139031622776594 0.202786747998089
-0.0370312842711518 0.0092858139722087 0.212408339612958
-0.0387656425507254 0.00509870269164814 0.224966951400672
-0.0382330696791634 0.00638444734112575 0.229348661679574
-0.0364112029657175 0.0107828226695623 0.243106655013209
-0.0350398475874854 0.0140935674225237 0.251222594534892
-0.0351729474352068 0.0137722359650045 0.257648166730836
-0.305973203182406 0.0122502786383618 0.525242676457502
-0.300680931600392 0.00788647681782734 0.528161549862293
-0.301278920106868 0.0121158234127785 0.527598221446871
-0.291605201063027 0.0105160396962362 0.532535067451075
-0.280269928427117 0.0113470216578712 0.538150767396427
-0.273398910300792 0.0101317641254075 0.541662230055369
-0.272188465923787 0.00514019562772325 0.542579425274977
-0.263103681505648 0.0124720355096198 0.546663577491429
-0.260069327119904 0.00942061515149325 0.548371468456683
-0.25066438617348 0.00845365349736127 0.553134374033278
-0.239968851649745 0.0122579735601644 0.554478580181275
-0.229950978669929 0.0107520313484317 0.553344567319466
-0.212732905620657 0.00741600393901279 0.55138511437775
-0.204866705281627 0.0069857121248426 0.55050511584266
-0.194331111760064 0.0105971437354611 0.549384653112634
-0.173675182963006 0.0130973753093033 0.547260142102812
-0.171451584655486 0.0122661959851444 0.547037782272059
-0.164570886068863 0.00671638624104984 0.546349712413397
-0.142253004428573 0.0121477244424088 0.544117924249368
-0.131302406570593 0.00630184780863299 0.543022864463571
-0.120165921497041 0.00745122859387779 0.541909215956216
-0.111340766529784 0.0136764463277296 0.54102670045949
-0.101174177595699 0.013713182257917 0.540010041566081
-0.0883059730912724 0.00886066790218504 0.539268610010298
-0.0718490162103967 0.00942153829077123 0.539268610010298
-0.0600325899994217 0.0105476520887342 0.539268610010298
-0.0446350493358246 0.00645313973161627 0.539268610010298
-0.0453475213102873 0.010986199983953 0.539268610010298
-0.0285342397721956 0.0135453410678463 0.539268610010298
-0.0160216069128366 0.01367177686186 0.539268610010298
0.00266394079001845 0.0150401326897766 0.539268610010297
0.013270844961628 0.00979676136222212 0.539268610010297
0.0221791661306277 0.012889260656706 0.539268610010297
0.0400746726217169 0.00608005869142871 0.539268610010297
0.0478916997858515 0.0150703687633263 0.539268610010297
0.064548535015957 0.00662043026309338 0.539268610010297
0.0774689716021942 0.0140537760630483 0.539268610010297
0.0941868032652491 0.00804954700787685 0.539268610010297
0.100618313145842 0.00601294335272952 0.539632836172237
0.109975609379386 0.00618159237211505 0.540568565795591
0.129601064483518 0.0142011085978986 0.542531111306005
0.135822817581157 0.0147181228337075 0.543153286615768
0.145872319061758 0.0144164253227323 0.544158236763829
0.169343486299389 0.00732937790827148 0.546505353487592
0.168992129861629 0.00794074051006129 0.546470217843816
0.192458572869718 0.0115905698917728 0.548833036433814
0.192457896225745 0.01470022995377 0.548876150974233
0.207483955870473 0.0124232174257614 0.550514087982981
0.211488979214885 0.0149610981504346 0.550994338920202
0.237763529824809 0.00693734725019423 0.553802292447691
0.245105695835125 0.00895858790082442 0.554646161457873
0.259085955541114 0.00552333312883671 0.55071482911678
-0.0527808339206541 0.0227117004578891 0.117323637238623
-0.0505899592142988 0.0194386803546403 0.115931246319443
-0.0516641799683726 0.0209663411017776 0.133500483034993
-0.0529227437180218 0.0228114312862224 0.141987027637266
-0.0496040606805359 0.017821022913102 0.146995123197911
-0.0510716292341802 0.0199316719314479 0.16583143906512
-0.0536324145229383 0.0237519101056278 0.168641603899183
-0.0476565518750306 0.0211532622831634 0.170376799525412
-0.0347821668293567 0.021829821648926 0.171991190848278
-0.0334008575325428 0.0180504394417601 0.179620635277588
-0.0329842245586726 0.0190562804178106 0.194846691573369
-0.0320522538081061 0.0213062568435614 0.202147458933088
-0.0308656618432327 0.024170943258163 0.205780170435877
-0.0330555879810083 0.0188839938757497 0.222918634552937
-0.0312003678093535 0.0233628915753472 0.220530875902083
-0.0315128403217442 0.022608516198065 0.236347621635696
-0.0326597707046841 0.0198395813124721 0.25958543625145
-0.0335016796923966 0.0178070332160537 0.262481384901335
-0.0317202674338355 0.0221077428508495 0.26685999813428
-0.301433108791582 0.0215917129950713 0.52692888400562
-0.290228492195207 0.0217320554897795 0.532522420897889
-0.287340141747358 0.0165608854217573 0.534289794251064
-0.28345945015892 0.0213513514410573 0.535930735919077
-0.271075383056044 0.0173425501006655 0.54237331955429
-0.270891856036218 0.0137247268143142 0.542691197019599
-0.260603531061674 0.0140784124933308 0.547813254151933
-0.252405531782936 0.0194349323139389 0.551577471302514
-0.253998069946873 0.0156072517821726 0.551020432253781
-0.240686900841751 0.0201382451605171 0.554667811641503
-0.223363056487913 0.0163129480092025 0.552689810919531
-0.21450984229593 0.0145864797877135 0.551682141728457
-0.204517596808103 0.0194831723775289 0.550639901849112
-0.190913685586255 0.0167993199124019 0.549091080429113
-0.183368372704984 0.0231760530917168 0.548341278069795
-0.169234508120834 0.0180249195260361 0.546816074618594
-0.151559532225049 0.0195580905135669 0.545048577029016
-0.145742727713657 0.0157502082747089 0.544466896577877
-0.129525289528191 0.0214326528340777 0.54284515275933
-0.12946310241461 0.0145480235243389 0.542838934047972
-0.107192000611147 0.0235377033105352 0.540611823867626
-0.0894578638066445 0.0213009998623991 0.539268610010298
-0.0877143631653635 0.0220747093093901 0.539268610010298
-0.0766227488433669 0.0176063895409391 0.539268610010298
-0.0627136963095544 0.0164402606542992 0.539268610010298
-0.0548596833829345 0.0220294712535236 0.539268610010298
-0.0260975690619013 0.0216768427717445 0.539268610010298
-0.0307989315825037 0.017664097736922 0.539268610010298
-0.01916150460171 0.0231551606754309 0.539268610010298
0.00622429733558184 0.0210430957718066 0.539268610010297
0.0150719150092274 0.0216548300687576 0.539268610010297
0.0232337748699291 0.023605090529717 0.539268610010297
0.0317186523055406 0.0151439966392308 0.539268610010297
0.0539913891837527 0.0211896653249409 0.539268610010297
0.0570609567613076 0.0186440011706262 0.539268610010297
0.0787762213932385 0.017029105944135 0.539268610010297
0.0904462010869135 0.0186912729036146 0.539268610010297
0.103205832701626 0.0193421885922172 0.539891588127815
0.114897520098944 0.0214053617969955 0.541060756867548
0.130591100365719 0.0225963940403534 0.542630114894225
0.135672676342289 0.0240437304006426 0.543138272491881
0.145316661688396 0.0256680909631628 0.544102671026493
0.161370941017123 0.0252290587545897 0.545708098959366
0.175905033506743 0.0226576904586632 0.547161508208327
0.183565204684846 0.0163839693705607 0.547927525326137
0.201917272334207 0.0252773960416893 0.550074097848617
0.210726381882578 0.0183740059204372 0.550957007380085
0.216608052673155 0.0206170975456061 0.551641680407165
0.231085382831453 0.026990144070296 0.553338787182042
0.247809108444212 0.0175341279173691 0.555065645359113
0.292019049923442 0.0268849380340306 0.532913181619041
-0.0598642198862002 0.0333323204700401 0.113395477303417
-0.0595990938695326 0.0329313828409428 0.114290056634344
-0.0560058072065807 0.0275064533192498 0.124438176933808
-0.0566260599522811 0.0283750387357845 0.137533557180639
-0.0592637194568736 0.0322569256949844 0.152035633318233
-0.0546034398790236 0.0252710900481873 0.154258876164574
-0.0562000151726101 0.0276219239394335 0.162790158114014
-0.0485856923815305 0.0343158638278638 0.167802313920128
-0.0411443785960758 0.0326072240316414 0.169126066996617
-0.031414043901189 0.0252838735327681 0.171803845400614
-0.0198227260705103 0.0329373481504151 0.17194675177456
-0.0185167617533449 0.0319938814377336 0.174626094943774
-0.030218396787191 0.0257335793349091 0.201420910460741
-0.0203761067790024 0.0312237155109753 0.200011655371067
-0.0129557617269478 0.0342973230690245 0.201816166492829
-0.0300513356241051 0.0261369006605765 0.229019598620025
-0.0278692101038391 0.0281199704895649 0.241676224163882
-0.0213608520271749 0.0308158206737 0.237326450797806
-0.0301762137382292 0.0258354182238145 0.252841403469387
-0.304031860538813 0.0282475834963861 0.525213516225672
-0.29557480914565 0.0275158121577056 0.529487777630922
-0.296623334094841 0.0268704607305955 0.52900384962052
-0.288067569805837 0.0276172802308966 0.533235055546253
-0.28687457604618 0.0255507911700155 0.533960707992387
-0.275047810834967 0.031825427557364 0.539481925823784
-0.268353428178099 0.0271435072845322 0.54312173716927
-0.262523389196939 0.0247161359197691 0.546188467370148
-0.252269912832507 0.0314615887359469 0.550893614751353
-0.249624130747563 0.0321740447688359 0.552171977291769
-0.245762625934928 0.027508933203854 0.554394299170898
-0.223425612114033 0.0251440009711319 0.552819415058016
-0.209864553267606 0.0272453931247351 0.551341816743879
-0.197111238383315 0.0276144044999643 0.549929906914725
-0.194298598718858 0.0299702547909506 0.549650111539382
-0.182479707741945 0.0244221368535043 0.548259844237261
-0.164071655013009 0.0269840380677635 0.546299789307812
-0.159248504371998 0.0256448734013298 0.545817474243711
-0.138132826897304 0.0280539984215319 0.543705906496242
-0.124130935505503 0.0297325191440816 0.542305717357061
-0.120529398172653 0.0244600234562856 0.541945563623776
-0.109704693911387 0.0242347481009337 0.54086309319765
-0.0920341946110463 0.0285415720257165 0.539268610010298
-0.0846600428097782 0.0251983379599025 0.539268610010298
-0.0780532544671761 0.0266385188698819 0.539268610010298
-0.059549899530004 0.0305025736230503 0.539268610010298
-0.0483537499329467 0.0245689069456527 0.539268610010298
-0.0309698527407081 0.0342000629568118 0.539268610010298
-0.0292014529264328 0.0324952297553639 0.539268610010298
-0.0104259846904761 0.0296827759374154 0.539268610010298
-0.00136027404934687 0.0273406978162063 0.539268610010298
0.0227646869660653 0.0333888654592433 0.539268610010297
0.03173826425964 0.0354028063986694 0.539268610010297
0.0447620834065133 0.032814831921604 0.539268610010297
0.050471072438422 0.0318833796950163 0.539268610010297
0.0705140279263956 0.0256826381686272 0.539268610010297
0.0754690085078418 0.0305591014105686 0.539268610010297
0.0949297768286642 0.0306327849409467 0.539268610010297
0.0922145553937227 0.0313075842594064 0.539268610010297
0.117764440662087 0.0323050354967337 0.541347448923862
0.124617562014615 0.0287001159690554 0.542032761059114
0.132553815970093 0.0317083555307807 0.542826386454662
0.148952196510804 0.0268312473384322 0.544466224508733
0.164411731212463 0.0278078468764748 0.546012177978899
0.17616485538949 0.0279962120203083 0.547250479521129
0.186014373051349 0.027481289441549 0.548337718669965
0.202162849841216 0.0371494533468135 0.550266273923078
0.202404114247623 0.0267475940129715 0.55014861081082
0.218914000359333 0.0326896328501487 0.552065570918193
0.231288445769524 0.0297702930473068 0.553399962910953
0.24803070174295 0.0305702931030699 0.554677021017472
0.289221808926473 0.0354009488372324 0.533779551442326
-0.0638898640491284 0.0393607223948332 0.112811156182664
-0.0611143348120184 0.0351765313144879 0.119306538232055
-0.064338712838313 0.0399668564198533 0.127195167230185
-0.0623987135047812 0.0369831956909727 0.144660662241021
-0.062970730467963 0.0378443601195231 0.1435776036545
-0.0624227460425083 0.0421570379377243 0.164473078805932
-0.0611113680947947 0.0417390154075774 0.164728113976629
-0.0436531923848789 0.0434502048441036 0.166769616316476
-0.035246831673341 0.0407527045710769 0.168407794016605
-0.0238954995717097 0.0372289681344206 0.170597771840592
-0.0201784254865687 0.0429584654330332 0.170034250288375
-0.0079514745505798 0.0375986581244986 0.172684187304163
-0.00447030347834545 0.0430701408476662 0.172136781518754
-0.009922853065948 0.0355535949698496 0.190045714076682
0.0173263369668656 0.0447124612653643 0.169899023131776
0.0398134859309065 0.0452680987878697 0.166755999893896
-0.00216058841146206 0.0387688302644668 0.20740066604164
0.060543408305727 0.0411503821227803 0.164719979332336
-0.299487769251049 0.0316326334153528 0.527273996249619
-0.2999307045352 0.0388495168919682 0.526601473390255
-0.289536758286218 0.0362339918709211 0.531961916828562
-0.278922877479162 0.0356222402263171 0.537307091709878
-0.274885850313396 0.0388965991037555 0.53912095786292
-0.266960960339017 0.0342159355330288 0.54337594432328
-0.265185331707621 0.0390968384292669 0.543958702207964
-0.253930869156401 0.0404130952747135 0.549503667430734
-0.250261202742222 0.0333550642333234 0.551779627577909
-0.245288984090083 0.0378049551684692 0.553987618720532
-0.228212905993527 0.0407554529596108 0.553568162322243
-0.215547622059237 0.0405922978240262 0.552158642508217
-0.208460816467924 0.0334284086837368 0.551271721204456
-0.192453605955495 0.0348469042400537 0.549512843585802
-0.179394784957551 0.0354244537525103 0.548069884995925
-0.177100714645775 0.0359349719024835 0.547822078824478
-0.154359719756924 0.0342693792350754 0.545328595782204
-0.143263321845707 0.0355045269168744 0.544218955991082
-0.137604157950029 0.0339302267317204 0.543653039601514
-0.123466997188801 0.0365928859901559 0.542239323525391
-0.111799532927725 0.0361421504289196 0.541072577099283
-0.101770211974801 0.034924941726351 0.540069645003991
-0.0836757181836433 0.0397767250113889 0.539268610010298
-0.0693040794357802 0.0360633503313319 0.539268610010298
-0.0604399929814091 0.0403986362124428 0.539268610010298
-0.0490036247261746 0.0387418524661449 0.539268610010298
-0.0307050958389741 0.0387679686580712 0.539268610010298
-0.0204805229258637 0.0380270677576283 0.539268610010298
-0.00367597560292202 0.0391773306631912 0.539268610010298
0.00459298356504872 0.0422952065094644 0.539268610010297
0.0103156490966541 0.0386018179924731 0.539268610010297
0.0211520931238247 0.0381008413582989 0.539268610010297
0.0460303537421376 0.0371371801645936 0.539268610010297
0.0500451840160524 0.0400124979659016 0.539268610010297
0.0618313445984492 0.0409263688933618 0.539268610010297
0.0846878296798702 0.0418536447493865 0.539268610010297
0.0874184677933872 0.0375658361358129 0.539268610010297
0.101426425131589 0.0407996999529481 0.539713647370812
0.112732829678846 0.0461220231077801 0.540844287825537
0.120200758842439 0.0384622629765588 0.541591080741897
0.133824625693537 0.0420407429310635 0.542953467427006
0.145804398608903 0.0417001837272306 0.544151444718543
0.1615768961718 0.0383212750612338 0.545772998816954
0.171454599890262 0.0457970394909274 0.546974351513863
0.17532788656591 0.0412377748955444 0.547341393580665
0.191959672439898 0.0434062075324864 0.549219486908843
0.211415007396169 0.0422906642926821 0.551365697136766
0.217687235569024 0.0415188784842712 0.552051892130855
0.225976235545767 0.0462713821730753 0.553038899123948
0.277071622160439 0.049095803593397 0.538998716403083
0.294656851021828 0.0412153955626835 0.530698627474307
-0.0725103672766286 0.0522799255956041 0.109371175546022
-0.0717579030278135 0.0510746132764979 0.126661086692203
-0.0720878278725546 0.0515523163087473 0.13019378565686
-0.0681003356792615 0.0455709056051013 0.132992209312467
-0.0709941023601296 0.0498443985185907 0.145687442345652
-0.0720217375043156 0.0513264356242112 0.157980283294433
-0.0581130175372155 0.0499626706757684 0.163603404620605
-0.0492024020557095 0.0475557744683951 0.16525567712192
-0.0525112063229669 0.0475902368180849 0.164802005615969
-0.0338492358201755 0.0500666572789704 0.166863857473321
-0.0241907691607013 0.0503783726782873 0.168111423532983
-0.0173016387318585 0.0478160370372863 0.169519365938567
-0.0115064024126905 0.0454592839857097 0.170741195315233
0.00364432203115181 0.0527116942036578 0.166975514331126
0.0186794292865323 0.0477986195124378 0.169141944856075
0.012452177282161 0.0496131933580379 0.169646098984104
0.0433452903924187 0.0521807502657664 0.164992503413102
0.0542421328057703 0.0488490071632698 0.164139416509986
0.0610070538717348 0.0549703396625142 0.162086115363846
-0.301962185421506 0.0434781340961748 0.525296444371839
-0.303622693416681 0.0449009132514966 0.524377266677045
-0.297141002749679 0.0430072941314583 0.527736463205547
-0.28556417761273 0.0435286048870517 0.533492293851797
-0.280092621227897 0.043594154451587 0.53622397519643
-0.278258354517062 0.0490701391605049 0.536798859507541
-0.268935619156137 0.0469909466668006 0.541590176718859
-0.259433112424469 0.042082286680737 0.546648221333823
-0.260226599423614 0.0419632780118855 0.546258915876053
-0.244777811884799 0.0454020319552927 0.553768387523997
-0.247488597657656 0.0440600818542858 0.552496866518882
-0.239592461489934 0.0414912648036393 0.554842776986345
-0.2217337247598 0.043697135042544 0.55288910999187
-0.207610287374404 0.0436462261780825 0.551319132103708
-0.192893844650377 0.0431189663004841 0.549676648747183
-0.185255126197728 0.0501868581715068 0.54892606741732
-0.160266099065859 0.044542635058131 0.546071116859426
-0.157823631392807 0.0496913012132848 0.545871240814576
-0.141436815674012 0.0441551031701975 0.544036305373912
-0.12421126723435 0.0466711687237591 0.542313750529946
-0.124021569469875 0.0465162125352935 0.542294780753498
-0.107719187159911 0.0450821563002881 0.540664542522502
