ply
format ascii 1.0
element vertex 865
property float x
property float y
property float z
end_header
0.139020908203783 -0.0993681779954049 0.4904339985286
0.132217456243419 -0.0886356877809939 0.489513721111845
0.133009135552625 -0.0682629257613638 0.489781112736398
0.134175728977993 -0.0663630262146646 0.489985633718903
0.133747404479796 -0.0521222448137076 0.489516807291457
0.140497164002926 -0.0370417424849857 0.490592392542801
0.139775589606013 -0.0151055908119582 0.489737301120765
0.138270920505952 -0.0130375513923089 0.489338946264412
0.141537539162303 -0.0109184000943555 0.489980147396566
0.139317375016763 0.0148170025448307 0.488624808085613
0.14170880419276 0.0207877656699453 0.489171583027565
0.144114002948743 0.0269444824240278 0.490109931014855
0.146511950513593 0.0447935733771986 0.491656224701518
0.144387838052329 0.0593437700301333 0.492064142422772
0.142253037963788 0.0688106517619397 0.492415270266517
0.146307325816384 0.0833213970861688 0.498290298334071
0.144431912709592 0.0872941241886612 0.499274730780357
0.139953409816698 0.0939639482496669 0.500649521514297
0.142132287166443 0.106306591585194 0.505381352491245
0.148294531118153 0.106984799376896 0.506904399691411
0.146309558991584 0.117754584226056 0.510854942699235
0.143423019926397 0.127960726950022 0.518043906934535
0.142646682421738 0.132998628401654 0.521530361841052
0.151094182770239 0.140648104195309 0.527901422671531
0.148806207858066 0.146106073331634 0.53143449196479
0.147255301898972 0.15689513312193 0.538912384068756
0.14981570934095 0.158768348437392 0.540578928315747
0.148599079860737 0.169217985891372 0.549506479379717
0.146824893302309 0.1768590686081 0.556277856612198
0.147824655787529 0.180015287268708 0.559327776005175
0.149530652281103 0.188917174522522 0.56780174425808
0.155422807851727 0.219219396148705 0.557582853187235
0.143288569259858 0.175987648449216 0.63238077280687
0.151826305790298 0.174730133878892 0.634062671454706
0.14507255262433 0.17659598210408 0.643004056952313
0.145980986261384 0.178969244721495 0.662990339843016
0.146773363822303 0.179909728713513 0.669801145962342
0.144414869706367 0.18179777324112 0.67921048341644
0.151015363088957 0.181774426707152 0.686322684085688
0.149949329372993 0.184037325989674 0.699685537473684
0.148124496057849 0.185106091252971 0.704542994467204
0.143483056582195 0.189307593055253 0.721472324905776
0.149135030424386 0.188598452807531 0.722885824885374
0.144622598303142 0.191172970353418 0.731399657909641
0.145189635230815 0.193335869003732 0.742267380695495
0.151354653331113 0.193260478660043 0.746845352871225
0.145450887621378 0.198248220489093 0.765250611332967
0.15324248454906 0.20002395580424 0.777195371831047
0.147705906229194 0.200413158399034 0.77538668883583
0.152574734466962 0.204447155055279 0.791814473467485
0.154240017193473 0.207926177184509 0.804550634124007
0.15164040036791 0.209455542018733 0.808445126072928
0.146793346363385 0.212588884024302 0.816925949407562
0.147774922991925 0.215334175389907 0.827198865498417
0.147827268027378 0.218761155821334 0.837923477107512
0.147318211402677 0.221916395949861 0.846252912928966
0.147527469342298 0.223417876962956 0.850400498782727
0.154123579078967 0.225252458213036 0.858050232612498
0.146812178021343 0.231253555970673 0.871064507656671
0.152510454070611 0.232772279660332 0.87596149786618
0.147059094362651 0.235559836836176 0.881398923891131
0.156395753141339 0.238819420318798 0.891202513614635
0.1565984714905 0.241663111346829 0.89692096100972
0.152861187281342 0.247519236428181 0.908097217679189
0.147775448403408 0.254655292947801 0.921848293443289
0.153808687263332 0.256742544752697 0.926962294411467
0.150954893603147 0.260428708333352 0.934296731229344
0.149840374694143 0.266403106620669 0.946200602448089
0.151616872204827 0.269633213733112 0.952388065520738
0.154090656398253 0.273110039304988 0.958284065511823
0.158348957870984 0.283789492255451 0.963754661883297
0.159022755536291 0.303888539750604 0.965136071095731
0.146044268111496 -0.124347141990621 0.114295725724767
0.147757420846562 -0.12590957630854 0.127250961539472
0.141426601962996 -0.121056193199369 0.121723753024079
0.146306132378304 -0.123901534661193 0.144359409887233
0.141603636824792 -0.119406638610949 0.14641342233785
0.141082239370412 -0.104339806078576 0.14936961203945
0.145532614446201 -0.101607706595303 0.148734094618519
0.146931820300053 -0.0942271562211225 0.149755665939811
0.133410788284241 -0.273726983862669 0.421333284499852
0.133325308879785 -0.27071774385816 0.426217664071448
0.136546126383527 -0.268828339091146 0.429493673925019
0.134786746376189 -0.263898860170393 0.437391356201291
0.139175183858765 -0.262075167334536 0.44063520800983
0.137766866939727 -0.257982418545363 0.447110989625471
0.134218516632156 -0.249088235506373 0.453647658279031
0.13327455114273 -0.241699938832884 0.458289784225372
0.134175067312224 -0.24148977591894 0.458605882484298
0.142448337172782 -0.235027685557307 0.46449032573225
0.14264777246021 -0.228556066890772 0.468786318186979
0.142467721255837 -0.21771349513256 0.473568044337732
0.137723356851341 -0.210039816474818 0.474655915096483
0.135897402832717 -0.205177484549467 0.475603793462099
0.137835667276127 -0.194766173882247 0.47891455596164
0.137523981019049 -0.191101860309442 0.479862775754345
0.13660010301924 -0.183181991072445 0.481861132579829
0.140297366911554 -0.180286953849423 0.483473131903825
0.138807201790626 -0.163353350879618 0.485197710724344
0.145866560855075 -0.158910383817498 0.487225502587722
0.147442675005915 -0.14070114693009 0.489539389783176
0.146895171231912 -0.133639956840996 0.490182668324491
0.139869262201959 -0.127696457035178 0.489148545622919
0.144824415182219 -0.120862384647428 0.490591300041063
0.148900479896897 -0.104400101411252 0.492341276919477
0.147596857170208 -0.0916994856253532 0.492714922653391
0.147044961596328 -0.0780766650885224 0.493102954209758
0.145601301282229 -0.0724688468296359 0.492640082803123
0.149167315639598 -0.0563663872411744 0.492993911705439
0.151299750597268 -0.0503999064040964 0.493302033655595
0.143508967161916 -0.0463706010250706 0.491495571990546
0.143955547694336 -0.0310740355158475 0.491189857120008
0.152618369061151 -0.0206024796075499 0.492805879517632
0.145302303163235 -0.00341210632659836 0.490547779656726
0.146327200659316 0.00433857680449791 0.490509194299457
0.156390982361731 0.0294895857328481 0.493395203693341
0.147102151267385 0.0360689202940993 0.491268764784049
0.151952555407246 0.0471682122742429 0.492950041574322
0.153294836310902 0.051014625988586 0.493630161198697
0.148314035105042 0.0736462561426033 0.495357579015485
0.155936082052954 0.0784833767413675 0.499194369424061
0.150018745785353 0.0877269073341166 0.500592469426119
0.153894853746699 0.0945224403469378 0.504102871077914
0.153505818179553 0.104426846601596 0.507427333833662
0.151864241870232 0.110816392259304 0.509103871711844
0.152318288668415 0.122829739193756 0.515429807412044
0.153492256590731 0.128307013529225 0.519512640914119
0.152195538562729 0.132473541697792 0.52226653808478
0.161788897052645 0.142276149136979 0.530777535714464
0.158875934624658 0.147092512013512 0.533733718409418
0.15466974516356 0.154838945290385 0.53856527461911
0.162756815682321 0.161714400565366 0.544869806054595
0.160125243836681 0.16756608945663 0.549837097947814
0.154360023478231 0.17665785516321 0.557285358149262
0.156135727592579 0.17934917849831 0.560049776031964
0.156980525439076 0.190438329995659 0.569398363451036
0.156807480553067 0.189225049659318 0.568479454773338
0.158643596404092 0.17311815254047 0.62827740575794
0.157252447535742 0.174679631904129 0.644137784721225
0.158410372995156 0.174994103777124 0.650305388701463
0.157685854847156 0.17675428678881 0.661872927996338
0.162606820316363 0.176063384194414 0.662920795329223
0.158839786371972 0.17953811674358 0.680722699554168
0.161894754892438 0.180699339821186 0.691415531308326
0.154703285901934 0.182134567862558 0.692693676691588
0.154415785007115 0.185150664074593 0.710834287261512
0.154025047302849 0.185179926726616 0.710641686554584
0.155768196114866 0.18865807177857 0.728826672583981
0.160644414201538 0.189321268906652 0.735909435884097
0.157833075043908 0.191853994480021 0.745400577318303
0.155280976188969 0.194501162956648 0.75562112531046
0.155076688489888 0.195426631780074 0.759729562531239
0.158735467623322 0.197825412916556 0.772845046418232
0.160799266510591 0.201298581353729 0.78578652716279
0.162871387154229 0.203981467836733 0.796053342560815
0.162166976470551 0.204313508845649 0.796781091938005
0.157287233980789 0.207951566803145 0.806358428970392
0.158637482370671 0.208801494475195 0.81000292523204
0.164333383061786 0.211719789185382 0.823378417114953
0.158423437883146 0.214202939990231 0.82897475836266
0.155680331756002 0.217905480055794 0.838806388403096
0.158981423712498 0.221547878838007 0.850005476915435
0.159147556329295 0.225851537679223 0.860922580106734
0.165582924348471 0.226953886180711 0.864990163093079
0.162883135765899 0.232403912020677 0.877397121903312
0.166084679004149 0.234564376203689 0.883268767675492
0.163093202211265 0.240641875494881 0.895815718815287
0.159066592892848 0.243849306973407 0.901651139336458
0.164496370737676 0.247500352966417 0.909739619996791
0.159042380522454 0.250390959466492 0.914735069694301
0.163751936722556 0.255838259893508 0.926324222645424
0.167284131829651 0.258622884326995 0.932579425255761
0.16783510971851 0.265031603051421 0.944871905557553
0.159589173183412 0.268536234425339 0.950900971925346
0.160395033395902 0.273803483329683 0.958745259883606
0.167158739891903 0.297289531135278 0.960567952468053
0.168099040109243 0.301940958254834 0.960500437269017
0.154349875080698 -0.131221772459313 0.130647957732823
0.157569997884956 -0.133561325098801 0.132256782510629
0.152279817186133 -0.129717785108979 0.135961023082575
0.154096616889476 -0.123575569273932 0.142412263274516
0.149087884523305 -0.115531336486666 0.145209952277055
0.157446363316419 -0.105611723602338 0.144913123392804
0.150376521778596 -0.0905529245893539 0.149555824734793
0.14803067496946 -0.275294614081096 0.419291298789677
0.147442431368128 -0.269429239683394 0.4288860029472
0.141960791003415 -0.267231809592884 0.432433982303658
0.143649262471712 -0.26739642930674 0.43227439128061
0.141743994337033 -0.259680905221025 0.44468991372713
0.145375649894919 -0.258696010418895 0.446510183353719
0.143589854902734 -0.248342701653714 0.455958062013324
0.144808847570928 -0.245027792557676 0.458379160416168
0.142992552834773 -0.239698087591839 0.461525937411795
0.151010027038527 -0.237300510050755 0.465196007291336
0.143260567499777 -0.228290684120468 0.469081906643675
0.144457442125931 -0.22164500205227 0.472914078798734
0.146102450490454 -0.208942525774032 0.476795735184518
0.151389310631832 -0.20576958047382 0.479185518782949
0.152200565920497 -0.200122127850173 0.481001207777345
0.147356115863157 -0.195390416924781 0.480827186986068
0.15256389535883 -0.181686146499041 0.486080164798351
0.147638833848013 -0.171304429627024 0.48627424141999
0.154206668690758 -0.173100684099746 0.487958779150154
0.147077509568721 -0.150710721798461 0.488377326479688
0.1476569815038 -0.144930010238993 0.489129237894325
0.15404431613764 -0.137072994868373 0.491702990015793
0.154378990553321 -0.130845218250442 0.492476309578
0.157360906796061 -0.115535181576983 0.494339338529855
0.1562463623101 -0.103945898763932 0.494543674567708
0.158966071388184 -0.0942586458740654 0.4959848446039
0.154830288716468 -0.0915398054803736 0.494684834457278
0.16055066204239 -0.0767641578860096 0.497105811116581
0.160893168316144 -0.0701314886972549 0.497049359135132
0.156830592571157 -0.0532250416493784 0.495199756512569
0.157603809831829 -0.0437371520209954 0.495216898846933
0.160803358514649 -0.0322777499264437 0.4960205982336
0.159552747300566 -0.00935635280267614 0.494821811709781
0.162983672291295 -0.0143246212905055 0.496175622795107
0.157196139951279 0.00471053183437044 0.493531407513904
0.159322343070354 0.0218321600027378 0.493967397847587
0.164675506418439 0.0295531750066346 0.496214944424215
0.158129343463737 0.0474661953209462 0.495047133681828
0.158034526508148 0.056416500211792 0.49554631491358
0.15877717774729 0.0617920560912836 0.496115307371669
0.16108366170642 0.0735595719743916 0.49920948941939
0.169492268992146 0.0754853851224473 0.502712113653637
0.161512716930209 0.0844160859857625 0.503141531322332
0.165010755519938 0.103242703572994 0.51077507297265
0.160700564609636 0.109826538637642 0.511523257789824
0.1697781323994 0.115186974080931 0.515658096926781
0.165486375669308 0.125810495188463 0.52054784569686
0.165756378157137 0.135507911121612 0.526603087197405
0.162449251250357 0.135826213914095 0.526297941589878
0.166457878237648 0.145088937313739 0.53352764132129
0.170677552481069 0.157235809645724 0.542841799975041
0.165992500671748 0.162359338263766 0.545983847953348
0.163766418939594 0.168335647642724 0.55113109336811
0.164496302180948 0.170864843254512 0.55357810858099
0.168426016329264 0.185112326773345 0.56569519858881
0.168597859789605 0.191662278367427 0.57063531988982
0.175293513257602 0.211190374565005 0.559359283364797
0.166870952707696 0.172582187099819 0.637906397769203
0.171068537050773 0.172195579654528 0.64163816304396
0.166636391466646 0.174256931491426 0.65594337050842
0.169965369724986 0.173898726855472 0.657341772806367
0.173014572416155 0.174717136638982 0.665863274637059
0.165070027115255 0.178078672982494 0.678356650449274
0.172230551828584 0.178757883284801 0.690519928022945
0.173204829984274 0.179821850659271 0.698310596882957
0.168112023940427 0.182588739255306 0.710209881770307
0.170075467366664 0.183484034960042 0.716182091645156
0.170870514904314 0.184956383532792 0.723739234298713
0.175137131100012 0.188535669927683 0.743563191809085
0.175090637135563 0.189611953544866 0.74848981682722
0.171356517801809 0.190920301217554 0.751617309941771
0.175408001987039 0.193796106319751 0.768030092924726
0.168001510472001 0.197351273263463 0.776472951507395
0.165256035859079 0.200525143181002 0.785682395118633
0.175637969776304 0.200659661181704 0.792004381336537
0.166133522693565 0.20426673923989 0.798863670736987
0.172685645040751 0.20730485651182 0.812866113187072
0.173959697411877 0.208759013259035 0.81851613244813
0.171873516965186 0.211966822688772 0.828354017665069
0.17542978500259 0.21453221122594 0.837536581770897
0.168271211526353 0.219584620583982 0.847999315008668
0.175938340413748 0.221363250265569 0.853956115174494
0.175103629156228 0.222709096526195 0.856982430582095
0.17325113010384 0.228690907921049 0.870847883328692
0.17632233422594 0.231051461775327 0.87716806467731
0.171251021123952 0.238112166764115 0.891932739008405
0.170190250723142 0.237907892484068 0.891370880964064
0.168371870816211 0.245339104280379 0.905975403277514
0.17648934802143 0.245998948449032 0.908467713390006
0.168546189261443 0.25147935403584 0.918284944128901
0.171937054477427 0.256355705476904 0.928530378114358
0.17852854447709 0.25964964364879 0.935794856159374
0.16926470930684 0.262093490198564 0.939784415094926
0.179725758655236 0.268221692397527 0.948529242819505
0.176845129282227 0.280597529389256 0.954386400430758
0.178204648221545 0.304433340054418 0.955741693780518
0.166528980260528 -0.140070397599158 0.135891462752518
0.16387767394579 -0.138144113739345 0.13452222034529
0.162299900424191 -0.133424166974072 0.138453167874763
0.160535652360967 -0.122936659706982 0.140872096557471
0.16832724934417 -0.11633887567193 0.140099269100239
0.161870306667712 -0.106382444750448 0.14362839110791
0.160377873574434 -0.0984203891529351 0.145504265508855
0.151281064467208 -0.272968330679892 0.42286263062382
0.154897855308463 -0.267249668686929 0.431935812823585
0.15590911387547 -0.264750046183541 0.435939964493129
0.151870089608266 -0.25986591879698 0.444167976310705
0.151040739049215 -0.255631821910801 0.451496726896671
0.154067416697588 -0.252810110023767 0.456036788778499
0.155834395779034 -0.243957372478126 0.462434381222103
0.157741958034955 -0.246871343482367 0.461109586238091
0.159757627789101 -0.242366047207624 0.464723374152171
0.152846671960982 -0.231757866278408 0.469374959848992
0.15341504571409 -0.223527269649472 0.474887286622208
0.157201646764257 -0.2140367465887 0.479126337686473
0.159334677766772 -0.207962966171868 0.481547074571552
0.154361934186424 -0.203643389157912 0.480859315040076
0.163678031111477 -0.192655474473989 0.487249336437707
0.161244625070827 -0.191100581605876 0.486778223819676
0.160357293485396 -0.176944987189168 0.489815044509889
0.160236609271517 -0.163677043430957 0.491048977133543
0.158641698063469 -0.153697810532359 0.491547300867986
0.162141588175377 -0.148436843236257 0.493318894307949
0.163075103694724 -0.143396412584691 0.494175121887773
0.157704221289274 -0.13142532927457 0.493571000220391
0.162992172361886 -0.122113030924944 0.495962495481559
0.162414216571148 -0.11180248577312 0.496288189116752
0.159789776429676 -0.100679723314839 0.495943368463803
0.16878625119704 -0.0937784732565418 0.49941379124501
0.167569746672417 -0.0730706913550747 0.499434201059266
0.166123604160215 -0.0643954152348251 0.498705768619768
0.169025025734182 -0.0597060633795729 0.499584878071642
0.168808157182599 -0.0491828110504039 0.499232565227947
0.164420309532602 -0.0265998277783423 0.497087467844159
0.171775353757287 -0.0164318424463258 0.499285259795808
0.164799283176934 -0.00820569724482179 0.49659603820863
0.165931276735639 0.00497839320131863 0.496541136515965
0.170607234568283 0.0142162746066266 0.497844521007285
0.169235388457383 0.0253016217745782 0.497571896640833
0.168653735313715 0.0455270609623191 0.49847509458685
0.169686734812382 0.0454088028514459 0.498815835628502
0.175084572013901 0.0598847129189558 0.501491997271206
0.177782101132254 0.0686726851771858 0.50312607579853
0.174715071462297 0.075603772067761 0.50451166801003
0.174256372944702 0.0870530440135642 0.508351648727091
0.179813614576442 0.0910645935454392 0.511304382567264
0.17796060621465 0.110221649779232 0.516475295000634
0.179491195145753 0.111832845337983 0.51738257698215
0.177391273544275 0.121810388124316 0.521418545240288
0.176070555629872 0.131399330920328 0.526955141745825
0.174243443642967 0.139394200096994 0.531367984901417
0.179911790352239 0.145555617488483 0.536751010204874
0.18079179860565 0.156805053786118 0.544160886756576
0.174604769939335 0.160411211677219 0.545730513122153
0.178697614454746 0.170210997199548 0.554745112549983
0.183454818737072 0.16782689915349 0.553077532151961
0.177197278064577 0.179009188191548 0.561334011999629
0.178501681508887 0.186942227930763 0.567346986056741
0.183338716847532 0.195199729944795 0.568609308259673
0.182548751574108 0.170140569653537 0.63846870688658
0.181170989508113 0.170825438006062 0.644489382820012
0.17946968847413 0.17139419625013 0.648545034352759
0.177859367796736 0.17377755455915 0.665256883468413
0.181125960501105 0.175170824738474 0.677286291972795
0.180875049038245 0.175678778929755 0.680256810258527
0.179863578598737 0.177876914757448 0.693181872155829
0.178704213597347 0.179865814008765 0.704635445167442
0.183699071564273 0.180654293395297 0.713523778046393
0.177114546341726 0.18400489576261 0.724210101456122
0.17751943204353 0.18518519211394 0.729967534805442
0.184657541733653 0.185709203835873 0.737507383667823
0.178387472059269 0.188443342084691 0.745666421476111
0.182093045450319 0.188617742698795 0.749110297849791
0.18310192833088 0.192141530554961 0.765984833127286
0.180908433871883 0.193831873093932 0.771630354882812
0.18528202719539 0.198376120743003 0.788830903186175
0.179616825245417 0.19996054950552 0.791766796372609
0.180588834624813 0.201526961002617 0.797495993801915
0.18421964046887 0.205940535303168 0.814022405078366
0.181345316569544 0.208234771686148 0.82056526088206
0.182529950537756 0.212044119498369 0.833260160881911
0.180724392016199 0.215654276822984 0.841361432752945
0.178955829874752 0.21627730341377 0.842485910870089
0.181110993792883 0.220653354818826 0.853373599601575
0.177947917222969 0.223951466466339 0.860582808060394
0.187766335048466 0.224475226564083 0.863861348666843
0.18808362063325 0.231019057880704 0.8795466520903
0.177674967435076 0.233944740349429 0.88437634267659
0.181256125893448 0.240348397012497 0.89739795534202
0.188184103384729 0.244034791279022 0.90452019551698
0.180485629216877 0.246971824315319 0.910678494625933
0.186542868911428 0.249816958610732 0.916149392116632
0.181421269401229 0.257067726544528 0.930844403941893
0.184253020913785 0.258851214101303 0.933826416280169
0.183266228760992 0.266180604075935 0.944979164429084
0.182803215894786 0.279495278696689 0.950147134353618
0.189019099952813 0.293647052125464 0.946511292646627
0.181779806665017 0.300878853483647 0.953681453861143
0.173569261635795 -0.138219901448332 0.134650036872232
0.171260935608576 -0.137459601988482 0.135387458846539
0.17304553622601 -0.129129473353728 0.136487537917626
0.175356632849171 -0.121827009136993 0.137259422747106
0.173693487282248 -0.113611095622096 0.139226846178587
0.187320049942815 0.081529725358915 0.096187205851153
0.164496083941291 -0.267188985147994 0.431389814363349
0.164378550855583 -0.264171455790066 0.436313517266923
0.168585625994276 -0.261739695710571 0.440050844587399
0.16906545366339 -0.256079527427223 0.450654537852521
0.167535799589957 -0.252491295058152 0.457377042094999
0.167782732209869 -0.246048992193492 0.464708458363608
0.167553323349049 -0.246694740127022 0.4642085707164
0.161920135743892 -0.236815985681419 0.469013003931018
0.1631845317525 -0.235464843402028 0.47029395006626
0.164099690977584 -0.227364333713312 0.475833390327292
0.166571927886933 -0.219762075356689 0.48106972292885
0.164071179400159 -0.210379114729819 0.482657579677303
0.167425626641848 -0.207382214944532 0.484706632567155
0.170547549967377 -0.200175421017936 0.487778763182361
0.167307202868607 -0.184474547985739 0.490620662506011
0.169335094800412 -0.18388819905685 0.491490795655849
0.171769660705628 -0.173959505682083 0.494233805228996
0.168797182621906 -0.16120985274745 0.494316556150809
0.169032084414595 -0.154926769283955 0.495029471275343
0.175587670434457 -0.142578665755958 0.498610898105997
0.16987589928478 -0.133710246458234 0.497560972252064
0.170375676086925 -0.127073598134289 0.49827791825414
0.169045001663835 -0.112257600430439 0.498571914467019
0.175603295142536 -0.0990849102706418 0.501509491578108
0.175133572939954 -0.0885652780446237 0.501863018665141
0.175011049720137 -0.0830248445253951 0.502092366140296
0.17186223272064 -0.0776809515211457 0.501039164243729
0.17883914783284 -0.0626481569322962 0.503054106365558
0.177621078175314 -0.0541876174673226 0.502410153975542
0.180344453784516 -0.0470340257925034 0.503162781384236
0.177676594857199 -0.0289436356894029 0.501748041800962
0.175381387169507 -0.0136109511790984 0.500436026126636
0.175301499084086 -0.00130340732501665 0.49999196491601
0.180633447821286 0.0104318875792488 0.501437548123201
0.183855700580368 0.0198303784169043 0.502342847652351
0.177870856738339 0.0377115470963261 0.501195202031241
0.184173058587287 0.0452661943120906 0.503762162217029
0.186362835387773 0.0578225214616 0.505166446270604
0.189449111087113 0.0675800688897722 0.50678444035816
0.180356852779355 0.0763619894769638 0.506675494104562
0.183863472210792 0.0824150332345465 0.509869722388921
0.18706421514358 0.0939887229256222 0.514203850500803
0.189127608526096 0.101499191793189 0.517012555111888
0.183128091485654 0.119539580460372 0.521626717415617
0.185923394887514 0.120962892751341 0.523286428957476
0.184813979576567 0.132997882693348 0.530388914863013
0.188945484983798 0.134056018255032 0.532197968405643
0.189214533621554 0.143353022395279 0.538008769689442
0.189315001092155 0.14887112575951 0.541449353490219
0.191241409682907 0.159728237655589 0.548167132509357
0.186858563114159 0.166400553914889 0.552120247945897
0.189663357506334 0.170168394302999 0.555088043434148
0.18986383914806 0.182028431168001 0.56406885888946
0.193887073522298 0.192859994019765 0.5672096889632
0.195462763841363 0.169463252340656 0.65209374582489
0.189035901362842 0.171384623714484 0.661025480813955
0.191745382801307 0.173670770839934 0.677863884200843
0.190331114049773 0.174797629422148 0.683642004708375
0.193926810166195 0.175334870141129 0.69043828262188
0.187277816203801 0.177072003443557 0.695115970124002
0.185673195149024 0.180862894390024 0.715877512951994
0.195295923357986 0.180041979731115 0.718877012497184
0.186573179153346 0.18464858538068 0.73396760461423
0.185969742318832 0.18624418110854 0.740899314872957
0.18652053896978 0.187912635045081 0.748980781900517
0.194803447277289 0.187642155631158 0.753302493478472
0.194354057192848 0.189467255850916 0.761215622959238
0.192479393084158 0.192560649926379 0.773048850561308
0.192430027439421 0.195372071119056 0.782178146663926
0.189235985066465 0.198647864970191 0.791452733190041
0.195490253209491 0.201792494691391 0.804804823715947
0.193435300094652 0.203110377006863 0.808389568592851
0.18893647635292 0.206077323803309 0.816514728318666
0.191432546127285 0.211322151500447 0.833772966328409
0.189398636641318 0.214605503934845 0.840853435740772
0.188241209356471 0.215201237865794 0.841945137815186
0.190618993671076 0.220358750269644 0.854620274362655
0.1959844549242 0.2227794500412 0.861498873950769
0.188851804325007 0.22925391782199 0.87549077245195
0.193900684028953 0.228866633565951 0.875601742786167
0.197049577935739 0.235746009202546 0.890095484227242
0.194084518171436 0.241412883111437 0.899978130427107
0.193822232556494 0.243025090983088 0.902857518316749
0.192894916202124 0.248728610981916 0.913739279514483
0.196203836544866 0.24928557490562 0.91473254515426
0.190021100109153 0.254249277565954 0.924890376903776
0.19982163188127 0.272370535128773 0.931520606229782
0.201930712215907 0.292722309765034 0.933228756189981
0.202085572391873 0.293708764906525 0.933257968861067
0.181932102665181 -0.137817380068195 0.13256968861543
0.183328054716247 -0.135379704575746 0.132666383143665
0.18033889277961 -0.123854592920849 0.135595380126136
0.180690697335866 -0.119132164131752 0.136389125204479
0.201063937550294 0.0916193658179554 0.0929276456744578
0.174088082321721 -0.264770351634589 0.434685531219864
0.174851481394764 -0.260618850446899 0.442149440039108
0.169136068957196 -0.254735756664767 0.453171950631587
0.170298924941674 -0.254472763605716 0.453664420107715
0.170629381643 -0.249521187350499 0.462940662449251
0.173965588662241 -0.248476180307058 0.464897743866683
0.177923624480838 -0.242710100341479 0.470014197861813
0.174901982984062 -0.23336583339124 0.475320899308611
0.173308215353836 -0.226948408990459 0.479059585533208
0.172398826638862 -0.223917485456164 0.480730291732583
0.174083380661388 -0.213400615591734 0.485564380722751
0.175087236342416 -0.202913116676257 0.488696356967897
0.178515135631876 -0.204895315846042 0.489410856596469
0.179578308215187 -0.190365418871131 0.493484922813635
0.175943002696487 -0.1856909299803 0.493381540951013
0.181512262990334 -0.17084568064872 0.498057590072329
0.182440455471891 -0.168615422155155 0.498598229378766
0.178289750116221 -0.150646481889421 0.498728883066371
0.176509964111194 -0.143664816224579 0.498816917261114
0.177313680077251 -0.134691415483784 0.500042923393844
0.183159206646746 -0.137172838549799 0.501813123542424
0.183876686811668 -0.115330758911744 0.503572049713134
0.180482282584157 -0.11307620963279 0.502509340824335
0.179030289437999 -0.100256732348884 0.502636370015563
0.18751234904495 -0.0928133506386571 0.505932709251193
0.185219428440852 -0.0729743559399533 0.505531251617383
0.181901853717505 -0.0605248043412283 0.504056587273123
0.184391403527536 -0.0523903718135502 0.504702554002064
0.182872749492704 -0.0358266013332051 0.503741142536189
0.185989902606895 -0.0329889432323014 0.504743612789945
0.190313438061391 -0.0246096251104012 0.505968584935381
0.189875337995456 -0.00874833499551924 0.505280475724336
0.18839646687972 0.0133958582718217 0.504020087570573
0.186979143659817 0.023072072180607 0.50358919094178
0.186832539872462 0.027737503845852 0.503778739509339
0.197161881407944 0.0327811772978383 0.507652895368711
0.195504941349534 0.050675479136475 0.507956876549493
0.191730800621559 0.0581639367771992 0.507038131392276
0.192662635614798 0.0730497846647958 0.509552811705297
0.190541568202888 0.0884438383741545 0.513530965909921
0.19869942109461 0.0886832437429524 0.515959521648444
0.191865911392183 0.104578961004775 0.518694318059504
0.19913719299429 0.107303994191633 0.521637998184081
0.195568762181882 0.119726262079755 0.525283952831022
0.20131209512134 0.124622817807679 0.530009371510796
0.199385419409131 0.131617902272314 0.533763329994688
0.202841039767409 0.1435824189991 0.541824739013389
0.202818364418328 0.147703472812463 0.543885342102127
0.19777835769313 0.158679123456966 0.548624612960421
0.196794671449019 0.163456155559191 0.551380505714434
0.19894798920305 0.168810528852705 0.555417882086944
0.200024902547021 0.181305595711559 0.564217890283544
0.197528306430564 0.187786457795438 0.568745563962632
0.201583716851208 0.169585846335121 0.661828127576585
0.198619611861082 0.170655722225066 0.665655817499618
0.199798490904209 0.17136844167331 0.671223216862159
0.20081919189288 0.172772769644826 0.68094711483589
0.203583311553671 0.174528233774341 0.694526398267723
0.203009341934556 0.175326267469854 0.698980533754293
0.203686977165743 0.178451824360133 0.717461185826492
0.205237893589041 0.179469095934494 0.723245251341427
0.200384324911062 0.182685241737516 0.73462014850892
0.19874671234486 0.184090481337559 0.73988067175842
0.205954976400283 0.186494036019492 0.755327574720078
0.20027080143265 0.187501489224684 0.756193014543661
0.199725523925996 0.188830463400317 0.761814586412163
0.204495653962636 0.190448960844833 0.771944946822113
0.199554774956956 0.1942388884392 0.781910683578111
0.202588382549023 0.197688318491985 0.794597764958386
0.205602455948048 0.200481205039783 0.805137988513364
0.204901403613945 0.204354823777213 0.817540174912894
0.203924190105627 0.205807380880822 0.822045048787906
0.202829693581632 0.206707092903516 0.824624971866286
0.200668769319052 0.210623993784038 0.834422394142284
0.2035567840475 0.217056461053113 0.849976153426117
0.199382382283667 0.21938330629563 0.854324949396738
0.206107816838614 0.222806078536375 0.863871334991098
0.207851443856685 0.225983984839348 0.871633092189244
0.206064046620127 0.228355944144104 0.876877181170548
0.201835714166736 0.230944110086282 0.881986523403856
0.206620686171833 0.236285196423453 0.892185194483072
0.207858222664962 0.242005408780342 0.902654358553703
0.204377545955064 0.248418900164569 0.913824477623105
0.208992597153282 0.261502498342581 0.913422616023577
0.208237637360447 0.27522985306755 0.923516478876376
0.206957713834772 0.270743514973172 0.923967006560728
0.205757272349958 0.284832979399732 0.927852360013924
0.19464963256416 -0.135209101573439 0.129779896375283
0.188367684301993 -0.128585606746522 0.132639705637438
0.188536105129722 -0.130170490502054 0.132299468424402
0.210431002342393 0.098495900216955 0.088512902405745
0.178039035817561 -0.263788426427351 0.436058045703696
0.18390362970528 -0.257476604713467 0.446084494806265
0.182516634313462 -0.255419254168313 0.450950627897449
0.187609922720422 -0.251698301707856 0.456898139775399
0.186283660556247 -0.248433537580234 0.463338837108921
0.187547437777246 -0.247626548422336 0.464595144661373
0.179554381826488 -0.241362924179161 0.471407177876093
0.182475211658432 -0.235788249402311 0.476102184986723
0.183302393746093 -0.231571089079281 0.479148768339649
0.183454591976741 -0.22082904918541 0.486271378099728
0.187318307503464 -0.220557183565582 0.487811755636933
0.184991729053227 -0.210790776708472 0.490213818163886
0.18716808656997 -0.204923516710809 0.492480079024518
0.185461136594169 -0.194610570324013 0.494496583377728
0.186281971950581 -0.192673581589292 0.495281141980264
0.183765987209414 -0.177004432968473 0.498314772920033
0.185980125386455 -0.164302663355827 0.500277625545274
0.188210698423471 -0.16296426025903 0.501210126683108
0.187721008369462 -0.148571928915092 0.502344766234829
0.187303378355058 -0.144946429522463 0.502523667861015
0.18699715949524 -0.1306952447164 0.503830576246525
0.195251951882913 -0.126780483017967 0.50694178190588
0.196295426670554 -0.111238010300515 0.508088293160538
0.18865391899832 -0.103026067092202 0.505826417871799
0.190943313124838 -0.0946998044560094 0.507025915664988
0.196581852875037 -0.0863743460250186 0.509404933209076
0.199855654234277 -0.0658137452182869 0.510529187823907
0.200218364277579 -0.0554710784663102 0.510394001160173
0.197597509885266 -0.0494580820059147 0.509242562922755
0.195594759484789 -0.0275372319112878 0.507892826965753
0.196928712199661 -0.0151515685455389 0.507965849293806
0.197643956266471 -0.00783497521754761 0.507989256485722
0.198000083348223 0.00827236261628525 0.507579149899697
0.201415037150321 0.0114140259571706 0.508766655758838
0.199532456995386 0.0277942874444636 0.508292210395696
0.197902680515689 0.0366200229600892 0.508132793267915
0.200085059270425 0.0564998610983712 0.509991375837128
0.207981380965209 0.0604965806264599 0.513118929219115
0.201371225625344 0.0706124506383788 0.511698794279779
0.201428442970275 0.0805123954817027 0.514331785374865
0.210554562698067 0.0875614896625404 0.519455176804453
0.208364763955056 0.103265663339698 0.523163873514348
0.206772763599104 0.111269877481335 0.525078257158455
0.206542797507485 0.116335764917333 0.526519875783987
0.209451374767747 0.124816243890488 0.532536341627972
0.211563354198903 0.129290726497542 0.535926797489439
0.211962608831117 0.139306950368405 0.541054948528459
0.208970947136754 0.143918330785834 0.542914699503381
0.210447393225364 0.158114541500895 0.55024681765599
0.215270350274222 0.172807475538049 0.540303363555911
0.209082818038345 0.165994368055033 0.555068622145756
0.210460004282068 0.193114609993266 0.649661773720956
0.206389755979479 0.172881510737664 0.686954809281296
0.212925074966771 0.191010737068237 0.676326063456994
0.208314477602097 0.175246537007025 0.703527697689875
0.211468582524942 0.17518764749179 0.706178996373309
0.21300688574927 0.179675132429084 0.720089387664743
0.21011642638844 0.180930967527092 0.733006378708023
0.210919679121029 0.182927588458286 0.742497489641943
0.209336127591294 0.18451935705001 0.748631176345378
0.20830724790647 0.187873838169306 0.763044536663456
0.218574035872327 0.20975987346394 0.75672975001439
0.213629221964543 0.193088332659413 0.769493418300924
0.212661785957568 0.194221471278092 0.786165976375273
0.214488250509768 0.203691622364522 0.793042695515979
0.215777902910718 0.209788522183966 0.7959817246756
0.209626077524801 0.200532953341271 0.807238877004203
0.213589491766998 0.206811065347169 0.814934117538269
0.210233800121616 0.206818732573058 0.827980777717885
0.221826867084707 0.24160722451355 0.819586342780097
0.209923795722608 0.2153866896123 0.847680663731166
0.21034517906128 0.220065016456774 0.858581893392609
0.216547185542009 0.236697897701107 0.859003228728405
0.21040223004986 0.226140435238342 0.872618580360476
0.21445724589305 0.235301444901529 0.875766065287327
0.220232092441266 0.262004197749656 0.878287164333443
0.217738424442742 0.265072339691701 0.888292944817128
0.213052958726797 0.261053036016413 0.900297029903145
0.216611952011321 0.281461342364615 0.903196295074205
0.20101525885925 -0.136866401066418 0.127828602339099
0.19808415482194 -0.125758687464636 0.130664461667581
0.218156922781046 0.103957021322382 0.0948861416085118
0.212025876762341 0.0992701136277957 0.100445299857107
0.214409336230494 0.100181988397151 0.114791585927598
0.188406633076318 -0.254499796711706 0.448967556808095
0.192350800159541 -0.249321954457197 0.458113611580459
0.190193434478918 -0.246069308339434 0.466975706029758
0.197181466770124 -0.242623524940234 0.470234379978698
0.193539065853071 -0.239995956252051 0.477638019931808
0.189389496247649 -0.232234172031735 0.481062435449222
0.193222929145221 -0.230167834975839 0.483874535300173
0.19114325905468 -0.218895513148529 0.49025510431405
0.191328925826647 -0.215259702495407 0.491741495023794
0.196116974442514 -0.207553515007679 0.495450814033444
0.192783759264547 -0.200524620709566 0.49577857927435
0.198354408211137 -0.191217749915641 0.500292712010275
0.196328814948212 -0.184381390957029 0.501185130725668
0.197548338467415 -0.17472996336886 0.503763066641033
0.19423945727647 -0.168825981208638 0.502937412563152
0.197604741849405 -0.157993730284563 0.505261306759473
0.198396095877076 -0.148816742366216 0.506392187227396
0.204968032802012 -0.13397131672837 0.510196894280469
0.201162882427657 -0.131713044310456 0.508909209981146
0.201589060890472 -0.120294568229129 0.509653812122149
0.199302816380471 -0.105719489362448 0.509495834233836
0.199483833974276 -0.0905217118755632 0.510302874093535
0.203821168906081 -0.0822629190964279 0.512347435278647
0.204474819576044 -0.0750116161775356 0.512521662233236
0.209248702100985 -0.0646046236495214 0.514056021884256
0.209524757356866 -0.0467862655797767 0.513690965461253
0.208998504217363 -0.0328341993274074 0.513123847054505
0.204735173607733 -0.0172770734994467 0.51099537798414
0.213756428607667 -0.0160225432003043 0.514370772523902
0.209312394826348 -0.0108360404425809 0.512511585684981
0.210920311673447 0.00719632630084154 0.512510602427943
0.215541837003117 0.0276800578898304 0.514351700361375
0.211989657348949 0.0418670791728648 0.513742196672909
0.210827575006645 0.0461070540225577 0.513513510499516
0.215670343345448 0.0542646822656008 0.515675371847338
0.212616656531135 0.0669507365139803 0.515126338679991
0.211106159965264 0.0841518494183641 0.518781238704336
0.218384562562266 0.0839325865930347 0.521414102662881
0.211758250038247 0.104316600599856 0.524480767378208
0.219370802959436 0.103490270511896 0.526813273556461
0.212882910087255 0.116714258716849 0.528543284454952
0.214463001483781 0.120095748596291 0.531100816055425
0.2200995576519 0.137925539710618 0.533570525878485
0.222858641006638 0.16107898272781 0.524892902494216
0.207072511800875 -0.134690759497768 0.126674645599785
0.229261048631683 0.112219000210335 0.0871977704902692
0.22502187925408 0.108355813756641 0.0975793338163522
0.22955709626258 0.1111874794026 0.104968005172655
0.228396497653423 0.110344253963341 0.111708875765563
0.232815516330377 0.126653042990616 0.114725168455147
0.199049134355947 -0.243891559405049 0.464983922946495
0.206991979522423 -0.235654630396504 0.466842618726686
0.200611136952398 -0.239184830294037 0.474202052316173
0.205056234670047 -0.232279030075816 0.479703127871607
0.205681927530765 -0.228994788386252 0.484329525907495
0.204040325128215 -0.22280301134548 0.492487241992411
0.201343296236913 -0.217380384083122 0.494929124282701
0.20271247608898 -0.205752109829481 0.498817690735416
0.207647925080107 -0.203143850592338 0.501586323039851
0.206462328337489 -0.197412817185162 0.502178274939631
0.20920027616811 -0.18292243966461 0.506645825355296
0.210704851430911 -0.178249138339948 0.508400451424813
0.210471651376104 -0.170694893672109 0.509376100146196
0.204723693485943 -0.160739731854016 0.507915313783393
0.204661162873901 -0.152883290931627 0.508582418889153
0.214264351448689 -0.142178048971504 0.513144274744647
0.209624842972646 -0.127933968302917 0.512373546009943
0.215170540247613 -0.124890641775782 0.514634991688304
0.212511510625893 -0.108509535047585 0.514374912506567
0.212720942209243 -0.0974260937555521 0.514982476596439
0.214350108704564 -0.0853461698632213 0.516186674145612
0.216724127077697 -0.0804131063467483 0.51730487303437
0.215627105054734 -0.0739906130443526 0.516719969310197
0.211848593227807 -0.0499578467053014 0.514654981469358
0.217043705663561 -0.0383473377932121 0.516317209194067
0.214465751640132 -0.0264159517141644 0.514991191137379
0.219198833236962 -0.025545132124476 0.516754927402266
0.22010258284428 -0.00618169707672125 0.516442128942235
0.221880459714632 0.00342023237473268 0.51679080613847
0.218810992376859 0.0191020484299451 0.515145080140098
0.225937927608158 0.0298530672335308 0.518354460007302
0.226508495229292 0.0448191170024001 0.519248669256618
0.223109709048667 0.0493391022816927 0.518199240522483
0.22606438857528 0.0596594618053085 0.519762224796445
0.227164433886325 0.0794098610898118 0.521166589672871
0.229994009641568 0.100262080186053 0.516226297414786
0.224955468404282 0.0918064681653239 0.525518206047599
0.222968707914225 0.0990650239398058 0.527003471734344
0.22688893638209 0.147554249639734 0.519110175740803
0.244185033376131 0.155023538666507 0.0296315618099665
0.237829592902507 0.117438439487304 0.0934047472252229
0.244601180899253 0.12211764607766 0.0940329335929464
0.242330651459561 0.120468008126549 0.104461904709685
0.237564116489545 0.119894602063374 0.114766849385411
0.239246250598564 0.141755716156153 0.110238979837236
0.246073497007626 0.156419216950401 0.105732830486348
0.208071885085105 -0.230791851918463 0.475791820308847
0.211427087736862 -0.22442293485923 0.481825232003527
0.211497289053877 -0.221426035924088 0.486558444670275
0.215348673076545 -0.213479037796089 0.490868740431832
0.213684854683388 -0.20913002175017 0.498665917379519
0.215628768073417 -0.201992113228322 0.50116167949851
0.219012257656349 -0.193033521177238 0.502214347851355
0.218321139673615 -0.189204796494679 0.507373837994615
0.212924399489085 -0.182293163141093 0.508277135523007
0.21845353161388 -0.173338391671327 0.512390191500759
0.21841287740884 -0.160944266658091 0.513344575378309
0.222739842730299 -0.153225518754492 0.515568216265638
0.219642543921236 -0.142402950675414 0.515183306555762
0.219581439696625 -0.135061690012405 0.515701888254429
0.220989482969086 -0.125110039818242 0.516850195399484
0.217520367285882 -0.112535447973823 0.516104452108767
0.221725860077983 -0.105802245047898 0.518023836894131
0.221079370196632 -0.0854586613133243 0.51873069428846
0.220885478664603 -0.0755637376462666 0.518753649852968
0.226006798080877 -0.063076527672101 0.520364812440659
0.226866853974154 -0.0590698138662491 0.520585051820079
0.229350388200745 -0.0522914782827769 0.519021983278577
0.225010521050005 -0.0337167713909785 0.519213512607341
0.224441483844722 -0.0312755123436745 0.518933578889906
0.227217165750749 -0.0121636558766892 0.51934001088343
0.235268857051433 0.0182473992365638 0.506464082368668
0.231193156778769 0.0268653262226125 0.513439031656943
0.228542659682682 0.023183894676381 0.51819609770954
0.23687284029804 0.0547788691187482 0.5031077559369
0.238358232659477 0.0701825660830856 0.500305384558942
0.231692581176263 -0.0296869934930545 0.718946121013129
0.232086447381644 -0.0183142640974091 0.721834115072475
0.235168678109152 0.00329758294487782 0.726322367068003
0.233250065451929 0.0274441073545951 0.725379187137262
0.235096430036651 0.02401334497002 0.72623259968843
0.234899804278911 0.0497180221016948 0.725778625409567
0.239276883672041 0.0543498072703627 0.727568513398849
0.234601763347132 0.0802569083599779 0.724783205861499
0.232563838224619 0.10142359161426 0.719164162230082
0.238285262433991 0.0986908908397193 0.724968073419216
0.255211287025632 0.141261737663188 0.031638846898495
0.251085452705663 0.144288000190099 0.0278748940187897
0.250071090427459 0.154049491894634 0.0397456608692744
0.249175569884696 0.156189243575312 0.0410329774577128
0.251378920507433 0.127475821628065 0.0844847913472324
0.249448821205157 0.125639661637539 0.0956833895440113
0.25613661806881 0.130498629687723 0.0932953235690831
0.245409502392306 0.122704922744623 0.108877021323256
0.249608335503147 0.141178671077633 0.107675960453258
0.249521604171046 0.15146975027383 0.105770953595931
0.222456785937818 -0.20460331012457 0.485426747335987
0.219005557059007 -0.202531844790728 0.493207690916062
0.222572620130136 -0.197158889873397 0.491987892288493
0.223203037499479 -0.189806798361974 0.497647984711538
0.220909891642704 -0.188432311059738 0.502535940367776
0.226463440800472 -0.177991796702182 0.503174136406582
0.221931637254503 -0.175439559412912 0.512685238079269
0.227349889926068 -0.159242985621639 0.508773806348658
0.227007174057464 -0.158346477390805 0.509689703219465
0.230461236186912 -0.145118978955898 0.508058139025835
0.235121091768043 -0.122079771685597 0.505540717235947
0.234736736915005 -0.108178059307487 0.507518967794966
0.235476827476987 -0.103856292634292 0.506625446485338
0.23104881040209 -0.105553378438684 0.514394830931735
0.230769749490696 -0.088332354001093 0.516488629703632
0.234019760866177 -0.071985656490174 0.511316335576152
0.233958307981285 -0.063352761943287 0.511208897085162
0.233512801814995 -0.0341193380197822 0.511232622709939
0.234708348053945 -0.0260246283250111 0.508897793267387
0.23993676062446 0.0277923983716443 0.498065117974215
0.238257599308389 0.03094608185639 0.500968723579666
0.230764316941952 -0.113297187794606 0.700497160614174
0.230951564001743 -0.104624034274745 0.704171689295997
0.233860953058271 -0.101510725116026 0.715602700647787
0.231097936638635 -0.0874592808240304 0.709090128320638
0.232976184294558 -0.0836933943144346 0.718600925888387
0.236883258169437 -0.0783558756689722 0.720973108836453
0.238589698840824 -0.0661640978367163 0.723420747302543
0.231857480265498 -0.0467918408664256 0.718522436075154
0.231949494065773 -0.0360490468147006 0.719931455711304
0.232469737246335 -0.0345151179240983 0.723045562545035
0.237825978288253 -0.0285992374069158 0.726671009207436
0.243345853093931 -0.00690735014548667 0.729066162746566
0.238032718378407 -0.00100698906008015 0.727525911235309
0.238332916596445 0.00970189173389026 0.727759217338562
0.247307592518154 0.0309134431320658 0.729483522345234
0.246062908412084 0.0393139077865549 0.729252136654954
0.245841725553289 0.0596631987781973 0.728786143601784
0.246399900387182 0.0603442464150777 0.728819933867191
0.242841795976412 0.0879302292818306 0.727293127562985
0.249148620853931 0.108178437424806 0.725090589073548
0.249757537404191 0.112790427773363 0.724525124587131
0.264626437886348 0.133554088495094 0.0174459715130048
0.265850596528375 0.134443491899655 0.0328828348679814
0.260369209637373 0.138358163086581 0.0375927152123326
0.258983643990924 0.143683711434951 0.0424436811704546
0.259686870324315 0.135300102281178 0.0585174028459641
0.259266087141688 0.133663580132242 0.0756700620391284
0.264071734088746 0.136263828078771 0.0901040624683789
0.262046674924833 0.134792536567626 0.0915223685955674
0.263019766235079 0.13549952604909 0.103668003389625
0.264588522643437 0.141834542909575 0.103691600868413
0.259781233711198 0.159742542386609 0.1015769035351
0.234553858875878 -0.162289800122901 0.495023712392652
0.231801033090737 -0.1565957189696 0.501798406234651
0.249094761718879 -0.0219077852647616 0.494392428738754
0.243644503679626 -0.0219077852647616 0.492310159706135
0.250732974343107 -0.0117718011873603 0.497355751643027
0.252294939561421 -0.00106016460798247 0.498172674513524
0.240564576274508 -0.162916041330764 0.685316028163895
0.237375996120351 -0.161119908487372 0.692182837743699
0.234133271149967 -0.156216499245297 0.698741931800413
