ply
format ascii 1.0
element vertex 858
property float x
property float y
property float z
end_header
0.1392064559875 0.256141817341117 0.995648132625056
0.115347891597123 0.256434051212917 0.996654050805953
0.106195698998005 0.25931276863696 0.995716337794046
0.0963793556256871 0.266214055762577 0.99295285190518
0.0807895788486764 0.265223618336756 0.993889434294756
0.0594848754750117 0.264604737346299 0.99471794770764
0.0526773526476653 0.260262042743705 0.996893093953431
0.0439972265646539 0.26367732649192 0.995417128876345
0.0186325825841173 0.266830047848719 0.994179600329754
0.00937669328351538 0.269585144614372 0.992961687639255
-0.0164085971294034 0.273259259194093 0.991049142561877
-0.0272221911612274 0.271564067390268 0.991738557948779
-0.0471057119149397 0.277303982901574 0.988622049801892
-0.0605900426059145 0.280532435571364 0.986790200596013
-0.0894140250164507 0.282329744524982 0.984890155817524
-0.105239498098336 0.277108872983532 0.98662366634621
-0.113016114405017 0.283966976771707 0.983078918040128
-0.137264216633115 0.283302852076415 0.98194110383601
-0.162277751535311 0.289522006218058 0.9773778790235
-0.171098369718331 0.287741466869613 0.977522787917504
-0.198991242838458 0.288247172938227 0.975004651736871
-0.217479128834118 0.291319807860413 0.971855995835393
0.252374502089678 0.253769375916299 0.790051409183053
0.252374502089678 0.25182156013354 0.803465125050081
0.252374502089678 0.25230325234887 0.807896553925143
0.252374502089678 0.259674757793417 0.828047486353808
0.252374502089678 0.256841061338254 0.830107379455467
0.252374502089678 0.252818064701695 0.83499053798719
0.252374502089678 0.255552067923228 0.848597577165828
0.252374502089678 0.26039999957945 0.853132425201391
0.252374502089678 0.257929078019444 0.870904278972536
0.252374502089678 0.260694579380014 0.876515107073831
0.252374502089678 0.258710105420777 0.88262808358167
0.252374502089678 0.251841726817282 0.897541977609522
0.252374502089678 0.255284877447992 0.89716958223431
0.252374502089678 0.252056539007899 0.908615509090189
0.252374502089678 0.258752934047491 0.919887130118594
0.252374502089678 0.260359921644904 0.927501524090888
0.252374502089678 0.256477935471959 0.934931383843365
0.252374502089678 0.253705185593122 0.947547978918767
0.252374502089678 0.255482496182058 0.960357218057013
0.252374502089678 0.257347931096721 0.970027265286242
0.252374502089678 0.251799844158902 0.976256964299708
0.252374502089678 0.256719346915218 0.9796640201117
0.236230296105035 0.258507985515888 0.987274142668616
0.223809168992993 0.260017784803667 0.987742240425636
0.214731562978771 0.261136054177897 0.988077478204553
0.205197736868726 0.264802073621613 0.987161045557622
0.186320345416233 0.261944461118966 0.989924313341819
0.183242651419804 0.259317102557775 0.991371047756861
0.173133961873216 0.259218144727857 0.992191080540472
0.15760399021806 0.265547127144983 0.990217687117778
0.13698701304458 0.26592590500504 0.99127079421923
0.131383863987457 0.264964350314955 0.992040677548008
0.117070108103395 0.26671998006336 0.991840033600066
0.105302954186231 0.2705017904469 0.990597254971134
0.0917261810064577 0.269180142218395 0.99178360121498
0.0772588694845612 0.271554510618136 0.991061549899489
0.056793472302186 0.279752960537545 0.987804740244244
0.0516364879282721 0.271465856123557 0.991755782001461
0.0336242703009688 0.277640402480935 0.989069682848509
0.0108183329515932 0.275667220494958 0.990170701943808
-0.00205714676681562 0.277828837578989 0.989064985203551
-0.0156336055690396 0.276862542144586 0.989394970551175
-0.0335928252586176 0.284558235106114 0.985623133135088
-0.0583516128955007 0.286931126664798 0.983898114478215
-0.0609265033800045 0.285303147606975 0.984582792667399
-0.0929908328504876 0.285629936250976 0.983217029861978
-0.122104038991267 0.294300801655488 0.977774881162296
-0.112425893979202 0.286834193370099 0.981792559767705
-0.137164654118234 0.296722160872719 0.975762053415401
-0.167727959921587 0.290731534750421 0.976402867096473
-0.185329139364656 0.292168763713446 0.974392026299727
-0.20715925523776 0.297837988037043 0.969818817965159
0.252374502089678 0.267157070310514 0.833320070584838
0.252374502089678 0.266746284392001 0.838992759254398
0.252374502089678 0.263897949992829 0.849427663120035
0.252374502089678 0.266803641985571 0.85905239446174
0.252374502089678 0.262630401841419 0.873283264460053
0.252374502089678 0.269616698508695 0.874342519102891
0.252374502089678 0.262189452182147 0.884552730205834
0.252374502089678 0.262052907714168 0.891049868156725
0.252374502089678 0.262792119886363 0.908138717036811
0.252374502089678 0.262312764514332 0.915224909739367
0.252374502089678 0.265476830888504 0.92178602150628
0.252374502089678 0.265685867393185 0.930421962542187
0.252374502089678 0.269758282307392 0.945738114710714
0.252374502089678 0.265367272592428 0.950364397760853
0.252374502089678 0.264893670483819 0.95346043427428
0.252374502089678 0.268377863587868 0.967621832147766
0.252374502089678 0.261573641699718 0.975244847778891
0.252374502089678 0.263295141813561 0.981260279637365
0.235128328404547 0.264022048758689 0.984835966686432
0.224484366408769 0.270122568334875 0.983021659070464
0.216685850051151 0.26984390196834 0.983880884876832
0.207223171409553 0.268438605051142 0.985329795096003
0.193839222150117 0.272202429556872 0.984620382273642
0.176145107789082 0.27047051360718 0.986774164444483
0.163832032511338 0.274268836917866 0.985826974873056
0.143913552368108 0.275368916556374 0.986506039279268
0.12670583711354 0.280979314039906 0.984858236744563
0.12442848034818 0.279569504129224 0.985604838689098
0.106817568457757 0.278918207107384 0.98665372458048
0.10282191597192 0.279275551017854 0.986658893564372
0.074272022220962 0.281456510512471 0.986573868276371
0.0639985123205239 0.285300814967093 0.9850639973724
0.0577522272208227 0.279756749773104 0.987778545515159
0.0340535453285167 0.287206087810393 0.984657196191162
0.0196610035296004 0.290003504778301 0.983490179850857
0.000838653596051997 0.288709547699767 0.984074660358856
-0.0070355270807561 0.28731092040644 0.984652369787023
-0.0238245138845418 0.296551044953374 0.980250899030632
-0.0479500844705704 0.297634566843883 0.979230122333719
-0.0645076154811474 0.298689747721351 0.978321570629769
-0.0773297515000992 0.296450099960101 0.978895808487625
-0.0878828069993228 0.29442631077477 0.979379928184986
-0.115559568464787 0.304855548847149 0.973299888584744
-0.127202295064294 0.303595856455985 0.973187189129906
-0.148536891415032 0.309307825476084 0.969284115537962
-0.184506041128355 0.311568932555061 0.965513517280912
-0.186773703644888 0.305810452466414 0.967993884410686
-0.218776692423504 0.307896904606895 0.964093994762818
0.252374502089678 0.271783479043677 0.858347493057021
0.252374502089678 0.278727183474337 0.872028247051137
0.252374502089678 0.272370580778413 0.874951377369737
0.252374502089678 0.276714241163419 0.8900436492636
0.252374502089678 0.277561728325369 0.898977840855852
0.252374502089678 0.273954454218456 0.896209085532798
0.252374502089678 0.278834005997581 0.907641890148826
0.252374502089678 0.27276525660975 0.923416782303366
0.252374502089678 0.276536037425877 0.929066047040098
0.252374502089678 0.278486994221588 0.938251117006444
0.252374502089678 0.274464685051518 0.947498670663754
0.252374502089678 0.276953909504334 0.958454496394546
0.252374502089678 0.278974060363938 0.967697466614661
0.250446408486145 0.270484819964977 0.980421830082093
0.246223619349808 0.278009006099267 0.977349633326596
0.233645830302603 0.274265486288358 0.980253674131583
0.228546860152148 0.278681870172979 0.978695973689136
0.199875664168227 0.282707791348522 0.979315996022259
0.200282538804704 0.281962790546866 0.979628197468632
0.187486734529943 0.282995958962621 0.980132290472678
0.16680267294119 0.280773000260384 0.982652302681815
0.161071851008347 0.283440057343222 0.98176430742504
0.149515632498203 0.280717121171087 0.98370745489797
0.127885664472187 0.290353736243269 0.980487393169726
0.118361316207589 0.289586486111658 0.981245933604625
0.106134105493667 0.287952469193221 0.982518876363128
0.0892903962049405 0.294880594147887 0.980003719678733
0.0694808512699657 0.291973757264847 0.981848628755268
0.0615989616113691 0.291915795571353 0.982076331689752
0.044978852468537 0.294152574069429 0.981362700074109
0.0304628657166168 0.292078387216506 0.982442062195416
0.00263767302752746 0.301926374689775 0.977998294660645
0.00759331678574458 0.29579325915542 0.980867172910143
-0.0148556105060622 0.297408524710488 0.979931908965757
-0.0327496552096467 0.302846838813789 0.977215389713592
-0.059596754956998 0.308855467900924 0.973761402307527
-0.0778523231070904 0.310006159166719 0.972625584551454
-0.103387846987297 0.314173918115316 0.969619052922779
-0.099963764198966 0.310613930473523 0.971405426315179
-0.133864417306833 0.311378166792735 0.969203599151971
-0.144686164695258 0.315800444441154 0.966520958509967
-0.164149006737228 0.320944212054857 0.962751982100094
-0.180003967455732 0.313759831850428 0.964848630784741
0.252374502089678 0.280562920689355 0.879695295501169
0.252374502089678 0.287388710819362 0.890714302192192
0.252374502089678 0.285119388058203 0.892664901665229
0.252374502089678 0.287761288461118 0.89896204740823
0.252374502089678 0.282988910079998 0.912851542858956
0.252374502089678 0.286611598654409 0.916677861211001
0.252374502089678 0.28688515084055 0.933501097336583
0.252374502089678 0.281199308922913 0.945509110985189
0.252374502089678 0.28560030632148 0.946221861182316
0.252374502089678 0.283972038643517 0.953485838198319
0.252374502089678 0.279796533280003 0.966604950548781
0.242898984181175 0.283849826032279 0.974969137768915
0.23755185662453 0.285913506304259 0.974519056355677
0.225868994235421 0.285144674763044 0.975968196648106
0.215763000495567 0.287650165903403 0.975760430657137
0.202898771452982 0.289726516025662 0.97584945639195
0.187070475135614 0.291664221296108 0.976168965129078
0.17931589909488 0.288158987708208 0.978378607638401
0.166383605691048 0.289217665174239 0.978785098582865
0.152254730552183 0.292695344766716 0.978023568043048
0.137661234553656 0.294277268378574 0.978163461156293
0.130418387871401 0.299171473683479 0.976315610023952
0.112221251320239 0.298636116896488 0.97733598137435
0.091029666320202 0.302936910508754 0.976246200238712
0.0865241514479926 0.300474795957669 0.977495883143245
0.0650916129689319 0.305568698354837 0.97569462611167
0.0523963270362516 0.301036832887456 0.978107099534294
0.036408207299185 0.304076120732941 0.976861761817033
0.0125936079212153 0.312970985255383 0.972964497770299
0.00106540906236203 0.309143287737626 0.974658646724244
-0.0031562971470824 0.305432940452064 0.97633287240639
-0.0232931055588501 0.313742152272851 0.97233200871093
-0.0448142835805807 0.313543734206649 0.971977526734167
-0.0672716607387553 0.320883983819621 0.968021731466932
-0.071103006281687 0.313408868393566 0.971344208203152
-0.127619503518016 0.319749400717319 0.965717153231347
0.252374502089678 0.288507324155116 0.88922591022147
0.252374502089678 0.292096724106527 0.895372186857483
0.252374502089678 0.290829962741796 0.905325627353479
0.252374502089678 0.290760687301352 0.911271298902643
0.252374502089678 0.296476612190594 0.921363592033965
0.252374502089678 0.295287875571847 0.929862646767789
0.252374502089678 0.294745399091344 0.942377967035737
0.252374502089678 0.294835492377869 0.94479788561433
0.252374502089678 0.289746087355245 0.958756302260532
0.250799966313595 0.290256790597519 0.971275768410609
0.248147274517259 0.289494381693385 0.971875743833717
0.229004000794744 0.293266765173729 0.971930936182721
0.210972618761227 0.300193442169214 0.970406700319948
0.205715948177795 0.297575963018407 0.972015811892243
0.192772565931879 0.297919356092555 0.972849129256735
0.18307810976152 0.302321488029919 0.971562868899385
0.17204839238402 0.300656331089332 0.973175677646417
0.152489792280148 0.304815374846597 0.972423431101143
0.148622259153983 0.307694652909803 0.971326668971022
0.136057550493399 0.308683273097922 0.971619207591034
0.115013079141839 0.306763699867254 0.973471275990483
0.107115285164374 0.311339464706242 0.971698062415067
0.0832143645432228 0.310723920559342 0.972856446199142
0.0786753229690023 0.311131541091177 0.972784318926687
0.0636839832502788 0.309485558332539 0.973925234182602
0.055446590224561 0.311333364273736 0.973283631360523
0.027722452931373 0.313233594663616 0.972714885879351
0.0150704545061993 0.317746848252198 0.970742245647076
0.00459558900147084 0.314441182170485 0.972246841190677
0.252374502089678 0.298304607482507 0.939817840038476
0.252374502089678 0.301314190327849 0.9477625026539
0.252374502089678 0.300039179512553 0.955823777488396
0.251607080992597 0.304789158050856 0.964502145349973
0.235346379930572 0.306864362710117 0.965069448051068
0.229165614970182 0.302269414433702 0.967766457297236
0.213558166530593 0.310761453595358 0.965315016175101
0.203383440205968 0.311470553903989 0.965790467150355
0.19112045426601 0.309003829057436 0.9678668470759
0.176951339949985 0.313157105187807 0.967038086633737
0.167085561705781 0.313109689009943 0.967731430136522
0.152059722609378 0.309554813033561 0.970264626599603
0.145816812613433 0.310745568468844 0.970087554424836
0.11986806886563 0.319702023195157 0.967301581012651
0.116174968881191 0.316412534101015 0.968974718100017
0.0930675703036479 0.320453045724302 0.968094817591313
0.0823744583024516 0.319778991382339 0.968704368398684
0.0600224470911245 0.320645528231943 0.968874956916236
0.252374502089678 0.306836964409661 0.943676768727061
0.252374502089678 0.313836822165224 0.951550195083393
0.252374502089678 0.307584009081184 0.95974022527844
0.251298491630584 0.307300165355054 0.96337373587875
0.23047743752739 0.31119921973121 0.963527767880855
0.218820207079451 0.315114317165458 0.962815676505785
0.208892298487583 0.319804932513726 0.961527108226721
0.17425406121011 0.321069968552616 0.963597673832701
0.177041084063915 0.320547710069547 0.96362487074144
0.160685868675801 0.318931624161615 0.965429176452839
0.155993074281133 0.320622141940943 0.964929457803238
0.123780444789735 0.32288027428249 0.965670391490179
0.215482305343586 0.320323111868789 0.96072772549485
-0.21951001555923 0.314569040240209 0.96095007897803
-0.226220365165122 0.310198041861836 0.96233586105724
-0.22836361024992 0.298489345009129 0.910308047582247
-0.225611546742322 0.29980162867303 0.913470228422598
-0.2049234003449 0.313768170406115 0.944414495629274
-0.203057072370336 0.316316934150192 0.96168625442454
-0.211311601165293 0.313637043193404 0.962147899739212
-0.214620709988316 0.309932566381997 0.963545206571191
-0.226797194476104 0.302572027298625 0.965796648484924
-0.228472903406415 0.299972785500616 0.96683761449957
-0.215692984106361 0.294170400586163 0.899900782994152
-0.220013468572373 0.299412565895122 0.912532712475521
-0.209878745424571 0.30827325287198 0.932536517033522
-0.206291408923557 0.311448666642463 0.939400586705933
-0.189476509982357 0.317057655673436 0.962602970961919
-0.198209199953377 0.309978388743746 0.96506198664754
-0.201627034886803 0.303635770313936 0.967665028248609
-0.221146188399703 0.297815545456295 0.968518465823849
-0.224169783517546 0.292621011137758 0.970629297436446
-0.223769157412458 0.272203564296748 0.841989830367948
-0.224418494997634 0.278831646385468 0.860379989098908
-0.214653148108643 0.282396979497155 0.870044079229223
-0.204510770848833 0.293692994925305 0.898750389161349
-0.197530770839541 0.299869791763341 0.913634479509562
-0.19054806579562 0.305593053368869 0.926742917378471
-0.167353144809461 0.319826928792376 0.963021471759401
-0.176094673018458 0.318775281971097 0.962836492072376
-0.185983260253618 0.312677658613529 0.964889334602646
-0.189202520629984 0.308487561535148 0.966573930142069
-0.197354868119497 0.296746368885311 0.971240702248228
-0.210312588379633 0.297006313257782 0.96990664364873
-0.214117082032704 0.281065135285343 0.976897442171725
-0.223981335051648 0.282529479752216 0.975298158294388
-0.21866626518721 0.2630846955892 0.813862258185037
-0.22865114743891 0.262048719993887 0.81066674355801
-0.215081548086238 0.271120213369557 0.83864818433912
-0.211468628605564 0.276252327223684 0.853388560227191
-0.206910701859923 0.280326674496612 0.864432369608904
-0.202867574442221 0.284946122565073 0.876953713642537
-0.187982283151668 0.29358124254725 0.898481101934457
-0.187103658628381 0.296973331530808 0.906654943526518
-0.161233379784655 0.312361129423973 0.941372993629397
-0.155956337003641 0.320975468119064 0.963365213538334
-0.163267168038229 0.315586255872076 0.965289029299782
-0.167020300087299 0.312973754428663 0.966205608985615
-0.178280035561663 0.301687125416298 0.970545028671774
-0.185425232545498 0.297843380157612 0.971769225595259
-0.197838004786537 0.287037713432969 0.975670161722786
-0.202500489825733 0.28175145499194 0.977669691033798
-0.216492451361382 0.276911497559584 0.978589267350959
-0.225506898967822 0.268399327713548 0.981667807629319
-0.226422270394202 0.25609806326824 0.98725170027574
-0.221876427962352 0.247531105603474 0.757963088197335
-0.226082776749054 0.247849698087054 0.759301753282911
-0.219711684470285 0.251993927847606 0.775402341275257
-0.222372546186656 0.255950145028247 0.789500896528726
-0.209546014017015 0.261565528730009 0.809176317761921
-0.214006413821851 0.262232647850135 0.811234077535393
-0.207611854202647 0.269893259638735 0.83486358882233
-0.20188217958364 0.273650740059112 0.846336772342944
-0.184389217820172 0.281813562847957 0.868462686718413
-0.179086146536188 0.286000700105275 0.87981222141128
-0.167596158553644 0.294503724983392 0.900703987401504
-0.15460425599988 0.31002182165037 0.936316275764003
-0.143729163198973 0.315068200886355 0.947224680517797
-0.142171924909088 0.321709802935377 0.961596525094548
-0.141212739400578 0.315962481311142 0.96665310875353
-0.156506290988948 0.307325078225882 0.969614566487588
-0.162924350746835 0.301971540988788 0.971590334462609
-0.174041440785312 0.299435141895159 0.971907688360558
-0.176742366463095 0.290306055391892 0.975908380799222
-0.181421657584117 0.284601917146157 0.978178947716734
-0.196185425729642 0.274421646826408 0.981639786198052
-0.199091386344125 0.269569771969489 0.983603708927168
-0.216275072756932 0.262252029913254 0.985366207733564
-0.225710790612579 0.253880382054715 0.988340504575479
-0.22845239622452 0.235549426358691 0.70311942261037
-0.219650910795279 0.239228317554989 0.721872376566965
-0.222740613789362 0.240189634888746 0.726772641004185
-0.225283524230723 0.241469191713518 0.732492077754563
-0.222093432636541 0.245494829526916 0.749407043002382
-0.206047018917 0.250734620372107 0.770914615952366
-0.198713587509129 0.258375517883493 0.798144065406631
-0.18962244067711 0.261026953965388 0.807515058996871
-0.184904285158378 0.266126127766732 0.82324369637179
-0.198340336369689 0.266588641943725 0.824670342737279
-0.179715508430724 0.275797043028529 0.852154479887696
-0.174209592657323 0.279688398638436 0.862702277292651
-0.175652159227262 0.283593182813786 0.873286473783665
-0.168011336556808 0.292992658981897 0.897062805170954
-0.15018201570766 0.299428259099618 0.912570528042343
-0.119435768191182 0.319900980490877 0.957671993333022
-0.12253884230766 0.322140277424704 0.962530508864502
-0.127318796821748 0.315005775397144 0.967921403385425
-0.137226552923476 0.306169859820111 0.971403909204937
-0.142787476591173 0.306116505394597 0.971097362065364
-0.145312628930424 0.304572313030904 0.971658716458235
-0.161231261140898 0.296870226845316 0.974071244602513
-0.166207693996381 0.285553308408344 0.978905986223126
-0.179936959696762 0.281951812457535 0.979514127011385
-0.180457251307893 0.270574965089151 0.984717873300179
-0.195984716948457 0.267400539311624 0.984894633087974
-0.206217079440712 0.261744432538289 0.986542680605604
-0.22979002928032 0.217819805796666 0.533605322675566
-0.229362671123861 0.21799575826632 0.538778664014167
-0.227179978758287 0.221879035275138 0.607308082566211
-0.225914649821548 0.222981913241995 0.617506987675336
-0.226361074241208 0.224785197550758 0.633276582806258
-0.228152997728115 0.229706207257329 0.669164278254088
-0.217526959578643 0.233307902371654 0.691693372238507
-0.210530707520902 0.235362504979697 0.702166600733688
-0.208951770984371 0.237816557138341 0.714676002257831
-0.199623595013785 0.241100509563464 0.730942945407163
-0.201982205356998 0.242111231497899 0.735189806945298
-0.199441121885404 0.248089205309373 0.760308117126336
-0.184627308756913 0.252504774842973 0.777222818832834
-0.192281846504453 0.253517405629035 0.780831475900124
-0.183780613490075 0.257349644170761 0.794488215244307
-0.18268256105835 0.259542307885682 0.802302091259093
-0.17652864089193 0.266383541472099 0.824037700848747
-0.163144260599549 0.275838038827998 0.852265601931169
-0.168878273328886 0.277278223766539 0.856169326103467
-0.148927376281054 0.286319634297532 0.88067671532617
-0.15168127641461 0.289028643125163 0.88751080407711
-0.127590438776996 0.303970162491604 0.923234827769548
-0.134428967624567 0.301465562686839 0.917479773312028
-0.107596705197775 0.322271808805418 0.962815887389531
-0.105629817059809 0.317798433816053 0.967853194245025
-0.116335317194815 0.30968083200978 0.97102971471668
-0.126813168161231 0.309257288209123 0.970600998408193
-0.139107468830412 0.30157975763302 0.973407490475307
-0.141508032156684 0.294094830372513 0.976714357240305
-0.147639331705237 0.286058755897227 0.980053093106236
-0.162380144509355 0.282618658496335 0.98055179782476
-0.171420598981358 0.273193444839234 0.984203306742148
-0.173115808286622 0.267950280088871 0.986490019705961
-0.178622355033782 0.264638337747211 0.987594644274808
-0.193479525408687 0.256841041701017 0.989996279021131
-0.194484429875086 0.25139279209543 0.992413217061422
-0.22218095232182 0.217830021889139 0.494960902895663
-0.223745894245895 0.217722224332886 0.513135058199804
-0.217201017152231 0.217682649002045 0.519807270761246
-0.224681854487957 0.21764776218473 0.528546909278923
-0.22149780538961 0.21793109116718 0.536877326807073
-0.210529904658029 0.218503249018173 0.553699869102496
-0.221936165554715 0.218702199257274 0.559549389136441
-0.219038925706946 0.219134548046077 0.570251873414818
-0.224945817425225 0.219174560040558 0.570792117443044
-0.217259083364832 0.220928489200594 0.594473760083904
-0.215406503637645 0.221761655845117 0.605723219403838
-0.216623479943013 0.222658069626708 0.614674997914216
-0.212674927190081 0.224742822327747 0.632906014445393
-0.216550719032657 0.224771593455069 0.633157615941131
-0.208554592196389 0.226340312112336 0.646875950858816
-0.207614640300014 0.229868213973217 0.670209409134298
-0.195871867449606 0.232414029306884 0.686632865445582
-0.198829808599819 0.232179792963064 0.685121769841607
-0.199075915193738 0.235655186403261 0.703658528862891
-0.202343369251 0.236447473273724 0.707697169423165
-0.198514908304337 0.238656493187764 0.71895753199624
-0.194316280822313 0.243066135281572 0.739202131219002
-0.189781187972997 0.246959066159884 0.755559487139012
-0.181564216008629 0.249108430964666 0.764590709683865
-0.170243932042673 0.256658700320999 0.792025936355632
-0.176072863988114 0.257691519030645 0.795706536024429
-0.173864642236443 0.260367066508479 0.805241238551403
-0.158131512566942 0.265822355566722 0.8223066969745
-0.166835911620424 0.268051028363606 0.829181141269827
-0.137982195292603 0.284486413532993 0.875707639466413
-0.142321801420091 0.281837251879507 0.868526897530928
-0.137070698887898 0.289430282738475 0.888478626145523
-0.113111987313673 0.301574039717387 0.917741168006675
-0.106068404078723 0.312314516633617 0.941272234023325
-0.108070955008365 0.31565855705411 0.948500812121394
-0.094559079518212 0.317000339203392 0.968691693422866
-0.103647751831752 0.315213018605405 0.969129080508986
-0.112952997526367 0.309936254893449 0.971113398110893
-0.119599152196391 0.300974996822722 0.97484789419427
-0.126104824886719 0.291308025955623 0.978916019670204
-0.130984464218346 0.288704664922992 0.979825342992993
-0.145834077062812 0.280547927051698 0.982700540334689
-0.14814239480962 0.282961952964078 0.981450458044649
-0.156053732177929 0.269972767760935 0.986864971524225
-0.162571716004121 0.265943417620004 0.98822276457862
-0.172366896143905 0.257908288639593 0.991175762175049
-0.181010240686922 0.253918358391906 0.992352563442869
-0.199903114160247 0.217795385857302 0.500800373136097
-0.200459248068223 0.217731301536303 0.511604684874579
-0.211643441168996 0.217697115246386 0.517368330766113
-0.206359648600549 0.217651711706338 0.528663032817534
-0.206578261090478 0.217960227326418 0.537733985979468
-0.212262955668902 0.218020145459189 0.539495694432912
-0.2069409412278 0.218814045360089 0.562837879877102
-0.211857505329625 0.218788596580293 0.562089636758969
-0.200709292001791 0.220505237574142 0.588758994634311
-0.207744013588398 0.220551271837171 0.589380551645354
-0.197463912631177 0.221756706876127 0.605656398167427
-0.198488226159854 0.223157560303474 0.619043008940539
-0.204903844493673 0.223561956484943 0.622579425257843
-0.201695445905212 0.224694116489767 0.632480085299483
-0.198323515650397 0.227284036815762 0.653538474646307
-0.192368835314207 0.227445997860655 0.654583310895718
-0.188104148387639 0.229480730029791 0.667709689090966
-0.185883836320202 0.23156092821133 0.681129375704335
-0.174502251164808 0.236518667678891 0.708060079150808
-0.180633866732394 0.238177388651496 0.716515321876493
-0.173953511821785 0.241236464561219 0.731514202477196
-0.176912728908367 0.243203991440685 0.739781376607849
-0.173150502208732 0.245587055967506 0.749794560983339
-0.171120111026474 0.246675289183136 0.754367110198432
-0.165074744901174 0.252533879760721 0.777326538439793
-0.162181561558412 0.255460528122283 0.78775607548211
-0.15821321110918 0.260014893394623 0.803986218445637
-0.150478328120781 0.263057364348415 0.813777953709045
-0.14097424797164 0.270835975728987 0.837771440193696
-0.143456341903732 0.273440059009313 0.845765706305012
-0.113149020179293 0.28702549831194 0.882590010168839
-0.108746129764891 0.29214553672621 0.895021513459371
-0.0968056015842948 0.30016905940085 0.914355618098343
-0.0964682550812564 0.309553530821448 0.935304004258931
-0.10378754176744 0.30657489680396 0.928865299604219
-0.0886782946166726 0.318831067208192 0.955358605249482
-0.0851190201485427 0.316274938007921 0.969427362202744
-0.0942373658932908 0.308248526283599 0.972739094016585
-0.0974988541954261 0.308879300056673 0.972309712058746
-0.104460034380427 0.295496400442241 0.978181965732771
-0.11968389143824 0.292902742205747 0.978563362188421
-0.116669934494153 0.288951613980865 0.980563916133401
-0.130929093646946 0.282364053670671 0.982751037188997
-0.137296629458997 0.278884525991925 0.983975586710234
-0.145145395963162 0.260794187905221 0.991846076812646
-0.147348899220282 0.262591792460482 0.990886345455316
-0.15697898953741 0.254557135985142 0.993899175193072
-0.197728166530396 0.217870874368113 0.488073369233129
-0.180645644530815 0.217804189041053 0.499316198223245
-0.187713009612726 0.217773257480345 0.504531112249529
-0.193078955512801 0.21772220353999 0.513138563783337
-0.189900468105686 0.217637422249094 0.527432286212529
-0.196433375791021 0.217835267328241 0.534059921469284
-0.182484481667214 0.218519363212914 0.554173657449757
-0.180720749281946 0.219008169526159 0.568545504073142
-0.188651609348377 0.218681672231266 0.558945855054682
-0.192514972334179 0.21935047535638 0.573167335176618
-0.179442350830116 0.220769994560451 0.592333757218405
-0.188227174854535 0.221276720710791 0.599175600026299
-0.186398253465144 0.221799124232866 0.606229119521829
-0.172460118047926 0.22435434962158 0.629508847805665
-0.184699032464177 0.224259147911685 0.628676315512492
-0.176404899780885 0.226482102378707 0.648115896819252
-0.178112817759471 0.228609048390159 0.662086333328856
-0.167601004768375 0.231677802172309 0.681883348063084
-0.174556123217837 0.231821703386505 0.682811677495799
-0.173099199304903 0.233761251284017 0.694004294422988
-0.158042404170644 0.237846770263041 0.714830012068438
-0.157553020586702 0.241150556738258 0.731153234127018
-0.153394293909467 0.24295494984865 0.738734951154347
-0.15751226847685 0.245047805111071 0.747528731338628
-0.144796352687811 0.25108977395698 0.772180257400034
-0.148582714399484 0.252812555357788 0.778319639456154
-0.145650374250834 0.255890024724764 0.789286649084311
-0.140362432304601 0.259608243956414 0.802537064035855
-0.139330145483509 0.264257683711753 0.817480394287766
-0.131385558676578 0.269420309658055 0.833404752737821
-0.112938596087825 0.278162926263657 0.858567375430929
-0.117751737017069 0.281055661016723 0.866408339655308
-0.0982579186406612 0.29255445611427 0.896006877439539
-0.0889917168070533 0.298410886496916 0.910118987845463
-0.0980627915839142 0.301290252683106 0.917057332684156
-0.090613935524589 0.306602854373666 0.928925733525654
-0.0656830078151922 0.320743148930971 0.959499213468284
-0.064880972112531 0.316649951918722 0.970034165575531
-0.0785826689235751 0.31644730670062 0.969625800623414
-0.0794049576805634 0.307692919979726 0.973625751899245
-0.0876697376899441 0.298560062412044 0.9774837343227
-0.0991975408450979 0.291808952006891 0.980105243333555
-0.0994607250213279 0.291394186504411 0.980285220471948
-0.114039629194232 0.284929731008071 0.982574235606412
-0.117788604957761 0.275806283316224 0.986556004452768
-0.123372161471119 0.274310037024348 0.986913140564508
-0.137463181975511 0.264174011516264 0.990745766644977
-0.145763362950407 0.25369502423701 0.995081293461779
-0.174699246045389 0.21778199022469 0.503058813085478
-0.174392680257083 0.217810760404938 0.498208297525302
-0.178724638461103 0.217674256647092 0.521222181892755
-0.174752424066966 0.217659198294391 0.523760948541261
-0.178322850845976 0.217850631156715 0.534511647603732
-0.166640212803063 0.218509570540245 0.553885734021165
-0.170349229267995 0.218598216790975 0.556492104447848
-0.178380142386857 0.219020471533572 0.568711606416348
-0.175874903851583 0.219846573405148 0.57986567680492
-0.16507191305222 0.220913070617394 0.594265577572493
-0.17215450913919 0.221317988739225 0.599732803090207
-0.166037646458913 0.222551315358719 0.613741439308673
-0.173949801408499 0.223038106289483 0.617998391944617
-0.167308128819881 0.224769191025518 0.633136606862765
-0.155565534109712 0.227442512788107 0.654560828142957
-0.161899871769188 0.22699182795334 0.65165338917986
-0.153535631956329 0.230462340200675 0.674042211149045
-0.153426883946727 0.231367928749024 0.679884305727984
-0.162947515900333 0.232378408386362 0.686403069268212
-0.145189618449735 0.236695484607805 0.708961394125821
-0.153559412142175 0.2373035880584 0.712061169411738
-0.151044536955805 0.240302035767598 0.727345598559418
-0.136474371363788 0.246005737014965 0.751553779198183
-0.143653327861612 0.24622021952919 0.75245499397272
-0.140826304849435 0.251135966149998 0.772344869997324
-0.125550463831686 0.256845646291233 0.792692145507052
-0.129744164104949 0.25921891582833 0.801149636633642
-0.106527756932379 0.266775333841642 0.825246202528995
-0.118567458758149 0.269512662149832 0.833689618269067
-0.102026695578606 0.277101295147886 0.855689748441652
-0.0977746509239914 0.283241929215007 0.872334375808285
-0.101253295755446 0.283185779590556 0.872182178239509
-0.0792583567841102 0.29661376588083 0.905788506154411
-0.0616517886665647 0.30750570386202 0.930877360066223
-0.0666146029851349 0.308792377810615 0.933658673075231
-0.0437661216067918 0.324235489540801 0.967076409166528
-0.0492050299589089 0.323982484460857 0.967054327334069
-0.0515358430642031 0.312655947005749 0.972215309289048
-0.0640490200912064 0.306900830847186 0.974548764564266
-0.0749399501174122 0.302024869490301 0.976427987942763
-0.0821989000380163 0.291072602794762 0.981167300095358
-0.0845623873411587 0.288464990863772 0.982268672055762
-0.0907042376733686 0.284546241973573 0.983813717390414
-0.100633127872865 0.280165579617872 0.985410658862544
-0.105069597397057 0.275423350130708 0.98740774938062
-0.122522328754538 0.267740064187164 0.989991855967425
-0.121304385397675 0.261398582298034 0.992987179570725
-0.13482452690228 0.255649429902093 0.994831883732215
-0.152050785346056 0.217827049900236 0.495461966090087
-0.155349091503098 0.217721495246084 0.513257978767198
-0.165369790054401 0.217766978416263 0.505589732590844
-0.16387895669711 0.217698330273647 0.517163482948569
-0.161250694785225 0.217816032373825 0.533494376779715
-0.152391075175201 0.21819033507257 0.544499596702861
-0.150366094503632 0.218861910102196 0.564245195440722
-0.148754408529392 0.219467451523894 0.574746753467674
-0.161271649696346 0.219708498824646 0.57800138664558
-0.156800704627661 0.219997120487699 0.581898371334914
-0.146217169157949 0.221923019040112 0.607901953645986
-0.15652691928432 0.222471508763203 0.613043536213771
-0.158303126416095 0.222403303895469 0.612447089416726
-0.148888556728542 0.22491557933198 0.634416762362152
-0.1549707960117 0.225720918386914 0.641459396059844
-0.142997408790141 0.228039308897258 0.658410853985667
-0.148445850286977 0.229009476627069 0.664669559051369
-0.15237639780704 0.230613549132763 0.675017683822638
-0.14271238895522 0.232896592481495 0.689596741753809
-0.137810217424524 0.236585593284875 0.708401228899618
-0.135227096469892 0.237954555111317 0.715379439651119
-0.119987293043861 0.244420981059532 0.744894935766412
-0.129230428792058 0.242483098038896 0.736752319498429
-0.132241806292194 0.245867814564632 0.750974255266217
-0.128948089963849 0.249301741960619 0.76540296576107
-0.122162911548434 0.252004061009982 0.775438452272992
-0.101769737636328 0.262888172958343 0.813256075042994
-0.114881682511329 0.260381720285638 0.805293459417327
-0.0954904728035614 0.270341554421685 0.836246374809392
-0.0884219209176614 0.273451168686246 0.845795819878087
-0.0798290253670094 0.280160784226557 0.863982712179618
-0.0673533787109364 0.289977808722806 0.889797987366635
-0.0594171548887328 0.293787936726752 0.898979168314623
-0.0571399124555311 0.299812855761274 0.91349728208814
-0.0382392810913775 0.314866014544682 0.946787628455811
-0.0289110021669647 0.323626459510875 0.967728572445526
-0.0330523221284118 0.3184492397772 0.970016502216511
-0.0456894140367883 0.31472887440974 0.97140897803666
-0.0448312929062754 0.312101778256133 0.972641692608432
-0.0498338221730614 0.300591830621983 0.977819079781578
-0.0667482717767518 0.296332911193655 0.979350703272588
-0.0642845337357255 0.293406808956135 0.980762173442338
-0.0776188484313767 0.285975217745269 0.983711406529788
-0.0858555188675207 0.279674462313537 0.986265263962656
-0.0937351022063517 0.273540733576148 0.988757319582356
-0.0996048293905066 0.26629394662033 0.991847831459549
-0.108346174149177 0.263596734742818 0.992719354893377
-0.119944582712748 0.253222451859504 0.996836542728264
-0.14922904547012 0.217824672561353 0.495862774119389
-0.142457658287929 0.217753677104534 0.507832270488011
-0.139338118544224 0.217737252773473 0.510601334591463
-0.138360430906625 0.217676698424643 0.520810509810641
-0.150560593702668 0.217653777517246 0.528723771635177
-0.142302165335757 0.218142644314867 0.543097396615629
-0.140698704888049 0.218777927951382 0.561775958530552
-0.133909250671587 0.219096851225315 0.569742888982431
-0.132544148540192 0.219776423860968 0.578918514014916
-0.137580442404823 0.221045990336517 0.596060266525676
-0.129591379142448 0.221877727845457 0.607290429582727
-0.134415571996142 0.222154277445796 0.610269370535053
-0.13847118561529 0.223285117585353 0.620158488447261
-0.12849951687813 0.224945698225382 0.634680149977976
-0.124891215841776 0.226578662921288 0.648960312009209
-0.143431900959444 0.226039992976455 0.644249681024435
-0.129757340649762 0.228487384805478 0.661301462352061
-0.121059930922826 0.231601061478772 0.681388281743495
-0.131213439231515 0.232315614230472 0.685997974263001
-0.121173688976179 0.236881029367341 0.709907198757379
-0.12241773546065 0.237957502483854 0.715394463727273
-0.120623585814041 0.241212889647395 0.731415145168383
-0.104762561753781 0.243416408786285 0.740673913936197
-0.120904342045398 0.243872376444055 0.742589803403363
-0.103297563273038 0.250122018761014 0.768731521024053
-0.10386180337719 0.255054722762589 0.786309929068865
-0.0906110205163393 0.259411563201349 0.801836163563012
-0.0886816407172848 0.2625731010412 0.812284221145713
-0.081731689095183 0.269051956387784 0.832268550043096
-0.0843446807007378 0.269006676778573 0.832128882994764
-0.0662095182435545 0.279415715747071 0.86196315083333
-0.062225912170509 0.28816136674661 0.885420947422645
-0.0525478077994796 0.293103033941748 0.897328773263752
-0.0423851048220971 0.300193769949213 0.914415162558692
-0.0399125649724846 0.304946537337824 0.925345388929527
-0.0252126274040688 0.318584773795976 0.954826210020544
-0.0188626425376621 0.321305776565035 0.968883576157377
-0.0215908965172846 0.315723435170258 0.971433299004669
-0.0302361591501358 0.317622856178575 0.97046919582741
-0.040438039792216 0.308771955090836 0.974288441009289
-0.0491472026509818 0.299960120771303 0.978127744586354
-0.060747901736677 0.29516073186807 0.980043971969187
-0.0597512235004428 0.283586541116932 0.985403948770809
-0.0650848574140567 0.282392044913496 0.985818486077699
-0.0743009738364451 0.278822607705352 0.987149109568459
-0.0822044449012725 0.266336373133614 0.992568028891921
-0.0869360802991384 0.263179183005233 0.993822023899926
-0.101963023530144 0.256120187631064 0.996436676726516
-0.300622536332767 0.0689808863974785 0.0192217694788293
-0.303561764656264 0.0705117469768725 0.0319230508846824
-0.298917636911868 0.0665602506323704 0.0440542607196081
-0.128837448966603 0.217834366411596 0.494228437071851
-0.131272054884278 0.217779533178702 0.503473059353413
-0.131527380357331 0.217722614743464 0.513069236833101
-0.122214805663067 0.217642930017331 0.526503702682318
-0.135890664293822 0.217647576563221 0.52572031714415
-0.12234337594195 0.218361734442465 0.54953906814323
-0.122831005820682 0.2185235544376 0.554296887524165
-0.125722177687197 0.218914532829542 0.565792404930123
-0.125895852248536 0.219449721403834 0.574507360465485
-0.128329346324983 0.219764857058525 0.578762338447391
-0.11832172962441 0.221006211967201 0.595523176916576
-0.119816029392536 0.222117305253395 0.609946051298904
-0.119375373438645 0.223243360008764 0.619793321361157
-0.12103699154382 0.224373811352488 0.629679039281007
-0.115000947152781 0.225833768428403 0.642446261778215
-0.115775825944356 0.227515023634872 0.655028607053779
-0.117481129891413 0.229775804769672 0.669613262784984
-0.118518192412905 0.230287399411968 0.672913640524771
-0.112509469589573 0.233061020490426 0.69043490486224
-0.0978595450864901 0.236566296867228 0.70830286642779
-0.102517021232461 0.239765713267814 0.724611722886642
-0.107638856112748 0.240603052195907 0.728852724062236
-0.0971438561991763 0.243456706680805 0.740843238032639
-0.0930039357208527 0.246645043633489 0.754240024145266
-0.0972445798048636 0.248855391792436 0.763527487157892
-0.0940269216981612 0.250716853451486 0.77085130094699
-0.0870674239629756 0.255653877190288 0.788445103003604
-0.0868689310127143 0.259647614288594 0.802677365939983
-0.0664080459664935 0.269509080684808 0.833678571074591
-0.0701325471928301 0.26952276076925 0.833720767927618
-0.0532422127017285 0.281140609951116 0.866638599811296
-0.0481558385211891 0.284952484647316 0.876970958521006
-0.041090570695644 0.28827299072134 0.885689925238893
-0.0361721063373057 0.296906704837374 0.906494394661032
-0.0195594495438181 0.308159561107564 0.932290757504675
-0.0214318633971324 0.314578253529044 0.94616559561124
-0.0205579839948618 0.316557760488138 0.950444557241548
-0.0148182449248507 0.318579997782449 0.970174263534553
-0.0146740395689178 0.309130963107677 0.974530563025378
-0.0244256409701428 0.306654585347001 0.975589053674106
-0.0352656159039172 0.303833683081799 0.976696394707608
-0.0382969591409943 0.293285750705605 0.981480652910928
-0.0464815857296962 0.290742303705765 0.982444223262083
-0.047537248001501 0.286271945626512 0.984477698453093
-0.0615387139997647 0.275600531962482 0.989039131067519
-0.0701214519095158 0.271012339376939 0.990926559951776
-0.0759497562569055 0.266916996779422 0.992566327533673
-0.074977928677412 0.258354273641965 0.996554215012492
-0.280412503042569 0.0707704898778332 0.0299577034305731
-0.289206428612608 0.0703514732243429 0.0331404508996199
-0.28829800548983 0.0692105670177114 0.0381655398606745
-0.291783720965556 0.0629817418696542 0.0487178641361134
-0.290067450530146 0.0642735274844544 0.0654065661459767
-0.288949539203569 0.0639102960758077 0.0705266773646322
-0.110607790542868 0.217822379529978 0.496249368303526
-0.114510073409982 0.217830276326856 0.494918005906823
-0.109996591540925 0.217713760571736 0.514562008076535
-0.108211235126285 0.217644624391796 0.526218039206028
-0.119732478227032 0.217663689786474 0.529015211432865
-0.115002852497916 0.218053832981657 0.54048617244624
-0.108416661952988 0.218785992701891 0.562013077721173
-0.112627450410476 0.218585134281894 0.556107453495387
-0.112865089953952 0.219187726576165 0.570969892690855
-0.10855866022411 0.219747656120821 0.57853009049287
-0.116453001201436 0.220659943103566 0.590847836730035
-0.119338208608601 0.221221594907582 0.598431288567411
-0.104440867653606 0.222326341867854 0.611774061869138
-0.0980635496329216 0.22426208547109 0.628702004264
-0.0967612544213737 0.22543280809782 0.638939891736546
-0.100573621459996 0.227197234879263 0.65297850166124
-0.10753461960246 0.227579184105357 0.655442516369977
-0.0895409343279679 0.232102086346321 0.684620472199037
-0.0959911939684163 0.232412536641258 0.686623236024166
-0.104097443164748 0.234185818960568 0.696168505774993
-0.0960836267301405 0.236078451231858 0.705816099016124
-0.0880616902470214 0.239377802721461 0.722634369323606
-0.09081756388809 0.241538577418092 0.732783623302365
-0.0825239412168754 0.243889037663634 0.742659810682512
-0.0730957762087918 0.252391678936961 0.776819785124862
-0.0641224407657683 0.256534843562239 0.791584554784004
-0.0629570016296629 0.259064672826424 0.800599969265663
-0.0615781257092345 0.261557674566328 0.809152091230873
-0.0579110502452379 0.265501787833302 0.821317890977783
-0.045543191206959 0.272123923793811 0.841744175554081
-0.0396709169127046 0.276166196646532 0.853155097144082
-0.0494366304244444 0.279550665718111 0.862328942371555
-0.0204969521190864 0.290921009160688 0.892070796542979
-0.018088208675469 0.298924582420685 0.911356829519937
-0.0120371710820156 0.305147897783764 0.925780655710519
0.00617456927605579 0.314408407890173 0.945798452182688
-0.00892428715131661 0.314170224628689 0.945283588098888
0.0067644214821681 0.319126600784782 0.970105757038166
0.000542090710545937 0.311748443136482 0.973453479278297
-0.00552018291206442 0.310443481648759 0.974003416771671
-0.00900254902673183 0.299386074615214 0.979070196462823
-0.0223525799645097 0.298464034268313 0.979381708907946
-0.0253108266339286 0.293799088687698 0.981506648050612
-0.0346610990847292 0.283430031543809 0.9861158828129
-0.0476286846573879 0.275596166545499 0.989395849052239
-0.0489290478910044 0.272778672387859 0.990661276959524
-0.0506068535411674 0.267460426076443 0.993069680414715
-0.0650635169815491 0.255865749982038 0.998045038495705
-0.261665820419244 0.0702238667667233 0.0341097181748943
-0.266358963458046 0.0680069953403925 0.0410712189273453
-0.268601217382145 0.0671818422676507 0.0430633146665926
-0.282166729547481 0.0634518607764698 0.0481051932484998
-0.279000826447766 0.0606777633492841 0.065194593070583
-0.28527166320399 0.0573354525387016 0.0533541178939054
-0.278461942998841 0.060502669502754 0.0771813977730123
-0.282893507087022 0.0619425719601224 0.0846517312202823
-0.283981228139514 0.0622959939540832 0.0944536867415217
-0.283363707353461 0.0620953492878619 0.101578476861799
-0.287152334265515 0.0580821110310845 0.101936265532412
-0.0975832965783273 0.217847649671175 0.491988942681438
-0.102377067980431 0.217774556028409 0.504312183221763
-0.0969566328046386 0.21766811747478 0.522257217146786
-0.100626229916514 0.21768551746025 0.519323662350115
-0.0958326976937773 0.217831201782887 0.533940386609169
-0.0938114877296973 0.218067622876305 0.540891621896175
-0.101031218857391 0.218140489523046 0.543034041587846
-0.0908409023213727 0.218989638460325 0.568000655062969
-0.0926969160819744 0.219856109661939 0.579994435839541
-0.087694159015656 0.220109557777283 0.583416505460342
-0.0999659587839422 0.220166717609502 0.584188280484581
-0.0882923805952092 0.22165849925137 0.604330393715773
-0.0866735894257388 0.222984355931971 0.617528348828297
-0.0843603820870688 0.224176210333881 0.627951032196517
-0.0792067175012306 0.225715618596455 0.641413049763027
-0.0906329313412131 0.226221613805917 0.64583794247275
-0.0923031606035822 0.227152187757002 0.652687895569498
-0.0810939054107592 0.229994426938401 0.671023628882372
-0.0782064956554758 0.232216983803864 0.685361693822329
-0.081890088453738 0.233300024729704 0.691653216373902
-0.0858113014443892 0.234493270157885 0.697735722047384
-0.0713931412237368 0.239928244419107 0.725440216863248
-0.0683855734035275 0.242835591080693 0.738233428288753
-0.0658166770128501 0.246763181253812 0.754736415980513
-0.0616183265070724 0.249369207887736 0.765686444768745
-0.0573410769930113 0.249939164773634 0.768079894248604
-0.050807592029084 0.257361111553128 0.794529080929008
-0.0518477998108339 0.259723974396383 0.802949486288706
-0.0419808010655851 0.264701206101892 0.818848459608527
-0.0306804934881997 0.272724613624594 0.843597031112897
-0.0247530298923941 0.277820692506307 0.85763972638018
-0.0146487842543107 0.281666743870791 0.868064723391081
-0.0225740945752034 0.287787674326335 0.884520469085464
-0.00873378514728956 0.294142226730343 0.899832893078638
-0.0045396830755235 0.299990437150655 0.913925196023634
0.00233895231484614 0.30890195564665 0.93389553981307
0.018032578920856 0.317965669468947 0.953487935533382
0.0142282452830525 0.321151308967959 0.969180282355654
0.0162622761122092 0.31528699484347 0.971865866810435
0.011232266033868 0.309457457220059 0.974595457569236
-0.000864581194156367 0.306620319043997 0.975805084374514
-0.00952335767325965 0.299091731470898 0.979201433476869
-0.0129705888175782 0.288529563928106 0.984040255160408
-0.0214094299291746 0.286326723079633 0.984983828941529
-0.0246503966279836 0.282202762906771 0.986857024376464
-0.0325061919439165 0.276671148165358 0.989286012238953
-0.0443419074591063 0.26410355178946 0.994776624916091
-0.0440196678682317 0.259721511704423 0.996804530732283
-0.246692651746848 0.0696863550353758 0.025765808560361
-0.258055054522676 0.0702071249581735 0.0237049225718389
-0.260855331248166 0.0700611179925189 0.0353459178458984
-0.257498454089101 0.0673079325265072 0.0427589058535785
-0.267405447491541 0.0627162819844635 0.0490638181939667
-0.265420698487001 0.0587534902620581 0.0522660192788018
-0.271181066245009 0.0583332831270513 0.0525884555540347
-0.267216592048706 0.0568488334880037 0.07843863259428
