ply
format ascii 1.0
element vertex 843
property float x
property float y
property float z
end_header
-0.240235653400873 -0.276173794057562 0.724466498034722
-0.236212159331443 -0.276201851684895 0.732196323966609
-0.239627501048769 -0.275357221670551 0.741044979323456
-0.237535581951484 -0.275101985157791 0.749730985541636
-0.241171986667609 -0.274155928884326 0.759009196893853
-0.238411690407676 -0.274222866665918 0.765393250062806
-0.240613547578548 -0.273159163510401 0.778773551723185
-0.239915432098385 -0.273142053934532 0.784605524376225
-0.231409150765512 -0.274380618378237 0.785908745925826
-0.23850061016663 -0.272946621239402 0.804174416431322
-0.240573686162857 -0.272480277769697 0.81178642896345
-0.242873145956948 -0.286873820384602 0.82643180096051
-0.248615583460093 -0.282890024564201 0.840226861409787
-0.247870228192066 -0.285213666658155 0.85071447859746
-0.249390673170027 -0.284436867945592 0.862403621763608
-0.235492251864876 -0.279896524502322 0.859459223626952
-0.251384431433846 -0.283819556006787 0.871378641304706
-0.248016577233374 -0.283047918501752 0.879352856484394
0.0846289395548079 0.0418749354950392 0.52178158960356
0.0915353997518583 0.0459695068397301 0.521194042879083
0.104583504794152 0.0617240297672521 0.521805682483878
0.107466399465052 0.0576157058231947 0.523893261085563
0.114295746222687 0.0707899838647736 0.52612365993952
0.125348783882388 0.0748605501808711 0.528799835212148
0.125050496345301 0.0880961812975862 0.528727613191866
0.143245564500924 0.0935851331615121 0.531047803750398
0.146236161408189 0.102993929860288 0.531380085273745
0.163326973973914 0.118646366219126 0.531494807755357
0.168290265258928 0.122033730767958 0.534696896573266
0.173561610588487 0.121833392204042 0.535892827690144
0.18598019945919 0.137630017846452 0.538105085776027
0.186963059374783 0.140266681235014 0.538280172901954
0.19525013948872 0.15673165201739 0.539035599786944
0.210281673897434 0.167721707637333 0.539722320830448
0.223644356197685 0.183463653401115 0.53603998450361
0.230325282335813 0.183703487485171 0.53966820829388
0.234153719262451 0.186575660539389 0.541076801193765
0.247376159558574 0.198797192600302 0.541778016636364
0.258655107281485 0.219524192821077 0.541924721262567
0.267683089691111 0.216062522422762 0.541287478227144
0.29119179287946 0.241328567950104 0.537616874577834
0.303386552750961 0.246787822796556 0.539710696461128
0.300613295714122 0.258046393187017 0.539684413726398
0.324117108531446 0.282143577490667 0.538466924453844
0.342038729763369 0.286377311567789 0.532485093497568
-0.0282797952604055 -0.0531339781652387 0.147507968560615
-0.0286181369154024 -0.0531240105995861 0.159659907546913
-0.025788726931159 -0.0584802765642193 0.163104385530255
-0.0237337399507182 -0.0514781905363553 0.175903806291249
-0.0202553533154332 -0.0481774643147138 0.183688183771992
-0.017037723137122 -0.0470532292379445 0.185362406176973
-0.0209276529028794 -0.0449169281083705 0.187439967582823
0.021527207450007 -0.0131765459646841 0.14831582413725
-0.258146362058377 -0.28912094184077 0.532870298531688
-0.262127993892116 -0.281344477878649 0.545358797369902
-0.263814260396066 -0.287570500973127 0.558166858578171
-0.261743519173985 -0.287739889028772 0.558015455214798
-0.263430510607423 -0.287230090590426 0.564479196650771
-0.260949932682226 -0.286695536669562 0.57437992490588
-0.263290868302402 -0.285342307867213 0.590468932063678
-0.258388291921266 -0.284689521937142 0.601431166641572
-0.256164873425952 -0.284819465872028 0.601660523625662
-0.257791011087453 -0.283993526775856 0.609629279410871
-0.259814065879784 -0.282528412102744 0.619221258853127
-0.255532398375477 -0.282315607862975 0.630010532265989
-0.253636476299662 -0.282187386697428 0.63286696560446
-0.255502045537679 -0.273071425026052 0.638780983239128
-0.253183355953798 -0.280847357253181 0.648125891600368
-0.252223712726098 -0.280376898215582 0.654086438454811
-0.2504567873529 -0.2800432227037 0.65913278497499
-0.249171490267819 -0.274055769167528 0.668221927560756
-0.247627053207513 -0.274680315881105 0.675447213352794
-0.246211654632879 -0.276639003205767 0.688443106541695
-0.245234261770671 -0.269907317704161 0.696889874337837
-0.213009315898984 -0.236703168004331 0.664314042127013
-0.244680440616904 -0.275116884447962 0.711398627942747
-0.244680440616904 -0.269679530591167 0.715141445308848
-0.244912902809522 -0.270161182551242 0.723756055374027
-0.245615699448622 -0.270177243893332 0.734369890758638
-0.245625152742838 -0.265757690523871 0.739756122971914
-0.245625152742838 -0.267973375208615 0.743110137951043
-0.247020951481115 -0.26649789445137 0.761544541432261
-0.247989710518908 -0.271077986220577 0.7704630462059
-0.249308725361916 -0.27136541647857 0.778227976692111
-0.250615807562369 -0.27144921300644 0.789464611306056
-0.249534262267705 -0.271382494139583 0.800438211208005
-0.244229437742826 -0.272089284173636 0.804414453744815
-0.2515788583978 -0.270791981357908 0.814240310301842
-0.245703877730698 -0.271494282524592 0.822522342982312
-0.246853319273734 -0.271248937115937 0.826105413339128
-0.248909875622254 -0.27074380821215 0.835705637028873
-0.254789084411551 -0.284189034101772 0.864167657656087
-0.257493895301482 -0.283657087447001 0.871506858034885
-0.259706778039892 -0.283183904167313 0.878112560244114
-0.256691738155889 -0.282325936643013 0.892900862082406
-0.25259281019533 -0.282275470910402 0.891459166776852
-0.250766169562 -0.276493991814213 0.905624246949723
-0.26035923558514 -0.280530774145844 0.917369682660933
0.1078702338949 0.0789896451247212 0.52415356021234
0.106863509646252 0.0790973734009376 0.523504657039504
0.119224438706189 0.0895552452394702 0.527317001459767
0.122844079075442 0.0978449747855234 0.528193392711241
0.134029654060391 0.108115376022237 0.530023833269021
0.140292404141762 0.118755150939067 0.53071968167273
0.149062657938601 0.12248681486544 0.53068789736526
0.162226017788674 0.127670552368623 0.53078452303961
0.172531068481539 0.136420720296952 0.535709245685886
0.169095356093276 0.147929028706221 0.535097204394825
0.182522728760966 0.161218227677693 0.537489169204796
0.187825398878364 0.162321441563807 0.53843379046521
0.199944330625381 0.168466340129613 0.539250055557606
0.21767656955925 0.189852583344186 0.537266714288665
0.228705427101566 0.193010232862401 0.538914367287561
0.231826621329585 0.198612216755224 0.540366895192758
0.239584481193864 0.20399250684487 0.541364806525809
0.256557799660588 0.224911019779003 0.542072760394005
0.268738843460879 0.233832819596079 0.541212957508518
0.283136782019744 0.249133954069335 0.537700200156778
0.284089645855449 0.255392894581198 0.537266225613708
0.299518824708478 0.27523701471178 0.539674041196652
0.319643559152355 0.276784124591165 0.539026118126229
0.336548059079115 0.296034912510177 0.533762406973333
-0.030987610234588 -0.0462470481125 0.148827583012782
-0.0318089874047243 -0.0446707559241445 0.156575698989009
-0.0313048536946297 -0.0461271421977525 0.163550545396313
-0.0306005662975961 -0.0433670223357566 0.175801254174452
-0.0262818630000335 -0.0452069025606695 0.181762276161285
-0.0288136535040404 -0.041327052303305 0.183528693105167
-0.0237189176088939 -0.0418436399743904 0.189795457041386
-0.022436391047823 -0.0387679001371779 0.195922348324641
0.00448094805385335 -0.0142687892287824 0.17540154960659
0.00368273812519367 -0.0111616209130129 0.186145748457189
-0.000299676075640301 -0.00806705645989683 0.195950684047687
-0.266331515048005 -0.284968733589612 0.561589515304481
-0.266408819513386 -0.277920666325176 0.564220894456909
-0.266408819513386 -0.282137329989035 0.579638278427465
-0.266408819513386 -0.281279417391565 0.585003425615977
-0.264833665197159 -0.275396368461544 0.595802805865262
-0.262477666141336 -0.279510040490119 0.606835517636911
-0.211741483428404 -0.21996232490031 0.552151103701088
-0.216315400459731 -0.229707730635269 0.567874743954342
-0.21769308711568 -0.232198826729087 0.57807549168214
-0.219753448736944 -0.233197168688824 0.593330942024826
-0.219814826333106 -0.22962604844282 0.593785398901139
-0.219217594680116 -0.230058919029018 0.608916907630413
-0.219088804941995 -0.228783791583814 0.611384183383376
-0.218335152246171 -0.238978947261483 0.625754800062975
-0.218210637192754 -0.231176934722315 0.626656290825819
-0.216558116363696 -0.232062759027085 0.638620586560061
-0.215478058549089 -0.234728739071654 0.646440248253297
-0.214569589079169 -0.230497064733137 0.653017601179927
-0.214151126532683 -0.221496012377361 0.656047283154593
-0.212657277359188 -0.223618028270928 0.666862810248131
-0.210516671645418 -0.222459344342709 0.682360878777878
-0.210625485887934 -0.224092625247594 0.68157305999429
-0.209253256682881 -0.223105138894594 0.695482896485093
-0.208648040269134 -0.220995817415156 0.703883212470272
-0.208165992371636 -0.224786244471716 0.710573971053849
-0.207920427769757 -0.220295155421342 0.719692207221834
-0.251035301927085 -0.264464818105435 0.784926879746192
-0.251637779024307 -0.266451320611593 0.787703858119692
-0.253301550528957 -0.27065291259328 0.795244203097985
-0.254892469083276 -0.261259944078305 0.801113314514178
-0.258567856499398 -0.269456669619362 0.82000762038826
-0.260242805924516 -0.269205878378645 0.828559995800209
-0.259590050428666 -0.269117045923054 0.837524165319273
-0.257058741405687 -0.269227318034149 0.850363884818199
-0.254278866970972 -0.269738263968345 0.855665364950562
-0.258142115130681 -0.269465451894717 0.867039444102361
-0.260294956616831 -0.277954845201032 0.87401231113051
-0.266074233506542 -0.27776917686133 0.891012335523263
-0.270018794585622 -0.278237298472513 0.9026898098709
-0.269033047567782 -0.28059877891142 0.915306573791637
-0.273107775174899 -0.280218639498627 0.919694582068241
-0.268156277879569 -0.279576326455704 0.931843490542787
-0.267895316791654 -0.279576337432126 0.931947701212755
-0.2697899689197 -0.278643286295073 0.945974641906885
0.11931436964259 0.10681421690599 0.527338775245603
0.129876044657733 0.112473683446869 0.529562329427225
0.135235706610309 0.114840450964539 0.530157836609948
0.139025265088817 0.124604564430682 0.530578890933552
0.158950954448908 0.148890364063541 0.526883394584827
0.163392937912789 0.149955675951468 0.531537364560253
0.167814581136476 0.154332869504621 0.53439000352382
0.184744583979203 0.162714896729389 0.537884972597262
0.18774574006357 0.179489333737452 0.538419600006615
0.190653484178618 0.180803596873292 0.538825599382605
0.205548956920918 0.189997752027225 0.539506104845705
0.223835117942757 0.207597837577219 0.536268523459727
0.227114229745441 0.205128360764332 0.538173862956782
0.233248958107358 0.214022693969981 0.541028819553592
0.255003177711362 0.238458835002963 0.542182493883162
0.265933362231139 0.240498631160704 0.541410983301386
0.26429077811825 0.250129601614143 0.541526925628092
0.289013029484431 0.271711424412667 0.536594728513808
0.292931927913305 0.277952833584127 0.538433242330189
0.302335290247657 0.275791834172878 0.53970073342736
0.317253252068874 0.302232772196164 0.539324906511665
-0.0335247978065836 -0.0273966516520858 0.0843826636455977
-0.0292422721495415 -0.0273966516520858 0.0939956133398607
-0.0265059655748747 -0.0273966516520858 0.0914803929326862
-0.0309735965774119 -0.0310226356210285 0.122375159565524
-0.0372661183348497 -0.0289057110148947 0.135640999812211
-0.0345573868298178 -0.0367309353627625 0.147899259354786
-0.0347376277218131 -0.0362102394525551 0.157589241961624
-0.0347994551880499 -0.0360316267723148 0.168696061576949
-0.0366987125977941 -0.0305448831441663 0.180041979994914
-0.033594908197992 -0.0360262154154425 0.182181368050724
-0.0330043230054111 -0.032543298786436 0.190236673553632
-0.0307547838121218 -0.0320624514433113 0.195353954715476
-0.0265954406144752 -0.0297377338557846 0.205267195060263
-0.0321766684623868 -0.0273966516520858 0.214946202485199
-0.0180520668370869 -0.0231967153075535 0.218011706382785
-0.0287679400753143 -0.0273966516520858 0.240972191453135
-0.0278893929468432 -0.0273966516520858 0.251983810055669
-0.0279219576566765 -0.0273966516520858 0.248352258911675
-0.0268540020151416 -0.0273966516520858 0.271017025687167
-0.0269209065038014 -0.0273966516520858 0.276096630670257
-0.0305610399491336 -0.0261814204495886 0.283413637780197
-0.024900631913128 -0.0195413574264688 0.283413637780198
-0.0167590150137295 -0.0127296129891762 0.283413637780198
-0.209703459125781 -0.204317076801178 0.545817894607517
-0.217023222304941 -0.219113815312742 0.573115643901252
-0.218081605691775 -0.220857252296676 0.580952187803961
-0.219304080030779 -0.219300432424191 0.590003704758436
-0.219793456656482 -0.214785837292418 0.597884873592528
-0.219304951285291 -0.21850383475414 0.607243371311042
-0.21895472259052 -0.220385011384427 0.613952845314823
-0.218513217813327 -0.213032378202714 0.622410941208959
-0.216881473931724 -0.219813991614312 0.636279460788904
-0.216883479159365 -0.214300824619601 0.636264940902737
-0.215292487407458 -0.213539556688559 0.647783783031728
-0.214323336358708 -0.221635857311808 0.654800477340437
-0.213837821634963 -0.210707689258264 0.658315619011284
-0.212296119790802 -0.215285488455457 0.669477602181681
-0.210669777694802 -0.211991186739205 0.681252381281646
-0.210429123576369 -0.209757561673195 0.682994725700779
-0.209104233311162 -0.212970815721174 0.697551312703895
-0.208586638705786 -0.21675227811914 0.704735454512073
-0.207769812377915 -0.214343565205584 0.716072929395308
-0.208106603728462 -0.205816847456172 0.71139826401581
-0.208429584384508 -0.206807180567948 0.727862905284356
-0.209177438955742 -0.208949491146595 0.739864112219923
-0.210495568690715 -0.208458889166733 0.750573620579652
-0.257059604079125 -0.260677048670981 0.810329377694319
-0.260790492582783 -0.265875518738712 0.826815731638334
-0.262164194265843 -0.263429536370772 0.832449952195182
-0.26491887960967 -0.268018274990902 0.852271934060659
-0.268137852290257 -0.260133618308556 0.857684901434351
-0.269841278752847 -0.262174301440517 0.865178860722677
-0.267494623213684 -0.267109935453092 0.877585865240762
-0.266481224807092 -0.270496924063219 0.89169251575352
-0.268491806227121 -0.266764883812617 0.887067524778349
-0.272753664561054 -0.277537082158247 0.910658018787478
-0.276277209066782 -0.276100102936296 0.920927043021387
-0.274193878772329 -0.279395513537602 0.932290857766103
-0.274709363952502 -0.279036091415068 0.937774592372294
-0.273980420757703 -0.27815933439284 0.951945907740571
-0.267007203789039 -0.273181648052501 0.950503585086459
-0.278712508433438 -0.277091831452329 0.968435483865589
0.135325737537714 0.130944180081357 0.530167839696113
0.135028897588109 0.137266725631605 0.53013485801057
0.144018617733598 0.146239493770733 0.531133696738904
0.160506999402793 0.156866652640556 0.529282310066899
0.171082760854705 0.167210283356733 0.535451242258574
0.171670126304379 0.169231631587121 0.535555876068565
0.176727557384356 0.187324066192495 0.536456811382608
0.196555965990785 0.197087877050017 0.539095256768822
0.205910196252619 0.197940161299795 0.539522608160985
0.207205214503368 0.207718782155543 0.539581771496276
0.225588298707346 0.222256329759448 0.53746373197408
0.233149365622423 0.228096828281526 0.540982470726013
0.238667453498483 0.241230479759965 0.541316174314456
0.256999087016589 0.256399844649992 0.542041611984374
0.265943851879483 0.256402477436017 0.541410242886191
0.278008148129695 0.275221363651541 0.540035997219906
0.282482691306766 0.283209677205279 0.537998100767183
0.293723619533665 0.289102282477563 0.538804656902106
-0.0393697986251422 -0.0266059948581948 0.0908415717477292
-0.0405225889751711 -0.0260295996831797 0.0969582922567108
-0.03956000687507 -0.0265108907332305 0.10155848069836
-0.0374450413483065 -0.0273966516520858 0.114548107967415
-0.040370571494774 -0.0261056084233787 0.124424832457195
-0.054214852463675 -0.0332057171791788 0.152705921620237
-0.0374701122316681 -0.0283163953129717 0.150111699239632
-0.0394332504701484 -0.026574268935692 0.154502752891523
-0.038280947873151 -0.02715042023419 0.161115407161706
-0.0397706480868108 -0.0264055701273603 0.17368638211972
-0.0434767574175824 -0.0265301330483357 0.186565645153499
-0.0445145830019162 -0.0240336026698083 0.193577796945828
-0.0411778103815553 -0.0257019889799885 0.211389778408407
-0.0392375810725864 -0.0266721036344729 0.205133044922962
-0.0388396576093603 -0.0268710653660854 0.220517106586818
-0.0388134902073868 -0.0268841490670721 0.232633806176048
-0.038989822383109 -0.0267959829792112 0.240018598118545
-0.0399457825461266 -0.0263180028977024 0.254818454633354
-0.036685436916685 -0.0273966516520858 0.257208858649558
-0.045137283211142 -0.0237222525651945 0.270272163973736
-0.0362127154948181 -0.0268978436428218 0.283413637780198
-0.0278791768642261 -0.0194475914459685 0.283413637780198
-0.0310168931997054 -0.0179495303927459 0.288983153970867
-0.0387372745281286 -0.0167331530744727 0.30695106820985
-0.0290450492387589 -0.0179495303927459 0.306078166014917
-0.214200742262938 -0.204371965945584 0.559793314214992
-0.214898211183755 -0.20168972237434 0.56196071670725
-0.21810237807331 -0.207913980643036 0.581105996491928
-0.219849332811676 -0.210472364098717 0.596814427599732
-0.219596736850856 -0.205391138914025 0.592170616540517
-0.219264932059399 -0.209341369172307 0.608010027329091
-0.218973027874829 -0.205113280535416 0.613602149565426
-0.218685333579915 -0.206664073386277 0.619113626561317
-0.216603148052189 -0.204750421050066 0.638294545668574
-0.216806141703931 -0.208104737264705 0.636824864896996
-0.216364724760352 -0.200832730285661 0.640020738217419
-0.215183912853981 -0.200256659539517 0.648569862316243
-0.213454337703046 -0.197545540416512 0.66109205297169
-0.211181411792961 -0.205919552420005 0.677548128277393
-0.211481142147664 -0.191932517317168 0.675378063835265
-0.209611342079507 -0.204957824558699 0.690512709933099
-0.208915488754998 -0.204120517648486 0.700171054167251
-0.208589010603497 -0.19340508951638 0.704702517000117
-0.207739651372432 -0.201330439347412 0.716491565511731
-0.208136454623025 -0.194115619077186 0.72315890124153
-0.208546226843715 -0.196158291860683 0.72973472681794
-0.209198282738423 -0.197864342054983 0.740198603120821
-0.211103511511319 -0.197963093279297 0.75387246967108
-0.211719650019671 -0.196887710216989 0.757215790604534
-0.214381877339584 -0.20153988902899 0.771661698801529
-0.264887123302046 -0.260560946255435 0.843815991763582
-0.267688411980363 -0.258058318883786 0.85555397125658
-0.222781989698473 -0.206314382876223 0.801346268150972
-0.273455484186554 -0.26492291802871 0.882400938453674
-0.275496013941599 -0.264704387491162 0.893573552477104
-0.276694336591851 -0.264513954465051 0.899730812912025
-0.278176554569664 -0.261740265233608 0.900806648836229
-0.280632516925955 -0.263310785747978 0.916210366008218
-0.280065740951476 -0.26850407850715 0.931623113836029
-0.280494420930977 -0.267969089107506 0.932853677946171
-0.291544584217021 -0.277411433304638 0.958357523236099
-0.290769681131824 -0.276977798475975 0.964894554606856
-0.295227129709248 -0.276257075831791 0.975224584215737
-0.291255560097085 -0.276139635040969 0.979632633562321
-0.287550665060321 -0.275651613224703 0.989190521467072
-0.281164404903449 -0.269740059716001 0.990640570985843
0.14194081872978 0.163527664914765 0.530902835061584
0.161761951095782 0.181529053827889 0.530485129218612
0.166909983138117 0.18137448392477 0.533806395336987
0.17386331904293 0.198809656681063 0.535946573026252
0.188577543941611 0.195443718167239 0.538567777939229
0.194193469541179 0.20635108091194 0.538987325223196
0.19252499038592 0.212263048948092 0.538911100053769
0.222636413808466 0.233287577060314 0.534832435781664
0.225273011622027 0.245166931277011 0.537317005076114
0.236397830241298 0.248805487069095 0.54119581109226
0.236133480899237 0.258765959434765 0.541181792006933
0.255378075551788 0.266814106645146 0.542156031598792
0.258901180482857 0.27676654905324 0.541907352106684
0.274729396306809 0.286063174361483 0.540790112413545
0.28764912626272 0.307859057446258 0.537909738588104
-0.0460969664728307 -0.0232424109343504 0.0854615783661171
-0.0951447990127903 -0.0618441489882744 0.154386239025429
-0.0485973743072141 -0.0213113230119011 0.111049157573861
-0.0839902558074054 -0.0510274465092896 0.16656801329055
-0.0821590995840322 -0.0500355647262586 0.165976903232598
-0.0623945425525512 -0.0384506612190948 0.154409488256631
-0.0653374922807171 -0.0373218742329611 0.172300446833108
-0.0651630821351138 -0.0331066797377938 0.181479843269461
-0.0596275994589782 -0.0328995051785954 0.179779197870256
-0.0561139158891145 -0.0276702600008846 0.190016128770247
-0.0507529877584185 -0.0263538284988086 0.190615137606148
-0.0444727598649967 -0.0240545142382676 0.197084657957618
-0.0494795287621145 -0.0204291685570007 0.208479954476487
-0.0495289755581 -0.0203797217610156 0.216985325354368
-0.0491690254308241 -0.0207396718882916 0.234090861680409
-0.0498666144361335 -0.0200420828829822 0.231863005437516
-0.0474947787958226 -0.0224139185232926 0.244656020361826
-0.0514013788097376 -0.018507318509378 0.258316615102827
-0.0518367677334391 -0.0180719295856765 0.270031882108179
-0.0466443844061524 -0.0229687019676891 0.274002031310865
-0.0455397696801046 -0.0192005992112522 0.283413637780198
-0.0426415123768431 -0.0149859273051297 0.289144141252977
-0.0375721777603541 -0.0172324802606617 0.294812823070879
-0.0388980167102976 -0.0166642635678294 0.300401776762216
-0.199865529191825 -0.175470468734091 0.527847975090352
-0.0699086973191156 -0.0417494106505161 0.357895870003782
-0.216135014507659 -0.197762796136779 0.566539130877793
-0.214098797965593 -0.183212316095826 0.559476522880257
-0.217777043595438 -0.184895030163059 0.578697143995012
-0.21940002466003 -0.195125057088652 0.590714112215115
-0.219647539324213 -0.193945328944036 0.592546775268534
-0.21936682631785 -0.189329589099374 0.606057979551799
-0.218731765339722 -0.194730137304275 0.618224103652198
-0.218661326306305 -0.188678590973973 0.619573527044385
-0.217965681798928 -0.185802991934141 0.628429771371188
-0.216844560605587 -0.187305711556927 0.636546704802787
-0.215282480786457 -0.185165600294203 0.647856221272425
-0.214228054488242 -0.191080812620319 0.655490310941273
-0.212444915356918 -0.184577101913887 0.668400305557843
-0.211648956886164 -0.192076822440418 0.674163078627972
-0.21139993818462 -0.18886439593662 0.675965982607462
-0.210012698027019 -0.184907877017704 0.686009654102972
-0.209923356701667 -0.175617234997487 0.686656485484068
-0.209127813936282 -0.177936706218736 0.69722399311899
-0.207868788977223 -0.188876432730754 0.718863532959566
-0.207772832832811 -0.181656434649028 0.716031005345128
-0.209065366322178 -0.191779448116122 0.73806562502876
-0.209597765789937 -0.191956849575336 0.745701941775952
-0.211854275383538 -0.18792527753922 0.757946301343743
-0.214432419119087 -0.188982033593235 0.771935951079441
-0.213004483424667 -0.182885527740854 0.764187616518188
-0.218821151126536 -0.19660854749249 0.787641627635671
-0.220323747011888 -0.191392741390755 0.792845360262713
-0.231702362299123 -0.214174686265072 0.828133238134711
-0.259871363147836 -0.238144192301014 0.87130903019379
-0.234915332797759 -0.207138340062128 0.837781461158412
-0.262114525612027 -0.23818603652757 0.87800679873117
-0.282896516736527 -0.256044528603374 0.92043636781003
-0.282446402151971 -0.2546391132205 0.918369540447378
-0.284822974208656 -0.262544949000757 0.937091992332971
-0.295290879291089 -0.277709250257886 0.955209247242206
-0.304824079700608 -0.276534151938523 0.972430630526242
-0.308267826789192 -0.27540600259443 0.98637886996609
-0.303120001449409 -0.275270381082511 0.988328288513541
-0.299739410638849 -0.274911228646792 0.992581327801125
-0.287757060704681 -0.262396137662993 0.996414771785666
-0.288905478216528 -0.268358697204399 0.997005357005578
0.160313915612167 0.187433403200232 0.528984637629149
0.160352610894043 0.189012853497665 0.529044293174796
0.171257839849223 0.198658387974679 0.535482430468515
0.182397156048646 0.204794298184594 0.537466798827218
0.17856096273221 0.217702211235158 0.536783415456264
0.191887874317821 0.217448383891682 0.538881993096378
0.198091380877404 0.238058059043717 0.539165402576506
0.216368252227529 0.246887459712301 0.537754987677354
0.227439108723474 0.259918532034582 0.538325053687012
0.240948110526364 0.265024706560543 0.541437122524538
0.246596695548625 0.270680589654767 0.541736679560066
0.255973433414132 0.284376754309889 0.542114008073032
0.270863755769446 0.30092497931152 0.541062969891342
0.275248957385744 0.306033360623083 0.540753439028064
-0.131749255391904 -0.0877097793060589 0.147781708274786
-0.132540404765063 -0.0860698982415513 0.16095461311553
-0.113990890337457 -0.0727975182461771 0.162882297887234
-0.115616029596043 -0.0695194607114669 0.169142499088329
-0.106115324501159 -0.0666901554466463 0.164450751132019
-0.0904951201610489 -0.056499645575348 0.163519798127569
-0.0964586158387387 -0.0551685670708645 0.17210997997745
-0.094952939593778 -0.0463364619636495 0.17702368537476
-0.0848442692022272 -0.0396563107547721 0.178287573570683
-0.0758708124789799 -0.0390801884370978 0.175791361120394
-0.0745952116276107 -0.0310316456192331 0.181513561266986
-0.0701175260849849 -0.0259752649480264 0.188864646641235
-0.0675042578417855 -0.0270398702822735 0.190477814856803
-0.0626499390268227 -0.0172465472890796 0.197891438465472
-0.0593775991939521 -0.0146155330986372 0.202057921985568
-0.0575622547857005 -0.00957749105188683 0.207697830629271
-0.0556902264577024 -0.0133215477078821 0.214191672816518
-0.0554259674738628 -0.0138500656755619 0.219903895031952
-0.0565049705106295 -0.0116920596020272 0.228665286453094
-0.0557124989993915 -0.0132770026245039 0.247984129770885
-0.0541594750389189 -0.0157492222801976 0.25851151307299
-0.0561292852198892 -0.0124434301835073 0.265659732883181
-0.0550287875347863 -0.0143809947188628 0.283413637780198
-0.0515789789786601 -0.0135865542896943 0.283413637780198
-0.0498769897183614 -0.00422860540139713 0.289766694016435
-0.0492271956350295 -0.00574479159583783 0.301046543266662
-0.0480730360015312 -0.0084378307406674 0.314624219672319
-0.0498155294022764 -0.00437201280559475 0.313061026677161
-0.0500574232470857 -0.00380759383437291 0.323151171693846
-0.0699086973191156 -0.0271282765133355 0.35896095792262
-0.211251254060404 -0.17290235308464 0.550627710628258
-0.21550106902785 -0.169435517751454 0.563834117323006
-0.218955333545188 -0.184706918364996 0.587421507809535
-0.21976148330782 -0.184012160258876 0.598497371629951
-0.219861861071492 -0.178528280165154 0.596574389310058
-0.219572761813578 -0.174267653876629 0.60211277640597
-0.218844875882525 -0.174602993453856 0.616057180888523
-0.21833028416844 -0.174975157596765 0.62579004501519
-0.217182874255539 -0.175725648529989 0.634097309151389
-0.216578345177701 -0.177301506849398 0.638474109691004
-0.215167069648871 -0.170034693751519 0.648691797035892
-0.214654547867831 -0.176394390584351 0.652402477001265
-0.213340247237023 -0.170525432795136 0.661918062795248
-0.211694252753021 -0.171551477292905 0.673835127487371
-0.210857150511157 -0.17189136516021 0.679895780521584
-0.209559895398491 -0.171399261763924 0.691226759652076
-0.209116641506553 -0.1693462383643 0.697379058994546
-0.208545066813095 -0.172073043861407 0.705312436000442
-0.208063720597673 -0.167071350187982 0.711993470049234
-0.208603917458847 -0.177067503099243 0.730660517789973
-0.208973871309084 -0.168813192582664 0.736597357496611
-0.209405480568873 -0.17134970834487 0.743523678260504
-0.210656078370254 -0.168274303227162 0.751444586059573
-0.212632420645652 -0.170166632604066 0.76216871125455
-0.217724138781601 -0.179551062695932 0.783842496420649
-0.222304909828878 -0.189009993117842 0.799706447592145
-0.224966615116231 -0.183053729197627 0.807906475679403
-0.227307251271818 -0.187497975569707 0.814935167556916
-0.23432157988205 -0.198303917840092 0.835998481652634
-0.237497487084313 -0.19949020710986 0.84553540737387
-0.242182026337394 -0.202738979652804 0.859602601422556
-0.306714686542798 -0.272424081921034 0.948856856248242
-0.308838577544073 -0.272254889300896 0.953744275137309
-0.312713349837146 -0.277002580296204 0.968120544116737
-0.314475813746544 -0.276718847557258 0.972178752515642
-0.312444226952342 -0.27555907528079 0.985899595384757
-0.306435213696475 -0.27442494333628 0.992025742251586
-0.30534592985414 -0.267317981221704 0.999051279996753
-0.298777179563047 -0.259897408575572 0.999958478666416
-0.285251445999277 -0.246440635659594 0.995129643464765
0.143325550245713 0.187784995464481 0.531056690867568
0.147851870546087 0.201394883011792 0.531016058503111
0.160912352220297 0.205662976229359 0.529907232339987
0.172695958664661 0.220771806574131 0.535738617959765
0.181569531363871 0.221578995983112 0.537319364689966
0.18299300405656 0.234788969805108 0.537572943256901
0.199353357116834 0.240125677272889 0.539223056408909
0.201982354073645 0.251486434989812 0.539343163037457
0.223643236720438 0.270911179986434 0.536038643332396
0.228812408736974 0.28246894340856 0.538964153924037
0.236721820423301 0.278039983524695 0.54121299286747
0.242250283497129 0.289342920461112 0.54150617953975
-0.152544349940874 -0.0945487971793978 0.166045539213783
-0.145825470893354 -0.0878189761731434 0.168313868615507
-0.144926401994332 -0.0886654549468463 0.167244760363792
-0.127767941567369 -0.0785690161581687 0.167337058284768
-0.124624429918023 -0.0711453775646933 0.172194884467435
-0.117718897855297 -0.0707026419287055 0.169275427284584
-0.112967798525184 -0.0654533880542413 0.171378711751962
-0.110989137479512 -0.0582979257085913 0.174933145139379
-0.0974906102258196 -0.0454358802968998 0.17686800776968
-0.0977395424261109 -0.0420833065812183 0.174935550042608
-0.0890854369619626 -0.0348248397331042 0.175371818475037
-0.0864139114862171 -0.0325476854209451 0.175481452593158
-0.0781108229422004 -0.0266836495167328 0.177606590730721
-0.070574062468304 -0.017603197344493 0.185515653041447
-0.0682407382640194 -0.00974274221786255 0.182034858819591
-0.0655665956682771 -0.0121243651301941 0.190879924843495
-0.0587287164661947 -0.00724456769089765 0.199610070157486
-0.0595168639338417 -0.00442525611342034 0.200607215415391
-0.0595168639338417 -0.00298672682792525 0.218845774460817
-0.0595168639338417 -0.00519676827625987 0.227505856389034
-0.0595168639338417 0.00260914807271189 0.228940747441392
-0.0591943787621062 -0.00631324309907493 0.241012560916761
-0.0590674389279561 -0.00656712276737526 0.249081093283646
-0.0595168639338417 -0.00214135042156506 0.255921108576056
-0.0589025900661779 -0.00689682049093155 0.271501389114168
-0.0595168639338417 0.00307133691101737 0.271248562248244
-0.0500697426745022 0.000695793820475506 0.287148283893859
-0.0482075653028127 0.00925022791349236 0.283413637780198
-0.0453336986978917 0.0141599524328332 0.283413637780198
-0.0361765991966714 0.0268983095076922 0.283413637780198
-0.048123735100231 0.00831953284369973 0.316826309636821
-0.0699086973191156 -0.0139603312719909 0.357408175821936
-0.214487985619927 -0.160033521087698 0.560685936666633
-0.216088880369706 -0.164340358935249 0.566197553552413
-0.217412090842391 -0.167276132643416 0.575994945616184
-0.218783015181162 -0.167807967707649 0.586145624047978
-0.219776047398604 -0.167482511829006 0.598218346276481
-0.219235363263455 -0.166034246180452 0.608576448858742
-0.218772685501303 -0.16874091707051 0.617440155730696
-0.217830921713688 -0.165112582229985 0.629405436310558
-0.217715564503066 -0.161628891089652 0.63024062416093
-0.21574002372605 -0.163898928617844 0.64454358496667
-0.215007705176467 -0.169884778993301 0.649845601984745
-0.213386877456245 -0.165918510469478 0.661580456549921
-0.213577769459271 -0.155431129740246 0.660198387267245
-0.212618196604483 -0.154678540997081 0.667145731932213
-0.210700355259865 -0.163593027217876 0.681030981312774
-0.210080729097033 -0.149962153933471 0.685517094077897
-0.209445033869796 -0.152494351292548 0.69282100838975
-0.208421307331403 -0.158577183865465 0.707030190741552
-0.208216959468569 -0.156674965940625 0.709866508608853
-0.207953849422617 -0.155130077294876 0.720228541674452
-0.208625286345649 -0.157987150809861 0.731003435306763
-0.209560085928139 -0.163820701658613 0.745497490206254
-0.212985985491681 -0.167476007351193 0.764087242128761
-0.213778228258637 -0.163334927004277 0.768386148610401
-0.213836624990834 -0.160988915953489 0.768703023817114
-0.219078541898667 -0.167583630771766 0.788533013517859
-0.224451398035774 -0.168217957651871 0.806359331284527
-0.230805320577686 -0.185518124093027 0.825439513248764
-0.231900618014092 -0.174471811209105 0.828728579845613
-0.236744237251887 -0.187595778702862 0.843273474879037
-0.241341434068157 -0.192085591763169 0.85707838848968
-0.320811535215362 -0.27191996337877 0.961102781150666
-0.32187238232468 -0.271442217167632 0.971148828519684
-0.320516182649311 -0.271284845966857 0.97377917897114
-0.315670996727548 -0.272585669403183 0.982620404191179
-0.313583314518181 -0.269401807532901 0.994256682109627
-0.312190422279522 -0.266739891134297 0.9966099405531
-0.311849698528561 -0.259265464430194 0.996815655115921
-0.294113394404167 -0.247077387605703 0.999229976760911
-0.295634615820578 -0.247204150745204 0.999498447487079
0.144433467255365 0.198651507751911 0.531179790156147
0.152299978783738 0.22023958777549 0.529369534889797
0.168288936143317 0.229541378022342 0.534696032523921
0.166248306146083 0.232322050637683 0.533379512723034
0.182010738284685 0.238740396843342 0.537397961424453
0.190034206421555 0.250334122659499 0.538797307377129
0.200507262719914 0.262156280530594 0.539275772908801
0.209772423315459 0.278277619042964 0.539699055054957
0.222245113928341 0.290300068372192 0.53693982466295
0.230965954011324 0.28535785000062 0.539966361221608
0.233585565908036 0.300343924434095 0.541046670182486
-0.157425004531177 -0.0942851376712848 0.168445238002833
-0.148775946656387 -0.0832265052524825 0.170210024228829
-0.147641036352435 -0.0822221589597397 0.170367142061206
-0.139022021958492 -0.0705490783076961 0.168624454940795
-0.130943150317425 -0.0596790422094254 0.163962255178626
-0.12651639466559 -0.0587492425150791 0.167276164782873
-0.118327726621629 -0.0582409276214733 0.173135111174785
-0.0582794375329563 0.00814312555737473 0.108128210409783
-0.0662854159872043 0.0107425314567063 0.129501094458668
-0.0658047114238187 0.00628861499119574 0.139929134095575
-0.0634346594522509 0.00409631691749512 0.150649577047444
-0.0689521994141882 0.00920004138228759 0.158235077919989
-0.0657581893779989 0.00624558209881317 0.166495990445583
-0.0647229476601982 0.00510926607349924 0.180782923801793
-0.0653529350319391 0.00856012825483385 0.186993803141712
-0.0631368367609573 0.00961782752444691 0.193179110688635
-0.0619480052525517 0.0173264040962465 0.1990670182018
-0.0577629469503688 0.00917610672254945 0.210602661067182
-0.0595168639338417 0.00394423818299215 0.229628553445802
-0.0178539808480244 0.0575826879731124 0.177254631375497
-0.0108683909765525 0.0610664613902158 0.17843184261486
-0.0595168639338417 0.00344884723372304 0.260938888981064
-0.0595168639338417 0.00435067115613593 0.274949903309384
-0.0550818055917339 0.0145383894398188 0.273739624539612
-0.0444171872380842 0.0204564492858704 0.283413637780197
-0.215032597650859 -0.146540813005865 0.562378334182401
-0.216209960589862 -0.153064560613082 0.567094066864207
-0.218114582045613 -0.153017582577914 0.581196377366673
-0.219609397851144 -0.154426384488965 0.592264379971797
-0.219526706121522 -0.149618765773329 0.602995061202618
-0.218894627855608 -0.152881988051497 0.615104042317998
-0.218683188873406 -0.154514872771244 0.619154679116328
-0.218373308049128 -0.14955958052401 0.625091296684395
-0.216770889873032 -0.159716023561636 0.637080081957333
-0.215933210697054 -0.15176005182933 0.643144899439175
-0.214307256229956 -0.148879012402609 0.654916872237666
-0.21444495802024 -0.146838814027099 0.653919905174603
-0.212350399748072 -0.14618324444495 0.66908458860819
-0.211594237189498 -0.142294668435059 0.674559233672244
-0.210739556153342 -0.145371014435537 0.680747158836166
-0.209451538962884 -0.140390133352325 0.692730710377737
-0.208973129818019 -0.147940638894884 0.699370966156592
-0.207906695516582 -0.148854017494865 0.714172985256913
-0.208068340646753 -0.147741584061413 0.722065841232436
-0.207913337720926 -0.141005831337069 0.719578429561747
-0.208833770841104 -0.139028644992912 0.73434909323151
-0.211326973435449 -0.148411236074332 0.755085029702056
-0.213610848146442 -0.156810016867841 0.767477902452499
-0.215375579397112 -0.151644958432303 0.775709055343947
-0.216659407917347 -0.156620406611994 0.780155161195425
-0.223752176381294 -0.157181681236708 0.804259639902896
-0.22866929745812 -0.164810760523149 0.8190252534695
-0.229399609286139 -0.157202714966514 0.821218305474358
-0.237047966666614 -0.178109855792595 0.844185543363133
-0.276323369170505 -0.215855865249545 0.899852769860884
-0.32487153295647 -0.261390885165058 0.964032559827012
-0.325666689527149 -0.265444191428966 0.973823251115069
-0.325794955037334 -0.261651937908684 0.972305315393035
-0.325161764126579 -0.259479641403239 0.979411434563139
-0.319245846069867 -0.25896451327221 0.987929062075284
-0.315020283259252 -0.250426215967088 0.994045995507705
-0.310811528805869 -0.252979870754509 0.997442458002526
-0.30709761482833 -0.241235823105011 0.998809357833811
-0.301439146235903 -0.241168576121912 0.999590839082434
-0.291938765056019 -0.225494017955908 0.998633074408377
0.142964232562243 0.219524017645103 0.531016545062159
0.154420445062717 0.237145141308137 0.528566447566521
0.166172527333748 0.24271956630198 0.533330623827272
0.168831773608783 0.252731906289854 0.535050247792486
0.175117370762467 0.259186302236005 0.536169969983903
0.197059137163822 0.274015586070407 0.539118243993204
0.201524000011279 0.281227268426345 0.539322222837521
0.206548236797782 0.285786095457923 0.539551756894221
0.233374221595038 0.309112495390352 0.538438844162626
-0.16664121428322 -0.0861972743411588 0.160057954800166
-0.15369073448922 -0.0772135620102505 0.162238024705835
-0.0700823900261357 0.0112262588195544 0.139166972083483
-0.0716227149764351 0.0116702682773661 0.148818655611999
-0.06900829513811 0.00925192992691491 0.148600560541946
-0.0708683213520329 0.0109724541747944 0.159576142878819
-0.0752226728333947 0.0146635717238995 0.167325071508669
-0.071299519259201 0.0129868880762366 0.17903603894835
-0.066588009725023 0.0148347566499587 0.189811189291771
-0.0693973504092656 0.0233048277600485 0.189577392675053
-0.0252126345321188 0.0630172815155355 0.151173744561199
-0.0246739911963556 0.0590402029779665 0.166659211284796
-0.0250695734819694 0.0600157976195147 0.163857109301058
-0.019742091114684 0.0598105317836419 0.175102543387596
-0.0161574500636937 0.0737253502577219 0.172126007563144
-0.00783228736084255 0.0792686550668816 0.176564502296383
-0.00213026867501256 0.0850436737155845 0.175685247406522
-0.210744700291966 -0.131150230041436 0.549053588292385
-0.211719500388254 -0.128632578867838 0.552082804296316
-0.216027001630464 -0.130266196888334 0.565739399347967
-0.218104019656772 -0.138348202577465 0.581118175918152
-0.219734634717732 -0.148242420395898 0.599011688008779
-0.219266282256146 -0.138880853831584 0.607984096290651
-0.219153887204425 -0.14434933871204 0.610137298627429
-0.218792932772251 -0.141504847093031 0.61705224556156
-0.217432468820783 -0.14041267930226 0.632290240938773
-0.21711575397572 -0.143223783449939 0.634583260934691
-0.215268467268561 -0.142659697780055 0.647957664579615
-0.213891058376571 -0.140370717962247 0.657930157921016
-0.213561720872589 -0.135089465616087 0.660314572430578
-0.211953537839657 -0.135478815643587 0.671957880514392
-0.211244229518074 -0.131834480408386 0.677093299160151
-0.210496169870331 -0.130965572128878 0.682509279906828
-0.208926891312652 -0.135347970981891 0.700012741428618
-0.20902799603749 -0.131583336796469 0.698609419716029
-0.20806199090472 -0.134775616798092 0.712017478265435
-0.207740336599198 -0.130180127691118 0.716802191584739
-0.208551357820699 -0.132531980051192 0.729817066244517
-0.20879201020464 -0.13404406779015 0.733678938820158
-0.211160212971321 -0.137883246250935 0.754180145908828
-0.211233846005019 -0.133189092590837 0.754579697080553
-0.21413901182001 -0.132250632103466 0.770343850031158
-0.22074413154489 -0.146046654312159 0.794301219906417
-0.219804433120534 -0.137729065024884 0.791046892247151
-0.224950784656588 -0.14488796951872 0.807858938422132
-0.233019411181102 -0.156638826438774 0.832088201727386
-0.234423700053365 -0.160778820903349 0.83630513812162
-0.285265414915051 -0.210192586665165 0.903364138007271
-0.319799301395579 -0.247753869173842 0.954191660929048
-0.325429617005409 -0.245699973667921 0.9667797425582
-0.325486496008807 -0.249790076654469 0.975955719757463
-0.323841928129913 -0.248876517185279 0.984491464432115
-0.319501539877887 -0.247817969577914 0.987509927648893
-0.316058602272239 -0.238527642480274 0.992843696710028
-0.314576670862106 -0.241625963359268 0.994559666783154
-0.303413606549322 -0.23373065980107 0.999318149805135
-0.301077091487639 -0.228250667400905 0.999640841833553
0.143359380878123 0.236106235659489 0.531060449461257
0.158296016776215 0.25304747492791 0.527120134090083
0.159910133033498 0.255258057268941 0.528362136153893
0.167586901460945 0.259923033218801 0.534243110934719
0.176444097413255 0.267151797773883 0.536406314206598
0.185015281502324 0.276056822005166 0.53793319300357
0.192448055957258 0.292846019045728 0.538907584997552
0.208584950947513 0.303477503081581 0.539644804840927
0.218719810974853 0.304848348184091 0.538101819843178
-0.0794835220603716 0.0184979704248701 0.153493771401102
-0.0792164700386092 0.0188942448412724 0.165425831881973
-0.0763769759984071 0.0164573312298899 0.169858282787805
-0.078119656502236 0.0234071734386303 0.175413917767092
-0.0723099181669036 0.0248215734788632 0.185632055671877
-0.0696871470020996 0.0302436888019308 0.186449885629683
-0.0199853992535757 0.0754005252261761 0.141476563782881
-0.0205966004051132 0.077809053720221 0.156195917188583
-0.0191135087675283 0.0818550315655852 0.153570557725554
-0.018563401311318 0.0818252665801413 0.15923454606227
-0.0120373093066449 0.0871056632462052 0.170350353050143
-0.00946755642766072 0.101050001652976 0.165511549834597
-0.00100757199285398 0.0982960666142298 0.174439646099441
0.00849394758842041 0.115587879740141 0.171787124803687
-0.208931369057138 -0.123331026982285 0.543418617364277
-0.208428891499306 -0.118711013035367 0.541857156489779
-0.211687665544391 -0.114233574408396 0.551983878843453
-0.216839909243608 -0.123425251207895 0.57175838043546
-0.21760767961694 -0.121563017066917 0.577443151766675
-0.219602539237271 -0.130818938539166 0.59221360540752
-0.218960457652717 -0.132758609155682 0.61384289586076
-0.218747339935972 -0.133199318962423 0.617925689468697
-0.218782114169567 -0.125170588152554 0.61725949359628
-0.217059813674874 -0.133749879849846 0.634988269510749
-0.217504290242483 -0.125838954236612 0.631770252821196
-0.215278395186359 -0.127710413423552 0.647885780753155
-0.214771922912416 -0.119222830363184 0.651552656773219
-0.213059073533052 -0.128961728353407 0.663953756615068
-0.212803916348241 -0.123639840083581 0.665801102703232
-0.211043421270796 -0.127070908937661 0.678547157017133
-0.210741401348871 -0.11810555010872 0.680733789856491
-0.209209535699705 -0.127251855433943 0.696089672169168
-0.208823451751998 -0.117332857450019 0.701448455486848
-0.208173511979665 -0.11421388947741 0.710469560715384
-0.207781072836792 -0.109450777006606 0.717455906940569
-0.207942942282887 -0.109784106260869 0.720053509193516
-0.208924393884987 -0.117207018028524 0.735803367825271
-0.21149613541842 -0.128408793648425 0.756002944734383
-0.21093117878229 -0.119478498672076 0.752937352078907
-0.216771950329095 -0.13021476936479 0.780544913773379
-0.217476704365334 -0.129693398182733 0.782985591009463
-0.22063727496069 -0.128139846641926 0.793931158269064
-0.227652907968111 -0.135606837473518 0.8159731393954
-0.294087408068812 -0.200477333130543 0.901991083284599
-0.29043658094987 -0.206293195447261 0.904526779604213
-0.243050499880004 -0.155372858413812 0.862210538978423
-0.325128240917873 -0.236976996789996 0.965296211206879
-0.325945997075467 -0.238349967166408 0.970517834838985
-0.325722350306593 -0.237261360211807 0.973164543366491
-0.320857166262454 -0.233113556596384 0.985985737929661
-0.320563133957985 -0.230639326660605 0.986076210589728
-0.316071655265995 -0.22691512058801 0.99282858228132
-0.31194212569133 -0.224902354386097 0.996759851511599
-0.30211956351126 -0.217953615469815 0.999496867836814
-0.299970491605645 -0.213674352231048 0.999793672417196
-0.283529017095824 -0.197769888759894 0.994289834709184
0.145235513110294 0.261358110016166 0.531268904479051
0.165648554193843 0.268874467896819 0.53299258120784
0.168505768430979 0.27794289436429 0.534835920500838
0.177170446641278 0.290210780526315 0.536535706365554
0.191566197666395 0.300906000272538 0.538867296947421
-0.0834891250965963 0.0261984750843941 0.134064378460943
-0.0917654718671013 0.0295953890520271 0.137870933549842
-0.0868892224264288 0.024010927975138 0.151194292479618
-0.084263428493151 0.0239582382394747 0.167836463869972
-0.0833851524065966 0.0299157404645799 0.175554652019853
-0.0794405702895055 0.0300544791696664 0.178132102206078
-0.0776804831812239 0.0351326413177164 0.179169864634488
-0.0130263075950143 0.0996304334020706 0.149809577179668
-0.0131654426261434 0.0988868723786917 0.147871927643635
-0.00873041328306336 0.113129499666513 0.153748509516086
-0.0056710867144286 0.118620009652031 0.158677090554212
0.00309297546240044 0.119405277486576 0.171153946349399
0.00598740306970731 0.118787073991162 0.172168138690629
0.0103555372057323 0.129716618536547 0.170926390675588
0.0154851281270042 0.131229087805215 0.168372365770535
-0.0699086973191156 0.0479379360685928 0.358198682264939
-0.209052628871911 -0.0977865088099846 0.543795439025184
-0.217140422424979 -0.113580220542148 0.573983461396607
-0.216926258631763 -0.115293456258657 0.572397736555777
-0.217928145541683 -0.111228489529299 0.579815968086989
-0.219632628301933 -0.113647188423178 0.600965834228785
-0.21966783090602 -0.113623650290508 0.600291443731332
-0.218913110205215 -0.112385932800708 0.614749931268322
-0.218433714509359 -0.118569768638658 0.623934045170464
-0.218452286376746 -0.107717121161768 0.623578250085508
-0.215483334692919 -0.11149508338108 0.646402004960341
-0.215653209875751 -0.105442605499899 0.645172101080379
-0.214467305229944 -0.10908513665283 0.653758097083633
-0.21302163777968 -0.113156842943265 0.664224787312921
-0.212958032398943 -0.102621378223266 0.664685289007724
-0.211519010075486 -0.106517588268597 0.675103868197106
-0.21076129481965 -0.0998788829355594 0.680589753872367
-0.209395586682733 -0.106195457104717 0.693507296735995
-0.208595193811135 -0.104006368580309 0.704616634038557
-0.208220557527735 -0.102453023817085 0.709816566386322
-0.207827442446871 -0.102769942200087 0.715273021438976
-0.208744927155488 -0.106847617924118 0.732923372915013
