ply
format ascii 1.0
element vertex 843
property float x
property float y
property float z
end_header
0.210742030784865 -0.00613969292637647 0.55064520793614
0.191251437876439 -0.00667723892327196 0.548696148645297
0.178307836163105 -0.00817236172911789 0.547401788473964
0.170432628192391 -0.00576262889680525 0.546614267676892
0.159117521466758 -0.0108740183747249 0.545482757004329
0.149870909558745 -0.0125021909519738 0.544558095813528
0.127068968775117 -0.004824836058242 0.542277901735165
0.121739636367979 -0.0143787927555764 0.541744968494452
0.104592032278275 -0.0102087171888476 0.540030208085481
0.0918658607574277 -0.0128052852651537 0.539268610010297
0.0831895628435795 -0.0106782000757325 0.539268610010297
0.0714665422720554 -0.00592361909386706 0.539268610010297
0.0553231127480773 -0.00844042355531846 0.539268610010297
0.0396290298142141 -0.00724428616866516 0.539268610010297
0.0304755956248524 -0.0127166913849559 0.539268610010297
0.0255933813099174 -0.0123271636785839 0.539268610010297
0.0190803569317117 -0.00871506957484678 0.539268610010297
-0.0047323146212129 -0.0078767082774174 0.539268610010298
-0.00931203014163035 -0.00594261655892566 0.539268610010298
-0.0202010887211533 -0.0051702352416577 0.539268610010298
-0.0361050174501829 -0.0110313971003424 0.539268610010298
-0.0515081091136693 -0.0137768993124168 0.539268610010298
-0.0659187335599947 -0.00862010998865113 0.539268610010298
-0.0737055518348516 -0.00686343887775127 0.539268610010298
-0.0978920599102072 -0.00668334103962563 0.539681829797532
-0.0961090245366523 -0.0146612043179764 0.539503526260176
-0.116724064336922 -0.0149345986357296 0.541565030240203
-0.120836982078004 -0.00701202684681288 0.541976322014311
-0.137349304779332 -0.0122571830517508 0.543627554284444
-0.149741421220923 -0.00634483405904375 0.544866765928604
-0.160794192865804 -0.0126252079831494 0.545972043093091
-0.168215290064235 -0.0127166580273835 0.546714152812934
-0.191447845373187 -0.00863085927338296 0.54903740834383
-0.195594110519212 -0.00763406975544336 0.549452034858433
-0.200389452029627 -0.0154790113654509 0.549931569009474
-0.218296869545159 -0.00580967657190441 0.551819642584487
-0.231957009265414 -0.00576281661110215 0.553338086719527
-0.24782708294901 -0.0136737689519721 0.554991553901859
-0.287473602120787 -0.00646522276546313 0.535662195826051
0.0791114023571266 0.00106678309350714 0.111255840101553
0.0809830361801973 0.000379099808851776 0.11234644712604
0.0799679397253699 0.000812722555579268 0.134174063844524
0.0862887565939711 -0.00150088627682397 0.141114203673691
0.0880908660493877 -0.00371633897646146 0.161316771582918
0.0780090526724213 0.00158650467801347 0.153007701618429
0.0813926879723239 0.000127610109055136 0.163054924604689
0.068932479364709 0.00354252272913034 0.166022824715497
0.0556192056200404 -0.00352442487343292 0.168432414282769
0.0484139934347271 -0.000404706861878822 0.170229995633808
0.043886757950314 -0.00127297947486932 0.171158461765955
0.039199454020865 0.000578968657810767 0.184977627384202
0.0375710076753726 0.00451038591069701 0.191596771049
0.039290253609104 0.000359759060428124 0.196738771291669
0.0392797622612772 -0.00309100127699509 0.211707370576222
0.0381515592647182 0.00310881039004219 0.209308249658412
0.0379096467220091 0.00369283893155915 0.222654854286717
0.0380850040819372 0.00326948881495488 0.238087022292913
0.0389657594214856 -0.00384907119144353 0.243120809541828
0.0391798895350355 0.000626201504841571 0.249805809459931
0.312383448753023 0.00444265578652662 0.52413362484472
0.309289801329563 0.00161566031280194 0.525857135773557
0.302931396663445 0.00271240032249058 0.528967791856011
0.30066119111682 -0.000442856420239432 0.530300098175744
0.286781064126799 -0.0039644968092734 0.537460264195069
0.280730495225378 -0.000258352511406492 0.540253914627163
0.276499187218072 -0.00173144306223098 0.542461636790242
0.272366728420576 0.00267721116423643 0.544252325299836
0.265502241233834 -0.00214194032888715 0.547985765861527
0.253221064351488 -0.00345828579550849 0.554208625894364
0.250577103488032 -0.00202353189958234 0.555101566199858
0.245390991788667 -0.00318879903377307 0.554509147300843
0.224368283321512 -0.00451895530324763 0.552154816411861
0.222323641473012 0.00134596741896627 0.55200909124428
0.205431531530852 -0.00057527151446354 0.550114158010738
0.194702134585159 -0.000136636163850451 0.549041218316169
0.176204021224477 -0.00345105641031936 0.547191406980101
0.171635041567836 -0.00268444998018892 0.546734509014437
0.155937684592328 -0.00364745534835806 0.545164773316886
0.139869784033145 0.00234985355231906 0.543557983260968
0.128538317392302 -0.00187134825912396 0.542424836596883
0.125133174989505 0.00125225799802305 0.542084322356603
0.108875616811139 0.00486981766511147 0.540458566538767
0.0955220803991855 0.00418423817692327 0.539268610010297
0.0850128836103769 -0.00451225395862675 0.539268610010297
0.0658178280978504 0.00359722787963505 0.539268610010297
0.0629476087835402 -0.000819821951629302 0.539268610010297
0.0414289091528252 -0.00103687833253967 0.539268610010297
0.0442830557757212 0.00193125297843145 0.539268610010297
0.0180308755487544 -0.00179767040774888 0.539268610010297
0.0133484886306687 0.00367264531105337 0.539268610010297
-0.00348797102492224 0.00128321096713574 0.539268610010298
-0.0169115510159898 0.000615693545679673 0.539268610010298
-0.0275663716986833 -0.00285996320411431 0.539268610010298
-0.0489319068322973 -0.00120416566694585 0.539268610010298
-0.0442340788808956 0.00349752803956678 0.539268610010298
-0.063693386813775 -0.00231278062016344 0.539268610010298
-0.0769829764315587 -0.00351711796963183 0.539268610010298
-0.0929346054841568 -0.00459385341843551 0.539268610010298
-0.0954707423709591 -0.00167467664495357 0.539439698043607
-0.11485742055846 -0.00325261586432529 0.541378365862357
-0.119817001254657 0.00383982503122728 0.541874323931977
-0.133958141013965 -0.000115810095410082 0.543288437907908
-0.151634086641648 0.00380873151455337 0.545056032470676
-0.170325876519859 0.00402923060166974 0.546925211458497
-0.171603889360857 0.00128729435173782 0.547053012742597
-0.180576478680546 -0.000663305455800704 0.547950271674566
-0.201190417041637 -0.0021489018880341 0.550011665510674
-0.214340623791162 0.00446310302198057 0.551522737217292
-0.223053741270207 -0.0030332151359465 0.552386745851659
-0.233218662738111 0.00452864617053075 0.553621207421794
-0.249444649618744 -0.00429382004044056 0.554540959406759
-0.291025928988636 -0.00180394339845732 0.533594702431688
0.0657902913668864 0.00603693243805258 0.131457560188843
0.0457800202276722 0.0146608825418599 0.127670177018176
0.0611238947868922 0.00782055473227051 0.154271386621337
0.0483281967227918 0.0125180996201936 0.145372842501187
0.0583313704240567 0.00801895146018636 0.168659549906835
0.0471547318165669 0.00829391213280809 0.171123576380072
0.0505645806009174 0.0105278361866317 0.170536547569792
0.035002992937369 0.0107101219195596 0.179401378351446
0.0362016492147606 0.00781630967805736 0.184875035672338
0.0344786624471709 0.0119759677001621 0.191861935745259
0.0334357117497167 0.0144938734188415 0.202435596613692
0.0342609485584285 0.0125015755230802 0.205980901091991
0.0332902483414228 0.0148450531519746 0.223259146235859
0.0364247899048925 0.00727760039762329 0.227752162063352
0.034961603030873 0.0108100459931675 0.244958357406874
0.0346197384948358 0.0116353799925626 0.246778960965024
0.0372741365878755 0.00522709611640752 0.26131848696219
0.309980952912647 0.00699251547978447 0.525175506534079
0.29944084665621 0.00675953261483722 0.530460121091357
0.295884848781729 0.013118834214042 0.531840663678647
0.29441619303484 0.00942382906979278 0.532805929373607
0.280286388001396 0.0131989873216596 0.539634884499588
0.277627271511795 0.00895660102907938 0.541229591887675
0.271063591165997 0.00633231113852445 0.544675450178734
0.26888217144511 0.00691936979529671 0.545729468873128
0.258278127168829 0.00912847264288352 0.550893422083295
0.244604518517224 0.0135347149217497 0.554654032408954
0.246814695918978 0.0123315126226775 0.554882896532772
0.230149229327502 0.0130784332956007 0.553041551920843
0.212865584221307 0.0112681529402758 0.551096004126331
0.199444357167048 0.00506930402740448 0.549518661552068
0.193356524662044 0.0055311229021282 0.548906657323858
0.174291584572051 0.00826385462945139 0.547000163314858
0.177044115167594 0.00635482517335836 0.547275416374413
0.153675776164627 0.0113359087569273 0.544938582474116
0.136509723746019 0.00484412995532903 0.543221977232255
0.139036532355667 0.00679057927624882 0.54347465809322
0.114140087259735 0.0107262822266818 0.540985013583627
0.0967231341440561 0.00894861191419596 0.539268610010297
0.0933661597852828 0.0055396611042719 0.539268610010297
0.0888993100772614 0.00537182941567712 0.539268610010297
0.0804479646941898 0.00902255088326591 0.539268610010297
0.0625807142179002 0.0108812073328114 0.539268610010297
0.0467848388551414 0.0128196552410439 0.539268610010297
0.0265887026614794 0.0122367711008145 0.539268610010297
0.020904091440692 0.00508871954561902 0.539268610010297
0.0154062444161119 0.0067315531360747 0.539268610010297
-0.00230371707867488 0.00724681447439114 0.539268610010298
-0.00554713664080374 0.00807044662181499 0.539268610010298
-0.0232535918574377 0.00953485654811148 0.539268610010298
-0.0311275311372042 0.00957671745944877 0.539268610010298
-0.047389337616592 0.0103060020590549 0.539268610010298
-0.0572437919460674 0.0104434276503971 0.539268610010298
-0.0737247087117609 0.00875449330969251 0.539268610010298
-0.0919360408956841 0.00809926025165052 0.539268610010298
-0.1078422068646 0.0145491856999363 0.540676844492971
-0.111311469657471 0.00859487381125517 0.541023770772259
-0.122147510572382 0.00685793516069131 0.542107374863749
-0.138360102100663 0.00794554459253113 0.543728634016578
-0.152161471602667 0.0145707499261028 0.545108770966778
-0.168390423233453 0.0145772359343277 0.546731666129856
-0.173520671977368 0.00866050700958405 0.547244691004248
-0.18345450050249 0.0115720832681036 0.54823807385676
-0.188727981918052 0.00944096344956665 0.548765421998316
-0.206928533786427 0.0099144656904665 0.550774885031605
-0.222335614052582 0.00901544689692916 0.552474296466824
-0.236837109451917 0.00833566651401198 0.554076132339209
-0.237042643805323 0.0133362394957185 0.554168421892112
-0.260038889134875 0.0117535323278692 0.548240880125674
0.0465449798474689 0.0158729409716815 0.12425852842328
0.0515230588470061 0.0235393850113844 0.134821047509899
0.0495485243854528 0.020460854672212 0.13621094432232
0.0520424806244586 0.0242265141215273 0.152632046436724
0.0491797755580696 0.0197703427427398 0.153592344467796
0.0461104339735219 0.0149387702983085 0.162582945612416
0.047624643116325 0.0224677664572294 0.169942128282922
0.033251010821398 0.0149397809049706 0.178488788077995
0.0311629538122084 0.0199807964555671 0.18127907760881
0.0311246834269042 0.0200731893388041 0.188154969736216
0.0298570035443647 0.0231336393039778 0.204378771016851
0.0293464373087313 0.0243662552345359 0.210247973737807
0.0308423872082378 0.0207547126985148 0.218619039668375
0.0304879853196256 0.0216103145445329 0.229784367610736
0.0293969913163235 0.0242442070637732 0.238968473150533
0.0323332528006239 0.0171554447656995 0.243409440593937
0.0331171120184785 0.0152630412109652 0.259882664980679
0.309245210646331 0.0200574549742335 0.524726818948834
0.304834391790619 0.0155849246354586 0.527211761522863
0.298060515298436 0.0170240449437843 0.530508754749684
0.290061989006994 0.0145429121384382 0.534663088695739
0.288167495091781 0.0217354101872481 0.535160804525295
0.27356350319119 0.0216819910508296 0.542466139171617
0.27455580150321 0.0166388700687853 0.542285185076985
0.259415273419991 0.0136204916949323 0.55004409776696
0.261662676758072 0.0161840484219321 0.548760173802482
0.255749183175958 0.0216666833435498 0.551374255910938
0.235481882633347 0.0166710858397521 0.553683966906828
0.22609069374674 0.0174674158659702 0.552651561614236
0.225689469010953 0.0142342834549267 0.552562076471217
0.204695910329715 0.0155654430964201 0.550247947168323
0.192944084438694 0.0224410795264666 0.549037683686404
0.176520914701912 0.0165047187747679 0.547223096327845
0.168201344552016 0.019265266112632 0.546391139312855
0.152493408628094 0.015139085459566 0.544820345720462
0.153909846252388 0.0228281655796329 0.544961989482892
0.123605948540155 0.0144588830984894 0.541931599711669
0.108800684179523 0.0214862154541625 0.540451073275605
0.108842112582008 0.0215650628954689 0.540455216115854
0.0985646919384464 0.0179249462489794 0.539427474051498
0.0830945392358427 0.0205649243644268 0.539268610010297
0.0771429328633453 0.0224470921603881 0.539268610010297
0.0519541832112759 0.0148151318258726 0.539268610010297
0.0446521042909503 0.0197047634878799 0.539268610010297
0.026781496361517 0.0193478661981515 0.539268610010297
0.0206754312552576 0.0246491987496448 0.539268610010297
0.00629554731747403 0.0200782533356408 0.539268610010297
0.000494555554904215 0.0211472533034159 0.539268610010298
-0.00506582537514019 0.0163159372210282 0.539268610010298
-0.0247178873291297 0.0219904787025386 0.539268610010298
-0.0396144825556801 0.020039723426959 0.539268610010298
-0.0562490320465042 0.0254690078082748 0.539268610010298
-0.059203230548517 0.0176144969081082 0.539268610010298
-0.0801706646942983 0.0222203517436519 0.539268610010298
-0.0866053431806219 0.021537714367622 0.539268610010298
-0.100936349943888 0.0246829172927682 0.5399862588009
-0.107851963860915 0.0184768763020591 0.540677820192602
-0.130466746373986 0.0253012890222783 0.54293929844391
-0.137779700924889 0.0241848804743948 0.543670593899
-0.144486206162798 0.0170775646032699 0.544341244422791
-0.166746477304722 0.022369283545697 0.546567271536984
-0.179435599937944 0.0234844910293403 0.547908587178148
-0.182243698534967 0.0196088148671877 0.548166769297787
-0.195128318035188 0.0195769556054414 0.549597951196954
-0.201774213852654 0.0160557484353753 0.550287478410421
-0.225050303929254 0.0198902698528309 0.552926967883064
-0.234675579749735 0.0257270204305475 0.554077508954475
-0.240766292689179 0.0231539238609697 0.55471851738428
-0.30023468309017 0.0239209586977331 0.527382518999909
0.0579337842783423 0.0336579805132725 0.112011271822611
0.0521170554016517 0.0245245999667494 0.125647945335878
0.0562820643411145 0.0309553423683525 0.132047229080662
0.052622895724128 0.0252153447114633 0.139796345407928
0.0562059107433635 0.0306760615611669 0.15588229603732
0.052593709966974 0.033784452934059 0.167164986146316
0.0505106810753314 0.0323709181883134 0.167709541645381
0.0344925891245404 0.0296667539492898 0.170377856991283
0.0355825190481854 0.0252492266995781 0.171052405608013
0.02508075229682 0.028448084985197 0.171876812201441
0.0284847419206308 0.0264465719271212 0.191648947193111
0.0284490485906947 0.0265327432483399 0.199362804730148
0.0117431055479667 0.0342038485357315 0.193718352445796
0.0145805259419344 0.0330285505263961 0.199377118040891
0.0174865618999756 0.0318248310198313 0.216738053599186
0.0238846599290179 0.0291746520428097 0.232430243504782
0.0140839070976042 0.0332342567870479 0.22565999645422
0.0253652657327103 0.0285613650383918 0.25338344195089
0.0277983069295223 0.0275535663768598 0.258291295557041
0.303117572183338 0.0259419343766768 0.527422858217677
0.297056745593443 0.0314607228074836 0.5301083472357
0.2917953931261 0.0229452489303683 0.533271240586691
0.286443578719006 0.0260284672661493 0.535754446644252
0.277031373961223 0.0267508818430925 0.540415398112084
0.272281804910927 0.0251562265197045 0.542889848594945
0.262727258946887 0.0278841120739694 0.547496628729823
0.253281243021766 0.0266217418093295 0.552298534833923
0.250722738574115 0.0277196253399943 0.553509169337082
0.246491978622417 0.0283365138043731 0.555069330738456
0.224921321023284 0.0275454678165483 0.552661604255388
0.224855845518085 0.0238182593132352 0.552602562414486
0.213124847474149 0.0285897294722908 0.551365388606258
0.183354551535876 0.0263350039049993 0.548026262313571
0.175532540796465 0.0274010468396488 0.547171956161062
0.160551695804929 0.0251762147613325 0.545626174438146
0.153648732515747 0.024485735990761 0.544935878109228
0.137678798151656 0.031796336355056 0.543338884672819
0.136565283949761 0.0259212280883271 0.54322753325263
0.125353200365301 0.0326020359873916 0.542106324894183
0.117368676315228 0.0312845168845082 0.541307872489176
0.092587358536814 0.0328459699662596 0.539268610010297
0.0881430461085662 0.0278842222519763 0.539268610010297
0.0650597315793815 0.0326681623668204 0.539268610010297
0.0582900197232619 0.0251101076455041 0.539268610010297
0.0420893066127505 0.0245824747336418 0.539268610010297
0.0349761392103945 0.0310530616145805 0.539268610010297
0.0295799916831056 0.0267673781350366 0.539268610010297
0.0176912979140818 0.0317379941534913 0.539268610010297
-0.00219209456956898 0.0317756707414481 0.539268610010298
-0.0153477656070797 0.0332781912069363 0.539268610010298
-0.0273075521103254 0.0264918361796195 0.539268610010298
-0.0395949663101995 0.0323160329046447 0.539268610010298
-0.0451111648392544 0.0320683031846282 0.539268610010298
-0.0663082889796533 0.0327031429006783 0.539268610010298
-0.0775560603918986 0.0271258085944317 0.539268610010298
-0.0923703540974036 0.0346872113457306 0.539268610010298
-0.096070810438266 0.0265207328620193 0.539499704850338
-0.116305050937635 0.0351702958839589 0.541523128900275
-0.127018642544031 0.0273703920592794 0.542594488060914
-0.132281612816987 0.0275344179735699 0.543120785088209
-0.149596632002557 0.026982592047101 0.544852287006767
-0.162078188043044 0.0325647194152941 0.54610610013963
-0.163213780137749 0.0334074040011676 0.546243980991624
-0.18909284308589 0.0276953150862421 0.549040097862043
-0.200567475620718 0.0316210297659658 0.550369580847575
-0.207291507141578 0.0356550676429484 0.551172723764851
-0.222507128787953 0.0288408602283823 0.55276870662258
-0.238349010078774 0.0308069627316689 0.554556222634106
-0.254508510939942 0.0365706996674376 0.549454996264418
-0.287031862986862 0.0277981471490366 0.533741604773357
0.0630572281964601 0.04161576876525 0.1128872015867
0.0646052072026982 0.0439374989207768 0.125388203763723
0.0592071655625365 0.0355455441115599 0.125599741434585
0.0642245284099578 0.0431987006929945 0.147175294573456
0.060534574754653 0.0374260381581972 0.15267491797875
0.0608203083429351 0.0378195443011084 0.160174280821507
0.0558944825610896 0.0386874452038226 0.165806614301797
0.0506100496711758 0.0394628033086977 0.166376670316123
0.0371952680251804 0.0355919913410532 0.168910143184317
0.0349450159069712 0.042158251253288 0.167992668433368
0.015298435099327 0.0418213632471679 0.170711026401085
0.0105516974469576 0.0389367251707688 0.171889340019201
0.0059913735125323 0.0385942689897522 0.172569484744707
-8.36868475169014e-005 0.0396462248416635 0.173194951178742
-0.0197740960407839 0.0415720191139621 0.170346851768959
-0.0308678335687049 0.0408058060819492 0.16898983526632
0.000174152626105163 0.0389958657384224 0.210047908462732
0.000165353159246226 0.0389995105969373 0.22511087769446
0.00230831978534609 0.0381118647566936 0.236665990953395
0.306189446281211 0.036197671092152 0.525245937624024
0.296180901590619 0.0339057107992867 0.530393457487624
0.288740524998273 0.0359745424582641 0.533984343805111
0.285617390034591 0.0383193425898276 0.535399361278729
0.280181964197523 0.03211966437607 0.538504554085623
0.27096579404611 0.0403341312674599 0.542599234980618
0.26421426792959 0.0330371256008181 0.546431060893043
0.262081199291311 0.0370523001379737 0.54724664680361
0.252725709557466 0.032330043922133 0.552219532684023
0.235916386069933 0.0408401042220464 0.554067925877314
0.230940308890581 0.0330213958036021 0.553406435240463
0.217372814468149 0.0339232969720297 0.55191146226531
0.199429195397167 0.0380968374754168 0.549975692653303
0.1914388024125 0.0417251870415794 0.549138264954538
0.18384723715758 0.0394424940767424 0.548263053635035
0.166821393100419 0.033388037391119 0.54628720350805
0.154863772419667 0.0353056632663989 0.54505738209962
0.140714045799808 0.0356528481010558 0.543642409437634
0.134578962996649 0.0429607231939953 0.543028901157318
0.122050316925939 0.0396553231603234 0.541776036550247
0.100508428590024 0.0422397852822169 0.539621847716656
0.100360971784417 0.037933549386233 0.539607102036095
0.0838878496098854 0.0342681944921198 0.539268610010297
0.0684431687895776 0.036478480451485 0.539268610010297
0.0603155561024635 0.0392916747173353 0.539268610010297
0.0525936144466569 0.0440308659310041 0.539268610010297
0.0361560461271954 0.036927964906334 0.539268610010297
0.0250528605142371 0.0406595261553616 0.539268610010297
0.0147624670389803 0.0386878151020697 0.539268610010297
-0.00463081374215279 0.0393047650646929 0.539268610010298
-0.0233236796014794 0.0419273381973433 0.539268610010298
-0.0322573895942171 0.0435045599802783 0.539268610010298
-0.0291641296934045 0.0395417273174257 0.539268610010298
-0.0562328836341496 0.0436414449552831 0.539268610010298
-0.0678041837645003 0.0378007680033957 0.539268610010298
-0.0790117028940542 0.038151485311443 0.539268610010298
-0.0972108131102882 0.0382719030801315 0.53961370511754
-0.101832115013979 0.0451069922972734 0.540075835307909
-0.108412077618818 0.045554330311912 0.540733831568393
-0.114831925615038 0.0364441413485965 0.541375816368015
-0.140656313393681 0.0394596306363697 0.543958255145879
-0.138691320690158 0.0421687738044323 0.543761755875527
-0.163847182540314 0.0380303291620839 0.546378566330255
-0.173777728494677 0.0400296761161796 0.54750972903288
-0.180245665966572 0.039746765629919 0.54822445943967
-0.201074823207936 0.041135878287199 0.550558103475617
-0.200511998813972 0.0474819876647508 0.550583707839865
-0.216622062242327 0.0380421794345624 0.552242606439818
-0.236000471973488 0.0452449378923753 0.554495801388528
-0.237911402799628 0.0379229576616369 0.554606432866006
-0.273314680264902 0.0416260236924846 0.539735953850371
0.0702351602108841 0.0528014237524074 0.108661295308412
0.0654651879673339 0.0453870892911309 0.10866970841436
0.0671637002008651 0.0478914737176655 0.128773935169521
0.0693429500378571 0.051223053308373 0.137034940275479
0.0679609535041958 0.0489897970635512 0.149644832959854
0.0652002439483218 0.0446781340986627 0.15268331958515
0.0634717595986189 0.0494249054501103 0.162784678069251
0.058261672104401 0.0464456104066711 0.164043234760703
0.0410472802740601 0.0491325061004151 0.165870254840119
0.0372463417154817 0.0514165898639107 0.165959085834437
0.0287588985941031 0.0494744895069477 0.167467682122903
0.0193502266160603 0.0525747771956584 0.168162671186832
0.00904074836864572 0.0468635643461781 0.170618797066562
-0.00720308192201606 0.0549022341305366 0.162300850407003
-0.0100267014470056 0.0480239587619003 0.17046405476393
-0.0240172803883578 0.0478004049416263 0.168614503252989
-0.0365006646961137 0.0458618070659065 0.167287765763141
-0.0543584795047008 0.0484053823897414 0.164400647654391
-0.0519167582809661 0.0493827396251371 0.164548865050234
0.30547519474437 0.0410282708575904 0.525301150907105
0.303916789997768 0.0441690954692347 0.525884051742178
0.293133334647951 0.0481536038972353 0.531026747640337
0.288500132962275 0.0442141317429572 0.533589565492816
0.28535604583777 0.0485397147455661 0.534891260117406
0.274039668606776 0.0448788901753879 0.540778250268539
0.273756536499696 0.0454516324335735 0.540884019930943
0.262786347985532 0.0470679434972828 0.546268094746543
0.259755969926923 0.0436911470240146 0.547994333555427
0.250122411034958 0.0482930321603892 0.552523495180386
0.245094823489526 0.0480847609330544 0.55505030590481
0.236608588723926 0.0498684917243184 0.554270231554178
0.213815399516576 0.0429306827190208 0.551641296517177
0.212290619656106 0.0474420403650475 0.551534534277764
0.203057783660525 0.043647306758513 0.550455958978164
0.182285990394147 0.0432500406889424 0.548142464364267
0.17132423822177 0.043989819470202 0.546934766605965
0.16336025975175 0.05139629407277 0.54615274781211
0.142523211765941 0.0522146675857471 0.543848886556922
0.127760557927984 0.0432566156133971 0.542347060650451
0.114059646216211 0.0480133299441381 0.540976969479274
0.104955338912258 0.0482748030607151 0.540066538748879
0.0984199075562916 0.0444653300899532 0.539412995613282
0.0836013249405826 0.0506735447874233 0.539268610010297
0.0619489987157674 0.0503646233955307 0.539268610010297
0.0602944266495408 0.0489992425035517 0.539268610010297
0.0537174138315376 0.0469155389656745 0.539268610010297
0.033316323585791 0.0474976927777596 0.539268610010297
0.0185588516716668 0.0474633578289654 0.539268610010297
0.0124137431140786 0.0543557115739108 0.539268610010297
-0.00627553630991221 0.0467285380558118 0.539268610010298
-0.00553341725034839 0.054972383734957 0.539268610010298
-0.0267861503365478 0.0479218270714767 0.539268610010298
-0.0367234645150641 0.0512979737032805 0.539268610010298
-0.054197882462985 0.0552814008480198 0.539268610010298
-0.0644185922935945 0.0464972732291899 0.539268610010298
-0.0828139971890881 0.0546007646519362 0.539268610010298
-0.0850198546720847 0.0559724052205395 0.539268610010298
-0.101717095637933 0.0566481028411803 0.540064333370305
-0.107088577130092 0.0546786556137701 0.54060148151952
-0.123043421560983 0.0538096240134176 0.54219696596261
-0.133178960519294 0.0528688768131842 0.543210519858441
-0.141735500714999 0.0474897808996922 0.544066173878011
-0.160593965110913 0.0498875193181419 0.5461817809236
-0.180176115548504 0.0519508490639823 0.548386232774246
-0.18598699927308 0.048676716326008 0.548986412455616
-0.199194135630041 0.0574431931377073 0.550575628673219
-0.202866224048693 0.0584822979208982 0.550998070508392
-0.218333825123834 0.0529242037966521 0.552639497098348
-0.234185257080111 0.0585678671074243 0.554479151528362
-0.253795336267266 0.0587859425841318 0.548423130918462
-0.297545101488346 0.0513634729546186 0.527012152659766
0.07536001794507 0.0607518944664926 0.110946666136802
0.0731984829620965 0.0572959716822659 0.125182882580502
0.0712736395237696 0.0542553475883746 0.132398848355716
0.0763034095296548 0.0619634991110899 0.148684853826896
0.0711811025726628 0.0540378259499524 0.143313608038852
0.0658913835267001 0.0559682203690142 0.161240232733398
0.0599525789408155 0.0555717410312558 0.162116761294277
0.0500744198837994 0.0617595889862516 0.162300774110202
0.0376159730223687 0.0587890230879711 0.164537486635812
0.0439364504796867 0.0575984026307433 0.163904644960554
0.028759387641934 0.0596936803990951 0.165566343927892
0.0213522691663637 0.0584778934976569 0.166793779856908
-0.0157884179879811 0.065283201115778 0.139975276356058
-0.0132126587873957 0.0622322437044965 0.157675752747322
-0.0101908031195362 0.0585932743534693 0.16811632777986
-0.015098850395148 0.0611361973410226 0.16733891775101
-0.0403125041654643 0.0606055593315198 0.164029446327898
-0.0574986392736789 0.0627214235871201 0.161312696232362
-0.0700719135947848 0.0642172916787967 0.159334828493831
-0.0678776660389685 0.0596056847566 0.160489416420617
0.297423265010096 0.0506408848687885 0.528726327398542
0.29704617210586 0.0558745537673299 0.528587769544501
0.291270231593168 0.0498442465579718 0.531852634001432
0.281260666354729 0.0534433155439144 0.53663247480903
0.276303429336239 0.0584801320955468 0.538796292283798
0.274693347138502 0.0561305254711938 0.539748183796688
0.263600885490399 0.0577311738493661 0.545194374097104
0.254604956230851 0.0518952476449461 0.550057084114655
0.254256460514509 0.0514360906386977 0.550260029285716
0.240098419567648 0.0577226035440109 0.554767075423199
0.233276482644122 0.0581965869121933 0.554015665534032
0.22009332779075 0.0599660685331316 0.552575446683948
0.199539033754532 0.0542555699058667 0.550212323754544
0.188549471290181 0.0527622772297012 0.548970521082448
0.180135723498021 0.0600637948977261 0.548137070184264
0.174321912743814 0.0589014124189363 0.54747494701048
0.156737301717383 0.0582649052526039 0.545512260963567
0.143473932003936 0.061033127292657 0.544077000745962
0.125379859039079 0.0598287251291324 0.542108990761561
0.124544567705148 0.0556689257058121 0.542025461628168
0.110013135839599 0.0615586426404269 0.540572318441613
0.0919078054643101 0.0623605299783816 0.539268610010297
0.0796452516142728 0.0581331910443578 0.539268610010297
0.0755857283188599 0.0600866988216581 0.539268610010297
0.0555419148359042 0.0604972728260487 0.539268610010297
0.0481467478193211 0.0624161954954952 0.539268610010297
0.0358652254945904 0.0598238917393647 0.539268610010297
0.0220561698763778 0.0593436209408844 0.539268610010297
0.0149795076498005 0.0579414740628753 0.539268610010297
0.0029348422837489 0.0604182536744886 0.539268610010297
-0.018037724671351 0.0560465673321129 0.539268610010298
-0.0182082296155528 0.0631582483758163 0.539268610010298
-0.0352584034182775 0.0569307499438052 0.539268610010298
-0.0489145016624902 0.0600213425722002 0.539268610010298
-0.0625448573955569 0.0629229608366035 0.539268610010298
-0.0739232707276787 0.0637517286838122 0.539268610010298
-0.0871583934471488 0.058933900452947 0.539268610010298
-0.108462674368941 0.0669363716233814 0.540738891243406
-0.113158862648598 0.0635658637865076 0.541208510071371
-0.12551886149977 0.0577731168317908 0.542444509956489
-0.134549032156816 0.0638281496422571 0.543481519349868
-0.151285328240745 0.0595020479313337 0.545281023057653
-0.160131340717078 0.0599196220088188 0.546269712972766
-0.17070200712629 0.0597179372419989 0.547441430285362
-0.17767095969078 0.0649415645017528 0.54828830872669
-0.194556343749534 0.061096730526177 0.550111062039114
-0.202024626824737 0.0666185754620625 0.551017563560468
-0.216422773456567 0.0684939163081427 0.552643404031311
-0.250180193344579 0.0596671653156183 0.550175625959088
-0.259805735508408 0.0698792776449789 0.544724597856588
-0.292075642111882 0.0710766882477629 0.528514806392177
0.079140695035295 0.0666487424316302 0.10794029102845
0.0813824930030961 0.0700653850981671 0.118002445954467
0.0802224642419335 0.0682062912148176 0.12629542638952
0.081924151333303 0.0707515867332895 0.14107062754778
0.0820221029747769 0.0708930442895824 0.142669658243536
0.0756803028452602 0.0717002085592623 0.156990115140874
0.0736460526178674 0.0642867981501465 0.158644349048284
0.0611670559481924 0.0675790229823535 0.159718652263774
0.0534675074084251 0.0680600265528888 0.160669930260608
0.0410477430337927 0.0717183607059499 0.161668112551241
0.0319723781172335 0.0719749417817836 0.16284711690356
0.0249562626000923 0.0661570748445016 0.164877913148213
-0.021879019100318 0.0727119797584819 0.13527778549483
-0.0159898795078711 0.0655839521588428 0.149350405979214
-0.0237026419619251 0.0750069723251221 0.146116189632652
-0.0219239479987914 0.0729168636218552 0.16123761025771
-0.0243403508035852 0.0731341423228609 0.163857511896986
-0.0408740190506485 0.0677138107496418 0.162631060527527
-0.0591936803197547 0.0662806300966189 0.160421385602468
-0.0672978662498914 0.070215240065442 0.158593890420948
-0.0774660914216461 0.0679789291994317 0.157635488365542
0.305927898951141 0.0666257893359067 0.523474953898825
0.300878483364364 0.0593054209242747 0.52645718471794
0.294565915293697 0.0641408500274325 0.529311254434326
0.287602844624528 0.0594321443513725 0.533087083873665
0.282742980312624 0.0591434319700347 0.53553506055345
0.273095914412968 0.0609857810575843 0.540243446685306
0.269575475290814 0.0673291102346367 0.541607208172818
0.265021421052166 0.067699330184579 0.54386109654527
0.258842188899463 0.0614474820183244 0.547341453132012
0.251261146498636 0.0658963726479066 0.550853918668077
0.237700075253396 0.0605568887204995 0.554539957793511
0.224836213909759 0.0678014540869757 0.553211258829863
0.220809015094263 0.0647711464600834 0.552721704688879
0.203260819060623 0.0648198845033174 0.550772582046853
0.20231314311014 0.0637812533001414 0.550652859285644
0.178107708542403 0.0662374357202528 0.54799748020062
0.170061396943935 0.0669613313794979 0.547113499684946
0.15829969775944 0.0692869275000469 0.545838944166121
0.138347120920629 0.0665440613903168 0.543583895821395
0.136421644499629 0.0675872044741871 0.543384442095227
0.125544935133425 0.0674753168951724 0.542174364838163
0.106114060794813 0.0669320845849938 0.540182410937134
0.0960359868709591 0.0678013703250394 0.539268610010297
0.0741258526027741 0.0647822308877888 0.539268610010297
0.0667137636089392 0.0652834162647898 0.539268610010297
0.0577688153094717 0.069303175125125 0.539268610010297
0.0451405410430627 0.0724004392078112 0.539268610010297
0.0335125911288474 0.0651582475419931 0.539268610010297
0.028446930247103 0.0704699892130056 0.539268610010297
0.0102006032436356 0.0725751446226724 0.539268610010297
-0.000282192146252945 0.0673166385102776 0.539268610010298
-0.0153936614968673 0.0684112008895208 0.539268610010298
-0.02485750862834 0.0702584949155809 0.539268610010298
-0.0409079343871487 0.075832450000498 0.539268610010298
-0.0433114530517813 0.0661916635315155 0.539268610010298
-0.0661948419248129 0.0757557492567202 0.539268610010298
-0.0744204331815799 0.0755815916997463 0.539268610010298
-0.0799603499024134 0.0743762576979167 0.539268610010298
-0.105446534324636 0.0697172857557365 0.540437277238975
-0.11241474917355 0.0683393011535041 0.541134098723866
-0.119099458226509 0.0709655108095915 0.541864030040491
-0.144343209827118 0.0738830195416965 0.544709412284061
-0.146227666698627 0.0691820810899008 0.544853505569064
-0.151688464767574 0.06868789506708 0.545453397215297
-0.175265226486109 0.0697287946386102 0.548087494344739
-0.190951478288887 0.0763923664216438 0.549922960819812
-0.194257878898794 0.077637583099501 0.550307633341439
-0.209115047774545 0.0781566802299666 0.551965639565557
-0.215865620098372 0.0724271931190859 0.552636126947219
-0.240611561527606 0.0702980355133023 0.554295512480219
-0.261853135493941 0.0746188481276599 0.543404674708654
-0.285514168788025 0.0778676413220957 0.53137110848696
0.0847954652788697 0.0754050826596727 0.112863484460131
0.0846039224748394 0.0750646426438686 0.119190347362644
0.0851255178754981 0.0757821842166203 0.132996918106778
0.0873465819341348 0.079153536083406 0.144994009393425
0.0865848585196815 0.0779217825906514 0.152068128705399
0.0845316444733106 0.0774343063434415 0.154726831716761
0.0645925943683037 0.0805400215039953 0.156844230034688
0.0655650428978147 0.0779081446590159 0.157202440127668
0.0462107152641581 0.0767895631091305 0.160026726904867
0.0464885532598546 0.0768056898896667 0.159986170434693
0.0331323878048637 0.0761074125511598 0.161921472530175
-0.0293070876707375 0.0816809860570732 0.113770688939492
-0.0319439724059236 0.0849325775068784 0.117859868937816
-0.0294413343688671 0.0819420373188113 0.130521065532168
-0.0272080354034786 0.0792855630625687 0.143935765526269
-0.0297899252791559 0.0824862240179576 0.150864089941987
-0.0286273339471151 0.0811033268337963 0.157845155873935
-0.0469379610833169 0.0850401672934598 0.158587827030096
-0.0527687408587266 0.0832838445429905 0.158126427532158
-0.0670839166699565 0.0783043246137827 0.157117843001039
-0.0780824634153226 0.0799326809528489 0.155328186019222
0.304559368782754 0.0737762258056245 0.52371231670366
0.300061743334714 0.0679435542844256 0.526325671397756
0.291260654029951 0.072275923105962 0.530455442998791
0.285506241469496 0.0740437624011072 0.533222159323072
0.275501427807677 0.0690923956968674 0.538534026572997
0.265621322893658 0.0691702716472447 0.543469211783108
0.266012102150295 0.0699275158440483 0.543226494392489
0.257841496651413 0.0730383689634844 0.547117368821965
0.250460545966587 0.0713293957032732 0.550914654993141
0.242686723010431 0.0714697501354015 0.554792794319212
0.232175834357018 0.0764683740490103 0.554147146101254
0.219664463529429 0.0701781529886285 0.552669629605683
0.204739255035259 0.0757434332346676 0.551088568665304
0.196902458915835 0.0707350733853904 0.550148252987461
0.180596623501106 0.0750997208887267 0.548397113601148
0.169001809732155 0.0800293593633985 0.547177268161191
0.162930959839879 0.0786097248272343 0.546483012137936
0.135210701870065 0.0801100968620805 0.543423821975107
0.127465488539251 0.071971236913852 0.542450202994624
0.128951337745993 0.0779171668172985 0.5426978797107
0.104409523257908 0.0775459603337191 0.540011957183444
0.0917655705850378 0.0802380098701713 0.539268610010297
0.0791146318604846 0.077838433058482 0.539268610010297
0.0794149492850199 0.0750200579898202 0.539268610010297
0.0621017933248133 0.0769068991272477 0.539268610010297
0.0473165547750658 0.0787383051330632 0.539268610010297
0.0341279207961226 0.0787635690586893 0.539268610010297
0.0232136101521739 0.0793975711236491 0.539268610010297
0.00484564689750931 0.0799511568214495 0.539268610010297
-0.00208230205708386 0.0777585267459941 0.539268610010298
-0.00698393305756683 0.083714584102133 0.539268610010298
-0.0247653321797366 0.0767218317646748 0.539268610010298
-0.0327909698652805 0.0763788664088296 0.539268610010298
-0.0542672087054368 0.077807106971109 0.539268610010298
-0.066944151390515 0.0813973434427619 0.539268610010298
-0.0716902752126972 0.0803708475705578 0.539268610010298
-0.0898045161678718 0.080272243288836 0.539268610010298
-0.106399706653372 0.0815270804027796 0.540599634998937
-0.112328196405708 0.0809215435706157 0.54124994584875
-0.12397962501461 0.0820062170648712 0.54255961393716
-0.130915812019986 0.0849455425071837 0.543371125346678
-0.151486247444684 0.0789762047800677 0.545573821814323
-0.166259316018677 0.084136772645534 0.547286948431787
-0.166175052163311 0.0833421289478214 0.547266549063167
-0.191681915888917 0.083687611197746 0.550105443397261
-0.194632911346863 0.086155542852338 0.550467608610014
-0.202331351815996 0.0841117648570503 0.551294605078872
-0.215792231074367 0.0904929586919866 0.553126858403435
-0.227300748815797 0.0812891144019265 0.554029779044751
-0.236381846101023 0.0867904677791585 0.555115197540015
-0.294747649036864 0.0824500926050669 0.526467965157354
0.0952882483587528 0.0917102731400136 0.113518760036575
0.0940692888575663 0.0897804886380221 0.118714527353844
0.0929109096397359 0.0878787323374477 0.133706733002228
0.0898793197876529 0.0831525520713206 0.135778022873645
0.0913281615341068 0.0868735247220922 0.152051969708234
0.0837896519111325 0.0922132170744814 0.152077524583909
0.0722039191563859 0.0910360255791988 0.153862614200468
0.0660886547781854 0.0918818520699306 0.154531865316537
0.0566799393316168 0.0900522751877746 0.15614405751877
0.0477891874638924 0.0855892518736196 0.158176185765808
0.0369575765310643 0.0864418486808343 0.159481698293528
-0.0395419548785103 0.0941831883832928 0.109100630296571
-0.0359001164323622 0.0897483592963765 0.113150375202929
-0.0384719068409292 0.0929701646641201 0.125882256407126
-0.0406056181883789 0.0955905083483403 0.127324846209098
-0.0406732014308818 0.0957222473194602 0.135812675986326
-0.0338662861253655 0.0875078291806285 0.156314191138027
-0.046927670489342 0.0911609641509837 0.157450448798558
-0.0515114510435735 0.09169292012979 0.156731877097733
-0.0724034874893459 0.0965684842779108 0.153000750625148
-0.0912141949019019 0.0950769837050427 0.150735550068912
0.279752239942587 0.0839120149834354 0.499403488233202
0.302278289644431 0.0849293864226419 0.524155783734259
0.297092731580431 0.080256866967164 0.527040595232226
0.290443467808558 0.0770032145595689 0.530568580393637
0.281420497293703 0.0832434887571549 0.534690048513715
0.273799797138174 0.081511857715468 0.538608625531585
0.270075049375913 0.085497185189991 0.540221916445558
0.255720843724299 0.0820872268049183 0.547612141670432
0.253615451059477 0.0838469784737544 0.548554853523541
0.248868491757618 0.0832096349528327 0.550968167144529
0.23878273095105 0.0782791458094644 0.554906395330597
0.228860597799293 0.0817066002851028 0.553851539625896
0.213863561127843 0.080956116940265 0.552174778838168
0.199392552668 0.0828985118188249 0.550593866715944
0.195229360597285 0.0862925870447997 0.550178429752892
0.188507363102146 0.0798125844532955 0.549341541106327
0.177111034465456 0.0806337608429629 0.548086687596552
0.159058732481814 0.0855211899100671 0.546148757224301
0.140449084728186 0.0900225218237255 0.544359817569456
0.134211768737539 0.0853158542974745 0.543385131591429
0.115136413106623 0.0840398342373119 0.541247925131603
0.11103433529378 0.0828862547690116 0.540776116770894
0.0957868105151345 0.0901550707942724 0.539480570493594
0.0848870958675024 0.0904617535628147 0.539500015301544
0.0651971267449983 0.088271733506655 0.539361160029039
0.0651408058344376 0.0891642821969867 0.539417750876813
0.0417677146382714 0.0937240260322398 0.539706855294379
0.0328363523092164 0.0933449322110746 0.539682819361148
0.0313019704692955 0.0869172654952461 0.539275281808749
0.017096201268369 0.0923906499659958 0.539622314380469
0.00391931561713232 0.0924624184482969 0.539626864764443
-0.00880823906897866 0.0946388719228292 0.539764859866109
-0.0225199917666153 0.0890514390319939 0.539410596207896
-0.0377203893312555 0.0918039240511863 0.539585113813946
-0.0519163572515098 0.0954873401487073 0.539818655851395
-0.0572466585927987 0.087096860660415 0.539286668798348
-0.0711963736653848 0.0962078402223479 0.539864338188314
-0.0899230572268183 0.0894878246108993 0.539438264647874
-0.0973294098649226 0.094917740552891 0.540323862064719
-0.110616941379314 0.0952291995762089 0.541825562318667
-0.123988427530755 0.0911578282505551 0.54298046031959
-0.138719362553073 0.0981950645165229 0.545189047396723
-0.143828696670063 0.0951690513743253 0.545510869958517
-0.156054819868602 0.0895273710853841 0.54641090864082
-0.171956653930697 0.0938761455680714 0.548531142400293
-0.182079004988697 0.0906234041440453 0.549391543848234
-0.195227120891729 0.0993729555833849 0.551563397736015
-0.212665866167792 0.0980752304313266 0.553395588357308
-0.220149990227756 0.100267667206248 0.554459789061815
-0.225030911912228 0.0962296623019579 0.554656341358634
-0.282812484758608 0.0969808534408925 0.531957797951309
0.101287424134702 0.101105148409095 0.103154841966246
0.099522516863075 0.0982619021653518 0.117958037674687
0.100822242895687 0.100197000492092 0.130571039410852
0.100987787112405 0.100378200272065 0.141845879994632
0.0994002641635432 0.0978661765190654 0.148427687711357
0.0893187734304798 0.0980538172282793 0.150243499749994
0.0806236350655945 0.0942896173775571 0.152119170870511
0.0736869297373408 0.0954353456716795 0.15284366184519
0.0610820609175956 0.0933039606603109 0.154944037697565
0.0566623464146025 0.095230093686357 0.15518310671228
0.0481970437747889 0.0961771715860258 0.156151180966887
0.041130345555383 0.0994279101050674 0.156501607997146
-0.0430526088033145 0.0985797101094972 0.126230501943905
-0.045757414230714 0.101896668458886 0.127240318391447
-0.041728962013 0.0970349676445202 0.139327809668212
-0.0452867406370895 0.101431294882661 0.14643236192223
-0.052337813264956 0.0988531602109196 0.155288018735113
-0.0592189728492072 0.100123691024729 0.154121492998896
-0.0772005137041261 0.100601569550185 0.151601971709753
-0.0866709384783518 0.0991612921090745 0.15058979181132
0.302842697213527 0.0901640623705294 0.523017454089426
0.293356065231262 0.0910617410999093 0.513310889004683
0.296056646543512 0.0868120381448056 0.52714893955208
0.287778534113322 0.0861900772513326 0.531326868323019
0.279513499782088 0.0888285506445492 0.535379835365375
0.274821795547943 0.0932244056178441 0.537637013255502
0.269158173965138 0.0873149845202222 0.540588030287946
0.261518575088983 0.0941049083196065 0.544270861776082
0.260002179623983 0.0932311186253618 0.545046685801105
0.246740420054401 0.0961948174578269 0.551617781151591
0.239047563203722 0.0955832456264446 0.555476546348661
0.220444862039312 0.0915789626428105 0.553374707171334
0.216867301368802 0.0904032141278737 0.552881664001128
0.20879207457715 0.0914518271487239 0.552069622507956
0.191176495032567 0.0977812911308744 0.55062664178205
0.185025691846882 0.0963879608352177 0.549830002987236
0.170003046315501 0.0912587542408068 0.547744042178256
0.158323956680207 0.0906972224269035 0.54640073781488
0.149138299723657 0.092704781426461 0.545543235149886
0.127320450498144 0.0941059354743316 0.543232881624541
0.125005412843996 0.0936983245635174 0.54294253445302
0.108022710141852 0.0926535330370735 0.540970672076717
0.0954089852367004 0.0932779036032851 0.539678569502535
0.084200526771067 0.0952942194042023 0.539806411290651
0.0631407233056841 0.100409752401985 0.540130754771623
0.0646014375144745 0.0964670146920464 0.539880770796551
0.045663172954694 0.0967516353625583 0.539898816786885
0.0303686060519987 0.0977381374135196 0.539961364620968
0.0318296751648763 0.100192691815162 0.540116992337417
0.0121154708643408 0.0949735455138521 0.539786079394464
-0.00230814196100448 0.104937855885613 0.540417853075303
-0.0105102398846662 0.0986133591188835 0.540016856874594
-0.024889180955811 0.103142334298047 0.540304010446955
-0.0366914049094905 0.101011528089498 0.540168909548718
-0.0528816122602326 0.103305721931004 0.540314369819798
-0.0643628138874644 0.100470864214703 0.540134629483814
-0.0744070622035092 0.0993107348943407 0.540061073046527
-0.0865941472310173 0.105284862998957 0.540439854594033
-0.103454535663406 0.105096639600347 0.541831526554138
-0.110236208388491 0.102885231654888 0.542405355943472
-0.126071748399443 0.106863145750061 0.544488089126268
-0.138231761773129 0.10781401725087 0.5459164655825
-0.144843578354855 0.106596095261575 0.546552148599385
-0.162875505741227 0.102470483503568 0.54822046605249
-0.170383554824157 0.101323475336117 0.548961492620308
-0.18890785175883 0.105126353853068 0.55132875391009
-0.189739129215738 0.101806844438198 0.551151388557855
-0.206547813414689 0.102638654400796 0.553086609549796
-0.215572330979756 0.10925796919627 0.554790117973214
-0.231545890530764 0.111467533680847 0.556959072006039
-0.259967496504042 0.112228327889828 0.543072716415189
-0.293105926632442 0.111562907874493 0.526516924361032
0.105526992568366 0.107579509987265 0.120259737250182
0.107440334791618 0.110504616726404 0.127506872997776
0.10190154401895 0.101819138633125 0.13879052809883
0.102463248439346 0.102655740266151 0.144195961100151
0.10124808851209 0.103226579519899 0.147668594531022
0.0826469621492167 0.104961253731054 0.149860223207019
0.0833230124130266 0.104510942474842 0.149852619746975
0.0755475262511244 0.102806634050062 0.1512207379383
0.0677858864263585 0.10379844820052 0.152085373088465
0.0608050704662001 0.105245651147845 0.152759737501671
-0.0543719185996225 0.112352713980396 0.111733928171572
-0.0520799823322957 0.109577427742725 0.11700298672787
-0.0583635175257466 0.117284688078449 0.119631606951224
-0.0523578339927378 0.110039768695798 0.138168843685333
-0.0545243604285247 0.108886691106143 0.153125727179693
-0.0620359862517379 0.108533525723911 0.152176067002763
-0.0715022895564651 0.115599743919543 0.149581817673549
-0.0857620842903489 0.112680278419092 0.148197447711055
-0.103733363335677 0.114315476556117 0.145463995172711
0.299659841354785 0.102747329803028 0.525025891671502
0.288557011233602 0.10271050148089 0.530578049641725
0.28527713566964 0.0957748380399301 0.532357895268191
