ply
format ascii 1.0
element vertex 841
property float x
property float y
property float z
end_header
-0.240366309714466 -0.310563935912957 0.738466724278842
-0.23744869025905 -0.316806530567965 0.745627609379561
-0.229475675094374 -0.319600567910677 0.754526144345272
-0.227470746720771 -0.326845036070497 0.755657999610046
-0.219354164260435 -0.335023021919443 0.759113042463616
-0.274784972723171 -0.260482632328154 0.886166456870804
-0.276573853034063 -0.253529337336471 0.901423157299134
-0.32575089894622 -0.193744994486276 0.972826689489455
-0.325681625251211 -0.20010851803874 0.973646496903777
-0.324199865552692 -0.196220231056154 0.984222990471228
-0.324070078191994 -0.19684410644142 0.984320338567802
-0.317459332553444 -0.205026490103183 0.99085752297055
-0.309454643671701 -0.209809067668958 0.998261687749164
-0.301940423989084 -0.23170599375652 0.999521608484425
-0.288409635104278 -0.242778996696371 0.996776983204824
-0.311112121361828 -0.194935589611466 0.118049418974473
-0.317674531627371 -0.194197282177686 0.130503654293954
-0.312484708754198 -0.190590812708793 0.132168555751582
-0.310322449963173 -0.193535705383586 0.145220304962586
-0.309190048667692 -0.198509387149692 0.149134254566383
-0.241719940414723 -0.281277168978239 0.509776844378994
-0.252144305164845 -0.279697836305846 0.528702129032681
-0.253772317004237 -0.279110421787418 0.534532058112844
-0.249325505829919 -0.278001022541227 0.543557839812204
-0.248507425155631 -0.277700662470237 0.546332222912842
-0.249082174252161 -0.27658976490078 0.561502093520464
-0.25511386117822 -0.275966615438834 0.576344630434789
-0.254174879041694 -0.274713176001737 0.590699725371008
-0.25218929406325 -0.274101682934902 0.598889417516865
-0.253024056351474 -0.273788870365447 0.605936286728105
-0.257376654979641 -0.273597183075032 0.619392956734401
-0.251442046314077 -0.272795848106634 0.623435481284744
-0.255331157809889 -0.275883173241148 0.639885179512903
-0.254134180878006 -0.272766670949514 0.645084894598226
-0.251122063590086 -0.274750025082845 0.659261410713735
-0.249252678298236 -0.272746587563409 0.66770029173048
-0.24876338118873 -0.276174632045681 0.670348262169221
-0.231133024669859 -0.296655129169311 0.73764563255685
-0.233995600165606 -0.298573382300186 0.743883021034162
-0.249269984210614 -0.269133440756127 0.777838984601911
-0.253080714021854 -0.269578660208876 0.794191697989375
-0.223087076701956 -0.314962462252426 0.759682175331621
-0.216098043441575 -0.324264061213482 0.764291103797015
-0.261557074612394 -0.258223510944418 0.834938254660692
-0.263044916889996 -0.25696796502921 0.84970521947728
-0.258342281278293 -0.256169297694534 0.852361618981413
-0.265014222187577 -0.255934148716024 0.862751882754546
-0.270376480454361 -0.255149323751661 0.877268357244678
-0.27345791721717 -0.254623762782636 0.886381838670891
-0.324204995321525 -0.18248676078466 0.960751511598006
-0.325393283511925 -0.175808075625711 0.977058826731065
-0.324659991239132 -0.180880497304649 0.983300110537021
-0.320518015517543 -0.184058336839963 0.986090093368126
-0.31804895841172 -0.194615694701183 0.989891005643407
-0.314055509448959 -0.194075096028084 0.995163134246027
-0.304383585000676 -0.20615632899333 0.999184187769485
-0.303858550220086 -0.214884970962001 0.999256699409199
-0.311315389231578 -0.19008329671123 0.126640218547716
-0.310168142442253 -0.189268598715398 0.135226310672943
-0.305410437318628 -0.186857236163478 0.141887857346058
-0.308411161974168 -0.194483459267625 0.14749870013317
-0.230492468579101 -0.282274409224803 0.493638813808867
-0.231217259766168 -0.281461295581752 0.500303033239967
-0.231506611873902 -0.280078530976884 0.514023029381639
-0.235766070449379 -0.279594953989291 0.520654915114724
-0.234630246672489 -0.277925695014393 0.533331435616508
-0.238694883938777 -0.276487193222794 0.552397714827128
-0.237156276698085 -0.276295279462914 0.55383675988775
-0.234223111846212 -0.275555921742428 0.562471748599281
-0.239085299225986 -0.273625346714207 0.58742316327652
-0.238578801878206 -0.273167926376207 0.595060745162014
-0.239058980645936 -0.272990501620517 0.599068030796576
-0.24002197914272 -0.272458973355192 0.610338781594519
-0.243301282650536 -0.271902347353383 0.625648150426668
-0.243741826402412 -0.271613893082938 0.632058909965525
-0.23495683775751 -0.270544820670693 0.63775115313352
-0.242810115866233 -0.270663971603083 0.652269916395593
-0.24174070490544 -0.270109296009846 0.662744224726967
-0.244757207018898 -0.269399578001089 0.683673436884504
-0.244534751834627 -0.269408441254833 0.683125963460457
-0.245016475282851 -0.268878974373027 0.692829954741289
-0.242360311062944 -0.267789399769031 0.704393567094221
-0.240325293260519 -0.266054395195624 0.719110310268154
-0.243901202449399 -0.266298392741243 0.720331554281185
-0.241052895418068 -0.264889446137434 0.736214220959382
-0.244044811489442 -0.264219149494216 0.750857106876539
-0.242759516101547 -0.263087505924295 0.762332936208603
-0.247168320686735 -0.269984838949895 0.763180260277862
-0.251422261535185 -0.262552900589645 0.786391699226551
-0.245583125352627 -0.260179361112876 0.795648413800255
-0.24323934652713 -0.259550435110055 0.799361459985711
-0.249983015137021 -0.258120526317963 0.822200817235667
-0.247152355601939 -0.257318808874758 0.827121284517226
-0.254027024465023 -0.257175328936788 0.836804715334266
-0.256084262899898 -0.256236502709956 0.848973275533513
-0.297475183522961 -0.193156730491992 0.908753463832437
-0.260634852213639 -0.252914295306745 0.873378159310804
-0.266828052229613 -0.244011417149497 0.892123729033228
-0.325440162061589 -0.167939578849562 0.966831650861784
-0.325273326429678 -0.173382320382473 0.978478437817399
-0.318965155851346 -0.17111232697095 0.988389170728852
-0.315759705299143 -0.169287985580785 0.993189797924479
-0.310698118941751 -0.182949722996437 0.99751093007279
-0.309453078232793 -0.187552530244116 0.998262632894842
-0.299284200784117 -0.200167968132372 0.999888454848054
-0.296091584206606 -0.209561891761983 0.99957909494123
-0.297775750482109 -0.180047202716453 0.127719947814701
-0.299439280946705 -0.181317508098434 0.136297739365668
-0.2980684097404 -0.186417243665371 0.148568072710992
-0.294031315793867 -0.186773889500571 0.150755240792104
-0.214504094582306 -0.282410695085343 0.486943353096213
-0.217594819974093 -0.280118450374491 0.504653003314279
-0.231052996733638 -0.279132768577814 0.521667898398133
-0.225758867952622 -0.278123542747393 0.526722432079504
-0.230141187831454 -0.277144079584943 0.537829108374739
-0.229317590365087 -0.27553693107986 0.557707546876702
-0.22828540892712 -0.27526740054103 0.560893696150011
-0.228636831492367 -0.273323541763606 0.574974895427266
-0.228436819655993 -0.264227364434157 0.594042905826824
-0.22837613557532 -0.270562238355787 0.595017609866338
-0.227413124500661 -0.271554695443131 0.604264356558855
-0.22717726977572 -0.271056321369247 0.616323461774026
-0.22880019607782 -0.27070763053389 0.625247755263875
-0.233122816864805 -0.270464980943891 0.636388808000869
-0.228999668305666 -0.269350563601755 0.650535108606709
-0.231360445131034 -0.269100108654377 0.660493036512759
-0.224986022469044 -0.268431296201349 0.66125839610665
-0.233237527052203 -0.268163345695397 0.683622542782196
-0.226483564654111 -0.267318476592005 0.685626821346505
-0.228623180333653 -0.266949599576364 0.695675263432459
-0.23374285961065 -0.266937211718874 0.703718019056769
-0.236747385605097 -0.265128363642659 0.726696822774194
-0.236505286056908 -0.264374883345521 0.737463396968203
-0.233193259311632 -0.263451586853408 0.746763738481936
-0.240385241950218 -0.263284256698745 0.757519829168925
-0.240057764506431 -0.262342479007759 0.767875325342644
-0.240283103666259 -0.261233562786615 0.778418612098631
-0.235505295668926 -0.259583591007929 0.789794786078295
-0.242448415325168 -0.259872292541226 0.795087572912654
-0.240141319879789 -0.250816437864773 0.813212906195567
-0.245345436148067 -0.257415638206585 0.823964361490289
-0.306612154708466 -0.173051041538879 0.904896806672264
-0.301912648378425 -0.180347398899699 0.90955670703883
-0.281325840870702 -0.20231346885745 0.90366306219589
-0.324916927935402 -0.14637518717357 0.964256017749599
-0.325821208664351 -0.152209165231717 0.96870736232294
-0.325262973908096 -0.150391656574765 0.978600952921417
-0.323679204984926 -0.148289745249163 0.984613516289458
-0.319092780481665 -0.15677577317377 0.988179967867678
-0.313580805013662 -0.159919404733547 0.995712807867208
-0.312930942448381 -0.163537715090409 0.996162845854339
-0.296288543780078 -0.183747272005936 0.999613855088008
-0.293332258103066 -0.194355178930112 0.99909211896603
-0.292545272017867 -0.176601238925489 0.12689385871098
-0.293030097533066 -0.176177319912199 0.129114214331528
-0.293259325670668 -0.179674336911123 0.145793962471276
-0.287860377225514 -0.180128453059544 0.150477070921333
-0.285011531688182 -0.177477141494674 0.150557844367392
-0.204982679557276 -0.284867939568013 0.465294109303802
-0.206217398434709 -0.284765558666751 0.466335809493754
-0.200911180380015 -0.282705861247635 0.478830606201169
-0.20471317705494 -0.281707340857906 0.489110098161293
-0.213367648169092 -0.279310133039129 0.508881385446697
-0.212789198252672 -0.277374789137515 0.525149676413931
-0.223483597491873 -0.263920669929511 0.551384428758534
-0.226227902456851 -0.261651999644996 0.560284141616438
-0.222859940121558 -0.259779945223637 0.565692747141126
-0.227055614645819 -0.258131265646446 0.580906721285173
-0.22861558870613 -0.263757349912464 0.592308520103534
-0.227865219599404 -0.258406322434833 0.599130726241579
-0.226434780259242 -0.260400193721637 0.612898158403804
-0.2263786137158 -0.262103618399771 0.613540310854259
-0.224750691583793 -0.25566025933632 0.628663908246807
-0.223502867434286 -0.26162619358408 0.640937901963217
-0.222215837972555 -0.256435033932292 0.652888497976245
-0.220866811470699 -0.262951699792472 0.666162129853957
-0.221884617533276 -0.268079887802378 0.662937788181976
-0.220052237852365 -0.267078075459051 0.678089172136989
-0.22663575032922 -0.267213841570555 0.687658623922065
-0.219026479640574 -0.265743326495484 0.689919008856529
-0.218304363333142 -0.262229217472012 0.700576253923254
-0.217761509713839 -0.263451365993604 0.711660506069137
-0.222454541447892 -0.263956370950148 0.723495838645052
-0.222904623734527 -0.263129441473791 0.736591685327602
-0.223648593642172 -0.262151370878979 0.751581457231673
-0.225794033654292 -0.248682802354172 0.768548538214466
-0.229383646226895 -0.25071983242147 0.781098505666876
-0.234668559234953 -0.251744389746678 0.796936387998242
-0.311911291601169 -0.150413026328082 0.896949251404678
-0.309795079610444 -0.148377812361844 0.907680026287752
-0.306312681603518 -0.160741803085295 0.908254397882456
-0.30237538413585 -0.164386852546183 0.906399120360198
-0.246094172997677 -0.239457651713731 0.854040118752875
-0.2424844788237 -0.237401049394749 0.860510835420719
-0.325962552457465 -0.12703975347796 0.970321913069444
-0.325239373535042 -0.129732695978663 0.978809971531581
-0.321407071842397 -0.129827129409765 0.985816534002586
-0.32006112233367 -0.140522786436873 0.986592657600626
-0.313002511964162 -0.143594479455089 0.996119635213435
-0.310489583249849 -0.149981424946766 0.997636835086959
-0.304021804464452 -0.153688583352787 0.999234152649656
-0.296642331316206 -0.165928681818646 0.999676292807928
-0.285543502756162 -0.170699634619285 0.129504562289029
-0.286630383199406 -0.172041166613446 0.138658385000527
-0.277021736348576 -0.169122867650321 0.149154931922102
-0.277525297573291 -0.176557103274479 0.153582051308667
-0.191210779150203 -0.284764276348174 0.461287281210952
-0.196556033995009 -0.284565716425028 0.46507502283617
-0.191719280682807 -0.282370564586297 0.478526911688585
-0.191341178788655 -0.281153599509405 0.487355025854429
-0.200640456838859 -0.278480447145557 0.510918885940646
-0.210902618212774 -0.261893068636174 0.52773944435245
-0.212516921470318 -0.261105989925896 0.54088374609334
-0.212214838193377 -0.255262886858973 0.553622060254432
-0.216353007690322 -0.247581816373152 0.568153191317704
-0.217341831592011 -0.257845435876991 0.575474695762017
-0.21988977870587 -0.248655390533544 0.596039624403965
-0.219517100096621 -0.244648219417446 0.603179175055193
-0.219094977780134 -0.252274078825186 0.611265949429882
-0.218567896460373 -0.253208145114538 0.621363459584902
-0.218943655892638 -0.255049399300013 0.627286289670839
-0.216198761922132 -0.245662555596356 0.641222331581256
-0.215464081184471 -0.252827151343782 0.64654145135225
-0.219009132103682 -0.252947966745298 0.661117091288413
-0.21487846664553 -0.252050122000729 0.67511850514815
-0.219493909485669 -0.253054172805221 0.682085274709134
-0.217259486863527 -0.25118564721907 0.688301993206344
-0.218157964681803 -0.253579030188192 0.702668373883054
-0.217747141072958 -0.250342928185553 0.711144766244743
-0.214951981365777 -0.248684556695739 0.718503966447186
-0.217314340468877 -0.247485520094363 0.738708077707274
-0.218970402628127 -0.249248771268771 0.736096924368648
-0.215240932372445 -0.246942332928742 0.749179753487204
-0.218844297261609 -0.245075903320071 0.770496694251349
-0.320583838262246 -0.115740389658014 0.899041389170991
-0.319223062459029 -0.121872249638735 0.900704886614118
-0.316948047172488 -0.131427410172506 0.902320067995068
-0.310551858390816 -0.135778958615351 0.906305231246632
-0.233454558496994 -0.230285929856822 0.833394904777936
-0.238869601200996 -0.224468726489603 0.849655726255526
-0.244155408307378 -0.211691698476323 0.865528466401845
-0.325782237150076 -0.116525722048895 0.968515524066272
-0.32530526933494 -0.11955368523437 0.978100415098016
-0.325313596090126 -0.123038233178941 0.978001873571718
-0.320118945631987 -0.125512849527287 0.986497873393062
-0.319106664688053 -0.127159485014656 0.988157208814866
-0.312932754818639 -0.132908802622191 0.996161751621975
-0.309050922587609 -0.145329246230421 0.998505437432246
-0.301499711070159 -0.149917296589882 0.999582474578588
-0.285691566285976 -0.164107202620835 0.995453888399015
-0.274891275735486 -0.167342787395662 0.12157027825409
-0.279545970169813 -0.166263466829781 0.134108388362252
-0.278571797675986 -0.167061486976273 0.144890347542958
-0.273012451831846 -0.166107339997507 0.149547252732976
-0.268271882382072 -0.167323061509315 0.153756591573894
-0.179985892386849 -0.285285207117587 0.450597486978214
-0.174625144408902 -0.285249914244323 0.449690864304939
-0.181672883435148 -0.28373618141674 0.465849920766924
-0.189473788247898 -0.281679969333713 0.482585376316507
-0.190491571443206 -0.263704044852217 0.506828713114812
-0.198471620443275 -0.262516786143507 0.522239908411669
-0.209230381619926 -0.246786110050657 0.544347788198224
-0.216293767236588 -0.235021838010145 0.567714564088235
-0.2179461003503 -0.235031469493084 0.579948866148556
-0.218816610057447 -0.235564354916194 0.586394345132355
-0.219832344565374 -0.240993742429113 0.597139906340306
-0.21914313106371 -0.241700804785652 0.610343447846892
-0.218866647223073 -0.238538673247335 0.615640157318887
-0.218413242161805 -0.239641957358496 0.62432624916834
-0.216457851527729 -0.235487831032036 0.639346509104523
-0.2162896468432 -0.240693527282343 0.640564319438047
-0.214592522241838 -0.244483606374642 0.652851569158609
-0.213810219138913 -0.248456239228113 0.658515475578755
-0.211987710126202 -0.247721992322338 0.671710511724512
-0.210538690799529 -0.241429654376235 0.682201465985776
-0.20964968687337 -0.250533437446512 0.689980520726622
-0.212565232960507 -0.250234860873341 0.702171848684272
-0.20964647381585 -0.248989345615675 0.715530253152881
-0.207972737681974 -0.248727001745704 0.718535588303555
-0.208602950557656 -0.244174710733757 0.730645001429255
-0.208987291708162 -0.244701659955658 0.736812721542899
-0.209688946274972 -0.244407200677962 0.746196692862475
-0.2137373784795 -0.245333037777897 0.764913524206966
-0.320813819094588 -0.10202894034113 0.904327974544553
-0.31055038549669 -0.119017253109478 0.903231427038094
-0.314426043842074 -0.116637495271625 0.905247583750575
-0.309064077282815 -0.134302334021305 0.904986955092436
-0.238957073453462 -0.203748596747623 0.849918396516748
-0.242366522401991 -0.2089304547774 0.860156624305424
-0.324484233627314 -0.103339480620023 0.962126069163321
-0.325786000244712 -0.106679964939081 0.97241128931841
-0.325318067061046 -0.103292165425437 0.97794896264919
-0.318176047584602 -0.110895466349268 0.989682680506443
-0.315959676031895 -0.118140415625518 0.992958246186959
-0.313500969288169 -0.115094468823938 0.995805251899891
-0.307100201543301 -0.12427714235025 0.998809000587108
-0.300458528048784 -0.130659131515521 0.999726270553471
-0.285068825719966 -0.159650496705821 0.995135053423463
-0.261907611759743 -0.157694694824182 0.122532576538229
-0.271549394196221 -0.160813539989021 0.129216395487278
-0.272090270982735 -0.164538435439387 0.148703889792401
-0.263693358843864 -0.160575668837088 0.152182893044254
-0.263765317041536 -0.165751681782036 0.155201372935676
-0.167691693371118 -0.284818823115028 0.452008866949643
-0.165940123501222 -0.28251948873319 0.46963401325017
-0.172014048266497 -0.281945072149963 0.477428907528072
-0.21032326067886 -0.228242185806744 0.547743939884846
-0.20598675324644 -0.23812859264912 0.537467021775824
-0.215789649954977 -0.232632744045048 0.564730880421059
-0.217381153123686 -0.228498331107928 0.575765852986881
-0.219280003201643 -0.214783112095767 0.589825435289102
-0.219901060406675 -0.218156965265072 0.59582346827673
-0.219190662848806 -0.223724813349898 0.609432845755383
-0.218709234758787 -0.218821074339475 0.618655753219757
-0.217865152327837 -0.219056862864524 0.62915760617585
-0.216811494855566 -0.220937939517626 0.636786112431955
-0.216263911954166 -0.221230434012368 0.64075063412089
-0.214480517204885 -0.224007877230713 0.653662482720607
-0.213257529358294 -0.229320092691687 0.66251696436636
-0.212381199776476 -0.223201599495268 0.668861622577617
-0.211540072469983 -0.229764435638575 0.67495141944895
-0.209514882407294 -0.227610630806982 0.691851571850051
-0.209194865015461 -0.231899356959779 0.696293370485894
-0.20792098212604 -0.231672241802745 0.713974686473295
-0.208018669841973 -0.230349570656351 0.721268748281811
-0.208484651341532 -0.230883470470705 0.728746593065354
-0.209366720714866 -0.223013389155454 0.742901627545676
-0.326313059747479 -0.0879622248274273 0.891581710231985
-0.210670953849074 -0.23371055165565 0.75152530411089
-0.319145129692087 -0.0943091223431265 0.904153906177814
-0.320348858183397 -0.0916748622200568 0.904319666866106
-0.224871165978784 -0.216342863253797 0.807619851645385
-0.229281997509585 -0.202573505764895 0.820865129293347
-0.238449218366018 -0.188511775290538 0.848393359436743
-0.239260775530193 -0.20225749671799 0.850830382907631
-0.244160734433903 -0.186130736727992 0.865544460217097
-0.325606645442977 -0.0887827084507948 0.974533832315975
-0.324989471288268 -0.0949179478807903 0.980746682117503
-0.31907965225308 -0.0918684167884107 0.988201487718316
-0.322150416191804 -0.100176054276221 0.985587809676673
-0.316341714238299 -0.103078575434955 0.992515873399328
-0.310194450717739 -0.108385012757802 0.997815023603744
-0.305992743878267 -0.119845314889788 0.998961949637674
-0.258133247125604 -0.151953170288133 0.1271594662489
-0.260204732381025 -0.152044283837186 0.135640716119766
-0.263442436135993 -0.155541746559737 0.144551632140336
-0.261897407676937 -0.15457886912945 0.145719984451514
-0.258206588118405 -0.162123177545154 0.156102008506704
-0.151778226611069 -0.283894676334214 0.456883040270131
-0.208909928089354 -0.217594162158731 0.543351975148672
-0.209953642078276 -0.221003230858899 0.546595341922028
-0.214576850392277 -0.211275249542719 0.560962078599819
-0.218606690116799 -0.203988267739991 0.584840054780551
-0.219924888015663 -0.1968694631405 0.594600335723204
-0.219398395180105 -0.203980020532587 0.590702043977761
-0.219104035978167 -0.202619526085499 0.611092372231063
-0.218344521987309 -0.203046627452935 0.625642772693616
-0.21848417963498 -0.206306394154486 0.622967247202134
-0.216257254477636 -0.205909418290785 0.640798829064758
-0.215914882758641 -0.210868172054285 0.643277615439898
-0.214788696737643 -0.216691253111814 0.651431248270612
-0.213504131176669 -0.21266420450122 0.660731551652818
-0.212272878169494 -0.207450750070303 0.669645869642352
-0.210306121791546 -0.209611734463213 0.683885263373323
-0.210423783835248 -0.21183814593318 0.683033386374556
-0.208576409781313 -0.210796979829568 0.704877426465156
-0.208467291768398 -0.222448489781749 0.706391976846935
-0.208010183953424 -0.210690725290714 0.712736561086026
-0.208229077359715 -0.216001785111675 0.724645265934233
-0.208923917397738 -0.222400979523428 0.735795721389324
-0.329930247844102 -0.0637141979713766 0.89031283890984
-0.329808640903445 -0.0685784755976332 0.897426410587615
-0.325612027580437 -0.0750508825588125 0.902785629115259
-0.317770656705026 -0.0861191404799166 0.901865772317976
-0.226364617563197 -0.189951434550079 0.812104534579024
-0.229005152738891 -0.188476952246193 0.820033792655883
-0.234922336110928 -0.189902416164252 0.837802491394261
-0.24232330240177 -0.170378498438756 0.860026839048635
-0.324442872948343 -0.0774761811001595 0.961922470183496
-0.325770884320565 -0.0723815426670066 0.968459639478203
-0.324940772298163 -0.072889472337212 0.981124093088705
-0.324850642004371 -0.0771858100049871 0.981822591386951
-0.319958663261264 -0.0799108414244822 0.986760608967436
-0.316084790560854 -0.0840431189710351 0.992813372553848
-0.305583147900182 -0.0937706876437183 0.999018518225297
-0.301719146975811 -0.107879025106165 0.999552168667592
-0.297052634231191 -0.110688202405315 0.999748704568863
-0.253276678896425 -0.146559431665213 0.13384045025224
-0.255931106492448 -0.149480447650018 0.142651031718415
-0.249928859251911 -0.146074322315224 0.148880039156421
-0.246622997363891 -0.149953208952155 0.15575254283059
-0.245949598018084 -0.159504833592947 0.156031172929683
-0.20822119945246 -0.203309667277407 0.541211735818905
-0.209156898762409 -0.206347439641492 0.544119444335597
-0.214411490203387 -0.191652731774321 0.560448220572817
-0.218945247593369 -0.185028583752412 0.587346828697571
-0.217887663572436 -0.193921024827737 0.579516199727848
-0.219803844440689 -0.183677643314314 0.597685842025315
-0.219304017012983 -0.19089274797857 0.607261244159066
-0.21858005075459 -0.180988320572579 0.621130572815232
-0.217560767374589 -0.179949676318849 0.631361357579147
-0.217073654466784 -0.186132137362804 0.634888061979902
-0.215961437339925 -0.196240806505543 0.642940553254248
-0.215083206151271 -0.187026978105739 0.649298978072946
-0.213231580395057 -0.193300528814119 0.662704823069495
-0.212947627369885 -0.199111561250812 0.664760656123526
-0.211521190456288 -0.206834357968365 0.675088117814387
-0.210489176553026 -0.204483731110209 0.682559937930505
-0.209553962370292 -0.201750587776934 0.69130912991989
-0.208715569141772 -0.205917437076922 0.70294591108301
-0.208039430635194 -0.198811556643267 0.712330615823964
-0.20850883365463 -0.203616973780544 0.729134659080898
-0.208608533178625 -0.20835536360318 0.730734588619162
-0.330023454458188 -0.0442292342725169 0.889224796013598
-0.330333332993705 -0.0461668594764622 0.897897715096972
-0.327914614854824 -0.0588591370226023 0.902434369443185
-0.217558060760794 -0.196492262549222 0.783267341368027
-0.226157930248475 -0.175496697800575 0.811483873633193
-0.227685927686574 -0.180956860107722 0.816072294245421
-0.228312242128521 -0.186710770638024 0.817953052696655
-0.241003762583816 -0.153112523021655 0.85606439542904
-0.244755819924019 -0.152923441402673 0.867331441308038
-0.325637241823175 -0.0495576287388446 0.974171744811693
-0.32570133522388 -0.0615944302513499 0.973413242683288
-0.321217858646726 -0.061007814210461 0.98587475420789
-0.31891408758713 -0.0696055631178253 0.988472882054499
-0.315484875430241 -0.0734250260599108 0.993508031161871
-0.307529472460224 -0.0772664976015549 0.998749714727926
-0.308274899085484 -0.0825424460401522 0.998646765154142
-0.301137208752819 -0.0956568546617524 0.999632539142693
-0.28980528066033 -0.105412439768982 0.997662033432186
-0.241308587274601 -0.138381065834988 0.13175128307539
-0.245172935914901 -0.140805364059562 0.135704057850548
-0.243301903820083 -0.140097356022515 0.143837536625998
-0.242965574401585 -0.143481371242696 0.152459031125852
-0.24073048877151 -0.149628426726181 0.158348963114791
-0.212487472087614 -0.174802311912189 0.554469288728217
-0.213977387579298 -0.180782814840741 0.559099237431603
-0.216990093865589 -0.172924677923596 0.57287036877359
-0.218585707272322 -0.175361393105293 0.584684702540766
-0.219683768073437 -0.175117072678461 0.599986185522804
-0.219593278394982 -0.169806186222195 0.60171972788479
-0.2190008251207 -0.178503062729372 0.613069602058826
-0.218013318291326 -0.17039907257097 0.628084882486738
-0.216624205119826 -0.177211150045214 0.638142081887434
-0.215904461040453 -0.170812393896067 0.643353054847917
-0.215198371094631 -0.178311508889937 0.64846517628866
-0.21399638178279 -0.17969364984207 0.657167626325979
-0.212705759830932 -0.180355196321227 0.666511779881287
-0.211849074620535 -0.182091237741123 0.672714214868535
-0.209861760412156 -0.179755082011849 0.687102446495856
-0.209481357502662 -0.193305833781007 0.692316869362775
-0.208929661042904 -0.188358445664153 0.699974334093011
-0.208008687482233 -0.185994844274034 0.712757332173645
-0.207788465708322 -0.189391411857795 0.715814020327958
-0.209391464859854 -0.178751753821734 0.743298751400504
-0.330588485612362 -0.0373846872409919 0.893535820483776
-0.330523363031785 -0.0399895904640242 0.893336754194213
-0.327813334230649 -0.0443484106285918 0.902729604001178
-0.217339788640585 -0.18311032150214 0.7825114297057
-0.218651243911006 -0.174986953212173 0.787053211462274
-0.227401946940868 -0.160545260476113 0.815219529002112
-0.231900322954772 -0.161010068430726 0.82872769381254
-0.236385583723327 -0.154658617446752 0.842196474877556
-0.238883867374598 -0.151736443014155 0.849698566121209
-0.325079786515945 -0.0424968564765477 0.965057693197848
-0.325581971001954 -0.0495736022423474 0.974825837667966
-0.324686360006592 -0.0355006004695926 0.983095755947424
-0.319292724794113 -0.0471104380199286 0.987852218262174
-0.314117044867092 -0.0516563040973601 0.995091880654105
-0.30989374284861 -0.0598773269803233 0.997996578272769
-0.304802079636853 -0.0648114616292869 0.999126390203681
-0.297066058393624 -0.080741221855811 0.999751073714207
-0.0886448418780599 -0.327636366914832 0.782797516359138
-0.235967923049146 -0.134427453148405 0.138887625442821
-0.234703723056375 -0.133458048823584 0.139836499226804
-0.237706976402627 -0.139610079873892 0.153063078934
-0.235196189887076 -0.138125520409144 0.153762638731666
-0.232253748143701 -0.143757771683467 0.159427820243175
-0.211141733773562 -0.161227782671652 0.550287375321094
-0.211994618149247 -0.173725244887526 0.552937732970019
-0.216926397551317 -0.162439329767533 0.572398748502673
-0.218727245052358 -0.14954835958604 0.585732694067955
-0.219402737793323 -0.151563705972147 0.605369974222544
-0.219166946991303 -0.154577366195732 0.609887116428867
-0.219301430201003 -0.16053222597946 0.607310772848094
-0.218452929782091 -0.158675263444395 0.623565923890486
-0.216574407272094 -0.15406997642979 0.638502618790776
-0.21546109734843 -0.155353244827446 0.646563019792817
-0.215453157876335 -0.169397536876664 0.646620506873061
-0.21374388153185 -0.164283308714719 0.658995732523059
-0.21287367837455 -0.172609883839361 0.665296040316377
-0.21223575151169 -0.165024357030008 0.669914653013135
-0.209902161588308 -0.163614370962052 0.68680993466566
-0.209179739328893 -0.163658285464 0.696503266352112
-0.208777967552213 -0.164838473548788 0.702079802060087
-0.207800381327559 -0.168160350041434 0.715648630995537
-0.207757349113403 -0.178471744864524 0.716245920068861
-0.208191696135515 -0.176886868807987 0.724045390203866
-0.330953080121519 -0.0228009068746742 0.893645241349506
-0.329922703072132 -0.0245176268688134 0.900547982346479
-0.329106716752099 -0.0248503018545026 0.902562997522637
-0.22042350871558 -0.150535676193445 0.793190851181123
-0.219494091930841 -0.157956264383626 0.789972130503121
-0.222837493142948 -0.153868035647314 0.80151293933924
-0.233326466389355 -0.136682055336647 0.833010257230564
-0.238853582772251 -0.128194831878431 0.849607624546192
-0.24197732039076 -0.135122810077651 0.858987890323204
-0.32590008752778 -0.0209773473667041 0.971061143342698
-0.325623163021106 -0.027659845610207 0.974338357929688
-0.324697595815801 -0.0270963369347718 0.983008679857007
-0.321115178954029 -0.0405070178469699 0.985906348372178
-0.317905174573314 -0.0399867656736221 0.99012669675029
-0.31109369498415 -0.0502541880337425 0.99727209802074
-0.311941811859214 -0.0472603045359464 0.996760040990131
-0.29622441329304 -0.061581146848057 0.999602537104815
-0.286979778290424 -0.069701775572877 0.996233335866585
-0.285422001029314 -0.0783973804516896 0.995412813724975
-0.0768552207695722 -0.328753935374376 0.784126539574208
-0.227556793433903 -0.128230314973898 0.144561285755798
-0.231704379027963 -0.131315077475094 0.144186111717553
-0.229184047371898 -0.131658165664425 0.152252884825006
-0.224016597857305 -0.131933668530392 0.157520300147968
-0.210835323484309 -0.149712743874671 0.549335199392943
-0.210410810909591 -0.159304659127834 0.548016014558121
-0.21489853048652 -0.15187508708479 0.561961716323673
-0.219534530203172 -0.134568865101045 0.591710047584874
-0.219757038446242 -0.140172129479685 0.598582483332212
-0.219138352359899 -0.134878000400073 0.610434897198618
-0.218942414409214 -0.1344988190477 0.614188559149137
-0.218378283879399 -0.143835298102685 0.624995971000817
-0.21714455515657 -0.141703395060269 0.634374739974513
-0.216384572040008 -0.145884577765814 0.639877028578918
-0.215394997340795 -0.149249776898327 0.647041584259192
-0.214758268125796 -0.147941785146799 0.651651528170135
-0.213543760522524 -0.149981444503206 0.660444611359892
-0.21116667252443 -0.149700183329536 0.677654821172817
-0.210770089733364 -0.148985571519315 0.68052609580957
-0.209578892699727 -0.157330263133984 0.690963070235401
-0.209393941124799 -0.159742143374759 0.693530173335484
-0.207927095231959 -0.153583991563365 0.713889836287409
-0.207915689194809 -0.160081171488242 0.714048152597486
-0.208582089641518 -0.144962082847118 0.73031023557896
-0.209182612664776 -0.145399949258186 0.739947165076269
-0.331477142984571 -0.00183839235260768 0.894636774709718
-0.329450353038731 -0.00886306739488476 0.902902949390526
-0.323317704239857 -0.0158523254323372 0.902572024492662
-0.221571823966518 -0.140522192836368 0.797167652658941
-0.225828700059127 -0.13093715553564 0.810495228921293
-0.229624429121396 -0.12576829373259 0.821893416531752
-0.23656003108452 -0.114773403928451 0.842720322528009
-0.237382413061783 -0.123525474114861 0.845189851809612
-0.245021026326306 -0.111487575707552 0.868127829111057
-0.325543198550346 -0.0112541052222674 0.975284683457776
-0.325271694813385 -0.0162110606181686 0.978497746894738
-0.322824919974882 -0.0175184494220593 0.985254279913981
-0.315535764638704 -0.0243797905504636 0.993449105115651
-0.31663186899226 -0.0241866686085438 0.99217989504637
-0.308406850568811 -0.0290034312381239 0.998628541564444
-0.300330092033484 -0.0429234798228055 0.999744008627999
-0.296861984501791 -0.0480364927592785 0.999715058006474
-0.0831403964275605 -0.298142508532437 0.780586408093021
-0.0805361636537303 -0.31239104397896 0.784191507478078
-0.0699994773230351 -0.319232849528345 0.785722550601502
-0.22254664069752 -0.124328433560981 0.144088659926007
-0.222133996723978 -0.124128587178093 0.139094508726419
-0.217099342930864 -0.124663647261873 0.155719495103757
-0.217931645683769 -0.131643373766556 0.160792986394036
-0.211766787605605 -0.133069074369696 0.161820419658636
-0.214702343117732 -0.127630094880068 0.561352062753937
-0.217543222519527 -0.120391548769982 0.57696589515117
-0.218369347260745 -0.120136412258027 0.583082736639705
-0.219711755980205 -0.132299937023692 0.593022273912978
-0.219528320157044 -0.124732927861174 0.602964117595707
-0.218665053172148 -0.117376107416972 0.61950211824217
-0.218837925598235 -0.127919208076143 0.616190287369247
-0.216642502526979 -0.122686968605265 0.638009608174091
-0.217112084161561 -0.136556145814632 0.63460983044155
-0.215375300513674 -0.140313479263408 0.647184186879989
-0.214386725688427 -0.129566049381189 0.654341503390528
-0.213392413305726 -0.138411014011657 0.661540367005509
-0.213043745910433 -0.135232286191467 0.664064731430235
-0.21074413199403 -0.140679072010665 0.680714027903096
-0.210643832204133 -0.144580259339093 0.681440203684625
-0.208526194058204 -0.134296799234746 0.705574361400816
-0.208130838806479 -0.137121728782124 0.711061866283842
-0.208145150143432 -0.133814602633774 0.723298442729722
-0.208191241889476 -0.14017374149052 0.724038100684056
-0.329514959696241 0.0023032954845572 0.885348297953231
-0.331342266854117 0.0129017103263867 0.894392420594469
-0.330649915363809 0.0073618112695609 0.90043745981837
-0.21709760960935 -0.128580221823871 0.781672724543048
-0.218995124906042 -0.119942434252962 0.78824412697797
-0.224519559439517 -0.123309574009844 0.806564013034701
-0.227833665182006 -0.11674453262339 0.816515934890578
-0.234522667741855 -0.100746595756712 0.836602328005903
-0.239501840103199 -0.10629553131086 0.851554275257238
-0.319315141966481 -0.00404585317069556 0.953522402479401
-0.325787339878141 -0.00155726355278796 0.972395435661152
-0.325910568579695 -0.00432038910335628 0.970937107168955
-0.323636813665785 -0.00160814732237841 0.984645312253312
-0.316580260800819 -0.0104254380369129 0.992239653623208
-0.314518709092879 -0.0147574977463823 0.994626782346463
-0.312114412899744 -0.0218907988495411 0.996655831795747
-0.306226984697095 -0.0245512786183466 0.998929599045886
-0.292867844703729 -0.0338217436023374 0.999010157588667
-0.283554526882619 -0.0541808272646274 0.994394022874893
-0.0790202835692421 -0.296136657391983 0.779660323634927
-0.0762525734021061 -0.298102548434902 0.781431585363787
-0.0643937351947267 -0.314578493912212 0.786411628537539
-0.0555281773461245 -0.321459253044819 0.787335946462065
-0.216201997953589 -0.119484123804067 0.137864018680818
-0.21015893856552 -0.115298886286263 0.141507866658646
-0.212771812915729 -0.118699820222548 0.153216793410463
-0.212170372190564 -0.120610035855132 0.155788109335872
-0.208238178725251 -0.1232735033535 0.16139496396778
-0.214331217827014 -0.116879305243312 0.560198783215152
-0.217080253619714 -0.110300353255915 0.573537957123599
-0.217896061627564 -0.109605833642857 0.579578411059582
-0.219867254913601 -0.11045669727906 0.596470994723721
-0.219244535893087 -0.104234581513235 0.608400668282537
-0.218659163805486 -0.111732041396217 0.619614945222261
-0.218644840004612 -0.110213617179738 0.619889356935559
-0.217782352797401 -0.109987909622149 0.629757075957271
-0.217368453671688 -0.119008630556025 0.632753711531341
-0.215997828800857 -0.116326375996691 0.642677055146923
-0.214331005070516 -0.114166474356965 0.654744917365606
-0.212910403559993 -0.111682062475661 0.665030126882041
-0.212349169876161 -0.124668013671743 0.669093485280865
-0.211862011360911 -0.120428822940565 0.672620530444111
-0.209141055646501 -0.120927106523166 0.697040161221374
-0.209453308428766 -0.12745897864403 0.692706141631735
-0.208651360445012 -0.13158638793703 0.703837067973506
-0.207785867337006 -0.120937593229141 0.717532846751371
-0.208551516169361 -0.121400342751914 0.729819607346937
-0.208913654277073 -0.129123146378236 0.735631023813549
-0.329568474464268 0.0201984986989489 0.886475171254985
-0.331254369420297 0.0132527989239546 0.898478907893273
-0.327264766089255 0.00951958407945343 0.903627794977913
-0.218111235523844 -0.113614619023263 0.785183075059968
-0.221944634088202 -0.116719767366582 0.798458754420108
-0.223783551158366 -0.110590047982645 0.804353855161529
-0.23149647485239 -0.104872095826372 0.827514979110948
-0.238334127076798 -0.0925816993176516 0.848047752022373
-0.244425547472639 -0.0765680213260647 0.866339666789457
-0.325316749057711 0.0161963630592529 0.966224147254211
-0.32535520909289 0.0206102500253877 0.97750941177661
-0.32468176354874 0.0124047174323606 0.983131377910391
-0.323071882561298 0.00581462554482387 0.985069043558277
-0.317045015410276 0.00330120291347432 0.991536673472832
-0.310621306500741 -0.000302509734093484 0.997557306169782
-0.301132153233046 -0.0113626654113011 0.999633237351731
-0.29756322358929 -0.0240900314649572 0.999838815248521
-0.285277099924107 -0.0324486519749402 0.995390591804259
-0.0586433205961253 -0.295160922328308 0.780716254876547
-0.0564215590654179 -0.302426668887558 0.78488939410349
-0.0491461367982093 -0.31627366460902 0.78828591804143
-0.0305669217586016 -0.325958731211083 0.790015901050687
-0.20447097581936 -0.112211822515431 0.131337393641806
-0.2032018619365 -0.111002160073261 0.150725831177407
-0.203984236679015 -0.115500044433497 0.157848466514914
-0.203133264329385 -0.115878031457759 0.159153448173766
-0.199500895696588 -0.120191679466118 0.163647604305276
-0.21272385717005 -0.103366444922897 0.555203871786256
-0.214401802974366 -0.10223962032474 0.560418130494763
-0.21822892694402 -0.0914952346437705 0.58204303844821
-0.21955018113355 -0.09867310947336 0.591825943878215
-0.219345717332955 -0.0935610211061726 0.606462284842881
-0.219552368290585 -0.0988844157907734 0.602503394045446
-0.217930715162117 -0.0956408718131229 0.628682930320466
-0.217423844705346 -0.0945196769134496 0.632352679657551
-0.216557107811545 -0.0984381345633443 0.638627867131917
-0.215448831861091 -0.0938550475152892 0.646651800821789
-0.214574159974499 -0.109831640558802 0.652984464826574
-0.213239317862626 -0.101029197407631 0.662648770702693
-0.212032954304403 -0.105103617047221 0.671382891411622
-0.210750957807361 -0.108867318429709 0.680664597440025
-0.210139430937075 -0.105966842015765 0.68509207482521
-0.209124796878833 -0.109699064453798 0.697265822943988
-0.208301287284482 -0.106071460498984 0.708696033721594
-0.20823158895472 -0.115034307845617 0.709663449682236
-0.208345747063864 -0.109433437869555 0.726517524681403
-0.209026809297279 -0.110638459062436 0.737446895516836
-0.330700013583239 0.0385918411614957 0.892566320435709
-0.329883371307759 0.0369232536886007 0.900108647116542
-0.330486355920104 0.0323936487710514 0.898945206212331
-0.322522131294725 0.0223398219325209 0.902096754709746
-0.22479365655437 -0.0874882239545222 0.807387098741646
-0.228819577351632 -0.0823963670502011 0.819476528677036
-0.237311091575606 -0.0702029705849177 0.844975680653881
-0.240532544953437 -0.0701763633213563 0.85464937689945
-0.24239304608361 -0.07625097860698 0.860236272218711
-0.243672334417274 -0.0738712440162667 0.864077844732388
-0.325610239395684 0.0294534669122337 0.97449130031193
-0.32473478776553 0.0235957581085094 0.98272044698323
-0.320888425365551 0.0228469154623805 0.985976119618456
-0.319597929803767 0.0136705449055393 0.987351924854041
-0.307675419561758 0.00985697417877062 0.998729558227757
-0.30876805733589 0.00469281044648635 0.998578655926529
-0.299849271093524 -0.0033646740850262 0.999810413971138
-0.0459758935564856 -0.29432847431359 0.781094348412437
-0.0420385912437269 -0.295074888507504 0.782791612337981
-0.0402350650936984 -0.302384854446361 0.786898718602336
-0.0285283807888395 -0.316192524837839 0.790820326587432
-0.0278919952221484 -0.327991988218949 0.790151100520473
-0.197949593346206 -0.105916218178486 0.138414853086558
-0.195331085514942 -0.104322032041183 0.142685716355109
-0.196380170789075 -0.107720139641374 0.156246752993722
-0.196695389811739 -0.112832131734466 0.161534959472376
-0.192934901893156 -0.11319852753593 0.163921438764951
-0.19884939667942 -0.0979343477032434 0.526251203653433
-0.213572655348703 -0.0815513934678059 0.557841536556746
-0.216134180609241 -0.0805060307532842 0.566532997841055
-0.219026236268178 -0.081753532197847 0.587946526501628
-0.219017082836214 -0.077139049141442 0.587878753761889
-0.219871109223437 -0.0870725801005377 0.596397134659349
-0.219080163808061 -0.0807241898781693 0.611549588956402
-0.21836875792484 -0.082152534834928 0.625178466801646
-0.218377515335565 -0.0837782590450694 0.625010694566999
-0.217640860399091 -0.0836852292410197 0.630781482939306
-0.216123831860279 -0.0828810973547462 0.641764791199383
-0.214834811023607 -0.0924825452410697 0.651097334887589
-0.213936579840012 -0.0852519711917867 0.657600561155487
-0.211736598828171 -0.0897955204805805 0.673528511188366
-0.211766779351713 -0.0938112987028794 0.673310004447091
-0.210783591574879 -0.092251515584315 0.680428321782716
-0.209062317944253 -0.0916462927197297 0.69813300933414
-0.208268513330252 -0.0874206956803622 0.709150937684481
-0.20814828876235 -0.0905138592411445 0.723348809761735
-0.208296887191971 -0.0905022610062285 0.7257334451879
-0.208642852977031 -0.095487113305867 0.731285336075289
-0.208968212257079 -0.0928447774259595 0.736506557639266
-0.330026964130672 0.0505010703874097 0.898718438474539
-0.329076105702231 0.049125474762528 0.90120006016272
-0.216619265087826 -0.088914203116918 0.780016140082859
-0.222184606341543 -0.0736590753237557 0.799289817153919
-0.226643824355159 -0.0755329514937111 0.812942964125678
-0.228446545707484 -0.073221111894489 0.818356352659498
-0.235100382772788 -0.0681672507267835 0.838337147377868
-0.242192251457022 -0.0478438983237654 0.859633306414917
-0.325884127326028 0.0504408115921968 0.971250021555827
-0.324646855202525 0.0380341537487813 0.962926577946875
-0.324322300268057 0.0432375964190869 0.98413115728785
-0.319679467635804 0.0314924979409422 0.987218267677416
-0.31793927777706 0.0279269005059371 0.990070794627156
-0.313230797508699 0.0227591028793586 0.995981806075137
-0.310178161046131 0.017778833008014 0.997824858617193
-0.301117839554981 0.0134692508139744 0.999635214188895
-0.284831119950463 -0.0017652434915583 0.99519406546501
-0.0362031951083886 -0.295979084427879 0.785121983319187
-0.0283056709247188 -0.296062820117256 0.786322643228461
-0.0276227394069281 -0.306612767317582 0.789583013873894
-0.0129825346100104 -0.319521904897757 0.792693090510842
-0.18810164659936 -0.100267186982309 0.132097895389585
-0.194848386728335 -0.103936351820422 0.136653961780621
-0.192454372432693 -0.102086287223888 0.147572655627938
-0.184789123311219 -0.100381754805725 0.158916958637348
-0.184705409235303 -0.101632400580888 0.160501194732571
-0.198541084748602 -0.0916031271292612 0.525766714697388
-0.208968152799631 -0.0766197884369573 0.543532930636945
-0.213056119268125 -0.0761041663353358 0.556236388563536
-0.218286329361761 -0.0652467914082026 0.582468070132133
-0.219733447690821 -0.0654488967089318 0.599034352248803
-0.219558403029828 -0.0703267282338366 0.602387757859933
-0.218777860717994 -0.059955036903159 0.617340980133534
-0.218550372617521 -0.0596354227906467 0.621699138973921
-0.218322724685614 -0.0659578368181609 0.625844775778675
-0.216843960824787 -0.0714648362174916 0.636551047224335
-0.216179829266621 -0.0701959555825335 0.641359369178715
-0.215138280028398 -0.0737682647082781 0.648900200792478
-0.214509464846865 -0.0741786295218858 0.65345284740297
-0.212927831323107 -0.0743586596616969 0.664903935929402
-0.211170572942843 -0.0725099375589786 0.677626554552555
-0.210664096957909 -0.0821652020361331 0.681293463889542
-0.209780274182699 -0.0863179684890211 0.688167875608281
-0.208922363756068 -0.0797009043328474 0.700075545346033
-0.208354951979883 -0.0789805479162383 0.707951165329064
-0.207746993906553 -0.0805262465620719 0.716909024819787
-0.208648739031405 -0.0781981622175083 0.73137979261709
-0.33010681771719 0.0623196758034709 0.891181709230241
-0.329452892126979 0.061837053688297 0.899292657726744
-0.328493257667764 0.0586814771485659 0.901931407915774
-0.21888184957497 -0.0623466640878002 0.787851836181832
-0.220937722635282 -0.0604843586597467 0.794971657169823
-0.229772299047512 -0.0487075075181041 0.822337454852759
-0.232074846306113 -0.0495964029278177 0.829251769653664
-0.237158860116484 -0.0466989287748492 0.844518545093672
-0.237330832957492 -0.0500100821215991 0.845034962012151
-0.325562317041556 0.0559968205639918 0.96743296181509
-0.325740465150066 0.050918908835633 0.972950166423167
-0.324943443642196 0.0547323435464952 0.981103390512659
-0.320641638929773 0.0510216120491083 0.986052054898268
-0.315588854697929 0.0466330920052478 0.993387630642413
-0.314508297552779 0.0470952410989162 0.994638838161668
-0.310129271088783 0.0378294131670993 0.997854376301751
-0.305608994526569 0.0252139615521679 0.999014948592714
-0.296117656336001 0.0193968972181252 0.9995836962461
-0.0204324567932343 -0.296084041713934 0.787412938942838
-0.0207475616655055 -0.295670596658709 0.786662372272095
-0.00740339302275494 -0.308886105905702 0.792657182770735
0.00303496706119315 -0.330103129317234 0.793714131547392
0.00613074361772834 -0.325694947750544 0.794502554765627
-0.180072273647327 -0.0932091582813015 0.137157780625039
-0.185655700768053 -0.0972075842066855 0.142237172059098
-0.183790729726065 -0.0956198811254652 0.148254229824306
-0.179963604555598 -0.0983441039233631 0.161300721093764
-0.17912142856312 -0.102163643892919 0.165217013949585
0.0694382854987808 -0.376630418852704 0.0221112709500616
0.0699070936505223 -0.377880841202113 0.0314557016997869
0.0681146566256179 -0.373561158767011 0.0642404245635115
-0.212309260989056 -0.0623263145672454 0.553915509844139
-0.214375454714968 -0.0614262612968169 0.56033625866161
-0.217729530676137 -0.0484892403424453 0.578345394509749
-0.218684957259142 -0.0622767001547525 0.585419615310726
-0.219880999155027 -0.0565391627427851 0.596207641183794
-0.219287568039861 -0.0506529236274843 0.607576234843371
-0.218846735537167 -0.0555834752049659 0.616021493965097
-0.218387373086337 -0.0538840153373029 0.624821842299197
-0.217339788410044 -0.0597102504166011 0.632961248434529
-0.216171317094305 -0.0543191317906791 0.6414209974277
-0.215542200276278 -0.0572683638292283 0.64597581216402
-0.213727473504818 -0.0576468403850015 0.659114489373518
-0.211939104804932 -0.0597371694552416 0.672062349325557
-0.211133780267637 -0.0645759029474514 0.677892932137217
-0.210456182996825 -0.0647559525620234 0.682798762896769
-0.209717438633122 -0.0649843640600562 0.689040009527907
-0.20815751516656 -0.0588895248533965 0.710691597202759
-0.208316923598548 -0.0690236504297865 0.708479000977147
-0.20811041175142 -0.0586871392510633 0.722740977886716
-0.208770542015862 -0.0562951897270222 0.733334427753475
-0.208855505212105 -0.066414839536372 0.734697881496397
-0.323635517535113 0.0619905778938691 0.879426603690129
-0.329023584852902 0.0689002009924892 0.899829484344528
-0.324317235519799 0.0669295806282981 0.903274614394666
-0.22173449951769 -0.044603394450507 0.797731024408796
-0.223596295485148 -0.0499182326343506 0.803791545455159
-0.22694550831436 -0.0459003530244182 0.813848890315248
-0.236622853346755 -0.0367703766189675 0.842908971380265
-0.238285076098633 -0.0367826733431377 0.847900456932964
-0.244005454363492 -0.0305692800869443 0.865078169987821
-0.325277720067516 0.0628758850609054 0.966032026070885
