ply
format ascii 1.0
element vertex 864
property float x
property float y
property float z
end_header
0.017538427751889 0.357100419913046 0.941050231700899
0.0215753219160124 0.357100419913046 0.94747163990804
0.0147274636218698 0.357100419913046 0.960643632822245
0.0198742285280047 0.357100419913046 0.96261396775806
0.0150440212190202 0.357100419913047 0.975984000940023
0.0215641523657164 0.357100419913046 0.98690029134045
0.0181231782221816 0.357100419913047 0.990258661980061
0.0158269517850802 0.355002855786449 1.0
0.0135199992597297 0.351230897271887 1.0
0.0205096453960226 0.332005002433406 1.0
0.0155626375891854 0.327879314393909 1.0
0.0210958097349964 0.304247545039631 0.999974513655822
0.0186861182848364 0.292234381546744 1.0
0.0160033356125999 0.28633708898245 1.0
0.0168808565987242 0.272699213216322 1.0
0.0332173715251321 0.0400135173923661 0.105625522038015
0.029660273820792 0.0349911451207529 0.105196908403345
0.0308390154074896 0.0366554455005829 0.115187825376311
0.0344894463093451 0.0418095976956581 0.130530564105769
0.0330391375826375 0.0318088426033491 0.133009032572537
0.0284870753167943 0.0242909820697384 0.133495539672655
0.0280216736579671 0.22146903356695 0.334154547111946
0.0286645043596437 0.224900150434314 0.347450124972983
0.0290447317981999 0.227018992112637 0.355660636476484
0.023489670200024 0.229047772076127 0.363522158835006
0.0270314053363066 0.233219286364692 0.379686776703196
0.0265442040709455 0.23612652136511 0.390952312329817
0.0251292846749003 0.240322231992969 0.407210691012771
0.029046404299515 0.2448252508989 0.424659889273249
0.0313361398580094 0.245843371750635 0.428605107573727
0.0295771164333311 0.250572671518539 0.446931144174352
0.022997613498457 0.252854954837371 0.455774992034828
0.0299941671382474 0.255432246495552 0.465761997210277
0.0256135623100875 0.257398043928081 0.473379462261329
0.027088424078934 0.260157670702227 0.484073016011144
0.0238228093773824 0.264372332845251 0.500404831815363
0.0256430498917241 0.268947817775557 0.5181348359203
0.0266121211323832 0.272150765724235 0.530546259221426
0.0278531457384703 0.273362407461653 0.53524137095392
0.0245273069481107 0.274819870521156 0.540889040309493
0.0258059620570162 0.279742286114344 0.559963400733096
0.0306975833043869 0.282942257185952 0.57236328863558
0.0308945737566567 0.284608740574058 0.579180373330017
0.0256170548687999 0.287967506632159 0.593215217215653
0.027621437370763 0.290576176019476 0.604115728584083
0.0272297962009634 0.293619058878478 0.6168306319592
0.0295221723527625 0.299110151631386 0.63977555524814
0.0302464908908072 0.300376547673278 0.645067281566045
0.0315571833036727 0.301482225822861 0.649687436691087
0.0307585077463555 0.30604050301762 0.668734523540616
0.0260978312025123 0.306880972768584 0.672246486428574
0.0254860008989918 0.311405358939879 0.69115195721577
0.0274154917618674 0.311940427604341 0.693387779849413
0.0279800069195345 0.315245284145156 0.707197358966391
0.0276519085054388 0.318233512671651 0.719683885309244
0.0275949779912607 0.321087993061458 0.731611535509511
0.0267881885277137 0.322448923695041 0.73729828137127
0.0222376032070846 0.32574838500879 0.751085316146575
0.0282326369596828 0.32984650394134 0.76820959882902
0.0292798520313565 0.332021179422115 0.777296635659399
0.0290796268628248 0.335287642613469 0.790945785423273
0.0222822261861026 0.335872476070769 0.793389553798414
0.0290442033842892 0.339212258110129 0.807345071605743
0.0259960833063443 0.342517246367399 0.821155201109334
0.0278896663392126 0.343646789105873 0.825875076123674
0.0247820939543437 0.34913797763977 0.848820399640313
0.023464133737904 0.349294066185836 0.849472626779234
0.0232352523843004 0.353109602878254 0.865416119386837
0.0228452993347567 0.354377211834192 0.870712913952719
0.0281180330598396 0.357100419913046 0.884464848651938
0.0282302188412773 0.357100419913046 0.891196975551489
0.022442000635497 0.357100419913046 0.89854154192172
0.0219956511241397 0.357100419913047 0.917578898791157
0.0294067725725483 0.357100419913046 0.922170794592616
0.0237515582429827 0.357100419913046 0.930493608671103
0.0276878575246734 0.357100419913047 0.932830431151277
0.0272957067604305 0.357100419913046 0.945773857057917
0.0289076955423974 0.357100419913046 0.954890662623386
0.0281097691859027 0.357100419913046 0.958250245586877
0.030342279936019 0.357100419913046 0.974648379421715
0.0289803351692373 0.357100419913046 0.985719067928757
0.022198172959666 0.357100419913047 0.991379146098574
0.0278312798948583 0.357100419913047 0.998714396346618
0.0265972741964333 0.353469561816107 0.999472354562073
0.0257921678981749 0.338125002938749 0.999545842530948
0.0285157460239686 0.315942661221258 0.999297241538796
0.0264950640898093 0.308015720205157 0.999481684029686
0.0298730317562055 0.296523798480399 0.999173352094805
0.0259867226018049 0.278761608334028 0.99952808409329
0.0229578968378703 0.275653772476963 0.999804547280757
0.0378055012011981 0.0464916344357992 0.0953723253476005
0.0353405900528562 0.0430113529163128 0.106778154461687
0.0362270703549007 0.0442630008772016 0.112201148942528
0.0412930988325154 0.0514158774827928 0.130473064617591
0.0407585662654705 0.0426502587728346 0.132270598393064
0.0350712411843908 0.031396536720445 0.132962916282605
0.0349914374552935 0.223262143380203 0.341102847638302
0.0378476061487715 0.223687103464018 0.342749567963085
0.0408858991159612 0.226440113011206 0.353417479958439
0.0367452377860645 0.229705218834602 0.366069765024099
0.0388398123210002 0.232807501807689 0.378091111544809
0.0404744164761391 0.236155544042141 0.39106477520331
0.0380688924993071 0.242654125821618 0.416246779598785
0.0379600649762722 0.242837883196048 0.4169588394247
0.0376111275584229 0.247036069682171 0.433226812058426
0.0339130859412668 0.249564013149865 0.443022592995742
0.0353881526682165 0.251217979882913 0.449431714086302
0.0340871885840455 0.254866305449922 0.46356897565846
0.0386961113347997 0.259710860659059 0.482341627093869
0.0344003392775506 0.260372844239977 0.484906813469924
0.0369577619240051 0.26601641473335 0.506775649131745
0.034285039094914 0.270338375185791 0.523523245884952
0.0372207784196033 0.268655752753113 0.517003083958326
0.0345696892214384 0.276027214608412 0.54556749864761
0.0386354419536761 0.275013357502196 0.541638802361024
0.0333504012617135 0.281818553162144 0.568008935543325
0.0338209115571636 0.28283568977423 0.571950339915158
0.0375434633784693 0.284565818713228 0.579001021268692
0.0356474487287741 0.289059008783212 0.59777613691827
0.0333149604018008 0.291074069209705 0.60619621084326
0.0364401209302027 0.293770645207502 0.617464046262623
0.0358307234705107 0.297020687848766 0.631044581585048
0.0375223827062737 0.299017979121885 0.639390405833439
0.0395129558007283 0.30369873206359 0.658949266339847
0.0386838563417201 0.305614546532822 0.666954633943426
0.039598635945285 0.307380788975674 0.674335004151057
0.0388117953861739 0.309575354286966 0.683505152058955
0.037263210839304 0.313258116222052 0.698893835859134
0.0374680681134572 0.316083504293756 0.710699921730186
0.0374958649109959 0.318410202203184 0.720422195137437
0.0397617649444903 0.323522979492426 0.741786300238912
0.0393984196086574 0.325811300600664 0.751348213441195
0.0358220489109 0.325669657785187 0.750756348819379
0.0317128999565655 0.329177402272876 0.765413709714364
0.0312315963034912 0.332909849527525 0.78101000717129
0.0315697333165978 0.333624286673671 0.783995333817684
0.0364203628031032 0.336545993458432 0.796203894311154
0.03999989662092 0.338820833274632 0.8057094749717
0.0362792619712148 0.343942229070666 0.827109593119414
0.0359568694025309 0.3445795297243 0.829772599422101
0.0367102494713323 0.34784884012999 0.843433646474447
0.0326717345623679 0.349602222635114 0.850760280513713
0.0326684672115198 0.354470203714205 0.871101487165633
0.0369203780573346 0.353776536810898 0.868202950462529
0.0330612012867432 0.357100419913046 0.889922556509613
0.0361969391361195 0.357100419913046 0.901212463248166
0.0392071803521698 0.357100419913047 0.905601453522304
0.0342571071045281 0.357100419913046 0.9103582740988
0.0366325457531203 0.357100419913047 0.925475746145324
0.0308090806098404 0.357100419913046 0.931679989020781
0.0361626037632387 0.357100419913046 0.939790817014703
0.0326166252937798 0.357100419913046 0.942356046508358
0.0364216047025437 0.357100419913047 0.960121776298071
0.0392183915793181 0.357100419913046 0.96431855226496
0.0321941118623367 0.357100419913047 0.97284700805885
0.0339414571705982 0.357100419913046 0.984172368497453
0.0370046704096228 0.357100419913047 0.99145411645397
0.037990750399009 0.356564676562974 0.998432388254077
0.0372893684946298 0.340090141276946 0.998496408535211
0.039328180627224 0.331150931017021 0.998310311167865
0.0339184705925498 0.320317653930777 0.998804095160745
0.0392122347921729 0.307323831295455 0.99832089439636
0.0350669315147081 0.296247351614754 0.998699266691903
0.0329476154573126 0.286128643330254 0.998892712244121
0.0331102922938201 0.272453187723465 0.998877863533679
0.0321137915372076 0.266010848405295 0.998968821481398
0.0459791871131057 0.0580323051997079 0.096460542156203
0.0535704807290871 0.0687506789222137 0.11970193572035
0.0515769365429407 0.0659359344662144 0.123880604161868
0.0482834309128253 0.0612857357008241 0.126097396862738
0.0447047145057564 0.0562328393384602 0.130738529915372
0.0527368565744614 0.0474655310384547 0.131669846882177
0.0451644194185482 0.0384295537306773 0.132321632780365
0.0429951649253611 0.223250018425063 0.341055863437135
0.0414955491666941 0.227209844577013 0.35640018977594
0.0428356634743808 0.230832011301258 0.370436085832391
0.0418445724776743 0.232785237913647 0.378004838955396
0.0456842922644581 0.235939030976615 0.390225787074397
0.0426404520211367 0.241144544228018 0.410397150923584
0.0478603447280593 0.243616478157438 0.419975894900085
0.0422756846183526 0.247088079471951 0.433428349993826
0.0422380098820673 0.249143416416139 0.441392780652556
0.0487171532630466 0.251048007698452 0.448773071871515
0.0476951117393755 0.256999210498287 0.471833982720877
0.044344374827141 0.257871698914199 0.475214875332535
0.0459969847830853 0.261564746364214 0.489525434201345
0.0496412943630902 0.263723388247123 0.497890171497616
0.0489838349757715 0.267446953316637 0.512318986141983
0.0482084642086604 0.272045081094243 0.530136731280206
0.0420059711732569 0.274522812481019 0.539737940403962
0.0418578467350857 0.275894327256405 0.545052560158583
0.0462431936113471 0.281192559219025 0.565583209013736
0.0415237230703976 0.284699849071315 0.579561076693557
0.0414065125127499 0.286839352264078 0.588501143606174
0.0427446218914143 0.28875049341121 0.596486983399545
0.0456075367831292 0.292152175639321 0.610701155567011
0.0469823972360705 0.292900745310891 0.613829107408927
0.0483668867418226 0.29621919261164 0.627695476487058
0.0479885347367636 0.299477600463034 0.641310966437524
0.0453889470055486 0.300155538698175 0.644143779777222
0.0462842506322967 0.305056791057853 0.664624012851591
0.0421695672574067 0.306629443631611 0.671195453963363
0.0484064995975905 0.312139635682102 0.694220185031486
0.0443425629533949 0.312126297649712 0.694164451110429
0.0468831524679296 0.315898776594916 0.709928023845747
0.0437298845268177 0.318593915534462 0.721189854414561
0.0419216757307831 0.322377674466748 0.737000561381613
0.0400920398329858 0.324061174632732 0.744035187075191
0.0418517354950806 0.324176010949327 0.744515038826678
0.0433711376839738 0.328518020839431 0.762658437296041
0.0420752322098455 0.330578505655678 0.771268320278216
0.0466593989177009 0.335569970557836 0.792125512905088
0.0465170066937706 0.338391882165292 0.803917072121958
0.0437515263407534 0.338075035083462 0.802593103958596
0.0444899893224884 0.340601977155132 0.813152111900932
0.0428411546209253 0.3458220581121 0.834964593042549
0.0431814202950695 0.345850083525361 0.835081699233676
0.0404978761274609 0.35205518361383 0.861010153174776
0.0420279352175138 0.353957350675066 0.868958494109227
0.0478874898058146 0.356242329390866 0.878506440885963
0.0407394119971175 0.357100419913046 0.886309921313907
0.0462313876041963 0.357100419913047 0.893156234254447
0.0468509719125735 0.357100419913046 0.898363421398311
0.0484713176371618 0.357100419913046 0.908405090502599
0.0405331552107532 0.357100419913046 0.918776416503616
0.0399169097007804 0.357100419913046 0.923491150331471
0.0450327456740725 0.357100419913046 0.935923839819629
0.0404454990733798 0.357100419913047 0.951142541147305
0.0478263821007838 0.357100419913046 0.949664916529499
0.0409039511670967 0.357100419913046 0.960688427748742
0.0427201061135071 0.357100419913046 0.973181996045506
0.0403872529324096 0.357100419913046 0.980030037561942
0.0411700406332506 0.357100419913046 0.987164164378329
0.0432508416733923 0.357100419913046 0.99629677335433
0.0405807586211763 0.34274543631342 0.998195979168685
0.0425806619654424 0.324815876627007 0.998013433292404
0.0414704116525064 0.317847170527753 0.998114773998117
0.0475462597688858 0.310641949228127 0.997560186686818
0.0445545331163755 0.298283648528188 0.997833263565728
0.0431135093098031 0.286315314259096 0.997964796399186
0.0430508355176962 0.277108420005608 0.997970517096805
0.0435505445453369 0.264072593902602 0.997924904981301
0.0579505643988688 0.0749350496083544 0.0895718745452637
0.0551058669763399 0.0709185365284327 0.0962374665339294
0.0598455582042498 0.0776106478443585 0.111652670396475
0.0608242859223974 0.0761237847442148 0.130110869554798
0.059524399632713 0.0668765198134074 0.130572124871361
0.0581379390679283 0.0667949868403715 0.130620060305747
0.0542256287821159 0.0497913671699454 0.13151676623583
0.0525539249555479 0.22070697156091 0.331201556838539
0.0564074789323794 0.223551274040765 0.342223228947979
0.0585606621687703 0.225967213820469 0.351584995594333
0.0558109567609534 0.231921208007931 0.374656723070744
0.0576281373118938 0.233093044720761 0.379197590332963
0.051573032598633 0.235743024305856 0.389466261225208
0.0536779306398404 0.241740412767204 0.412706141512929
0.059049272830133 0.243815222292057 0.420746028421735
0.0525836338631909 0.244520463220176 0.423478837018198
0.0589811150643697 0.24840024755306 0.438513001308122
0.0585121329107271 0.254083485464609 0.460535548215373
0.0591161428746661 0.255307095847261 0.46527703844815
0.0547969994929619 0.258715425477676 0.478484315766009
0.0523704814234254 0.260198785082173 0.484232334233435
0.0522049706735946 0.264835903777905 0.502201169179395
0.052251316750108 0.268216667744055 0.515301629548228
0.0582533044060092 0.268682986754996 0.517108615715626
0.050796214103734 0.272684805195864 0.532615662173989
0.0579975031574449 0.277086687699458 0.549672956875413
0.0554457395354488 0.282058827059988 0.56893999689747
0.0506090142175576 0.285316531774773 0.58213792941872
0.0576572127354666 0.284355001070786 0.578120104691347
0.0496532224818487 0.287995686881307 0.593332970399596
0.0586383754925812 0.292653253956379 0.612794947106146
0.0532094646878288 0.294332398950646 0.619811374403619
0.0536041403311132 0.297022772231588 0.631053291327552
0.0526934037516264 0.300129508394119 0.644035010292415
0.049350905150847 0.303305127070537 0.657304559761733
0.0523885987790511 0.30270927488143 0.654814748828678
0.055576534442473 0.308589871757576 0.67938724291829
0.0539370507610775 0.311099131506723 0.68987236401294
0.0578410141020181 0.31315983344878 0.698483154270819
0.0529844318664066 0.314762056080749 0.705178155982976
0.0512837708203662 0.318126729210704 0.719237682990287
0.0505125865879617 0.319488149877032 0.724926476488873
0.0542026931607695 0.323696711528576 0.742512251961399
0.0553368524445532 0.326154783910067 0.752783482984055
0.0542739852918133 0.32907474568204 0.764984751816943
0.0527012548595818 0.333159054438244 0.782051327691077
0.0529570989798009 0.333204545453436 0.782241415147418
0.0534949676817507 0.337691504548456 0.800990494223036
0.0563753483258061 0.340521339359655 0.812815161112689
0.0511588751983185 0.3418136178456 0.818215039071817
0.0509304107066803 0.344795196321156 0.83067377770182
0.0569276485377551 0.345839706751943 0.83503833914475
0.054423847961726 0.34840832704827 0.845771502525832
0.0517676088441939 0.353003292758959 0.864971894959782
0.0523931784444047 0.354980567789535 0.873234079908974
0.0572121449700472 0.356872722247739 0.881140582466469
0.0520006270047441 0.357100419913047 0.901656277341672
0.0514578603355602 0.357100419913046 0.896277872604672
0.0503537181913565 0.357100419913046 0.912687991221462
0.0487589334640741 0.357100419913046 0.919302812077828
0.0523701898608687 0.357100419913047 0.929461306003014
0.0501142269013504 0.357100419913046 0.936301489817397
0.0558135859732903 0.357100419913047 0.942419281727003
0.0486339148428331 0.357100419913047 0.956328387060104
0.0522927015910932 0.357100419913047 0.963892562811234
0.0570583880474308 0.357100419913046 0.973780955081407
0.0517790159988235 0.357100419913046 0.980712864638505
0.0500578845947174 0.357100419913046 0.991166291039529
0.0510877463834615 0.353343481194707 0.997236929175774
0.0560184564822204 0.337477256739406 0.996786867027397
0.0525272727559354 0.326780668028107 0.997105533024132
0.0573215381271869 0.322022355123146 0.996667925188819
0.0575960243283717 0.303216004638344 0.996642870815933
0.0548738632020107 0.289325865748302 0.996891342468133
0.0542554147588102 0.280587653142577 0.996947792802756
0.0525667450868985 0.265370644197119 0.997101930094388
0.0700784364960663 0.092058753705749 0.0884753525856967
0.0643649071206628 0.0839916512831578 0.0947399348092686
0.0654010729686936 0.0854546447279524 0.107753674911441
0.0656302868145381 0.085778278588848 0.115285338524383
0.0719698868608564 0.0947293488523665 0.127979170897901
0.0661672114293863 0.0760626211755037 0.129943183186305
0.0667663314652578 0.0661730435550133 0.130373009852537
0.0617906240651104 0.222420337588321 0.337840850194758
0.0623329153965601 0.223198503474234 0.340856243002674
0.0652181702638129 0.228577575118517 0.36170014562427
0.0671571658559647 0.23186104384039 0.374423586921525
0.0635733020499125 0.232424035673461 0.376605180274677
0.0628696555485423 0.235949913037294 0.390267955059529
0.061828580158644 0.237111192850727 0.394767914336582
0.0623584750345355 0.243440743939261 0.419294924804649
0.063620777612541 0.247422401057981 0.43472384613969
0.065738489059473 0.247552748434467 0.435228942223574
0.0631218557710119 0.251523814266462 0.450616822322554
0.0657262142032257 0.252938155611078 0.456097395032939
0.0674656761696689 0.257873112173414 0.475220351711991
0.0684886399004251 0.26126724235154 0.488372606152233
0.0597812417156049 0.26473860618018 0.501824140988216
0.0627892372879871 0.268097895812853 0.51484138831482
0.0608390395413596 0.271185708862968 0.526806663884017
0.0649974245729497 0.276257790342748 0.546460979618163
0.0655633054313125 0.275142929665125 0.542140894492372
0.0671699025987379 0.2818771086759 0.568235838159127
0.0607389334673372 0.28153288814978 0.566901983620412
0.0666134685442799 0.28509600037955 0.581216423231538
0.0606297364599343 0.286854138993126 0.588562931009695
0.0598475789688398 0.292001775623414 0.610072698357685
0.0654417036378528 0.294306283933063 0.61970225093729
0.0613602194826611 0.296290182034258 0.627992110860139
0.0597852482806734 0.299931444331362 0.643207385458752
0.0588303965466257 0.302954573379383 0.655839746123695
0.0667463668947658 0.303477172152801 0.658023462426907
0.06285180079142 0.307496389575698 0.674818049515442
0.0617615501122705 0.310574282903454 0.687679246634995
0.0624030979180284 0.312764884842157 0.696832833307433
0.0660537050975323 0.317069359819553 0.71481938946298
0.0593803159787101 0.317828645274134 0.717992117969623
0.0669039541676418 0.319749172730813 0.726017179127884
0.0650831246131892 0.324031459720064 0.743911021190112
0.0583565368204455 0.325577669858988 0.750371970699186
0.0635244144902847 0.327572210225693 0.758706300088637
0.0633421276606762 0.33192214771426 0.776882824594432
0.0645649924143687 0.335700216025558 0.792669752895214
0.0595414645068071 0.337315607760927 0.799419782646576
0.0629132538121546 0.33986344567106 0.810066105342489
0.058083403103998 0.342461255483196 0.820921239200344
0.0611517239416282 0.346762320856596 0.838893548082051
0.0613929194885525 0.346734209294407 0.838776081911475
0.0625908148559253 0.349274682970891 0.849391632631069
0.062473089379353 0.355026952495896 0.873427901717697
0.0656648280985337 0.356860607966884 0.881089962078612
0.0603682844369824 0.357100419913046 0.882178762986758
0.0625197520540029 0.357100419913047 0.890179726163567
0.0593493861027638 0.357100419913047 0.902276813477704
0.0608254141938069 0.357100419913046 0.912323488216576
0.0643152251057616 0.357100419913047 0.918417101000665
0.0592380091804638 0.357100419913046 0.934808148367614
0.0607523291800113 0.357100419913047 0.942589106817259
0.0631221177504751 0.357100419913046 0.949216790907197
0.0594192630611987 0.357100419913047 0.962659214653787
0.0627364384089419 0.357100419913046 0.967226552608371
0.0629250698234542 0.357100419913047 0.974151799175322
0.063607760371453 0.357100419913046 0.983657845099422
0.0601540814134159 0.357100419913047 0.987110589594435
0.0599505422863897 0.346658055008609 0.996427956657658
0.0580157171289677 0.337448573613966 0.996604562369541
0.065447734577811 0.326539871250719 0.995841163764649
0.0668244086482888 0.3239224694249 0.99558773398036
0.062418814578654 0.313477985284294 0.996202659305271
0.0602099277680871 0.289410300293649 0.996404280638421
0.0607037710935774 0.285944867737586 0.996359203928661
0.0671817512681293 0.266240659153279 0.99552195133434
0.0780348964257356 0.103292716630698 0.0905665556468502
0.0799943660706884 0.10605935022636 0.110091182288646
0.0729877376468236 0.0961664827151354 0.10613254177082
0.0753794501689811 0.0995434129125535 0.114682369040173
0.0766975555860991 0.101404485238434 0.121832504570409
0.0732251346188965 0.0911925821824076 0.12903117378394
0.0750905788387093 0.223950477197881 0.343770141181804
0.0777019408817473 0.227016232747431 0.355649943936312
0.0700167409488603 0.229521605732173 0.365358264252184
0.0777331431768081 0.234012545803428 0.382760657028298
0.0753532854859527 0.236898931043551 0.393945399833776
0.0719105982725722 0.239636073014272 0.40455182497032
0.0771809037868004 0.244081309843699 0.421777117684349
0.0725884792188277 0.247143003567391 0.433641180863654
0.0763907405941209 0.251419574189523 0.450212892024415
0.0703331642921261 0.252220446630873 0.453316272734646
0.0706766394053682 0.257455571656987 0.473602382210838
0.0776703743985643 0.258184539020377 0.476427130743975
0.0734285828501691 0.262146665387452 0.49178037041639
0.0696467031115048 0.263237531447327 0.496007476398406
0.0705442677889741 0.269087754317765 0.518677090021352
0.069292087152354 0.270652150463135 0.524739125084662
0.072988863884199 0.274418420401443 0.539333421095606
0.075213272199873 0.276551548027384 0.547599290646127
0.0716560073645004 0.281921536446817 0.568407995771435
0.0725232236398641 0.284995303666425 0.580795654823122
0.0755559610980667 0.284619221522629 0.579224168722259
0.0708575792925024 0.290009202409462 0.601746588856528
0.0756819776957799 0.289499845740663 0.599618205633333
0.0745857401501051 0.293321821789053 0.615588605549816
0.0688504741436677 0.295132577578071 0.623154977953928
0.0696731300695626 0.300484945060194 0.645520227789941
0.0704500211213326 0.302348876610286 0.653308798909972
0.0747317535203552 0.304277187379732 0.661366383196584
0.0738751941006419 0.306864151014892 0.672176195529219
0.0717416266811025 0.308606792941178 0.679457949292626
0.0760173016221851 0.312877953130656 0.697305297227229
0.0755269083929468 0.314812042401093 0.705387027392986
0.0733765556273376 0.317951812894592 0.71850678266939
0.0684176167296514 0.321086648856991 0.731605918655129
0.0698583189810544 0.324398555499875 0.74544495712718
0.0737216279701474 0.324381511769959 0.745373738684319
0.0672718637040789 0.327273790200933 0.757459330699458
0.0706932798358757 0.330920183591804 0.772696045939883
0.0700803500103225 0.332849348416915 0.780757198959095
0.0735171553666371 0.337759974959053 0.801276602724461
0.0738570579227319 0.339107840809746 0.806908756457714
0.0706057497956384 0.341408837826403 0.816523636848744
0.0696221310029678 0.34484967758448 0.830901431552137
0.0700092412269757 0.348947989698602 0.848026521457576
0.0675503465646237 0.351776435307407 0.859845383465794
0.0667909543740546 0.353786354612659 0.868243974848456
0.0718113744934341 0.354894592483892 0.87287482595325
0.0667342849264165 0.357100419913046 0.886938415876343
0.0704479014473631 0.357100419913046 0.892200100896923
0.0701941831896919 0.357100419913047 0.901244049750562
0.0694389460307041 0.357100419913047 0.913356597385586
0.0733538329645848 0.357100419913047 0.923864941628703
0.0722086982470273 0.357100419913046 0.929314717780334
0.0678767567427479 0.357100419913047 0.93903469783902
0.074507093763686 0.357100419913046 0.945263880189243
0.0738951015745674 0.357100419913046 0.954438519193832
0.0737884633941245 0.357100419913046 0.964101230381945
0.0732405255350539 0.357100419913046 0.969677227030214
0.0731379050352445 0.357100419913047 0.984883970082502
0.0678151982795943 0.357100419913046 0.993700539625057
0.0742081396162215 0.352485023652935 0.994228474452936
0.0714859350302926 0.343974641183268 0.994729600853003
0.0720381143383524 0.324672208173148 0.994627951024672
0.0676219615411186 0.309357446129524 0.995440913711188
0.0695774837044781 0.298404091174454 0.99508092468353
0.0761179231731795 0.291198810145031 0.993876905374054
0.0741283633333528 0.269820926463689 0.99424316034453
0.0713953285805998 0.271931834628066 0.99474628045313
0.0882618613898215 0.117732473288413 0.111116031145148
0.0896254379595438 0.119657747689969 0.118824101479697
0.0890147671601768 0.118795523386688 0.125582060077101
0.0893557294573911 0.109059363802506 0.127705467059125
0.0854383685790247 0.104598702061441 0.128032941648984
0.0806571345267522 0.223651602734879 0.342612002637669
0.083801788204097 0.227058604166452 0.355814133185014
0.0808938630495146 0.230994838168881 0.371067039944429
0.0808803364281801 0.232070711508569 0.375236049135718
0.085072622307692 0.235371156689458 0.388025274211665
0.0836575743811197 0.242136933458732 0.414242659192601
0.0795670631106779 0.245827076069142 0.428541961807938
0.0779354657670626 0.245712452222922 0.428097794403836
0.0807787145262952 0.24674623534504 0.432103704002045
0.0816957930888776 0.252382927269521 0.453945885209407
0.0820607967182195 0.255095155605823 0.46445577001258
0.0803456316417027 0.259017426783125 0.479654570824623
0.0867114865762828 0.260376612528689 0.484921415588684
0.0793513184742553 0.265860358224286 0.506170930159123
0.08576244544517 0.267282981979947 0.511683597212306
0.0781468436502955 0.270020890609416 0.522292993151503
0.0835601624329412 0.273135365498885 0.534361583348196
0.0845840278567222 0.278479048729567 0.555068355867087
0.0825125612404845 0.279643859166052 0.559581996308466
0.082996994809151 0.28303295081542 0.572714726449769
0.0850620588067913 0.284590915589451 0.579105890358623
0.0839026912968667 0.289876511498187 0.601192130405842
0.080836027899865 0.291034971480901 0.606032838190757
0.0796554547521322 0.294791961646122 0.62173168995257
0.0836665296034928 0.298610410400192 0.63768735081779
0.0839350323290643 0.298413969419015 0.636866508146445
0.0778045521014821 0.302135557917704 0.652417431515966
0.0808932009820043 0.302607080519104 0.654387722386102
0.0851791021099042 0.308982194306718 0.681026590712919
0.0771134848886697 0.309017050072068 0.681172238018133
0.0776910695968631 0.313115174080284 0.698296541909607
0.0767069157046766 0.315778210444081 0.709424229572614
0.0838916221634136 0.317987084903495 0.718654169278021
0.0813876474298459 0.322550196180971 0.737721455687479
0.076199146451799 0.324286277303519 0.744975794663836
0.077316230464149 0.325906026484737 0.751744032313928
0.0794457483916841 0.330284782329825 0.770040976380903
0.0834718258675425 0.331181809907828 0.773789270188987
0.0805393514201526 0.334615295284726 0.788136334085308
0.0823648566482703 0.337645448177201 0.800798044386008
0.0832754043318792 0.338464687977202 0.80422129640744
0.0820784647792385 0.340636662961597 0.813297049020808
0.0805703435315941 0.343285088009644 0.824363682257289
0.0822767062987649 0.346070231355905 0.836001602668449
0.0750782774152593 0.349244066549591 0.849263699727781
0.075315732677049 0.353344423449934 0.866397333918499
0.0833445984825764 0.356206406130928 0.878356332978369
0.0801974960079974 0.357100419913047 0.890124383961095
0.0771869479320827 0.357100419913047 0.895868732133301
0.0784360281991878 0.357100419913047 0.896114346452199
0.0835088770008105 0.357100419913047 0.911582065665167
0.0783671917100924 0.357100419913046 0.92286035844481
0.0753789904398765 0.357100419913047 0.933533533917208
0.0826759728380836 0.357100419913046 0.944259611744635
0.080887631602777 0.357100419913046 0.943386410935043
0.0771712737518173 0.357100419913046 0.954090160782434
0.0814122378418269 0.357100419913046 0.967834175176757
0.0775024231198049 0.357100419913046 0.978319131298305
0.0761376572862573 0.357100419913046 0.98166737683863
0.0817080940213573 0.357100419913046 0.991742542608603
0.0796600702002062 0.341533403775279 0.993224837047766
0.0759565518984469 0.331921492461054 0.993906611960546
0.0848856363183627 0.31864649810237 0.992262870724354
0.0821540303224611 0.313785397049941 0.992765727815332
0.0804254570690551 0.30504583042785 0.993083938171823
0.0813027333169749 0.289609776803854 0.99292244175445
0.0801511469653185 0.285140551025323 0.993134435491348
0.0958056539909382 0.128383778912216 0.116521885575604
0.0917462956942179 0.122652249939842 0.125144376724206
0.0995225955180119 0.118701027273226 0.126943412064476
0.0964293713106302 0.221681614564152 0.334978298476106
0.095822416753191 0.223636149135237 0.342552119939058
0.0882732428008098 0.227755518540666 0.358514676385094
0.0892539130494428 0.231782375793735 0.37411874824074
0.094591684307228 0.23218913520678 0.375694940966288
0.0912600292225112 0.237672362472012 0.396942446619061
0.0937825610037807 0.240905385897252 0.409470412391865
0.0959063174604512 0.24542246603249 0.426974097915913
0.0871262354619044 0.247978247510487 0.436877751143152
0.0877083490924311 0.251376499268475 0.450045976705355
0.0886569043811111 0.252210729338388 0.453278618226267
0.0902328079807046 0.257539423940506 0.473927309809473
0.0887678063659054 0.25613453032732 0.46848334705838
0.0891460368270864 0.26340786669811 0.496667525495191
0.0892269216318678 0.264758950875863 0.501902976683982
0.0915909913700028 0.266670625047783 0.509310714100174
0.0892067036935583 0.269798109427548 0.521429716071764
0.0912452120262347 0.276866322356692 0.548819041172196
0.0863922896100348 0.279143844816382 0.557644440703497
0.0873060968949918 0.279725887530113 0.559899856219202
0.0885709488112462 0.28371137353859 0.575430661074667
0.0945108037529574 0.28683640793816 0.588488840530014
0.0896668722887214 0.28934314795934 0.598963432761372
0.0911550861358881 0.291648013173954 0.608594476693869
0.0899162466186722 0.293793067741613 0.617557740423015
0.0886684002637465 0.29627822487091 0.627942146999006
0.0906397802902275 0.299579563296837 0.641737025421632
0.085614377470182 0.302054981807903 0.652080738485726
0.0919723178769154 0.304227473564487 0.661158650468596
0.0939993543114643 0.307983605981931 0.676853918070056
0.0919107800357296 0.309316211127615 0.682422303857379
0.0859974434074002 0.313000726641795 0.697818315113065
0.0888717755042035 0.315893207060773 0.709904751149508
0.0895744492974831 0.319686826348509 0.725756660316116
0.0916269077107401 0.319470860952113 0.724854233481176
0.0919172281298988 0.324058235285634 0.744022904803389
0.086037860079196 0.325284602244669 0.749147366739356
0.0918396722984678 0.329832153744298 0.768149635505664
0.0906516870548975 0.331087387301802 0.773394718585234
0.0918613382059663 0.336053457840317 0.794145799049743
0.0889755575648964 0.336548651487528 0.796215001075591
0.0922777770643238 0.339669861155073 0.809257198614974
0.0903533070300652 0.341291201668194 0.816032085759083
0.0904542508416562 0.345502576526762 0.8336296164181
0.0885007332759643 0.348794684115234 0.847385923127074
0.091588332025281 0.349935059474288 0.852151063020266
0.0911423456954979 0.354011271163536 0.869183804721764
0.0876691208962797 0.355066320119274 0.873592402143953
0.0895233887486318 0.357100419913046 0.888342071156684
0.091080167717708 0.357100419913046 0.894891502975591
0.0847151491037127 0.357100419913047 0.903000612115525
0.091129269962213 0.357100419913047 0.905557958797679
0.0840390670299457 0.357100419913046 0.923856821521691
0.0884468322687134 0.357100419913046 0.931165525444645
0.0920276347978004 0.357100419913046 0.943700396385688
0.085294194928707 0.357100419913047 0.945702205953844
0.0862954350692656 0.357100419913046 0.954086307032006
0.0904356619899906 0.357100419913046 0.965461189799709
0.0904979820698366 0.357100419913046 0.973346446691055
0.0839332385070126 0.357100419913046 0.981781555342064
0.0868416227794415 0.357100419913046 0.986120352535289
0.0869040967373762 0.346862328585373 0.991891295491293
0.092531808472716 0.338492810379285 0.990855298807899
0.0855231828133999 0.329166566717174 0.992145505783606
0.0930231134175755 0.301726286243556 0.990764855246227
0.0879386797806878 0.30063972107477 0.991700840711096
0.0944427021463754 0.285308090494436 0.990503525369363
0.0917952245421717 0.269965961104973 0.990990895395815
0.108606491597512 0.142904951923691 0.125554849056993
0.108476688646102 0.133439086062036 0.125988697023842
0.102652065410947 0.220609395720297 0.330823450456165
0.103886005747258 0.225777820384937 0.350851096031643
0.104155147399417 0.225888868513091 0.351281407528243
0.101681513779379 0.231308112368703 0.37228097746874
0.102571663601388 0.2339064176894 0.38234941058644
0.100072993744032 0.236050573230538 0.390658013308349
0.104448885012454 0.240245610013012 0.406913780840437
0.0975009695276462 0.242196909533557 0.414475066482547
0.0981831813992964 0.24623947369545 0.430140002609884
0.104372554909041 0.250272449160749 0.445767782537915
0.0963664871482267 0.25183413005354 0.451819295997479
0.10036869513091 0.255830897025389 0.467306768013394
0.096596382413876 0.260787414609687 0.486513273652553
0.101053926153077 0.260641456094585 0.485947684406533
0.103417727363675 0.264989466060558 0.502796223024677
0.104450849342837 0.265568255947938 0.505039033838275
0.0963348080289413 0.272329847925119 0.53124020274985
0.102659707034202 0.273974486417741 0.537613176908759
0.103554085395152 0.275728019353693 0.544408117035572
0.0952640585147065 0.278780087944692 0.556234882825695
0.101004507231558 0.28306138144465 0.572824895138033
0.100110604773925 0.287432920221144 0.590981409712483
0.0964320086918644 0.288423148513774 0.595119149363829
0.0963427998009535 0.291442614608459 0.60773620411662
0.0972739790976835 0.292847568486702 0.613606904250706
0.0986199241114066 0.297907232972706 0.63474907371008
0.101682489334074 0.300813043694142 0.646891211367511
0.096003564502241 0.301965250904022 0.65170579149451
0.0975736298706487 0.304624871799014 0.662819207377159
0.10314041304211 0.306712579461041 0.67154284296491
0.101924531762599 0.310726717294839 0.688316204627567
0.101101705485084 0.314551000260673 0.704296244163374
0.099028493372975 0.314079469566784 0.702325919478191
0.0995109580614855 0.317431204277594 0.716331382376934
0.0937772780836287 0.322607838576739 0.737962318555509
0.100702284264831 0.323617365380784 0.742180698415263
0.0982897565309137 0.325652981447145 0.7506866655497
0.0944423253706692 0.32938620686862 0.766286214632293
0.100817525484585 0.333148896362097 0.782008881444324
0.0939753567869609 0.334878012762865 0.789234117833248
0.0991075653365801 0.337582426400942 0.800534703392354
0.0966933303938649 0.340538247584082 0.812885813336191
0.101086113144024 0.341741729250035 0.817914647440348
0.0940239630074924 0.34621626090663 0.836611797576837
0.0970820693784853 0.348960762392686 0.848079893072141
0.0963661133252976 0.350224846230367 0.853361957679593
0.0933331229706877 0.354182998959225 0.86990138158232
0.0990226894561242 0.356432846659168 0.879302530899941
0.100177021080439 0.357100419913047 0.885864137592186
0.100781619417175 0.357100419913046 0.899806862252393
0.0940234697716701 0.357100419913046 0.897686846952896
0.101374347763562 0.357100419913047 0.907802609859424
0.0977654627938993 0.357100419913047 0.924859560334729
0.100636707346917 0.357100419913046 0.922683728359612
0.0932138125425517 0.357100419913047 0.938263569874889
0.0953233716180432 0.357100419913046 0.950807482749419
0.101478438498518 0.357100419913046 0.949452487132928
0.0989881493136656 0.357100419913047 0.968506047497738
0.0979277554647079 0.357100419913046 0.976396827697996
0.0928092416997019 0.357100419913046 0.97820059426815
0.0960822501349815 0.357100419913046 0.989472805320335
0.101192665473228 0.346985769156385 0.989260935139352
0.0937205173646377 0.333627430715443 0.990636471240413
0.0967626253847275 0.319010597604083 0.990076454315675
0.0949429192433792 0.309312233743688 0.99041144118349
0.099879773104654 0.297259890559945 0.989502623449532
0.102785216002631 0.279106912878268 0.988967764994151
0.0986586992343279 0.269011655159761 0.989727409035456
0.107688131063474 0.221160614832187 0.332959424514739
0.1145508033495 0.224675279338511 0.346578749476746
0.108320297168059 0.227576154224086 0.357819639658349
0.108670087611194 0.229080341141448 0.363648363963125
0.112272275486372 0.233918635277173 0.382396753739062
0.109722380980755 0.236547760694333 0.392584614730553
0.114998559301227 0.240480198280774 0.407822810378013
0.109097340260341 0.241915286802084 0.413383778398092
0.106443068290713 0.246534187523734 0.431282018694484
0.109031631205307 0.247222393347219 0.433948816260488
0.111673820228386 0.254863835246658 0.463559403620813
0.11347540604543 0.256694431814658 0.470652965321816
0.114087043281805 0.259147807592792 0.480159796462083
0.10840432923597 0.261350702371867 0.488696013730999
0.109328471120443 0.264836030894071 0.50220166175454
0.105262777686928 0.267136402397912 0.511115601331925
0.109019765607022 0.272020862898055 0.530042885769978
0.105358215928238 0.273811175763286 0.536980348122748
0.109353359470494 0.27769590367565 0.552033668783159
0.10479278485055 0.279625085509168 0.559509248388041
0.107228953559292 0.281176624193965 0.56552146079163
0.110912745637186 0.284852709398998 0.580199814491376
0.112092643938253 0.288813347636633 0.596749624270064
0.109789044706832 0.290897649254392 0.605459027458556
0.112064321043305 0.292747203035305 0.613187520043085
0.105441479675153 0.296429931982781 0.628576066002181
0.111381734203017 0.299330319901292 0.640695544090243
0.110318615085212 0.301856354200042 0.651250758838592
0.108429715522853 0.306560980562166 0.670909376137468
0.105905379345016 0.308274710097729 0.678070317411071
0.111198220772046 0.309979163465772 0.685192497556104
0.107100003134068 0.313255336897601 0.698882222253391
0.110465083540515 0.317450259623542 0.716411006501074
0.104739294755234 0.319334951989495 0.724286328173094
0.110606436723995 0.3220141161329 0.735481406915178
0.102816339820309 0.321975713910417 0.735320940485518
0.111449992722314 0.32586769893229 0.751583877898344
0.109186435690518 0.328876709741579 0.764157244494298
0.108613899587794 0.331334004813992 0.774425227475458
0.103185731238628 0.334635030732251 0.788218800062468
0.105736287192919 0.338320060900951 0.803616961838818
0.103502659537516 0.338993440573768 0.806430726900234
0.103561562931846 0.341144803057901 0.815420348708932
0.102280979206935 0.345396036988883 0.833184433349106
0.110298470991769 0.348611810639164 0.846621773244926
0.107224292409058 0.349709543436228 0.85120872814694
0.102629153496853 0.35303115770762 0.865088330638115
0.107470120399917 0.354503988384242 0.871242658822572
0.103383118579835 0.357100419913046 0.885054646278097
0.104884568095091 0.357100419913046 0.897081915447923
0.107206465937334 0.357100419913046 0.905554368605895
0.101888738215393 0.357100419913047 0.914317186341935
0.109329875945729 0.357100419913046 0.923185261999001
0.109603181911412 0.357100419913046 0.928452570733024
0.10922659662284 0.357100419913046 0.941675044401033
0.109866253695607 0.357100419913047 0.951690092605621
0.106808368838528 0.357100419913046 0.95490008473538
0.108033067417846 0.357100419913046 0.961426013035134
0.10708930229954 0.357100419913046 0.9699628500576
0.106109269927294 0.357100419913046 0.987199006928611
0.102139047028945 0.347146080581003 0.989086717233557
0.105348705410256 0.336886264575851 0.988495856223924
0.10483193650933 0.334869557440795 0.988590987405587
0.108569189798328 0.317804931264322 0.987819862899221
0.108173758346597 0.30563721419058 0.987930612124585
0.104924854181993 0.292006761375556 0.988573882336025
0.106290080243441 0.287306770186119 0.988322559997878
0.118246995472411 0.224755533904797 0.346889735921104
0.116028969411923 0.227318576422643 0.356821525677756
0.117014530759969 0.229574707166529 0.365564032310315
0.120248272465583 0.233741275438032 0.381709484362388
0.116589162618062 0.236611945125367 0.392833329400812
0.118708042803255 0.237478317229685 0.396190521305043
0.121564197438469 0.24270778888178 0.416454723956914
0.117782889815753 0.246933542392208 0.432829518809821
0.119420372070373 0.248030221090041 0.437079148763924
0.116947294126706 0.253236841371454 0.4572548023544
0.118201149479918 0.256044677346002 0.468135166755773
0.114212474349687 0.257983087318862 0.475646505400604
0.120176879305122 0.262247151013264 0.492169752216414
0.123069698006535 0.264829861176113 0.502177754097453
0.121463369750927 0.267616143425605 0.512974597814233
0.113778522259508 0.269914164395899 0.521879429074121
0.117119368808145 0.274595157927813 0.54001827901029
0.122661942491472 0.275979417494088 0.545382284829606
0.116542645131226 0.278952273841478 0.556902103175744
0.115415760097338 0.283370698977979 0.574023500579684
0.120622809736159 0.285226748155894 0.581762762154119
0.115365275396531 0.287272534334338 0.590311225828328
0.121800023504284 0.289536450563489 0.599771161500141
0.118669794865254 0.293202506123502 0.615090036518764
0.115818914316917 0.297911631313355 0.634767452490648
0.113813246470746 0.300916687415241 0.647324294059245
0.116333026812805 0.302444423816865 0.653708049737461
0.115742315418395 0.305457724246563 0.666299340818699
0.112659556144915 0.308410639361051 0.678638307547097
0.119706020006064 0.311270936261215 0.690590262451351
0.117689968295632 0.31219212235776 0.694439504354774
0.115528182963781 0.316309940413779 0.711646101231707
0.114984857031237 0.318266586870632 0.719822088212127
0.114468380974778 0.320572572994034 0.729457815942061
0.119619118432331 0.322948838009816 0.73938720904372
0.117042528424424 0.324550478944203 0.746079780090982
0.114690997271603 0.330314897701113 0.770166815610927
0.113388260297303 0.330375862320391 0.770421560627197
0.114816547375296 0.334965312390429 0.78959890556271
0.113104703328694 0.338454696835421 0.804179547707856
0.114490561777991 0.340965484617291 0.814671053796386
0.114783464061426 0.3418554542476 0.818389855465891
0.119236065510509 0.34556106676694 0.833874022064563
0.112695181025158 0.347595515226061 0.842375110268745
0.113366359966638 0.350323538467217 0.853774350240718
0.116576412971963 0.352719261510121 0.863785050098564
0.115276126037902 0.355135065648463 0.873879660248068
0.115205823575956 0.356639283372995 0.880165141454147
0.115125974108565 0.357100419913046 0.891312242808199
0.115355430094603 0.357100419913047 0.907102220286428
0.114005301354455 0.357100419913046 0.90964025646895
0.116005781559279 0.357100419913046 0.918619560151156
0.117697281044723 0.357100419913046 0.926549458417782
0.117067658254346 0.357100419913046 0.939317938884245
0.110194082413095 0.357100419913046 0.95012492692259
0.110906267504881 0.357100419913046 0.954972676141042
0.117598073881274 0.357100419913047 0.967336600651885
0.110537671134515 0.357100419913047 0.973938999032657
0.112736318405093 0.357100419913046 0.980259238422213
0.114067430439293 0.353903638161062 0.986279960372004
0.120037681180026 0.333248151487854 0.984607861094415
0.117911912612978 0.330207533531513 0.985203229067997
0.116852577881012 0.319016322909586 0.985499918925252
0.120743997801111 0.304365687856179 0.984410041678924
0.118191440750558 0.287505877509923 0.985124941100336
0.116774028326098 0.285240167202319 0.985521918445829
0.115479918886866 0.265260515540559 0.985884362093916
0.133449774044572 0.22320258589395 0.340872062379073
0.128704427649478 0.229832961475359 0.366564767757028
0.125329403591476 0.230645501082839 0.369713358736018
0.129949900661612 0.234398672080832 0.38425689635324
0.128960436176431 0.237490430381376 0.396237459767845
0.1329581918942 0.238590633107164 0.400500745330275
0.130304955341987 0.242057683182261 0.413935564371276
0.130582146531003 0.246124706715468 0.429695280562452
0.125341537747972 0.251838825329008 0.451837490189922
0.130334720376884 0.254060258358863 0.46044554318061
0.131857794935239 0.255164849681482 0.464725834555758
0.129584575907619 0.256009247096288 0.467997874538131
0.124594293200158 0.263032580516847 0.495213291542798
0.131058130449999 0.264660930652849 0.501523148319805
0.124922881263052 0.268432453932628 0.516137801028948
0.129735167823826 0.268461994126954 0.516252269281961
0.122685344235619 0.274480348545451 0.539573392653639
0.124460542066809 0.277777411928736 0.552349513263868
0.122834263626658 0.280537533190326 0.563044983152529
0.123896602890823 0.281906595248218 0.568350098626858
0.128726787777884 0.286062558908238 0.585255257083556
0.130169947465423 0.289871985778962 0.601173219364795
0.129888632224125 0.290203313607841 0.602557696364041
0.123335690963371 0.293880423026031 0.617922760718621
0.127936895770499 0.296339284423762 0.628197288701997
0.126891896711954 0.299799267517692 0.642655075201629
0.124324316866667 0.303088174836083 0.65639800935348
0.128457748595849 0.306310490874418 0.669862687085092
0.122324466999131 0.308097195091662 0.677328558278575
0.124594866858896 0.30926023070397 0.682188385658578
0.127857159564008 0.313487858467518 0.699853830241973
0.124334234086034 0.315555295687232 0.708492764338638
0.124372318871502 0.31980170582634 0.72623669241991
0.121537697983319 0.321957302784733 0.735244008281768
0.127649482300934 0.324307938955295 0.745066309423044
0.125676671843595 0.326891031958374 0.755859948043051
0.122529609458663 0.330122538246305 0.769363027889047
0.124522161397162 0.329766383401367 0.767874809429847
0.126965718515102 0.334520444786085 0.7877399945017
0.123875216907017 0.337298382605826 0.799347806105618
0.122687970315078 0.340700854469693 0.813565277822492
0.125314020527 0.342845957811801 0.822528745359158
0.121187962379818 0.343806697710526 0.82654326565026
0.119914156951819 0.3467175191071 0.838706340771656
0.122920549085162 0.351655980667544 0.859342055149225
0.119525008648427 0.353271896078918 0.866094273118182
0.126277726631087 0.354271367751079 0.87027063689114
0.125124417737159 0.356890761378752 0.881215960263915
0.119000818338188 0.357100419913046 0.889754016959551
