ply
format ascii 1.0
element vertex 852
property float x
property float y
property float z
end_header
0.252848567975928 -0.180675179111193 0.488021602730654
0.246157928159926 -0.186530222552686 0.487676879016389
0.232953328726879 -0.202674931136124 0.487676879016391
0.224434495885825 -0.211551449466874 0.487676879016393
0.210003872322143 -0.227171667831128 0.487676879016396
0.20917120570692 -0.232149245212775 0.487676879016397
0.206465773730246 -0.23316820671683 0.487676879016397
0.187740043209519 -0.249068836032748 0.4876768790164
0.186046554110592 -0.263184952399669 0.487676879016402
0.178690735286023 -0.267530210759925 0.487676879016403
0.310316309497559 -0.110363436216575 0.677302315864496
0.310316309497559 -0.105913409670002 0.687847219660196
0.306653178611538 -0.109323572688582 0.68959850501728
0.297567702820407 -0.123485119532467 0.687103117110702
0.291941937728895 -0.130691501044493 0.685181902742001
0.187184979312987 -0.276345746724085 0.00475489433115561
0.187184979312987 -0.268308790376378 0.00876088181022807
0.187184979312987 -0.276418623233909 0.015933305997886
0.187184979312987 -0.273402522152542 0.0250377221841263
0.187184979312987 -0.281765348169495 0.0388918425421426
0.186380891686775 -0.275022686831651 0.0574566829755231
0.185059503106035 -0.276761733618431 0.0572277331226221
0.1855642495933 -0.27454514736307 0.065434843887641
0.183514655362154 -0.271724122919018 0.0779038254257202
0.183029976497785 -0.271057019692866 0.0909654047295819
0.190092070390636 -0.280777158047657 0.0991228936715923
0.185817696125696 -0.275256570063166 0.102811710556171
0.176067834478268 -0.288724077013961 0.102442809334256
0.16420355536062 -0.293890536599718 0.102642373240599
0.165275437757696 -0.3074089726267 0.10181618173
0.148882034437285 -0.316209053039999 0.101995923594313
0.271688437892301 -0.16616815816079 0.458849020215571
0.271688437892301 -0.171662413943132 0.455956148844394
0.271688437892304 -0.162566776642271 0.481690730694628
0.271688437892304 -0.161002456000884 0.482618675802736
0.264675175195228 -0.174316752766691 0.487676879016334
0.254733558574006 -0.182795610783849 0.488550592640804
0.255646667268382 -0.186912079105503 0.490342849058412
0.253345593560849 -0.19348415028131 0.49623805738435
0.254175508025009 -0.19663999403772 0.50280807874119
0.224671618776378 -0.224634347285224 0.487676879016395
0.254490311648498 -0.197376393660002 0.529192055150346
0.209335801047335 -0.241317800416899 0.487676879016398
0.207500536578641 -0.249416306985481 0.4876768790164
0.253424292482091 -0.197376393660002 0.554488483243679
0.193364491127405 -0.265242233112832 0.487676879016402
0.185946567346005 -0.267709915280264 0.487676879016403
0.310316309497559 -0.114182050456436 0.674502054808538
0.310316309497559 -0.124156171660549 0.670840729703014
0.308809391038121 -0.119072315796068 0.687980878348691
0.297147493454437 -0.134051626445575 0.684041293864288
0.288196216977888 -0.14968221641946 0.677581285020929
0.275242113169529 -0.166484880581271 0.667518435835961
0.187184979312987 -0.283150183995951 0.0256262877651985
0.187184979312987 -0.292209515085634 0.0165182173873205
0.187184979312987 -0.292194020784063 0.0396169643119883
0.193131906039736 -0.284961132876282 0.0689012104233937
0.190054381816516 -0.280725284175629 0.0762334676217935
0.193530386472827 -0.285509594140049 0.0858241135731534
0.18976964301714 -0.280333374840113 0.0997291795622546
0.186582245723126 -0.291333923811697 0.101850550314374
0.178773134598697 -0.297509334043455 0.101821555209211
0.167212305923337 -0.311854261154129 0.101477983408071
0.163714812005651 -0.314894591652339 0.101449133144016
0.252374502089685 -0.216197514512688 0.411952632458311
0.271688437892301 -0.177694013128153 0.460162777041042
0.271688437892302 -0.178064611142806 0.472007958853604
0.271688437892302 -0.191491465834204 0.470991463856682
0.271688437892303 -0.191467091160486 0.47708504585034
0.267425617122947 -0.190715849316713 0.493120228168434
0.26362195318484 -0.193926136364676 0.496877098410082
0.260222082135296 -0.196229499100141 0.501492482894633
0.26470102535507 -0.197335536236147 0.5066637530858
0.270295736978183 -0.197376393660002 0.51863172178161
0.265895334069625 -0.197376393660002 0.53266101748048
0.260434072583889 -0.197376393660002 0.540819154138807
0.261953037908724 -0.197376393660002 0.546976976684491
0.269129613540166 -0.197376393660002 0.560013651585917
0.256087616599224 -0.197376393660002 0.560698767671712
0.265007283329725 -0.197038467980848 0.574284582939238
0.26727595205794 -0.19385466787994 0.596072628782284
0.260131013929071 -0.194460487276241 0.593082414034787
0.310316309497559 -0.135345355127021 0.668570362732795
0.307227169114853 -0.139671480118395 0.68213361060086
0.299927371875397 -0.14821857409802 0.678303073537093
0.197627932788652 -0.291137303652292 0.0776495536991978
0.194879092630486 -0.28736592891148 0.0956506425953983
0.252374502089684 -0.229141249544599 0.416461482820767
0.271688437892301 -0.193988579347389 0.46086655642608
0.271688437892301 -0.194637488958443 0.463770247337004
0.271688437892302 -0.209393968008416 0.465278414910527
0.271688437892302 -0.210430745344243 0.472051019890686
0.271688437892305 -0.199455124552896 0.49862247309164
0.271688437892305 -0.203051725503443 0.497308070809812
0.27664995097144 -0.197376393660002 0.516389400968649
0.277095341308355 -0.197376393660002 0.527333493564507
0.276543695182627 -0.197376393660002 0.532832869438388
0.276401058529927 -0.197376393660002 0.548037957348559
0.271566417519322 -0.197376393660002 0.552656443955191
0.27378779890842 -0.197376393660002 0.558498519951591
0.269663253438651 -0.196766645910439 0.578431786317486
0.27578282728352 -0.194167250845596 0.594556613123098
0.276253506073771 -0.19306063915714 0.598411761970534
0.281760647302368 -0.188844165272534 0.61012113380335
0.310316309497559 -0.149693231680477 0.659797216925954
0.310316309497559 -0.154645744812373 0.661013835633785
0.310316309497559 -0.153960044886148 0.671185164208016
0.252374502089685 -0.240337638916061 0.41194502684582
0.252374502089683 -0.238840412445617 0.420498861890843
0.271688437892302 -0.209122972231997 0.468866198026764
0.25237450208968 -0.243324610036839 0.44378711964941
0.271688437892304 -0.210544404642432 0.485155012737257
0.271688437892304 -0.215216002777676 0.491372472536494
0.252374502089674 -0.244484039202154 0.480816897925522
0.283779128163665 -0.197376393660002 0.528518979135967
0.282521485836589 -0.197376393660002 0.547952289352314
0.289389547586624 -0.197376393660002 0.554697123096338
0.287125094594167 -0.197376393660002 0.562418020127331
0.28495367825242 -0.197376393660002 0.566372243501096
0.284094037790429 -0.196649530997582 0.580218614596408
0.288274177641161 -0.194972312601129 0.590509294365908
0.296265696525053 -0.187587068302835 0.612670274286747
0.310316309497559 -0.170538187365902 0.643831000140626
0.310316309497559 -0.170318723516255 0.649373179721917
0.310316309497559 -0.159533960197343 0.664260320508273
0.252374502089684 -0.25354371140232 0.41574456544277
0.252374502089684 -0.254993832574235 0.418143170214938
0.252374502089683 -0.256633970132157 0.425012537194676
0.25237450208968 -0.249317450747615 0.440058735955171
0.252374502089679 -0.258272308094183 0.447998304047803
0.252374502089676 -0.25615433946782 0.467772055890193
0.252374502089676 -0.261216172061838 0.467233215976173
0.252374502089675 -0.261866683741856 0.472049570471681
0.286942783473178 -0.215496013188751 0.53177912638788
0.29478049785446 -0.197376393660002 0.563958087444708
0.294380702487959 -0.197173948139765 0.572217555151904
0.301551937367858 -0.196586356124743 0.581182476896723
0.303407780630111 -0.194474172790543 0.593013612308266
0.306054306495066 -0.191725053308249 0.602346271006782
0.303117399751681 -0.187186571068983 0.613482402338052
0.310316309497559 -0.181916928623703 0.639746052098127
0.310316309497559 -0.182149189429526 0.639751499994293
0.252374502089684 -0.264896414175225 0.418164680441317
0.310316309497558 -0.197146359494167 0.574503329467269
0.310316309497558 -0.207596145518956 0.569746950812264
0.306610903450847 -0.195950689092816 0.585590663591083
0.310316309497558 -0.201819641312037 0.590736155431726
0.310316309497558 -0.199122862002354 0.59961415531282
0.310316309497558 -0.197031041363029 0.615063529764915
0.310316309497559 -0.194813311074652 0.638415519952605
0.310316309497558 -0.20713323395095 0.570422977741455
-0.300769912284901 0.0612871547918748 0.0503218701065899
-0.300569304144025 0.0522810371239284 0.0557727661688935
-0.303115271126936 0.0356560830991046 0.0571158962961833
-0.302391808831208 0.0355585419175829 0.063853034287629
-0.309580922085602 0.0134327264076471 0.0652375916600364
-0.305576438092994 0.0257572608665784 0.0823804745858028
-0.307876029136162 0.0128874817958835 0.101526015778105
-0.294797813496052 0.0614831431474876 0.050171482951998
-0.291655449231804 0.057706414951342 0.0530694684231622
-0.29600674590125 0.0552097449809443 0.0706378188914608
-0.296611951449147 0.0533471138295742 0.0652041358213124
-0.290136611997736 0.0642959994074952 0.0881021751952005
-0.295412973705252 0.0570371878934004 0.0872217062155071
-0.29106758016711 0.0549637172156473 0.101739123857878
-0.294692588412311 0.0438545147058813 0.101738077047609
-0.295439721594818 0.0280990395354253 0.10203508731192
-0.301190192834153 0.027785498728977 0.101651363475755
-0.283876665342497 0.169588386589906 0.682484913500208
-0.285527748400083 0.168835894904764 0.690473204943908
-0.279198349880584 0.158812916020586 0.690473204943909
-0.282368625170238 0.149238799203124 0.690473204943909
-0.287439696048531 0.132386685240659 0.690473204943908
-0.286007700095699 0.0923862977657389 0.690473204943908
-0.287095313705678 0.0594593643701998 0.0517243830255104
-0.285183884834173 0.0626867608019855 0.0719119667874426
-0.288712049904685 0.0638331311249566 0.0687263296369059
-0.284503336542755 0.0624656372578664 0.0820760371382308
-0.283736826373459 0.0622165830064988 0.0876096789558928
-0.286513495157512 0.0603644332689829 0.101929286656582
-0.285763925831698 0.0512441018427889 0.102181516670636
-0.287518710749779 0.0412596967676118 0.102282691757487
-0.283060904678069 0.0314595438287122 0.102801837423092
-0.287251400340424 0.0207061809361184 0.10275452125697
-0.292686802160035 0.0162611935571546 0.102483392851303
-0.291644441844868 0.00532199898874891 0.102795660036765
-0.271557728284389 0.169588386589906 0.680349528778542
-0.274339498483305 0.169588386589906 0.684591332104257
-0.269560800571318 0.162893143673657 0.690473204943909
-0.275522713943575 0.148676719430512 0.690473204943908
-0.276975949819599 0.138420766440316 0.690473204943908
-0.278083876786449 0.127299514571785 0.690473204943909
-0.281033126727679 0.116886679780466 0.690473204943908
-0.280706173431396 0.0985774816727732 0.690473204943908
-0.281248644686188 0.0800190359634002 0.690473204943908
-0.284674519724332 0.0725586369644726 0.690473204943908
-0.285862297745728 0.0720707240092618 0.690473204943908
-0.284586425113526 0.0225459764452344 0.690473204943908
-0.286022608792583 -6.87516157231019e-005 0.690473204943909
-0.274053579022379 0.0605881707302199 0.0508582194412651
-0.279106728482893 0.0551404235831673 0.0545883695174112
-0.269808207408209 0.0576909003633665 0.0699806351384728
-0.270048452457091 0.057768960711671 0.0748504123240003
-0.276952899353463 0.060012351499896 0.0838971428930176
-0.270095450802692 0.0577842313998459 0.0958574944776794
-0.271371644740343 0.0445705451192946 0.10330652489612
-0.273691185492562 0.0419002861178587 0.103207892114949
-0.281470783958742 0.0275821408602959 0.102995443000455
-0.273063488947666 0.0247515786945573 0.103629050465995
-0.283440176784482 0.0124792734057365 0.103195017202397
-0.279035265848876 0.00543767207508486 0.103649681040096
-0.265392329397469 0.169588386589906 0.677442619689657
-0.263993861545476 0.169588386589906 0.686080416090582
-0.26668494561593 0.157389873656001 0.690473204943909
-0.268827234581054 0.155233954448432 0.690473204943909
-0.267647566943215 0.137123284412638 0.690473204943909
-0.264010547729283 0.130563281570131 0.690473204943909
-0.266271908850191 0.120202884250627 0.690473204943909
-0.273641413632272 0.0955446398397553 0.690473204943909
-0.275913536460372 0.0817256793758421 0.690473204943908
-0.269820422994554 0.073149483059072 0.690473204943909
-0.272176526498955 0.0577465785899405 0.690473204943909
-0.273183960053988 0.0487808906922188 0.690473204943909
-0.27939916610979 0.0413920912771133 0.690473204943908
-0.276844243847295 0.0306809039748387 0.690473204943908
-0.282453209012658 0.00892787811190177 0.690473204943908
-0.28415761659887 0.00235323886013085 0.690473204943908
-0.28158878777564 -0.0148337672713189 0.690473204943908
-0.27791035159708 -0.0330429536325884 0.690473204943909
-0.287133048515286 -0.0480674545444629 0.690473204943908
-0.287973876394367 -0.0538532345582241 0.690473204943908
-0.28378459371232 -0.0890767973783453 0.690473204943908
-0.267126462171726 0.0629434391283739 0.0487677812403995
-0.267621520798993 0.0566372148011775 0.0538898945539342
-0.263396819860673 0.0556077142689899 0.0692413565028144
-0.262041185703138 0.0551672420303207 0.0717379299002682
-0.264033506574743 0.055814586322721 0.0818624617419516
-0.266228877379651 0.05652790553777 0.0888750273173013
-0.269203469484629 0.0517434505730389 0.10329548971906
-0.262469535772079 0.0509896238641812 0.103769582347737
-0.264435459328334 0.0276879420338802 0.104150361724476
-0.263052184160819 0.0305893229647977 0.104180290070697
-0.267531550115317 0.0175947061153146 0.10416282058941
-0.264902840013518 0.0102845264627901 0.104502750704862
-0.269941827386669 -0.00104175014020057 0.104410440003186
-0.257157968045485 0.169588386589906 0.678769981533864
-0.25034276531435 0.169588386589906 0.689073520110488
-0.259685019330602 0.162473604202464 0.690473204943909
-0.261275279373727 0.14131854935524 0.690473204943909
-0.256093713925259 0.138387082353473 0.690473204943909
-0.254700027616808 0.127038163242271 0.690473204943909
-0.264805288682911 0.102811595102674 0.690473204943909
-0.259498006896847 0.105633678756506 0.690473204943909
-0.260501816627516 0.0922538200659094 0.690473204943909
-0.260493294249023 0.0685630165397752 0.690473204943909
-0.25988744976318 0.0690618267114121 0.690473204943909
-0.268767611430323 0.04771342961001 0.690473204943909
-0.264848745297016 0.0337457308878749 0.690473204943909
-0.263916682548696 0.0302179722785172 0.690473204943909
-0.269731307179939 0.0199361714077629 0.690473204943909
-0.27067255138427 -0.0107149159732215 0.690473204943909
-0.27037283878092 -0.0195661189399485 0.690473204943909
-0.269392403458295 -0.0283703309843437 0.690473204943909
-0.270760817099494 -0.0348696636644042 0.690473204943909
-0.271682833600822 -0.0600165361420083 0.690473204943909
-0.272360475998942 -0.069468510141496 0.690473204943909
-0.280801059187521 -0.0740429247622133 0.690473204943909
-0.281047055267084 -0.094158939467719 0.690473204943909
-0.279059012421143 -0.110390065170997 0.689528603406911
-0.276523980288894 -0.134836541839227 0.68377485099106
-0.284130384827083 -0.149610601638939 0.677616601522374
-0.259726836308421 0.0595795629846192 0.0516321513847491
-0.253135390291404 0.0575054016007844 0.053223711391989
-0.253536694166985 0.0491281429140884 0.0569940881972886
-0.257529221981403 0.0537012161484404 0.0657989875711442
-0.252943674172165 0.0522112813472011 0.0839614926562989
-0.258619964575025 0.0540556199006278 0.0928187565648126
-0.25887245458267 0.0541376588772139 0.1022963706369
-0.258578705526535 0.0388860027592253 0.10430105549586
-0.258602752273837 0.0328999797856283 0.104431549282419
-0.260027922078939 0.0277520103914558 0.104448363068088
-0.255037290065805 0.01775153163941 0.105008126709715
-0.254513061713039 0.0109147886146158 0.105194643893412
-0.262788495511629 0.00185263560282026 0.104832497753908
-0.242594721070947 0.162441714202146 0.461637634767421
-0.245672443614418 0.169915760594724 0.482617984609322
-0.249060521909767 0.169588386589906 0.495284965204509
-0.24222349491288 0.169588386589906 0.508445070922001
-0.247813537622316 0.169588386589906 0.516763888507549
-0.246803909423184 0.169588386589906 0.525781751996318
-0.245534224266787 0.169588386589906 0.5349875680185
-0.2436420368204 0.169588386589906 0.546396977467008
-0.244706950851915 0.169588386589906 0.554714453935591
-0.245828044936384 0.169588386589906 0.571577550388019
-0.244168724954451 0.169588386589906 0.579152071125216
-0.249373712109532 0.169588386589906 0.583370007527751
-0.245305658519544 0.169588386589906 0.599747547147599
-0.247862853101668 0.169588386589906 0.596853091315628
-0.245417104925705 0.169588386589906 0.609894113450782
-0.247680426089681 0.169588386589906 0.615930196019604
-0.247155901524118 0.169588386589906 0.627022637051889
-0.242835549198477 0.169588386589906 0.643782030179499
-0.246840621964667 0.169588386589906 0.652802246790547
-0.244530532485928 0.169588386589906 0.661114913460209
-0.242628944996982 0.169588386589906 0.670835568628028
-0.241269670185591 0.169588386589906 0.681024066280416
-0.245162919623251 0.169588386589906 0.690086784936973
-0.250171873468769 0.165133363004255 0.690473204943909
-0.25012823838021 0.152239817675591 0.690473204943909
-0.243945473373784 0.139377266554712 0.690473204943909
-0.249898258690788 0.118978496404057 0.690473204943909
-0.251683167503376 0.112314731932855 0.690473204943909
-0.252334172612871 0.101279109331441 0.690473204943909
-0.254391524501455 0.0858485553721846 0.690473204943909
-0.254424573871294 0.0821765718668728 0.690473204943909
-0.250603876593779 0.0580616331628459 0.690473204943909
-0.25838537840361 0.0523248502529024 0.690473204943909
-0.258573284296401 0.0441026192953169 0.690473204943909
-0.254451862375795 0.0200056466301852 0.690473204943909
-0.263494296963993 0.0079508244429705 0.690473204943909
-0.262497875126347 -0.00968240746371681 0.690473204943909
-0.261763236460112 -0.0149184077778398 0.690473204943909
-0.263193803710409 -0.0150382712102313 0.690473204943909
-0.263622593301117 -0.0361501007059353 0.690473204943909
-0.229000884438775 0.305155511461314 0.964399412138757
-0.26712801247242 -0.0618872194768058 0.690473204943908
-0.268670823645503 -0.0834531815505652 0.690473204943909
-0.269249046830521 -0.095357574594794 0.690473204943909
-0.27065640481809 -0.104276432823757 0.689929312041329
-0.266050429692933 -0.12306276439736 0.687187128770495
-0.272999472608869 -0.164803126348527 0.668642148088506
-0.246925123905657 0.0590898340682213 0.0520079335990938
-0.246692651746848 0.0186322505247899 0.0171653921976529
-0.248170825535825 0.0506604888181164 0.0662424329360386
-0.243447151764736 0.0491256741713112 0.0729229590333075
-0.242366861803977 0.0487746666854165 0.0725328787218293
-0.246378778420029 0.0500782174136168 0.0842533793863737
-0.250657639781751 0.0514685037474892 0.100030797016865
-0.242276850458287 0.0425210257742177 0.105328248467558
-0.242809269714362 0.0323084001411685 0.105517499472909
-0.243038015724223 0.0253918366768778 0.105654626992186
-0.244175255809214 0.0198982107981143 0.105698630146747
-0.25106881468526 0.00131491890045632 0.105640515069481
-0.247834080643031 -0.00256745147087442 0.105945953163233
-0.226957766768692 0.217860617727221 0.489802590107424
-0.227388800135579 0.217689922025658 0.518581073570327
-0.23019353317818 0.217669200694357 0.529177242733783
-0.228729551565294 0.218016553287332 0.539390077664936
-0.237212003845001 0.169588386589907 0.497756187182573
-0.239858935057096 0.169588386589906 0.51405461687427
-0.236969944178695 0.169588386589906 0.513973876562257
-0.237357632744366 0.169588386589907 0.521208858913687
-0.227672240255677 0.219593800454411 0.576452723291726
-0.235633722668751 0.169588386589907 0.546028509071938
-0.239716068641425 0.169588386589906 0.55458101086532
-0.23888251954134 0.169588386589906 0.566670295884002
-0.236362922175492 0.169588386589906 0.575863288651427
-0.230415904914738 0.224485247059103 0.630653536739837
-0.236443069232099 0.169588386589906 0.598617914458286
-0.24002829603432 0.169588386589906 0.605021748005459
-0.236993802691548 0.169588386589906 0.61325295171171
-0.229006086196341 0.22954740322176 0.668139808369829
-0.239769628295247 0.169588386589906 0.631314320176307
-0.236181963642279 0.169588386589906 0.641415654279371
-0.240687721848728 0.169588386589906 0.649572327049189
-0.240370721642161 0.169588386589906 0.656572366019879
-0.22726142658673 0.240572582412816 0.728724695822742
-0.227174781347549 0.24339643651174 0.740589994233157
-0.237430110309851 0.169588386589906 0.683879326123415
-0.22598231864403 0.247981186879646 0.759854244207395
-0.228626748460363 0.251117883750708 0.772280430737834
-0.228466437311985 0.256217216790979 0.790452645593959
-0.242476764890085 0.125031478508579 0.690473204943909
-0.228627153537366 0.26480179617036 0.819158734325979
-0.244995483929699 0.0989798315489231 0.690473204943909
-0.229042486823476 0.266751008026923 0.825171168428672
-0.227915177404083 0.27600407829482 0.852715663768954
-0.223535190475105 0.280291612718346 0.86433733215387
-0.228647714771579 0.28536285177845 0.878083287949298
-0.229394168384798 0.290425343884183 0.890876402919324
-0.223778875191077 0.292879303954885 0.896789656076417
-0.228315066915751 0.298156733253847 0.909506560412391
-0.22479211871251 0.305893981769407 0.927393413237279
-0.222239633622679 0.307631325245586 0.931148907017729
-0.221461652759888 0.317307029072452 0.952064198692335
-0.222407512863849 0.316368539910466 0.959849166517785
-0.2212997948455 0.310744192048442 0.962545239403357
-0.225024306631217 0.296641739564448 0.968696061641117
-0.221786896912495 0.29550935660722 0.969521351747246
-0.230312134717914 0.285547190659513 0.973314040522169
-0.230017618377119 0.276542192810855 0.977492055951807
-0.225504637778367 0.265133019652546 0.983173465697818
-0.226831062455629 0.264879044743109 0.983166225703239
-0.227405320050441 0.249991779887619 0.989973975031716
-0.236491814863786 0.0468657482182568 0.0711202077171158
-0.23436292849109 0.0461740311047255 0.074941818161494
-0.231764834673722 0.0453298592508012 0.0905350147472709
-0.233473211170039 0.045884944423036 0.100090913334387
-0.239522677650785 0.0478505352343312 0.104790497865139
-0.24132511126005 0.0303132634299237 0.105662360167128
-0.235393582206392 0.0293841000792025 0.106085813497413
-0.237018049063395 0.0162126957888689 0.106266186924244
-0.238513905828175 0.00139368930324885 0.10649166410426
-0.239372079732321 -0.0107228256115542 0.106700809614089
-0.220092895255293 0.217861805823532 0.48960228271992
-0.225711669960735 0.217828706181754 0.495182724903411
-0.222786904336936 0.217754214120267 0.507741732189367
-0.21998808375151 0.217701765281583 0.516584356947304
-0.221346671988643 0.21763782656221 0.52736412094399
-0.218359882490003 0.217820280055031 0.533619266784478
-0.224027832179729 0.217908759852159 0.536220743154849
-0.221342080656624 0.218606700882845 0.556741553081778
-0.223760110272331 0.218753331171912 0.561052765862197
-0.222718864363822 0.219194515696974 0.571061559752737
-0.226016559029942 0.219595502437508 0.576475703555915
-0.222263517636802 0.220793627273894 0.592652847343096
-0.224323876712718 0.220871603604316 0.593705687807572
-0.22602084424074 0.222993072783149 0.617604577082058
-0.220701079723983 0.223564266541602 0.622599626541722
-0.220167250402245 0.224987469315224 0.635045435236531
-0.225818855878654 0.225424249413027 0.638865046636757
-0.220787412235467 0.225951386593992 0.643474824408283
-0.225268872665845 0.229265476583288 0.666321055152077
-0.219937126788314 0.229579998441111 0.668350085271659
-0.217840018488621 0.232450449176762 0.686867815771275
-0.222246298895963 0.2332814091958 0.691558324671063
-0.216925164908105 0.236226738500377 0.706571985551093
-0.223283200046062 0.237669251626467 0.713925120175612
-0.224356551682347 0.241096957684607 0.730928021087039
-0.218043863143922 0.242462157936023 0.736664333164634
-0.216206641694626 0.246797339363049 0.754879941865712
-0.223049086131615 0.249360063254956 0.765648020759223
-0.224445434005821 0.252203601422593 0.776149543551365
-0.217943992620136 0.253311080506737 0.780096206322122
-0.216413936248138 0.256900353688666 0.792887103273594
-0.218381286931528 0.260439361787753 0.805498873292591
-0.216360346671365 0.262575167401823 0.812290594930602
-0.222385424117397 0.269999467961338 0.835191193304449
-0.22136158061852 0.271800618819475 0.840746926411191
-0.214856725030743 0.274382451644109 0.848320128872417
-0.215508969137659 0.283104766040121 0.871962585222905
-0.220670709375661 0.289899144196234 0.889608431201619
-0.215841778366845 0.29364611063848 0.898637413135216
-0.212428339407184 0.296457063845249 0.905410904734696
-0.220345571543784 0.303839971197999 0.922953402363398
-0.21489097623136 0.310171934179033 0.936640763509514
-0.215773231468354 0.319822357360414 0.957501407782388
-0.217145056071704 0.315934997913286 0.960542124131748
-0.215339062820979 0.30542413651697 0.965555832667881
-0.215740012135897 0.298135570825843 0.968877570884166
-0.212621159023427 0.292709434197252 0.971670748580641
-0.219253331271336 0.291786895810959 0.971474456283047
-0.222227381473452 0.284015704396616 0.974777515714768
-0.221751071838933 0.267471102807571 0.982447581161227
-0.217004449050491 0.26741718974179 0.982917229160352
-0.218647789101086 0.251589790839116 0.990058105427076
-0.229727446072873 0.0446678715655051 0.06411739617264
-0.224803120339697 0.0430678611441309 0.0747016591177955
-0.223171898502075 0.0425378450401614 0.0768416344920313
-0.229227858429732 0.0445055457002532 0.0909373525875461
-0.22649809994028 0.040686224732806 0.106440639053433
-0.229082534423052 0.0400387858980557 0.106279362363931
-0.224182357852131 0.0240804213832454 0.106964487413665
-0.22474863640773 0.0161280765190011 0.107101547899225
-0.227791274928991 0.0114961789599334 0.106997091747052
-0.230884565342884 0.00117012547282052 0.107014879747581
-0.214250738540056 0.217863379023575 0.48933704867487
-0.210385843801792 0.217847625407424 0.491993033434253
-0.20981778196208 0.217789216951637 0.501840421292188
-0.210060273769998 0.217696718566795 0.517435209058587
-0.210703702082325 0.217690214963112 0.518531685708747
-0.217234374407845 0.217861291456403 0.534825080936951
-0.212235914792161 0.218092562285062 0.541624888525157
-0.211770502734675 0.218438150683594 0.55178585274335
-0.209422968250996 0.218939448880038 0.566524984781235
-0.212072065841167 0.219198051332679 0.571109298089705
-0.211211174548396 0.219852317850563 0.579943238605335
-0.215992935481639 0.220000289024911 0.581941153088954
-0.213102626464083 0.221593367455427 0.603450980823137
-0.211185002034534 0.222158470226605 0.610306036109909
-0.215351253436426 0.223199570000177 0.619410380799396
-0.209437270034264 0.22453295801904 0.631070765746856
-0.20834656071251 0.226168743146511 0.645375592254817
-0.213114396348068 0.227197543395667 0.652980491949231
-0.215752580967262 0.228691384855139 0.662617498852744
-0.207969754229322 0.230362505605002 0.673398162423784
-0.207896196483305 0.231956133329115 0.68367890626145
-0.214007126385098 0.234269821453926 0.696596704057068
-0.207777959648997 0.237158968504787 0.711323978860174
-0.21422275573177 0.238720133578014 0.719281935531019
-0.211291250509052 0.241951124626797 0.734517068292154
-0.208204173916548 0.243518412823597 0.741102515520904
-0.208584348677158 0.245176340826689 0.748068813994736
-0.207285208790921 0.249399936060088 0.765815558710824
-0.20639411118628 0.250768434734198 0.771035118349108
-0.206594234568749 0.256328797622005 0.790850280111884
-0.208008348445425 0.255800695790202 0.788968312435395
-0.214038415474873 0.260275507501133 0.804914954713819
-0.209967194691758 0.267699345293439 0.828096358578146
-0.212545106420581 0.270719978475057 0.837413641300263
-0.205229654617545 0.272737688473868 0.84363736109006
-0.205527311310617 0.27957541806942 0.86239603538825
-0.204202557843132 0.283038113970634 0.871781920026497
-0.211521548870663 0.287943000578833 0.884894755311198
-0.209223104254196 0.296203950020976 0.904800981966042
-0.206452923651406 0.294769494058578 0.901344405247609
-0.203219299320989 0.303045760939929 0.921236613642316
-0.20225517862247 0.309530488247851 0.935254194740539
-0.208684947154197 0.313152702040628 0.943084080745666
-0.203152766516207 0.313445974852626 0.963000516410584
-0.210496279577717 0.307032713236639 0.965268247748566
-0.206840403873079 0.304212152522298 0.966910835321513
-0.205639368777967 0.297623282324409 0.97006020257908
-0.204366059422098 0.285416545702189 0.975805625430603
-0.209800169676065 0.277766973870653 0.978822101428752
-0.21003873330286 0.269427663027746 0.982643346562384
-0.211279290205529 0.267028577174776 0.983632837896797
-0.211899854202811 0.254132628548703 0.989518447346463
-0.219741641629962 0.0414232870192737 0.0644420596058401
-0.21929147260324 0.0412770182358575 0.0670231346895158
-0.214324317926543 0.0396630918471631 0.0829551166500225
-0.218293502315171 0.0409527580330088 0.0880031722153719
-0.216168873507307 0.0402624242861495 0.0942853278584407
-0.21899699682474 0.041181337255359 0.105741176005291
-0.21466893338891 0.0298357998161122 0.107483722741037
-0.219262913299938 0.0264589552212103 0.107246177586542
-0.217052551382373 0.00760395681344886 0.107812512875255
-0.220030006205221 -0.0013527290642289 0.107807944327986
-0.218087694228218 -0.009721739911097 0.108124616830857
-0.216872001128788 -0.0182337971871234 0.108395085630815
-0.208620869307384 0.145706918466864 0.422120569509817
-0.206530459201524 0.217783561881672 0.502793839192914
-0.200512941696308 0.217763562556799 0.506165630250801
-0.201400560992157 0.217720344248047 0.513452031562094
-0.207018670717982 0.217681958252187 0.519923727902102
-0.207432811563021 0.21798183477013 0.538369286421656
-0.20610058021147 0.218251246392612 0.54629050677408
-0.205566865746246 0.21821490941947 0.545222129810435
-0.199525196129146 0.218717015641427 0.559985019353938
-0.199380775556626 0.219544412064387 0.575785878683737
-0.200031761967842 0.219770353365711 0.578836549872563
-0.208151601111379 0.220775882401137 0.592413255149241
-0.201740379541197 0.221294117012462 0.599410485795238
-0.200369918052269 0.221730237243813 0.60529900381674
-0.204163696411864 0.224442982581405 0.630283936838995
-0.203097269806613 0.225019156554339 0.635322537925906
-0.204967200901586 0.225009732943068 0.635240129104572
-0.206890412570847 0.22640344693417 0.647428060459135
-0.207120732930359 0.228699962839133 0.662672836780643
-0.207505256347905 0.231084872515307 0.67805826531311
-0.206425040314772 0.232444616110805 0.686830185742642
-0.203147374858445 0.234278870131342 0.696642829213228
-0.202876437132045 0.236512102043106 0.708026611168471
-0.199866518580255 0.239924268557986 0.725419950120754
-0.199021903293951 0.240102641590998 0.726329197254383
-0.206192354021394 0.242888404385769 0.738455339762512
-0.199504037479789 0.247496101692134 0.757816008412392
-0.20408102073733 0.250568176327775 0.770321468395374
-0.199420129838091 0.252740596321876 0.778063202967086
-0.198507081473025 0.255586789040797 0.788206024626645
-0.202574891856828 0.25905872307576 0.800578766463934
-0.196996126705506 0.262355334459633 0.811612510055391
-0.197883059129049 0.264737829816658 0.818961427150193
-0.199558254237649 0.268890152491003 0.831769458441697
-0.199616170952047 0.274587515382873 0.848875968787453
-0.198902239442056 0.281789862649978 0.868398445638491
-0.194628487358908 0.285703032333716 0.879005371649106
-0.202137454706298 0.28822293612687 0.885569309792737
-0.198440471405084 0.295078959094996 0.902090116282377
-0.198245679901153 0.298736959030547 0.910904717597936
-0.19655290180846 0.305090281311733 0.925656110216016
-0.193371648522594 0.30829833097849 0.932590726620928
-0.192553398307564 0.316824734131101 0.951021655477698
-0.19997173482924 0.317708729074699 0.961333896771844
-0.200500575512416 0.314472415970319 0.962775961306584
-0.196607698472769 0.307583076036709 0.966316064252745
-0.201390261348022 0.294323804175714 0.971979114815818
-0.197518048914092 0.284332816289077 0.976946835400999
-0.201611772075438 0.284170660705964 0.976637956070648
-0.196205008848505 0.272414647513339 0.982562980018156
-0.201061983530357 0.261608498372183 0.987088409695567
-0.202010560483723 0.255372134256785 0.989873869241786
-0.211250476119746 0.0386643401010316 0.0685311351503136
-0.211381770445288 0.0387070002134031 0.0758301725100571
-0.203349667147654 0.0360972116498244 0.0848806046066292
-0.209079178742918 0.0379588428169208 0.096342822977575
-0.212267760050877 0.0389948756869161 0.102915275489667
-0.205178957393134 0.0349255238219116 0.108016057905023
-0.207403949098678 0.0266340108788501 0.10804792401561
-0.20877611675291 0.0122460965937253 0.108272288375518
-0.208506658102403 0.00263954018344644 0.108502635489349
-0.2066260734666 -0.0149027755836515 0.109017593772566
-0.195817301535102 0.141180915256427 0.411590132380132
-0.203283867496357 0.142672074614272 0.414683955654163
-0.192228801486102 0.217824263609245 0.495931721499646
-0.191493394127701 0.217769527972181 0.50515988958857
-0.193805133729029 0.217670337083447 0.521883001681881
-0.196134876788344 0.217653958299451 0.524644386766923
-0.192794116483327 0.217642357166661 0.526600282580912
-0.19335226385108 0.218124323573148 0.542558731539361
-0.195189687530438 0.218440510740753 0.551855242967237
-0.192974218938621 0.218796440535044 0.562320264129274
-0.194839809175092 0.219745956817734 0.578507146414304
-0.194524693468622 0.219978965852509 0.581653246507385
-0.194968679441218 0.220560851442211 0.589509895970288
-0.190479827027242 0.221728083095688 0.605269918396834
-0.191245555738894 0.223132857936207 0.618826988466841
-0.198488903948867 0.222649479606862 0.614599878791576
-0.194021052452244 0.224887720811976 0.634173141553563
-0.194734997313344 0.225820897430223 0.642333705799525
-0.195376169748075 0.227752283127574 0.656559205468091
-0.197247434003415 0.227678988093793 0.656086367643123
-0.197352490224988 0.229846756663978 0.67007098464758
-0.198681722544583 0.231200540859788 0.678804460049647
-0.197903133581414 0.233728689851753 0.693838314238356
-0.189494979045831 0.236098254733406 0.705917046321416
-0.194621734997836 0.23669483758951 0.708958095984167
-0.195630355055799 0.242220462847189 0.735648776321789
-0.196602841208157 0.243059538080918 0.739174411035277
-0.193524792760434 0.246327579660592 0.752906100847169
-0.191708781388082 0.248944291417751 0.763901026493134
-0.194535847189688 0.250914949281963 0.771557244246849
-0.192016126785378 0.254686508847674 0.784997745235801
-0.192009082178772 0.259049444928713 0.800545702437666
-0.191778253294886 0.262704430230762 0.812689312103547
-0.192804382036003 0.26762943492718 0.82788071682078
-0.187888667555302 0.272402390167607 0.842603117960277
-0.192201971608315 0.275463187335522 0.851249540178932
-0.186192341721664 0.276827405562291 0.854947351151405
-0.188943440322206 0.284425286855218 0.87554195123901
-0.188188379560023 0.288340003126896 0.885851403546326
-0.194059929849593 0.292378953680834 0.895583973118079
-0.185455698288434 0.301199723919556 0.916839187530425
-0.192521357365887 0.308380217033291 0.932767733973663
-0.191016959370194 0.314219776589883 0.945390701104821
-0.189568325140255 0.317531370635522 0.952549142145577
-0.191302460993856 0.315034514345427 0.963378831798191
-0.192364519400492 0.313968975914619 0.963770416014594
-0.19131964864241 0.305339751884489 0.967845551403987
-0.189876886700801 0.299893702566191 0.97048318940863
-0.185299729313664 0.290678193585005 0.975081285351105
-0.188308897402509 0.285868842899982 0.977067390878605
-0.189879115792039 0.271344703583549 0.983641294139062
-0.190119277051335 0.265684839422297 0.986231535166164
-0.189499834246902 0.259501005933421 0.989129128374819
-0.195730896665786 0.253802915095781 0.991185583174936
-0.199558542784637 0.034865400673412 0.0682162475626223
-0.202276682446676 0.0357485777867205 0.0780143400412864
-0.192817411156378 0.0326750742324917 0.0872767237778107
-0.197917330165159 0.0343321383676374 0.0861790612310578
-0.202086826951995 0.0356868899970599 0.103940091565978
-0.197192745343119 0.0235059961074605 0.108810641272321
-0.19471380856521 0.0270766395256197 0.108900228377968
-0.203352546186945 0.0067228317407215 0.108762638720686
-0.19984453563416 0.00262133421613705 0.109091477915895
-0.201065697373784 -0.00714547782477114 0.109224100563866
-0.193942650855722 0.140790259584183 0.410779608941062
-0.186673631735795 0.217825067658273 0.495796162657587
-0.186719879969578 0.217776519790314 0.503981102304175
-0.187615275951529 0.21770721440557 0.515665660558788
-0.182547163191079 0.217636185597765 0.527640779745157
-0.184873966669712 0.218034770213545 0.539925690365482
-0.186262124352899 0.218168358387393 0.543853439850739
-0.188820878581895 0.218205440649567 0.544943729746693
-0.188733191269595 0.218589230216043 0.556227881844542
-0.189099762346636 0.218934499533844 0.566379464474999
-0.188944315406539 0.219873741859827 0.580232506691473
-0.184517245254606 0.220168309052792 0.584209768234564
-0.187433693954772 0.221196913355049 0.598098036962821
-0.186945134870538 0.221642587615411 0.604115553980383
-0.182539192877083 0.22247939475006 0.613112498617175
-0.180973575138685 0.22399335567918 0.626351981032801
-0.182262838758371 0.225765951835764 0.641853210419718
-0.1878614257982 0.227015389495957 0.651805388408035
-0.187680434905233 0.229278038776733 0.666402095843632
-0.180793630566063 0.230181677998087 0.672231615006632
-0.185122263650873 0.231084020838448 0.678052771011342
-0.182085928495544 0.23527851910405 0.701738487159522
-0.18469856848055 0.236208910209293 0.706481106777032
-0.179792123479007 0.238535405605648 0.718340294429
-0.184118527254401 0.24170257333695 0.733472702995287
-0.187307050059437 0.242877077379818 0.738407745835558
-0.185386012445864 0.247423101111715 0.757509273843087
-0.18323191190104 0.249121424294947 0.76464530518906
-0.179206917782182 0.252792582170099 0.778248462097237
-0.182776483615295 0.25438843314972 0.783935509138687
-0.18694213671707 0.256899133252844 0.79288275407306
-0.181883875085546 0.261607868907743 0.809306917997944
-0.184311761416673 0.264464706193583 0.818118964705643
-0.186488907334595 0.266746284116711 0.825156597309191
-0.182985116395032 0.27304383270786 0.844581677135849
-0.181400338278029 0.277217119449921 0.856003698487576
-0.180565246426448 0.283827506921184 0.873921626018438
-0.17926590897441 0.289212557303049 0.887953977992615
-0.183218792679686 0.294077440219962 0.899676778461444
-0.179156907629496 0.296241733905642 0.90489202895493
-0.181378705755764 0.309969387201377 0.936202931885965
-0.177617659504306 0.310918004234088 0.938253490923495
-0.176182736088347 0.313856890491855 0.944606275628316
-0.179222130929766 0.314393171982046 0.964616619596887
-0.177463683486187 0.312109305092617 0.965803971205227
-0.177194176133679 0.303743206701855 0.969680565081814
-0.178802121390692 0.29370374440189 0.974184583886884
-0.17740952022937 0.288062564573521 0.976891298603889
-0.179994673505091 0.283275890139935 0.978899436232158
-0.185521966872975 0.273169353189877 0.983134110029828
-0.185647642251687 0.264585734556388 0.987080684502134
-0.183861640937253 0.261152254915541 0.988800005205468
-0.188550955899703 0.0312888188865023 0.0711691351909272
-0.18333968474384 0.0295955742455515 0.0757532516156511
-0.186406460430704 0.0305920300701414 0.0901658858628474
-0.184157177073131 0.0298611936048571 0.101974665942531
-0.184969283599188 0.0239133253390257 0.109632022078635
-0.190573396777477 0.01211491674488 0.109511742107628
-0.188230008322362 0.0130184816220065 0.109650990533192
-0.186708189644619 -0.00277413405823231 0.110102956404685
-0.193112854249403 -0.00660125496052709 0.109752345504062
-0.187553283924644 -0.0263003489688032 0.110564832676026
-0.203641956332211 -0.24593761955268 0.0427063974987068
-0.202877101933508 -0.247494980896778 0.0450811107973181
-0.184642866676994 0.143882205744374 0.417380478498742
-0.17618552754734 0.217784548548748 0.502627491816709
-0.171443261409415 0.21774510596167 0.509277324410963
-0.177180392250764 0.217737609980516 0.510541111182848
-0.177829963119635 0.217672850466021 0.521459257333601
-0.176706810046646 0.218073939786442 0.541077351215025
-0.177545961705243 0.218425708073252 0.551420016045661
-0.175298384196975 0.218336455410667 0.54879581594303
-0.171831842001366 0.218731317624059 0.560405525176459
-0.171908650469931 0.218874987834258 0.564629705939638
-0.180470321183798 0.219873342869707 0.580227119506145
-0.172305426558387 0.220820574152784 0.593016685501855
-0.176495324801263 0.2215975395329 0.603507312429934
-0.173286233624786 0.222090516648556 0.609711786823589
-0.17515937928511 0.223626108602212 0.623140431035579
-0.172378534155437 0.224353600677513 0.629502298342199
-0.176190884232747 0.226501463919882 0.648285212142392
-0.179634915443877 0.22695045018433 0.651386454664772
-0.172042924601764 0.229875004367786 0.670253215040827
-0.175890927801306 0.231428296993212 0.680273750794132
-0.171678726071604 0.232728733317936 0.68866307066438
-0.178903614169066 0.233726998996176 0.693829695191177
-0.179578424082648 0.235365909424993 0.702183954714133
-0.174466161141478 0.237313176667455 0.712110046840975
-0.176924390218388 0.239795671896986 0.724764435419711
-0.178742476970679 0.242982159923623 0.738849282719649
-0.173866457628597 0.24516613871776 0.748025946671352
-0.170226993095844 0.248501217326323 0.76203931334205
-0.173904286101842 0.25140077237758 0.773288545498581
-0.178157602324569 0.255940597164801 0.789466871328844
-0.17540216826066 0.258871967991068 0.799913237560901
-0.173349072478453 0.258910392873316 0.800050170216705
-0.175998619547458 0.265236904053398 0.8205008447105
-0.170993821265544 0.269222121330325 0.832793431676752
-0.172312169008096 0.274562053455655 0.848806952414561
-0.168931678040936 0.276733648548134 0.854693216065906
-0.172407758992699 0.281693416209775 0.868137020671545
-0.170667652277749 0.288334757177988 0.885838762499589
-0.171616898510466 0.291488994388868 0.893439457950236
-0.174013494216082 0.29612896378667 0.904620289300322
-0.170425228782989 0.306082199715202 0.927800270795669
-0.166266560773771 0.314296035145446 0.945555543886373
-0.171902596593675 0.317848258310887 0.953234136051647
-0.172034632906476 0.318388718640567 0.954402411314728
-0.172995611685496 0.313191225522035 0.965647609823914
-0.173671283115791 0.307651048889555 0.968149322420038
-0.167371069157282 0.296465278416553 0.973787517501511
-0.171808012040346 0.286817065374825 0.97789448048582
-0.167592930523743 0.279483494249646 0.981597450011676
-0.170166695030106 0.275432156502362 0.983267542372221
-0.174384096230122 0.26754210209149 0.986580986472398
-0.170285946508568 0.259633006947686 0.990540257760831
-0.182839694815394 0.029433117669882 0.0651144249934769
-0.173261082081991 0.0263208377302116 0.0742242992342398
-0.177235396064095 0.0276121706220102 0.074541395442886
-0.174108117320319 0.0265960561625472 0.0898468490993772
-0.183355177865041 0.0296006082657858 0.0891224185541973
-0.178580402651296 0.0280491897537552 0.109292721572496
-0.178471555498194 0.01495630894601 0.110271134716913
-0.181842303869713 0.0123822061920501 0.110098968237822
-0.178586510293111 0.0014433856306076 0.110561591462725
-0.180298871850968 -0.0130393549361977 0.110764938630039
-0.184440211176938 -0.0267145839101848 0.110785455087381
-0.190830355151136 -0.245126003008238 0.0171948255782118
-0.191912770882015 -0.242820614915261 0.025524575695542
-0.19371859603491 -0.244988694326766 0.0404154893486319
-0.194186815732628 -0.249209318106306 0.0473152785463796
-0.200586037786801 -0.250861032473027 0.0494678346177794
-0.162295684669881 0.217850241163842 0.491552029342649
-0.171562718316553 0.217836964369666 0.493790433696931
-0.168916543284822 0.217734452822296 0.511073393043522
-0.165029485095892 0.217701746045217 0.516587600107153
-0.162477598892442 0.2176831493138 0.519722920578786
-0.16379179442214 0.217637585085146 0.527404832828614
-0.167446431973661 0.21827108089912 0.546873679449353
-0.165364297204705 0.218366500748378 0.5496792067128
-0.168104576987133 0.21868473261051 0.559035836096078
-0.170059801915672 0.218908043180405 0.565601596752064
-0.169649148135371 0.219790055031555 0.579102562788358
-0.167162188089615 0.220945898025952 0.594708814948332
-0.167193515427011 0.221822762136812 0.606548279728965
-0.164063443754053 0.221902187830247 0.607620689568125
-0.162619847563629 0.223617195223652 0.623062484163608
-0.169983155183319 0.224849068523218 0.6338351299923
-0.171019447127113 0.225276311172924 0.63757133707611
-0.169407321414198 0.228140981891933 0.659066762512888
-0.170536160617455 0.228900674659744 0.663967660397019
-0.163444039353842 0.229635279558277 0.668706712478897
-0.166833681262378 0.232260448816282 0.685642093473911
-0.167554009539362 0.232477699800003 0.687043613840499
-0.167025380584905 0.235321437368772 0.701957260751698
-0.167197420545527 0.237452393284277 0.712819696207035
-0.168118172039966 0.240564926389957 0.728685669649773
-0.163936873383369 0.24381509604537 0.742349122050978
-0.162339547729978 0.246736022788142 0.754622301267693
-0.16407314317184 0.247266063505239 0.756849431656765
-0.160914492153592 0.251192099318512 0.772544908706454
-0.162492851949929 0.254792518282517 0.785375525273218
-0.16856124018693 0.257936929265732 0.796581091085782
-0.160951891819102 0.261444530176253 0.808803092127913
-0.166525656224891 0.264476436714196 0.81815514803889
-0.16680355279978 0.269999507507483 0.835191315286362
-0.165327744650032 0.273814636463527 0.846781025256961
-0.165383132458368 0.278014670862586 0.858165518573976
-0.162408622470283 0.281621372066958 0.867941739875126
-0.166522269880593 0.291490183154701 0.893442322492899
-0.160515172280958 0.296268176204748 0.904955746376635
-0.160682003831067 0.297894952149867 0.908875752292055
-0.158296024591694 0.304418081040442 0.924203061942797
-0.161813322523131 0.313856608818581 0.944605666754917
-0.161792139794451 0.318969956430998 0.955658832360337
-0.160717416431719 0.320783360869387 0.963089011513955
-0.163201134395984 0.309475190432407 0.968110687136205
-0.162027645676392 0.304823385845632 0.97034461123009
-0.163751347908982 0.293213822954159 0.975563423601284
-0.15941648378426 0.288689938862789 0.977980580754039
-0.162259878888292 0.284158534044623 0.979851280431049
-0.160030384244226 0.276915279367976 0.98336050789597
-0.162348620017717 0.269041679343617 0.986811862507546
-0.16499716571746 0.262382320666343 0.989678266579955
-0.164684954944652 0.0235342851058925 0.075746444317685
-0.166443258519648 0.0241055925693652 0.0884554960452504
-0.167362171617705 0.0244041655340502 0.0960630860538777
-0.171162548786868 0.0256389829294256 0.100801097576513
-0.165015783892345 0.0212668068924088 0.111045931013993
-0.166178220922525 0.0147434658035785 0.111110951010009
-0.168457627270522 -0.00589841982192071 0.111411725952413
-0.174258923234525 -0.0140674489569966 0.111197940845325
-0.172412190790695 -0.0170584090560937 0.111389412589944
-0.171118496372185 -0.0277784826755612 0.111713916978243
-0.183189094522848 -0.243222528369115 0.0224717399254723
-0.180469468763428 -0.244786725869007 0.018013913049149
