ply
format ascii 1.0
element vertex 858
property float x
property float y
property float z
end_header
0.296960908085508 -0.0399702755463688 0.564976396549426
0.292357627895235 -0.0358697590957232 0.567732777714505
0.291492211617827 -0.0301881580770256 0.571551969327055
0.286235604087313 -0.0256590313396899 0.574232490604508
0.287292872264971 -0.0195945321558137 0.574232490604508
0.277620251503455 -0.0159708375189967 0.574232490604508
0.263716037859153 -0.00493643606609928 0.574232490604508
0.140699388646573 0.139197409064279 0.418303680214021
0.147018144597162 0.14342669963313 0.431625945505903
0.132024259503111 0.143950722555147 0.433276617710256
0.133206855550131 0.145957696380593 0.439598585260412
0.133364724823176 0.148770870120189 0.448460082540141
0.130409921090347 0.151755546558642 0.457861813321264
0.133497497205854 0.154005679153157 0.464949730993986
0.124751394836682 0.157646560584789 0.476418507503629
0.129564365940853 0.159262990482471 0.481510261681327
0.117362609317812 0.16139832201826 0.488236556019063
0.125868336987002 0.163814573237109 0.495847747358439
0.119827145367416 0.167626709848688 0.507855977684913
0.123413488836002 0.169981925776594 0.515274907857816
0.113235663276004 0.171899534765969 0.521315376174348
0.114628206634119 0.172674280660929 0.523755825743471
0.110596753641192 0.176208169012541 0.53488757405105
0.108097373501142 0.180030292756611 0.546927263844867
0.108556290126668 0.178605425097992 0.542438930720218
0.102804035757028 0.183788035135985 0.558764152339896
0.104204697033561 0.183874147501781 0.559035406292154
0.104144587605804 0.186456919500712 0.567171138088786
0.107029455543414 0.190140827954027 0.580258864937048
0.0944060549279853 0.191864049822191 0.587459470600446
0.0919470166223369 0.194206102148865 0.597245903536905
0.0945458235107281 0.196095445920392 0.605140661439357
0.0932093895648836 0.198964961787651 0.617131138456119
0.0865605189265324 0.199752714932848 0.620422821241408
0.0901935629143768 0.200490393223641 0.623505262670791
0.0878708391279924 0.204570835882551 0.640555683781238
0.0864596039864338 0.206136193025631 0.647096640414821
0.0822236649630721 0.2075211168518 0.652883643545599
0.0770042910874918 0.209267402516879 0.660180622931819
0.0796367474391236 0.211357852387203 0.668915717032818
0.0759536104694642 0.213027016474747 0.675890438398628
0.0729674969472313 0.214298535550222 0.681203571678291
0.0735153905006417 0.217089335471714 0.692865128493096
0.0765922893782162 0.219924876453313 0.704713639023349
0.0772410478865298 0.222093434399241 0.713775113297406
0.0702572470229799 0.223094477301419 0.717958042567219
0.0633053773445766 0.225630870369361 0.728556542172548
0.0651599952454494 0.228305408845474 0.739732292233449
0.0667927890429388 0.23015045705347 0.747441957959719
0.0597351118137585 0.23231331177593 0.756479600907139
0.0592321610686382 0.234635993305912 0.766185091585991
0.0535395442372107 0.235082322228884 0.768050108871275
0.0587619961383036 0.239136329351239 0.784990067203969
0.0548284160783229 0.238939858451331 0.784169099515068
0.0534318045599774 0.241389586864866 0.794405464671625
0.0551369417125384 0.243195831102771 0.801952985237153
0.0457668194888589 0.245590372601912 0.811958747929996
0.0481953857757601 0.24909821459409 0.82661651625445
0.0444059612688572 0.249733900623798 0.829272775735734
0.0414665740599102 0.252138160783619 0.839319148546411
0.0474421641908125 0.252939326781119 0.84266687789311
0.0495875073884698 0.256393548209922 0.857100588863464
0.0342347147852718 0.256959206074221 0.859464230653572
0.0311301737832493 0.258846517034965 0.867350494310967
0.0444351717233173 0.262374406737487 0.889644380142633
0.0363190863606438 0.262374406737487 0.888310418060672
0.0380858409049234 0.262374406737487 0.910865017737939
0.0308057829227337 0.262374406737487 0.916486072285507
0.0441324377017956 0.262374406737487 0.926245598688135
0.034658028940307 0.262374406737487 0.936729582875741
0.0346635148928698 0.262374406737487 0.942304964424634
0.0405777970648648 0.262374406737487 0.954190385264444
0.0431261735802991 0.262374406737487 0.968248605566945
0.0299522437974866 0.262374406737487 0.976457757747837
0.0391557109716525 0.262374406737487 0.986075375582808
0.0343981895002098 0.264959448500059 0.998760307690406
0.0255872383151019 0.2735105192957 0.999564547960101
0.0148435200022971 0.27833205120147 1.0
-0.00132674014061596 0.297606868022218 1.0
-0.00573604050867651 0.317363210559178 1.0
-0.020316888111013 0.33095543154829 1.0
-0.0373600910077773 0.346335453385782 0.998696568234316
0.335671804294079 -0.0970058806182496 0.329534782356269
0.335671804294079 -0.0928321104797346 0.332955410346186
0.335671804294078 -0.0946436228041114 0.336386983781478
0.335671804294078 -0.0953763657299456 0.356981223708754
0.335671804294079 -0.0892639385675924 0.352301832120728
0.335671804294078 -0.0902411725776718 0.361965533348372
0.335671804294078 -0.0973615387446573 0.380163220040839
0.335671804294079 -0.090677953708871 0.380746734710369
0.335671804294078 -0.0938626644746452 0.394931692126091
0.335671804294079 -0.0892054791749038 0.39469459770826
0.335671804294079 -0.0859997896436287 0.409467746885234
0.335671804294079 -0.0879329034006636 0.41804673167715
0.334698422906354 -0.100278970897447 0.433279800348473
0.335671804294078 -0.0987347818735372 0.437615484858792
0.333379834981247 -0.0963498516128978 0.4485051375761
0.335671804294079 -0.0858731771787912 0.448088351386373
0.335671804294078 -0.0921897570934449 0.463540701293136
0.335409314705595 -0.0904157572357008 0.47149975328774
0.328664885317786 -0.0888341888548962 0.477628330763359
0.327883349485667 -0.0882274042177128 0.479979621232443
0.323835748944667 -0.0861534868267412 0.488016051122458
0.327364073990676 -0.083228514680876 0.499350318187685
0.31955035917443 -0.0822972565160944 0.502958943576216
0.32220043495613 -0.0797437649549896 0.512853723375496
0.326884402841063 -0.0779065048426593 0.519973106310776
0.323308713873215 -0.0765644475387605 0.525173578363385
0.315046516016566 -0.0754394564301856 0.52953291890911
0.315649702567282 -0.0739330536730844 0.53537022959288
0.318838805641338 -0.0692530509169499 0.545292414918286
0.306014121524332 -0.0644279716633088 0.548535849674572
0.305562940725151 -0.0601697125357833 0.551398266005882
0.307348960963493 -0.0554874222059223 0.554545717559851
0.300358437778067 -0.0489011759751111 0.558973014774162
0.29072649374053 -0.0462068490762374 0.560784150519135
0.286104968469584 -0.0434444441537862 0.562641048544107
0.277009234701084 -0.0362486098699635 0.567478112929944
0.2735569607657 -0.0293410816140588 0.572121377018989
0.277310306251826 -0.0270458207482912 0.573664259213339
0.271313843597966 -0.0172898157109788 0.574232490604508
0.264780612125488 -0.0107179813864731 0.574232490604508
0.129791717973537 0.138682896730914 0.41668296636392
0.127824607876345 0.139603758378151 0.419583680552719
0.125029142276516 0.14197504741541 0.427053241020085
0.125040672183425 0.144925212334609 0.436346260515561
0.121173776274157 0.149219138435601 0.449872127733687
0.121535366472429 0.151227411162034 0.45619818682195
0.117615081753521 0.153154344567307 0.462268027048564
0.120034407185256 0.154431247034862 0.466290269821358
0.115466862059215 0.157009699052914 0.474412393678222
0.115691131338279 0.158938349307617 0.480487641980541
0.111143921721003 0.161831908535319 0.489602353547801
0.107681076601538 0.1637894848163 0.495768718832891
0.103314621924942 0.166995311083732 0.505867071575298
0.107372525522322 0.170327996360299 0.516365030196486
0.103197560181188 0.171146000844254 0.518941744320946
0.0963381463790356 0.174987628372859 0.531042871036049
0.0965705591464416 0.176331184870279 0.535275074002924
0.0935013660866666 0.178741490768075 0.542867537580981
0.091410851720277 0.182083421775504 0.553394620254381
0.0914523338418442 0.185078720232034 0.56282981039245
0.0874777185894956 0.185607069286153 0.564494109912926
0.0911798043396618 0.188269557756541 0.572880948594646
0.0807804060662126 0.191052051038781 0.584066475684052
0.0897917628828685 0.193783176770354 0.595478679633838
0.0821344679540635 0.194240196415393 0.597388368864897
0.0812068898487494 0.195227434519858 0.601513613801411
0.0823054117256653 0.198222852343384 0.61403018113543
0.0730035370379015 0.200450550673041 0.62333877772721
0.0799656614752752 0.202387268487264 0.631431491450929
0.0725102014536305 0.20533197773004 0.643736169358247
0.0671250635433624 0.206583194355635 0.64896446740091
0.0683433422013559 0.207867302501205 0.654330205009182
0.07276984620872 0.21096043008695 0.667255059563903
0.0650164600500954 0.213650671315758 0.678496424698566
0.0564222346258109 0.212494373993474 0.673664753744738
0.0575121444795287 0.214849794695678 0.683507047393232
0.0566798662555572 0.217816382275663 0.695903145495313
0.0604212225053166 0.219125630706781 0.701373933582483
0.0588288060812653 0.22155013861237 0.711504913045124
0.0557624200462246 0.225128077531019 0.726455586383763
0.0491316374642283 0.225984847059929 0.730035659058137
0.0541165322071667 0.228344053218338 0.739893770505776
0.0491312996059773 0.230261727752963 0.747906910525457
0.0429716786970279 0.230871930663987 0.750456686975094
0.0446701956007872 0.234192621687158 0.76433243160763
0.0471101477716173 0.237092898196127 0.776451444162964
0.0479168578487518 0.238253460462711 0.781300936491192
0.0355105919825507 0.239531766372037 0.786642429040877
0.0394250638007904 0.241579839873622 0.795200450458211
0.0382069088363171 0.244629813867613 0.807944984647386
0.0387451883654515 0.247348343097032 0.819304553213176
0.0339939935382417 0.24852687730768 0.824229142593381
0.0292172840527789 0.250315748037197 0.831704066713152
0.0324305969444235 0.252201103659918 0.839582159850951
0.0274131721585698 0.256291687933635 0.856674958423267
0.0217087821367676 0.255799688223843 0.854619102493063
0.0236395003699767 0.258290291038012 0.865026264252271
0.0256121438107793 0.26080450524212 0.875532087890864
0.01560921620458 0.262167430475893 0.881227168331988
0.0133888998804333 0.262374406737487 0.893065397577882
0.0174109253505453 0.262374406737487 0.906455670790162
0.0282426051285023 0.262374406737487 0.920133410900064
0.0246203537235871 0.262374406737487 0.932000678236588
0.0207545242419248 0.262374406737487 0.937688149341951
0.024078272863755 0.262374406737487 0.954116560986117
0.0226835044282098 0.262374406737487 0.959692641089416
0.0190563801203811 0.262374406737487 0.972876216278105
0.0234831059627874 0.262374406737487 0.985771394608853
0.0279641258958841 0.262374406737487 0.995340546569992
0.0154800802542127 0.268821514252591 1.0
0.00703200120257511 0.278061307026802 1.0
-0.00566902886276578 0.297352099371521 1.0
-0.0223817472493633 0.302235995724509 1.0
-0.0350492091812186 0.321530892002262 0.998907499402175
-0.0455722219193845 0.335866016806655 0.997946986691943
-0.0605790628030216 0.354184450669623 0.996577202033515
0.335671804294078 -0.110642648669336 0.340766305213418
0.335671804294079 -0.105325930675683 0.347837485676165
0.335671804294078 -0.105256860713878 0.362611764491147
0.335671804294078 -0.115364686770189 0.369839157915587
0.335671804294079 -0.107581006949277 0.368186301455991
0.333954184905963 -0.112381575229499 0.386382208561774
0.335461323034255 -0.108608127376437 0.401004318992389
0.335671804294078 -0.106051772716085 0.400551455906952
0.333920934236551 -0.107840149587761 0.403980232923507
0.326339055640344 -0.105121684033413 0.414514286946607
0.332794855990601 -0.10208439514339 0.426283781395444
0.329995131743736 -0.102698292143636 0.423904930519488
0.328167885903358 -0.0982455565163191 0.441159281075346
0.325263690425871 -0.0974446076949159 0.444262957758282
0.323957637622659 -0.0971536013994772 0.445390607153105
0.322784822136022 -0.0940034185312412 0.45759756576752
0.32730111726823 -0.0922958627213986 0.464214344530661
0.312765320239719 -0.0915027799883923 0.467287540121059
0.32220320775478 -0.0884548573813564 0.479098240223324
0.314985219824022 -0.0866171923899049 0.486219192065201
0.313784863421881 -0.0845638576244277 0.494175864281423
0.314923031033495 -0.0820786681326406 0.503805973562097
0.310358523588831 -0.082208345311684 0.503303474493307
0.310423393826165 -0.0782180883407847 0.518765720255539
0.306259684312577 -0.0781151335884546 0.51916466992082
0.306664222419654 -0.0769367807420159 0.523730787200769
0.300407714293049 -0.0757710593744651 0.528247957500028
0.303803508734485 -0.0723781004259863 0.541395673425385
0.302900243644794 -0.0704577625467001 0.544482603645593
0.292785966105631 -0.065399439337315 0.547882825785669
0.291791430657117 -0.0610907564081028 0.550779137168715
0.28791625966437 -0.0590990051809976 0.552117999147199
0.279315643267002 -0.0496188380236319 0.558490599893684
0.282433512969949 -0.0436560637004237 0.562498797161986
0.273143676189353 -0.0378733618424936 0.566385949104018
0.266987330302033 -0.0337617718012481 0.569149773974525
0.263350854014885 -0.027964907455401 0.573046445989312
0.128406611764971 0.118290919055772 0.408461967547279
0.125473001841055 0.131812774550932 0.40846196754728
0.119874678387903 0.137044624767902 0.411522409680435
0.118896411048957 0.137336649011922 0.412442286049099
0.116213704271879 0.142476009410332 0.428631271304089
0.118980865658127 0.142547827447925 0.428857498122507
0.112358302725596 0.14709265591995 0.443173707809387
0.101693856113577 0.148497700127151 0.447599597062071
0.105489810593681 0.151371947716105 0.456653476967277
0.103940414009296 0.153115304897839 0.462145052089737
0.102007887385262 0.155525066850952 0.469735802242044
0.104171006078531 0.157862380296001 0.477098339593946
0.103970022840651 0.160973810206594 0.486899343812317
0.098879744990958 0.162809642903389 0.49268221680722
0.0937285260516983 0.164372597366455 0.497605523365875
0.089648322704496 0.166635071931724 0.504732318246476
0.0943106654657303 0.17141986942033 0.519804430335583
0.0889857094069333 0.171157401048478 0.518977654964252
0.0906562729888513 0.175609721982325 0.533002465905868
0.0837967718774889 0.177321245530144 0.538393765081497
0.0837635103302233 0.180539818706349 0.548532270586543
0.0742033633527018 0.180808250183471 0.549377829739477
0.0770677972157021 0.184369457487899 0.560595632748429
0.0784562873590246 0.185676451859758 0.564712665019782
0.0793071943425247 0.188869959378388 0.57494844981741
0.0693192963780038 0.190285243001837 0.580862313529681
0.0704333665699454 0.193120550369027 0.592709847885439
0.0727726194435908 0.194855079050164 0.599957699874474
0.0596885749979632 0.195754425074974 0.603715681478147
0.0583562744167908 0.197546892222353 0.611205633486836
0.0636906810007481 0.200694359129241 0.624357548776335
0.0587475822137482 0.203277409648772 0.635151009875803
0.0568328159712077 0.205899801189521 0.646108860242505
0.0638467870895697 0.208363374312686 0.656403076507157
0.0523593424566784 0.208947098664058 0.658842210403962
0.0564269134435998 0.211823269920137 0.67086049743829
0.052372957208065 0.213347749764621 0.677230645359886
0.0509795399436956 0.214754363276094 0.68310828038997
0.0445474555836674 0.217449176069126 0.694368748132284
0.0467079018288177 0.218895870933221 0.700413865957249
0.050651131531168 0.221168331441573 0.70990950451001
0.0389699832597683 0.224100894532132 0.7221634288527
0.0389449865281963 0.225030365962218 0.726047291614133
0.0448908080853699 0.227950109531151 0.738247648670029
0.0408171873011982 0.229870267849524 0.746271167357518
0.0326421699825909 0.231394886793615 0.752641896516753
0.0309040563118571 0.233889780777539 0.763066989235293
0.0375573310784388 0.235449886440954 0.769586002185991
0.0365903491543748 0.237350445554099 0.777527624194491
0.0306154159317473 0.240104644711625 0.789036242102726
0.0301557571059149 0.242154078762925 0.797599948674229
0.0270915491590531 0.243252011608838 0.802187739494649
0.0227903493711188 0.246192134610575 0.814473253466192
0.0215661351014699 0.246614167627821 0.816236748573976
0.0167842238292909 0.248911320523689 0.825835566031703
0.0171968400792667 0.250856142516903 0.833962143646207
0.0102085225314214 0.253148529364451 0.843541045830604
0.0145182019479963 0.255455776492635 0.853182042759089
0.014978907025773 0.257945735925687 0.863586516104343
0.00802417855179019 0.26082545375607 0.875619622752728
0.00693725307578569 0.262374406737487 0.884896208045575
0.00760865257575678 0.262374406737487 0.898746885084724
0.00868020159115958 0.262374406737487 0.898915118266919
0.00531686442620477 0.262374406737487 0.913332215928731
0.000546871327733672 0.262374406737487 0.92164300062661
0.0064108880415527 0.262374406737487 0.932187570883725
0.00368317077739965 0.262374406737487 0.936927932479731
0.0128968294644407 0.262374406737487 0.960919803440719
0.00945928995795163 0.262374406737487 0.963770732517077
0.0109127055351065 0.262374406737487 0.975217001155092
0.00168915435482141 0.262374406737487 0.978949778097485
0.00501844884549294 0.262374406737487 0.993550404853321
0.00144856703554 0.266150186375223 1.0
-0.0114278917067817 0.284226804898799 1.0
-0.0245352688516723 0.297240775573344 0.999867184006997
-0.0432952202825256 0.30955129473061 0.998154825365889
-0.0466716055471102 0.327556292068975 0.997846637868452
-0.0602904498371182 0.345296937936656 0.996603545860039
-0.0649184434473989 0.352768224639922 0.996181114870345
0.335671804294079 -0.123914714077463 0.329674774664398
0.333217335348075 -0.122941142404688 0.345463885757914
0.335671804294079 -0.12033991812607 0.347905959718215
0.335671804294079 -0.118392013454735 0.360726570423974
0.334948404836777 -0.118917316595721 0.36105621076766
0.329664284459142 -0.116876683343719 0.36896366461917
0.333494119657949 -0.115106101011964 0.375824671154722
0.326079470286592 -0.113023731214426 0.38389385412018
0.326682111690288 -0.110638658633639 0.39313601037073
0.318661650384666 -0.109393063157547 0.397962692840583
0.318141751597459 -0.107781377758134 0.404207973763313
0.322271601723868 -0.107417988912155 0.40561610554148
0.320020166247685 -0.103643167659854 0.420243537894143
0.323366763405537 -0.102513732411214 0.424620099482625
0.319295355906476 -0.0990454272645829 0.438059781925821
0.314753588600008 -0.100233668148139 0.433455348502039
0.311209978746851 -0.097610537931309 0.443619978092257
0.31248171998486 -0.0954974432320352 0.451808220051945
0.308927963434592 -0.0938800538583975 0.458075603874789
0.30576189347036 -0.0926203608787887 0.462956914170775
0.305722408246764 -0.0900049836396318 0.473091500972507
0.312556005020994 -0.0882850262717246 0.479756335773147
0.30777524988788 -0.085460180769354 0.490702612094834
0.29903387076332 -0.0859956464515953 0.488627682576149
0.303064257720939 -0.0842634070316936 0.495340110328271
0.300258930822918 -0.0819307152983105 0.504379290795128
0.302459750752898 -0.0785018751450108 0.517666046389164
0.301119489588406 -0.0773503301583085 0.522128283212635
0.29773093090793 -0.0742967731227002 0.533960816725619
0.292759210302041 -0.0745138077294807 0.533119807624343
0.29574118697334 -0.0734705019758978 0.537162617419477
0.287028718689418 -0.0691370641828602 0.54537038159714
0.283659928296742 -0.061649236555005 0.550403724906255
0.285080548299637 -0.0615020410270219 0.550502670242971
0.271943626826745 -0.0580640410513845 0.552813705570459
0.271442306346057 -0.0511960760769667 0.557430375086545
0.265367137273652 -0.0431315014134594 0.562851409723136
0.262648531482274 -0.039978198731786 0.564971070557124
0.138923137575494 0.097559041692432 0.40846196754728
0.129764531950052 0.116331225844234 0.408461967547279
0.11862585347752 0.123163755304863 0.40846196754728
0.111991872017034 0.131691201620654 0.40846196754728
0.102952983323558 0.137948428504789 0.414369391451629
0.10378553469378 0.141128994703157 0.42438817497649
0.105565999570007 0.142615273177289 0.429069952170003
0.106069508661974 0.14367314385787 0.432402244813835
0.0966561987169564 0.146736424357342 0.442051578387172
0.0946226531314602 0.148604609140843 0.447936360455199
0.0926541660162312 0.15033518711776 0.453387681082487
0.0892784060476652 0.153960623798452 0.464807806626668
0.0913491285442041 0.157671871611394 0.476498237237434
0.0873691674190031 0.159065757978496 0.480888979293807
0.0874415484155212 0.161637586737336 0.488990239884151
0.0757168524206311 0.162585260276916 0.491975411533829
0.0781309064692179 0.165084500109949 0.499848017007884
0.0781156319017935 0.169348027523847 0.513278128361662
0.0771804695646243 0.169842148594008 0.51483460973267
0.0708588463986103 0.17270556678451 0.52385437703275
0.0651249275590373 0.172829735049313 0.524245507066878
0.0670341345394067 0.175993069872806 0.534210011760884
0.0740481664635529 0.179694538523679 0.545869638011134
0.0648509924056962 0.181800042283821 0.552501974855582
0.059484524767116 0.185228542807362 0.563301751504734
0.0639821230223276 0.187300714647658 0.569829092801665
0.0638777661839431 0.189970481446031 0.579547059885776
0.0554697055410132 0.192594269023314 0.590510743690854
0.0546809391146597 0.193369949890406 0.593751981599775
0.050531628914917 0.195529042637957 0.602773904866324
0.0469350247703954 0.197680517284794 0.611763995354894
0.0464949640715238 0.197661844647832 0.611685970407587
0.0413600757711089 0.200807271428872 0.624829360885505
0.0456379232538734 0.203489975949605 0.63603923334714
0.0439164346260296 0.205957692737298 0.646350764210001
0.0360419138996399 0.207103122609894 0.651137024749063
0.0476915844251212 0.20935263397798 0.660536768679992
0.034832322913931 0.211007238096151 0.66745065017378
0.0378381805327077 0.213901517058806 0.679544601553446
0.0379099872571672 0.214276388914598 0.68111103037943
0.0292809405093492 0.21834604939405 0.698116397382856
0.0342150040139512 0.219918367447874 0.704686440679194
0.0312123849939725 0.219584606831054 0.703291798101768
0.0287823474680633 0.222451955337104 0.715273218644903
0.0272974669823596 0.225205161427706 0.726777686952061
0.0269128833449633 0.228611510163324 0.741011358454465
0.0148147783998691 0.228006424397117 0.738482964359958
0.0202991532113076 0.232333290829748 0.756563084810594
0.0236464698164731 0.233609251363688 0.761894777041704
0.0187476587270674 0.235707157161573 0.770661026268578
0.0164971555158996 0.23730698005471 0.777346000500614
0.0102543372592111 0.240819185578654 0.792022002154238
0.011703220368057 0.241434264928857 0.794592155153299
0.00919058953590911 0.244226516768663 0.806259778912488
0.00535985141546229 0.244772766746003 0.808542323460662
0.00336270474557353 0.248416915801308 0.823769660584614
0.00100635697075788 0.249244373727037 0.827227252631411
-0.00149800245617485 0.251872240850823 0.838207983112947
-0.000937407713877747 0.254760849132305 0.850278239146282
0.00362461119772121 0.258006526383075 0.863840533372713
-0.00677684790286045 0.258463527998649 0.86575014726636
-0.00437545061339754 0.260779347198488 0.875426963208548
-0.0144484036179668 0.262025271764787 0.880633148003435
-0.00529086629165352 0.262374406737487 0.892958791999864
-0.0115205236935908 0.262374406737487 0.900241180740812
0.00113660775617785 0.262374406737487 0.917322114025035
-0.0139682667505819 0.262374406737487 0.925357089027308
-0.0147026506230933 0.262374406737487 0.930449046909601
-0.00159388482452088 0.262374406737487 0.951101706126966
-0.00097769607704663 0.262374406737487 0.963766095376697
-0.0120319512422347 0.262374406737487 0.972405880714294
-0.000897161864475186 0.262374406737487 0.978788380797218
-0.0072635442276372 0.262374406737487 0.987847465330748
-0.0100035569497286 0.262471160813311 1.0
-0.0196793539381825 0.28408661832535 1.0
-0.0280294829644622 0.282511607564684 0.999548241404615
-0.0535763131485331 0.308143958368883 0.997216394460349
-0.0587870570035975 0.317124004125147 0.99674077157296
-0.068196865169258 0.341164453960057 0.995751782498074
-0.0858716145899601 0.355364724287423 0.992498065420725
0.330750503192213 -0.125871330052012 0.334109408624533
0.324555013759718 -0.125380367167431 0.336011889802285
0.321600301488296 -0.122416735131014 0.347495963943403
0.323240554665411 -0.122646555084099 0.346605411625197
0.320626025065119 -0.120045405952302 0.356684864510912
0.322001499344213 -0.116697998974551 0.369656066549692
0.316475187377775 -0.117162796246893 0.367854977119368
0.31979620873961 -0.116023775863865 0.372268681103603
0.309261449211959 -0.113695136023811 0.381292160483815
0.311583239410852 -0.110519670051217 0.393597091127613
0.31103346026771 -0.110567579889408 0.393411440504624
0.313954046517167 -0.108722338375709 0.400561751370206
0.311207886259021 -0.107129586878039 0.40673366342368
0.306493329335 -0.10461517273859 0.416477018214042
0.303797635512316 -0.10432705525523 0.417593473462062
0.309992073395985 -0.0998139012016448 0.435081945419705
0.302097618080642 -0.0985570871660328 0.439952099807703
0.302260115655817 -0.096382270899551 0.44837951284032
0.306200988531575 -0.0953143672929194 0.452517639316017
0.299432041876457 -0.0941979380620056 0.456843802585809
0.301144119883046 -0.0903335281704193 0.471818390915707
0.295340140406772 -0.0890212265823918 0.476903559569312
0.287680039367885 -0.0884802393326091 0.478999885162219
0.286853184120229 -0.0859848202308555 0.488669634181515
0.292099365531061 -0.0846305111162904 0.493917582000455
0.289246853895795 -0.0821611472235269 0.503486367084911
0.286577363291292 -0.0818538474235042 0.50467715381
0.290558148173652 -0.0786516713825018 0.517085585968887
0.287294267553822 -0.0772715164721356 0.522433686246556
0.281679612328847 -0.0752482174738865 0.53027396986477
0.283605488129512 -0.0733765589267849 0.53752664673479
0.276119674037466 -0.072813462780096 0.539708644303209
0.279613244835601 -0.0666608738755499 0.547034885180133
0.273782149130706 -0.0645149753085101 0.548477365527072
0.266547939096996 -0.0578965644288033 0.552926283928242
0.266925477980314 -0.0508735079886283 0.557647206457386
0.141696685781828 0.0729485907855374 0.40846196754728
0.134021804159981 0.0858548270793858 0.40846196754728
0.122273710211627 0.101039436763788 0.40846196754728
0.125557974914502 0.101295944785748 0.408461967547279
0.108942964484556 0.117914044501749 0.40846196754728
0.106132312791586 0.116690801128776 0.40846196754728
0.100270623092048 0.132377154392406 0.40846196754728
0.0872347567410091 0.137309050884195 0.412355351946756
0.0910005892032232 0.139897074376103 0.420507625946266
0.0880457311343263 0.142632506573182 0.429124237367067
0.0811465099591968 0.144299929057281 0.434376618191977
0.0870036084331076 0.146810015083894 0.442283389175808
0.0875605916236767 0.148837359782932 0.448669524977778
0.0800458031367101 0.151919249427349 0.45837747735769
0.0790323770010914 0.153481862814864 0.463299709528365
0.0688158076624698 0.156409527780179 0.472521854169106
0.0715262054704029 0.158180252572457 0.478099637264783
0.0761208309140338 0.163181615254625 0.493853929713612
0.0691271461504992 0.16393256573442 0.496219423724967
0.0644118813646681 0.165862398575876 0.502298397175554
0.060095083828411 0.167375680682682 0.507065235811993
0.0586922072332287 0.170154522580363 0.515818587789685
0.0544723902391499 0.174776557785044 0.530377998684434
0.0579931685594743 0.174911947574528 0.530804476521306
0.0590937690212979 0.178566465831267 0.542316209030036
0.0565557720239456 0.182256718386991 0.553940504580564
0.0530024368190243 0.184530067138977 0.561101553149322
0.0469244266987871 0.183609596391985 0.558202070296296
0.0476558993895947 0.188343021537218 0.573112359503781
0.0376837312231085 0.189262793892365 0.576589936893673
0.0400057443085499 0.193533900361664 0.594437060354672
0.0419453139810817 0.193954271107633 0.596193609543188
0.0414277225695655 0.194752769810157 0.599530193407302
0.0352080681567259 0.199676951336786 0.620106237643575
0.0402440047778153 0.200329395784998 0.622832523373606
0.0409179695659219 0.202209662280333 0.630689351229112
0.031619997521138 0.203712039312064 0.636967140968844
0.0288998861829528 0.20604383696401 0.646710724014479
0.0251601615328569 0.208067180598508 0.655165409915772
0.02235578637898 0.210545741387242 0.66552225321155
0.0253886068834153 0.211294293230644 0.668650130557195
0.0224093387015954 0.213172491308971 0.67649831538449
0.0212757054676085 0.216354151216274 0.689793108568577
0.0177725185644451 0.218451440367642 0.698556781093938
0.0203086527156935 0.220003592225003 0.705042558497915
0.0172625962062076 0.222525761196376 0.71558162169972
0.0209480173845381 0.224491292468062 0.723794734513553
0.00518671635506962 0.225500734021484 0.728012758147495
0.0108042476552786 0.227774564625526 0.737514121742953
0.013306844726816 0.231223026692987 0.751923766810558
0.00539254549531174 0.232512561856158 0.757312181599524
0.00663121811334453 0.23365589047494 0.762089661899433
0.00294953848488904 0.23712418677141 0.776582185709682
0.000895572755258146 0.239413679101994 0.786148992948194
-0.00182002237681519 0.240044727075499 0.788785871980339
0.00237648032581299 0.243115764281333 0.801618420304718
-0.00799913122420591 0.244482601093732 0.807329845556531
-0.00120421285881685 0.248291039964175 0.82324367940802
-0.00158664556004742 0.249053969637318 0.826431635542227
-0.0153619088086364 0.251999204955957 0.838738511695114
-0.0188457927068132 0.25220383719001 0.83959358210169
-0.0148473766660547 0.254983868733778 0.851210142481007
-0.0112452744856431 0.258365237447708 0.8653394331785
-0.0179333199649057 0.260283622201719 0.873355540900614
-0.0226079716281589 0.260244864179751 0.873193587737393
-0.013127666406412 0.262374406737487 0.894308551760928
-0.0226145035567899 0.262374406737487 0.898169619166779
-0.0269013865025353 0.262374406737487 0.907956938404517
-0.0190860826400249 0.262374406737487 0.916258320085073
-0.0170506253785854 0.262374406737487 0.935615682329931
-0.0192884929142379 0.262374406737487 0.941688052095178
-0.0184032578756527 0.262374406737487 0.95650732258252
-0.0293346422291217 0.262374406737487 0.958277968387352
-0.0274776316333087 0.262374406737487 0.974337811342742
-0.0220569780688001 0.262374406737487 0.984097818732532
-0.0176167935579436 0.262374406737487 0.998929032139473
-0.0289052590862162 0.271064050844023 0.999468302881571
-0.044617246748437 0.292632199081632 0.99803415429427
-0.0468793923061873 0.289464928586821 0.997827671643847
-0.0611232966449961 0.309517477092963 0.996527525810977
-0.0845433378122362 0.33176637393816 0.992742585822812
-0.106766345026403 0.35054852335859 0.988651587056058
0.316177591662972 -0.125053263441193 0.337279416741456
0.310490887852451 -0.123986644880728 0.341412563663258
0.309205647600651 -0.122073261851687 0.348826922900793
0.309756339414097 -0.118735273332597 0.361761628412267
0.310465410654357 -0.11866430877426 0.362036616075822
0.311649919217588 -0.11607405337887 0.372073855732959
0.307067085725738 -0.114444367598746 0.378388888130941
0.301834066492663 -0.111151818826563 0.391147514623148
0.304115776529221 -0.110091717083911 0.395255408875922
0.297084554449416 -0.109224089456836 0.398617465930842
0.300742814711165 -0.107408649942097 0.405652294050454
0.292727580242467 -0.105212801917301 0.414161205146538
0.295045470027521 -0.104392910490567 0.417338284425133
0.294029168453594 -0.103776981501958 0.419725009255995
0.296786223682198 -0.100807281706459 0.431232595963551
0.29096530384405 -0.0984300446729039 0.440444389468578
0.28571199340798 -0.0978784893094984 0.442581666501775
0.288410415440994 -0.0952798756597539 0.452651294394535
0.290228048649324 -0.0932746283336873 0.460421627783043
0.283733634840572 -0.0912219514722852 0.468375750620976
0.279550694839832 -0.0902583025054392 0.472109890367503
0.284931783345666 -0.0881967338702193 0.480098468828982
0.282192049374351 -0.0867617210787377 0.485659143395973
0.275123119694553 -0.0859976659491366 0.488619857023178
0.277742971074552 -0.0823817271226199 0.502631619975929
0.278042586098056 -0.0818144988616183 0.504829629487309
0.278474999193258 -0.0791537085152583 0.515140192079455
0.273507773641684 -0.0774330319688763 0.521807813696685
0.271265231995288 -0.0766223586521652 0.52494917279894
0.265070785979254 -0.0741135508938011 0.534670802862602
0.263357349269866 -0.068498916961282 0.545799346339332
0.156180623245741 0.0503011654982381 0.40846196754728
0.150190093456206 0.0556309428301697 0.40846196754728
0.140150756041186 0.064528820935056 0.40846196754728
0.132776792934749 0.075605067263895 0.40846196754728
0.122395106974177 0.0809058821976085 0.40846196754728
0.126496735911499 0.0884926587635728 0.40846196754728
0.110934088341858 0.102522566128334 0.40846196754728
0.103565191722951 0.109792511596089 0.40846196754728
0.0992445607643647 0.116808970803103 0.40846196754728
0.0853263270543334 0.124973591053316 0.408461967547279
0.080253421300694 0.136424485380603 0.409568970610443
0.0829518954014555 0.137734404351031 0.413695215367293
0.0676252101040175 0.139186362150321 0.418268882435056
0.0664774126480567 0.142537200981782 0.428824024754157
0.0729020904989682 0.146349382018211 0.44083239501891
0.0692537241331839 0.146391317934422 0.440964493154971
0.0680223241856672 0.149127276271592 0.449582761917057
0.0630183731597891 0.152037489742841 0.45874993435149
0.0695226234386774 0.154902878860766 0.467775910072956
0.0578944943779595 0.15547784463195 0.469587052252184
0.0588061817534735 0.158806687947381 0.480072908695794
0.0528087570231991 0.161037726830754 0.487100681178419
0.0523395707459091 0.16362161289153 0.495239922269865
0.0489881073180629 0.165694351138361 0.501769047747382
0.0480196533857794 0.167354259056826 0.506997757690545
0.0467540699364556 0.170861785928719 0.51804646733701
0.0430563210537479 0.172125550501883 0.522027325742475
0.0370034626516101 0.176287155228822 0.535136380632333
0.0370541066504632 0.176681659008972 0.536379067539807
0.0410720401570484 0.18159978170252 0.551871154024483
0.0295023346690857 0.181271747829983 0.55083784732599
0.0381774667609445 0.184929754098217 0.562360567070927
0.0344725141073299 0.188668226291139 0.574136754478633
0.0238700246954796 0.189644454490756 0.578184732965519
0.0295750583714626 0.193082839239858 0.592552269238555
0.0206479552003262 0.1947199961755 0.599393246433919
0.0263670642260162 0.197003323491946 0.608934292720494
0.0223370043817213 0.197024334485751 0.609022088658894
0.0230071133615259 0.201852677594043 0.629197665218542
0.0209261833386363 0.203108482655928 0.634445136369991
0.0193782261229594 0.204349735951285 0.639631801925588
0.0103905570559005 0.20517090014406 0.643063095159683
0.0120427188697809 0.207675939140136 0.653530579536145
0.00818906108981524 0.211148575235765 0.668041237507165
0.006635281021122 0.212587006729856 0.674051826250331
0.0014839130599363 0.214494881590503 0.682024017632323
0.0112118238329668 0.217110958800125 0.692955483115388
-0.00121805696665351 0.217678356324921 0.69532639420114
0.00220282027612177 0.219246888005806 0.701880615867698
0.00525963126368362 0.22215709728254 0.714041133202619
0.000476753280091611 0.224954658683481 0.725730943342265
-0.000910723149701278 0.225726962603939 0.728958070438464
-0.00474289914681793 0.229029670781343 0.742758672465474
-0.0082842133811349 0.231832116798085 0.754468893321145
-0.00480905436364733 0.234525152880408 0.765721936950853
-0.0114356717034894 0.236304341951515 0.773156405569407
-0.0121143805516349 0.236204551591911 0.772739424423918
-0.0174282695415501 0.239413967101342 0.786150196374043
-0.0077524765391795 0.242185164783924 0.797729843833402
-0.0154014710201267 0.24497016844651 0.809367180566348
-0.0203519031443891 0.244671438138369 0.808118914635901
-0.0184502580948958 0.24769503826836 0.820753243750508
-0.0202428659946156 0.249593057112407 0.828684251063133
-0.0216974559917439 0.250990580319323 0.834523901606322
-0.0256328968381875 0.255288607298646 0.852483514341347
-0.0279839113561255 0.256850182411936 0.859008667493309
-0.035534030969546 0.256772978422439 0.858686065108627
-0.0361027201647563 0.259051922813715 0.868208797029312
-0.0360081910057986 0.262374406737487 0.88273375228505
-0.03775654415783 0.262374406737487 0.887376871990273
-0.0300915304799497 0.262374406737487 0.906137460113583
-0.0273091252807199 0.262374406737487 0.917448866532921
-0.0366880518983648 0.262374406737487 0.921100628589121
-0.0414127964914376 0.262374406737487 0.933258477333521
-0.0314347719780163 0.262374406737487 0.945959563510626
-0.0385328633172792 0.262374406737487 0.956390859257711
-0.0313203715991061 0.262374406737487 0.972986013599155
-0.0327070113365116 0.262374406737487 0.979482531535993
-0.0278851303189052 0.262374406737487 0.989759130407668
-0.0447651420059522 0.262374406737487 0.991403702038589
-0.0401381526110494 0.273028106377634 0.998442994134755
-0.0619908261524557 0.286697266255058 0.996448340017027
-0.0752914234078298 0.305545275391381 0.994445756327765
-0.0996685065600569 0.336460436818939 0.989958217078386
-0.100706226325189 0.328119571809195 0.989767184863957
0.299143441211229 -0.125961172963206 0.333761267343659
0.299097169590993 -0.125546069467967 0.335369793387706
0.304038989527719 -0.123971641517488 0.341470701695814
0.296972360559512 -0.121307149529936 0.351795608147579
0.298154193424407 -0.119697506624623 0.358032974405666
0.30201449594075 -0.116546501505442 0.370243119242493
0.301458134264209 -0.114451106903476 0.37836277332511
0.288560260110608 -0.115043812705513 0.376066038342217
0.296541605720353 -0.112930077901699 0.384256760706996
0.289349891822764 -0.110247859350192 0.394650357594089
0.28655406772014 -0.109402322012727 0.397926814776763
0.291406175664103 -0.107091635683777 0.406880724301445
0.283058766464272 -0.105818298727429 0.411814905007292
0.287205334789088 -0.102603123610397 0.424273708585793
0.284782811525867 -0.102835111666103 0.423374754869933
0.276790565785344 -0.102119764456387 0.42614672530758
0.278090638532816 -0.0975935822702951 0.443685681278687
0.283780893239161 -0.0959661369943513 0.449992031722968
0.273725483500024 -0.0935076970243273 0.459518486606812
0.276192120695406 -0.0934365062181516 0.459794350980744
0.275283248109248 -0.0906625028963115 0.470543613852874
0.265201866811521 -0.0890076215022329 0.476956279254928
0.275407529892756 -0.0874235804752562 0.483094438234464
0.265703672695553 -0.086769457712312 0.485629163940874
0.199914023618371 -0.0174244248876022 0.40846196754728
0.269019689033209 -0.0819848826535399 0.504169392293612
0.263532378288601 -0.081109504478405 0.507561482722263
0.264117737490293 -0.0777414613980549 0.520612649658618
0.174255747891991 0.0176338785124032 0.40846196754728
0.167611600709151 0.0230624179886318 0.40846196754728
0.158206898410746 0.032775105919986 0.408461967547279
0.146744624278087 0.0448640523941951 0.40846196754728
0.136710668489374 0.0554399180335184 0.40846196754728
0.139930302717933 0.0626883738390218 0.40846196754728
0.128269338905609 0.0615646275362163 0.408461967547279
0.122997209893374 0.0781481643306016 0.40846196754728
0.116835826275246 0.0844353863814388 0.40846196754728
0.107297269524028 0.0922348493886863 0.40846196754728
0.0966912238189855 0.0993781101187223 0.408461967547279
0.0892763288316102 0.114695551926695 0.408461967547279
0.0890334150869406 0.108422945395654 0.408461967547279
0.0763901543017471 0.123432022263855 0.40846196754728
0.0653392537092409 0.136931517634562 0.411166122210414
0.0612345176550699 0.136989281206323 0.411348077461459
0.0640961007896271 0.141374779052875 0.4251623956781
0.0558828099755181 0.143377807864111 0.431471936433494
0.0624528453605804 0.1467561550362 0.442113730025572
0.0507352109282568 0.14903154135819 0.44928119693984
0.0503187737546699 0.14903539594782 0.449293338897173
0.0464683683806711 0.151869655172615 0.458221255455281
0.0524714785271176 0.155584979397785 0.469924526764569
0.0463408377742719 0.156337043469259 0.472293528589711
0.041074036529821 0.159150531408015 0.481156015596791
0.0434145935279813 0.160792893244645 0.486329455382178
0.0423380244948305 0.164084387770464 0.496697663138506
0.0370825097230272 0.16604657140057 0.502878541573339
0.0319602491268113 0.167780624899306 0.508340810094358
0.0285504887721259 0.171411206516807 0.519777142189486
0.0222797142368487 0.173665284857175 0.526877488961646
0.0287925447530447 0.178146039272399 0.540991865369603
0.0272640499075911 0.177712531216655 0.53962631499401
0.0227546272390735 0.17969879765391 0.54588305427136
0.024250593196996 0.185306043042329 0.56354587724488
0.0176834728500869 0.186886295036087 0.568523671025217
0.0158977647166418 0.187280023953552 0.569763917115233
0.0164079320115685 0.190894047096598 0.583406244925649
0.0153366736112968 0.194615287251024 0.598955712713784
0.0108862504277495 0.194344459686101 0.597824040388927
0.0135857626823117 0.196867668138039 0.608367447134527
0.0107566111251917 0.197952451657623 0.612900292555644
0.0113839461458653 0.200322671749352 0.622804426510366
0.0091650909082225 0.202248964999392 0.630853580448035
0.00965926860981665 0.204729948520056 0.64122054730224
0.00210676846239135 0.207198275285321 0.651534626999954
-0.000356835761570991 0.210788636384287 0.666537207306348
0.000589573923029968 0.211482353475507 0.669435953723231
0.00128941617619868 0.213097131207828 0.676183417819
-0.0104382545006676 0.215028405856267 0.684253386885693
-0.00396075186963037 0.21817256842837 0.697391494776267
-0.0103363584872662 0.218239935697335 0.697672993721583
-0.0133666552172496 0.220403600477924 0.706714021554759
-0.00508194904908814 0.223533260153331 0.719791528055565
-0.0198158276520731 0.225193449385116 0.726728747345527
-0.0217533017441976 0.22849060182784 0.740506134338336
-0.018004628724285 0.230478435186181 0.748812438014263
-0.0181334262590778 0.230912702668553 0.750627055708457
-0.0178213878476325 0.234267910209579 0.764647030076316
-0.021783278138448 0.23756618063853 0.778429088654436
-0.0211970694587321 0.238206101255308 0.781103042660258
-0.025302021067028 0.239407847825513 0.786124626542899
-0.0304061923008632 0.241878306757752 0.796447615652612
-0.0250534047483244 0.245498950654911 0.811576734794313
-0.0359021137109348 0.245210257935292 0.810370411644474
-0.0319994043632898 0.249358243900127 0.827703067283251
-0.034709148582361 0.25022173206609 0.831311214262452
-0.0392040909640975 0.25226238524869 0.839838229346888
-0.0456357360228921 0.254357872984358 0.848594374528071
-0.0437132748946086 0.257735935568483 0.862709850326024
-0.0543934475475272 0.258338325385785 0.865226979205466
-0.0449519663947045 0.260146035542285 0.872780625216553
-0.0481851554991341 0.262374406737487 0.886248681863805
-0.0441265120408441 0.262374406737487 0.894716777847667
-0.0462615665272242 0.262374406737487 0.911640657986817
-0.0496059428472323 0.262374406737487 0.915287173765124
-0.0463273585457628 0.262374406737487 0.93514758694623
-0.0509316228746718 0.262374406737487 0.941164049161576
-0.0530950717900098 0.262374406737487 0.947765484170116
-0.0451102413561884 0.262374406737487 0.96661112930926
-0.0524896359626547 0.262374406737487 0.965100439254459
-0.0447406010755147 0.262374406737487 0.987837900474242
-0.0489481698056288 0.262374406737487 0.99388149671341
-0.0535791030233938 0.265321498415801 0.997216139807967
-0.0704575462765279 0.282416504165204 0.995335617235977
-0.081029307754293 0.293241870131483 0.993389478140078
-0.10651130955519 0.320078276648009 0.988698536138518
-0.116976462653777 0.330790578927871 0.986099191906162
0.292234212170665 -0.12685291908522 0.330305751120849
0.293733985734864 -0.123073303624667 0.344951761030497
0.294467862698225 -0.122151364929041 0.348524273476049
0.28952196678356 -0.121629154921193 0.350547837256458
0.287315540719005 -0.118484436459141 0.362733621296909
0.289689290378509 -0.117589282995423 0.366202340968818
0.28334320440854 -0.116362798444471 0.370954968603754
0.27840167908824 -0.114606335846511 0.377761261170852
0.278122995103384 -0.113076530756022 0.383689255896494
0.276622182742069 -0.109584719587346 0.397220024175113
0.276256333741156 -0.108106472977659 0.40294822978765
0.269094355297925 -0.107492577063744 0.405327076454069
0.275349793931313 -0.104461646570218 0.417071932116481
0.269975148715116 -0.104141446252193 0.418312708348831
0.270122363044192 -0.101401477034223 0.428930089068469
0.272001542299864 -0.100660363061843 0.431801905711439
0.262699864616648 -0.0993840721564838 0.436747532969707
0.262424110803806 -0.0981687419135041 0.44145693766125
0.262483639724792 -0.0941775116498458 0.456922954932926
0.265144030342928 -0.0939048721473335 0.457979433005163
0.216348936871322 -0.0464268692307508 0.40846196754728
0.205273641008977 -0.0328688135346587 0.40846196754728
0.19678687664964 -0.0205211423783742 0.40846196754728
0.192461811285372 -0.0259071979073636 0.40846196754728
0.185776336478409 -0.012636962436993 0.40846196754728
0.179814079432425 -0.0063724415856574 0.40846196754728
0.174234913235281 0.000160941321916013 0.408461967547279
0.164698266436839 0.0111550153286247 0.40846196754728
0.162477505046723 0.0176548510682156 0.40846196754728
0.157608235586377 0.0229264704301996 0.40846196754728
0.14441008931518 0.0376557583989273 0.40846196754728
0.140990918684838 0.0430074022629026 0.40846196754728
0.130975683724335 0.0540201518369894 0.40846196754728
0.116829720844873 0.0658725524638257 0.40846196754728
0.113898502382565 0.0711549496761536 0.40846196754728
0.103065792028312 0.0776560649305183 0.40846196754728
0.0967518759212278 0.0824717331458218 0.40846196754728
0.0906431700529738 0.0896494469723981 0.40846196754728
0.0855908845683269 0.0983418957730711 0.40846196754728
0.0756529430127677 0.109543508059594 0.40846196754728
0.0612876665164697 0.116594726424645 0.40846196754728
0.0648331718169237 0.11933431038673 0.40846196754728
0.0483409968969896 0.136565706893851 0.410013818377175
0.048959473141663 0.140582506910612 0.422666738429972
0.0409928466613798 0.140521507823224 0.422474591304697
0.0392043782955722 0.141524141620207 0.425632887765196
0.0439525654419905 0.147477518629079 0.444386025343142
0.0438675544371534 0.146363455351192 0.4408767260178
0.0376017815543565 0.15163168616871 0.457471653092978
0.032642578663934 0.15085282710376 0.455018247038387
0.0341976051619198 0.154027904285035 0.465019740159404
0.0278473497744081 0.157632359018272 0.476373772569101
0.0295359850756044 0.158697776874604 0.479729838816545
0.0229129492595676 0.162030290142214 0.49022725560952
0.027079639795328 0.164704043500103 0.49864957868687
0.0227678250428427 0.168300936581667 0.509979791893795
0.0151037311948153 0.169351802040592 0.513290018089407
0.0132892200120264 0.172670412308519 0.52374364043338
0.0106693258445069 0.173026771121837 0.52486617069533
0.0131683611548763 0.175248165681971 0.531863563559755
0.00500565947552118 0.180472823193258 0.548321234720305
0.0148824879815069 0.183249354377778 0.557067307951543
0.0115618218637505 0.184894797762498 0.562250454613411
0.0077756744617828 0.186089105447949 0.566012523822582
-0.00525826968088446 0.189329100630422 0.576867004334842
-0.00483193699618833 0.191196486356088 0.584670008974234
0.00245195261177884 0.194018565081268 0.596462266504445
-0.00703190208538286 0.195978934975893 0.604653812135558
-0.00493848743853403 0.19907359281242 0.617585060952475
-0.0081771589111568 0.19946843200001 0.619234924700618
-0.00912762153340178 0.201780927128409 0.628897850772856
-0.00254470934371348 0.203140591988068 0.63457930750786
-0.013740288016035 0.206132773639524 0.64708235226573
-0.00524499198414801 0.208053918137051 0.655109991773254
-0.0199785199713605 0.208027068749439 0.654997799689305
-0.0140980948817872 0.212231676130688 0.672567051960953
