ply
format ascii 1.0
element vertex 863
property float x
property float y
property float z
end_header
0.22172291704018 0.177779108730415 0.805207728872687
0.188042363398097 0.173734778310153 0.785185894363219
0.189777172604553 0.176241182088715 0.801862972159275
0.19412513880282 0.182334101929278 0.815114146817695
0.18260122929618 0.180971754514304 0.812151248238086
0.175038296557121 0.180674155512582 0.811504015638089
0.144509801860099 0.177656922209452 0.804941991759356
0.150397812943621 0.179595373630876 0.80915782899738
0.123468952902866 0.178191339953566 0.806104269132622
0.126437338943014 0.183959713555489 0.818649605046156
0.120157947478643 0.183044241079554 0.81665859154343
0.0892416621785823 0.180188605097387 0.81044801727842
0.0878056647949741 0.182238618516194 0.814906484905692
0.0877649290045332 0.185486324793424 0.82196975247608
0.07642494122231 0.186183523904419 0.82348605458299
0.0661856047538829 0.190015247490481 0.831399616582799
0.0510028702650474 0.189374574358877 0.830426104349335
0.0521540691518031 0.19109687564657 0.83242567358058
0.0249099448163533 0.189120656703391 0.829873872038758
0.00976202685624918 0.189981157377004 0.831367277928067
-0.00173705207225485 0.189464441915859 0.830621552627804
-0.0263761901013637 0.188463022866745 0.828443618390474
-0.0278458724965642 0.195084009442513 0.836207959118718
-0.0438190858677722 0.189501627618347 0.830702425879276
-0.0539117333324873 0.195719579443836 0.836810875235284
-0.0682525444407815 0.1903104047356 0.831679609439028
-0.0855500416911061 0.193147611627447 0.834371048238161
-0.0935216251502735 0.190860041007616 0.832201006871187
-0.104864746504954 0.19466145816538 0.835807117394708
-0.115790561549956 0.196493652532275 0.837545178521229
-0.132336926842348 0.197735193769299 0.838722932694057
-0.138663486080423 0.199288010483161 0.841204382267208
-0.123044248079533 0.203000062311029 0.868316357122429
-0.131934007354644 0.202207543337164 0.865827934908221
-0.145975233694116 0.203842102955589 0.870960271923574
-0.203994149382828 0.198604788636619 0.83954785010567
-0.198551305750109 0.199108419049059 0.856097026277097
-0.230657499304654 0.199559454433945 0.842056603918064
-0.203291487866592 0.206227462024786 0.878450036449596
-0.206494272651379 0.205747269214891 0.876942283960819
-0.23804286025731 0.206131238014869 0.878147903665757
-0.231589462377452 0.208800151565494 0.886527998005691
-0.273600208281127 0.204095502927664 0.871755919902216
-0.273535735835154 0.211433350055351 0.890634256514225
0.00908526470626952 0.202407921698309 0.0944549101122712
0.00929107863401195 0.198805976632877 0.103971552997315
0.008976223387463 0.203238735602342 0.119149448984651
0.00572240890926299 0.203830503188292 0.125360427465794
0.000871112739591763 0.204485474324088 0.126197969327435
0.295340891722682 0.176069949522891 0.496232029843865
0.309691503010891 0.180528446417959 0.52256916415405
0.309642859622372 0.177397097536062 0.523133046463829
0.300749603634864 0.176572146244196 0.523768760146899
0.30826381111196 0.183662360224275 0.542591854345139
0.305968366578621 0.180116904268637 0.548236885948222
0.304108234864456 0.178637340406608 0.562663247048083
0.301087958600211 0.175904652517533 0.565628280569254
0.299984419100717 0.176397768280617 0.569859310447042
0.286422059588835 0.176700620576531 0.574288522363614
0.294033368720906 0.181292646104285 0.588843544880645
0.281915257448038 0.179902482072875 0.584437239066957
0.274367693117067 0.179705146660327 0.58381175879563
0.278204177413226 0.183816014966166 0.594760068218385
0.267616665679569 0.18438191846455 0.595450460857969
0.297446893790739 0.183975781929975 0.636694804639783
0.234156234290729 0.181882425336638 0.590712926911536
0.298076875046027 0.18407357938791 0.646966294666064
0.29128682607283 0.179066630901106 0.654008187596996
0.296085884479986 0.181761599451479 0.672289363297936
0.201174534505674 0.182291969590675 0.592011030722848
0.295519034125579 0.17862114016932 0.682632851012622
0.294009295915648 0.176000401399413 0.697187065708069
0.295923070018434 0.182008041036969 0.696638622281187
0.294766787078862 0.183066301460091 0.708263545706881
0.294462916996898 0.178584755873603 0.712866612119631
0.293023670206815 0.182710984329247 0.723896175426718
0.292566477260532 0.176835924845295 0.735435185608309
0.29212522156934 0.182317711890218 0.740939082164408
0.291692335965445 0.181117852945593 0.751913070071192
0.291262339239786 0.180606081973591 0.760176381699098
0.289807815964175 0.183917036330417 0.768574294263415
0.289003963402785 0.183438524524457 0.776938371927831
0.287681295212526 0.17670214173167 0.785789333567484
0.288895828516036 0.183768397383958 0.795269047802491
0.287583460610674 0.182308966572125 0.801060649108096
0.281304285516447 0.179004530561539 0.80787283511721
0.274722501152377 0.180355237791352 0.810810418063154
0.268960987401764 0.179258214827198 0.808424559840382
0.25782991563724 0.18417993380576 0.819128550621679
0.239364539910919 0.180228873739501 0.810535595455037
0.238071011737173 0.182809495637035 0.816148055882287
0.236284661317599 0.18857302991678 0.828682867005556
0.209416494296734 0.183738077965288 0.818167581321385
0.212325800418306 0.189183809009586 0.830011218706921
0.18361651051961 0.183417853287958 0.817471141315562
0.19816387895769 0.190964616501238 0.832300209555976
0.189431549078368 0.188342430352589 0.828181347999693
0.153640403838023 0.184944888122374 0.820792210003455
0.160266000862404 0.190490989698801 0.831850916430385
0.15223366146404 0.193982318245446 0.83516286986528
0.130645318942986 0.19075613282685 0.832102437214506
0.127708661987773 0.19512997931518 0.836251567182424
0.105840646820168 0.19299237025446 0.834223782751217
0.104028477746968 0.195459997041285 0.836564629481473
0.0862510478109814 0.194907171391304 0.836040206533048
0.0714897609179771 0.19666786057065 0.837710436217081
0.0682007439254936 0.199131799448983 0.840713944277913
0.0516923704104975 0.195769581805479 0.83685830860948
0.0292050633851455 0.194777728887556 0.835917414438526
0.016905826196829 0.196176658942356 0.837244471213123
0.0136996933916381 0.197740746083969 0.838728199745667
-0.00355527271010723 0.195210991846538 0.836328417506854
-0.0153082692375542 0.197955391631318 0.838931817379565
-0.0231677838876789 0.199522430476108 0.841940364015211
-0.00844061249232497 0.201013425640654 0.862078536975343
-0.00791545435003016 0.205589519374043 0.876446966850189
-0.0479281139371806 0.200448344477043 0.860304244413611
-0.0414451728148458 0.203522528863565 0.86995684450303
-0.0594376848086843 0.205590292058606 0.876449392994541
-0.0873294461474572 0.201171916305127 0.862576180190491
-0.0953478423257221 0.20280477400357 0.867703173364711
-0.0860130680024662 0.206165785784358 0.878256379853561
-0.0853160622844693 0.210273873043833 0.889227499443
-0.108668549175254 0.210482260959542 0.889480329961475
-0.120455893809922 0.210012452691314 0.888910326333215
-0.142830231535968 0.207121946867197 0.881258620250777
-0.151562809127116 0.213160388772053 0.892729618391057
-0.164626480024508 0.214409392016776 0.894244994831506
-0.166787316713577 0.214003268412692 0.893752257807691
-0.185023814770843 0.215827863420656 0.895965981671189
-0.202841792874004 0.217402623103909 0.8980537257429
-0.221920698806354 0.21359810960721 0.893260691343744
-0.205409713047098 0.218876781647194 0.916614083854973
-0.241205606983146 0.217672490426226 0.898831533312724
-0.229544031711842 0.220076633662509 0.920072631164675
-0.259634447508671 0.21867672086707 0.9160374130122
0.00884211586119574 0.207841818095838 0.0876167022512322
0.0092445758082843 0.209836150872239 0.100249203324347
0.00912934189599389 0.206701144208216 0.112320069908243
0.00892896660949099 0.207167344701762 0.120278261115518
0.0032343133168708 0.206417510545866 0.125446704769765
0.29476270422289 0.189734798972407 0.502480276293121
0.294733623335418 0.18745360901346 0.510525247816282
0.308800721152596 0.188971458437797 0.53529894651319
0.304645771790751 0.188895008116294 0.541101714756825
0.30792334610008 0.191745530303221 0.545290148501084
0.304683091347169 0.186689546965505 0.555815318596801
0.303754874719915 0.190909889380172 0.566611044296816
0.304345496958119 0.188680986654368 0.569671186275943
0.303964721827151 0.190553020252341 0.57919479668889
0.301675111966252 0.190207461296463 0.596649449459094
0.298281396726001 0.185933968493572 0.596581029388333
0.299223005191772 0.191321228737826 0.602311364838089
0.299700814742377 0.187699958632927 0.623099470414949
0.300320921627078 0.189769765648808 0.620315002591735
0.299334184929095 0.18799913148799 0.638815711464225
0.299383011034367 0.191979463784848 0.643488195956916
0.297920801059455 0.193634073280057 0.652675959166085
0.297851201840569 0.189435499525686 0.66261563943003
0.297120709954301 0.185774910172979 0.663816001508006
0.293646949428377 0.193149345618744 0.677141584053096
0.295878976570997 0.190246535055955 0.679585076693642
0.29569794217527 0.185840339902471 0.692490199216405
0.293950951240035 0.189191811565972 0.697288279882129
0.296207616998832 0.192339943922264 0.711023498089121
0.288767233276456 0.18924003251238 0.718416626023993
0.295144069765906 0.19410577902557 0.725918393701822
0.293919117466229 0.189252792585466 0.742822123717067
0.293877461536465 0.193527061823583 0.743559158407052
0.28670654069675 0.188809492498943 0.745070258968567
0.291731788806562 0.190815546803322 0.764026324601633
0.286120631702539 0.191476976122967 0.767656442318979
0.28634006563566 0.186716583548336 0.775147209848854
0.280960403402335 0.190044212607318 0.778280367996976
0.283761146411193 0.19172500291961 0.786952725096729
0.28856209425662 0.188151211531717 0.800368026566447
0.287704129523451 0.193346596597883 0.809975805123144
0.285251117235119 0.190730710414225 0.823770586096193
0.27951240353889 0.187657209564675 0.826691096925031
0.27140248797791 0.186412500608365 0.823984044114463
0.275023448577678 0.192873403687556 0.834110928367955
0.261029671907071 0.195979708977718 0.837057640010281
0.243969122969136 0.192187561639147 0.833460323047466
0.235242278944468 0.194613136194847 0.835761278077627
0.225424230920495 0.195719002079712 0.836810327534582
0.222138074768316 0.194384425907081 0.835544318312012
0.204701872867461 0.198981460163404 0.840241941148815
0.193953637996459 0.199719395599286 0.842558752975253
0.176770399178733 0.196624399445634 0.837669208008289
0.188679081914059 0.19977763288014 0.858198283935566
0.184289335437769 0.199794353065297 0.858250783473802
0.14226824923266 0.195886840081607 0.836969542469372
0.135607013535572 0.196048619152583 0.837123009764888
0.15004843763601 0.201735554090881 0.864345940704864
0.128039413629526 0.200716796567196 0.86114715438374
0.133918659116364 0.203125573367026 0.868710448002484
0.127776511694232 0.205902806112121 0.877430652672434
0.109698739514574 0.202961043154232 0.868193841271383
0.0838381727011694 0.201562276370008 0.863801867762678
0.0736318109287627 0.201976929932712 0.865103834240025
0.0713344282733786 0.204032169561904 0.871557060115314
0.0625001327194666 0.20322661946497 0.869027721611163
0.0655731454098909 0.210499524535489 0.889501275316404
0.0493179149524559 0.207798623641722 0.883383310728981
0.0347944076729933 0.207639003459571 0.882882120952838
0.0337686796430412 0.211354960687958 0.890539149154792
0.0202628022438611 0.212824510896354 0.892322108305033
0.00727088134352039 0.21096538829043 0.89006649319048
-0.0172922404618487 0.214350739473742 0.894173833541684
-0.0233917988278664 0.215721086169164 0.895836432182851
-0.0555890058426693 0.208882829071482 0.886787596260499
-0.0561863812860028 0.214846773926317 0.894775656576379
-0.0634061254237127 0.213773943978832 0.893474025668777
-0.0834067965841059 0.212464228435505 0.891884988901713
-0.0926952192466737 0.213665956481364 0.893343007826976
-0.102787727551646 0.215935272486313 0.896096297719826
-0.101216190328419 0.21789281533149 0.912741687488543
-0.146565336785347 0.215465035665235 0.895525774141842
-0.131493325627386 0.219007731920275 0.916991545165942
-0.144572002323723 0.219035507659786 0.91707160813032
-0.186806123610404 0.217731908357492 0.899002786787673
-0.187913578292933 0.218357761067031 0.902952011926792
-0.168849475413282 0.22237868940549 0.926708256721035
-0.188589204731486 0.222926789404965 0.92828814303571
-0.210849943939075 0.22268928995052 0.927603556029361
-0.217826078487337 0.225979004143458 0.937086085563379
-0.224087989016202 0.227136765221061 0.940423306661577
-0.256066111950613 0.223963006374585 0.93127501588903
-0.242391408719964 0.229568930896495 0.946404627443255
0.00869724700389908 0.215738363540875 0.0849749744046503
0.00929017989616478 0.214899464016082 0.101468703003855
0.0092876168307707 0.21670892901328 0.101087038937798
0.00892860481799442 0.219525476929156 0.119522531744764
-0.00527131429118782 0.217570552857602 0.123794873794734
0.294409541770323 0.197998352183435 0.505695699153032
0.29386900020129 0.201826381402667 0.515236334433512
0.293718736932318 0.197784270519094 0.524623787996316
0.30820694972646 0.196212385760513 0.543843217341962
0.307480502222124 0.201064119051891 0.554150260789647
0.306647360231268 0.194269501757791 0.562539897366291
0.307093806940012 0.200687811016058 0.559528689376138
0.305758606838871 0.197400815748584 0.574810068593689
0.2974120059506 0.202773697134044 0.57495881190475
0.303133876841196 0.194212156153703 0.590772975536071
0.301679677325254 0.198845601671318 0.600374952835468
0.301046584636061 0.194793594783018 0.606343133529106
0.300558475512192 0.199268080048209 0.614283341230295
0.293519826570052 0.202088659225262 0.612036315891996
0.300332101298148 0.193551721715799 0.631299122518169
0.301390127239942 0.201838656788433 0.639104311398147
0.297513502089248 0.196604854120582 0.645952174919892
0.299836766368487 0.198556632436816 0.660644854736857
0.293514540579997 0.195655122509757 0.662128588996165
0.298579312055758 0.198675347052026 0.678183457721325
0.285244550055491 0.196446704143465 0.667269105516657
0.297557853738302 0.20022450656837 0.692483537787512
0.296922898959617 0.195421254741497 0.701162008290025
0.296177438516074 0.197869445254669 0.711646352124552
0.280789132562976 0.202586817623804 0.707888788985683
0.279881315418451 0.202168738669702 0.718404719675096
0.279751302586675 0.202808175008245 0.719136918148144
0.278641366542793 0.199571182545165 0.736289528745932
0.29292188680709 0.195294933290813 0.756948532148522
0.27724640118996 0.203150674200109 0.749013589487622
0.276721751368754 0.202524834635891 0.758890369263732
0.291440587428618 0.201604492378942 0.777834689891163
0.290856845618294 0.201459393140606 0.785969233726979
0.290357466925612 0.202818268865 0.792982349021867
0.287084217412097 0.195189522680066 0.805530159088947
0.288416368101654 0.199861433361787 0.80880230475024
0.287510304935211 0.195653464005558 0.818899073704487
0.286956549956164 0.198197757415558 0.825769282525629
0.286315613386952 0.201197759209701 0.831661092895905
0.284072616111129 0.20200271664281 0.84090964587573
0.271156944096791 0.197681240525676 0.838671751423617
0.274696228146739 0.201027947986983 0.86212413554194
0.247877883767015 0.199244441481342 0.841067593635343
0.268980274626407 0.202067325664426 0.865387666872789
0.216385633006161 0.199628429113825 0.84227315586326
0.246869413501409 0.203811561580458 0.870864375372407
0.223376342332269 0.201529458775406 0.863698824133293
0.221669058183279 0.202254907443007 0.865976652979362
0.219134633462729 0.203762059245448 0.870708943497388
0.200575024546932 0.206181340868772 0.8783052211039
0.190519977917368 0.203972442708715 0.871369524380319
0.186953782924986 0.206491476728903 0.879279013516727
0.165055625051925 0.205040263540382 0.874722364079989
0.152408315120072 0.206200733677901 0.87836611238679
0.157948671964095 0.209389285225621 0.888154256803408
0.132956076043631 0.205993022701215 0.877713922817118
0.123303744128111 0.207372510453705 0.88204536229141
0.123926923649015 0.209153840976321 0.887638543766559
0.111955257676187 0.211829708746315 0.891115146075394
0.087115712303816 0.210145499444418 0.889071747783466
0.0783578406913257 0.209906752591492 0.888782083719195
0.0688551488706862 0.212988665784922 0.892521272279803
0.0637472957540146 0.216284489919509 0.896519992272339
0.0441810962686534 0.216348873718391 0.896598107115021
0.0347917457064646 0.213147458992023 0.892713931094711
0.0218829271491203 0.215802252282796 0.895934908481355
0.00907766154481558 0.21783666389772 0.899304711642715
0.0288373451688579 0.221662367716886 0.924643475050145
0.0146737604620925 0.220907231852181 0.922466812361747
-0.00617850841265005 0.219187246504972 0.91750899204775
-0.0199279137352718 0.219542485249937 0.918532959995479
-0.00695261185049428 0.225279526879972 0.935069857581139
-0.0441393031561631 0.221661962202077 0.924642306162536
-0.0411125425555896 0.22266549689043 0.927534973051698
-0.0435535285396391 0.227492313464892 0.941448166733049
-0.0651845367209066 0.226054196514974 0.937302825937108
-0.0715325478918918 0.230247049192221 0.94718591005363
-0.0960118873702131 0.226365328928969 0.938199658346145
-0.0965383261643897 0.231724421817753 0.948888040122448
-0.101778428179864 0.231712937470528 0.948874808624588
-0.139302648602226 0.225148788416405 0.934693006806482
-0.138527235607309 0.232919207620626 0.950264592527522
-0.161470247937646 0.230119055604985 0.947038444390814
-0.163858291632495 0.233766555127151 0.951240849732149
-0.175414351610078 0.237747299660108 0.956334850066373
-0.204615811284192 0.233317798378133 0.950723822177362
-0.207797348117989 0.23943770900917 0.965257428997667
-0.232318502042789 0.236846988702866 0.954789919563015
-0.250342230395785 0.236568020909537 0.954468511503158
-0.234194087605353 0.241013265393442 0.967404030713629
-0.26889634250976 0.239921511936546 0.96591658166555
0.00864251707910163 0.22499019105481 0.0836758910597032
0.00933481867413163 0.230912114615259 0.101009088348179
0.00914801105278129 0.233981826891837 0.111752389453745
0.00898651104605126 0.232426482632834 0.117040966464778
0.00546662487896945 0.227642757920713 0.122543406503916
-0.00667108309023869 0.22923402717371 0.122215431981014
0.293180672184098 0.211592672441316 0.521129974599928
0.293069930038978 0.210670831310172 0.525266345445669
0.292467595964893 0.210127844346958 0.542738680556946
0.292745398139197 0.20708572627164 0.540002936539702
0.306703649098392 0.205681612720932 0.565151614446005
0.306011123630494 0.202856117864525 0.574705128905049
0.297985532217648 0.203678700146344 0.578371986227588
0.291459862832938 0.204245326113635 0.58088605810921
0.303802244148267 0.209555781009288 0.605751103847926
0.303000331208239 0.20945902170967 0.616929648110425
0.288522728463351 0.211816171578243 0.605555692273623
0.30183710847598 0.205437922916828 0.633003000811912
0.302051246568887 0.208740558769588 0.630137676409871
0.301135400882479 0.207178783665831 0.642851399192799
0.300468464302274 0.203112147751169 0.652002746690536
0.284885901043371 0.211706888698751 0.650289527671909
0.284090775703885 0.21102174947698 0.660498447659545
0.292488367510784 0.204035289851791 0.668718240971881
0.283734305288996 0.205920631273055 0.669799555773172
0.282123833037866 0.208820279587321 0.686252019880606
0.281548048056393 0.210063725838178 0.691930454656335
0.281837294878882 0.206131466579631 0.692337395833218
0.280476450612606 0.21057884278719 0.703567628759759
0.279442047466411 0.212307201279288 0.71270469045907
0.27873186704077 0.208685164536559 0.723823209312368
0.277626954976334 0.20800331023601 0.73805190025983
0.275902124280406 0.205256056491814 0.770502644880782
0.290342921929349 0.206485666399966 0.793319167957613
0.288422142184264 0.204905067867035 0.807591229405883
0.289263034254474 0.205955559673879 0.808358029505524
0.281486795129895 0.207407573193414 0.814448307363298
0.283949400964052 0.20638107477406 0.823942072413047
0.276341571087426 0.21198064080056 0.8275772540627
0.284006241987339 0.203835447166986 0.849091455716249
0.28389029811704 0.205507123292667 0.855437900033418
0.28332703690234 0.208126188653031 0.863583354090046
0.27862378203699 0.203871494628678 0.869051510917282
0.278325410784551 0.208440906072796 0.881520664451228
0.276988706566891 0.208194252050077 0.884452006496311
0.255615657972473 0.206563631514047 0.879505571588062
0.262947864528944 0.212214265347373 0.891581716531255
0.245829918009599 0.214210135582857 0.894003243253322
0.227743423160517 0.20852026167051 0.885649174589245
0.228915651681489 0.2133852595873 0.893002447094272
0.213251786168896 0.216426051485377 0.896691744477703
0.197776024488082 0.210502442415502 0.889504815488654
0.199819955660298 0.218360932542229 0.900815750907563
0.193743004134841 0.217694982409876 0.898896359372409
0.170455371853225 0.217205717347761 0.897637688600963
0.149795331761768 0.214490556120652 0.894343468691636
0.172484544127619 0.217999724273104 0.914085985070378
0.167072209798668 0.219847142585661 0.919411128132385
0.159824961673844 0.220694653374376 0.921854059527955
0.132545348697712 0.220847884820178 0.922295745834164
0.131033879517607 0.221337873004768 0.923708126107706
0.0981289542432223 0.218040477811301 0.909632576769825
0.0999357362229701 0.219516037300064 0.918456724355824
0.0847297347211721 0.219261486856977 0.917722988245966
0.089938424574569 0.226562159677646 0.938767018693601
0.0717207119845677 0.224987406192672 0.934227826060356
0.0416775390014658 0.221833312660777 0.925136220128917
0.0495022912402806 0.223474744272372 0.92986761101036
0.0410637613061439 0.224755887553747 0.933560478624523
0.0239087777550019 0.224477814815225 0.932758940010226
0.0212388387970179 0.230491058052286 0.947467040765406
0.00394489878655066 0.228987664981127 0.945734931676982
-0.00671165689000742 0.23302816576896 0.950390126828969
-0.0149306911249754 0.231645771101987 0.948797424020642
-0.0376337654627102 0.228377000046417 0.943998256541963
-0.0478122148194982 0.230370998733368 0.947328716436635
-0.0551372254196255 0.233749331619868 0.951221005957377
-0.0768416280198804 0.232289183427507 0.949538720730078
-0.0774449395031007 0.237452767384308 0.95569852357675
-0.105965640586429 0.233430409127143 0.950853564761359
-0.108976907032155 0.238517436783307 0.957998703886135
-0.109679671623254 0.242965077327358 0.970063258202029
-0.124320062367004 0.243762993832714 0.971150371907823
-0.164096988558364 0.237749999483029 0.956340682937617
-0.146800622472555 0.244235183389435 0.971793702050009
-0.173729551099474 0.243693752886743 0.971056035243695
-0.192993894424635 0.241145969286811 0.96758483186303
-0.197313997214207 0.245182227460308 0.973083993180128
-0.225338927937354 0.246475373895855 0.974845828164419
-0.219550287955693 0.252001337838534 0.98579080264534
-0.237439811925805 0.252661346420257 0.987333737854943
-0.269906436336607 0.246870492302139 0.975384153455349
0.00920876760237982 0.239197240140399 0.0943067436183177
0.00917768389198241 0.235503164346775 0.09351185870337
0.00924319934249073 0.237441596031641 0.106952827802476
0.00890083265005493 0.236075734638405 0.119302911421397
-0.00246524821592727 0.244699291799096 0.120982506150021
-0.00594553217017305 0.239790554287248 0.121048307009356
0.292692568180571 0.215298213658715 0.529426829486383
0.292476056841576 0.216648204613203 0.533690883508364
0.291474298621124 0.220066006340209 0.550724327715208
0.291498140270692 0.216734834057426 0.554171722761191
0.291171439238676 0.219119018100611 0.557839068262357
0.290564666171145 0.220871641578395 0.567359736553388
0.290284927397491 0.215879956538673 0.577896022977278
0.289729625039935 0.214565321683838 0.587643052405987
0.288701279388943 0.213010830761687 0.60227450575992
0.288671055158673 0.215607615038202 0.600587892435419
0.287577163170676 0.216868014058065 0.613817826211624
0.287061392642211 0.215745095879072 0.621320667021659
0.286432177683096 0.214991566136589 0.629300772816443
0.286150153469338 0.214430386999217 0.633051928508523
0.28509202015371 0.214338667329807 0.645554640640248
0.284290431583866 0.219241501594336 0.651146207817032
0.283671431218261 0.216947460498719 0.660208359322969
0.282076772206427 0.219320742159442 0.677090852884438
0.281920363356192 0.215641609857992 0.681969529453166
0.28086013789272 0.213281153374841 0.697008019801603
0.273348989381755 0.215555455770895 0.800993362423907
0.287471665113277 0.216974191465642 0.833739940149681
0.279669974089912 0.214518671951991 0.835355256079988
0.279028290421397 0.218231377999998 0.846295168588912
0.279914267426902 0.218696507693131 0.849983479496035
0.284041293082906 0.214056197503086 0.866046157781218
0.28372620123471 0.215502630690466 0.870831417758112
0.282378806434318 0.221360641774654 0.885318963969325
0.282178105819787 0.222015513257719 0.886975472454554
0.281707704853128 0.220351179331304 0.891926667501693
0.271498827850398 0.217701900874441 0.898916299667751
0.256999954887002 0.214968207587232 0.894922988226321
0.264604890072515 0.217932502231138 0.911906059065901
0.237178876035846 0.216902586831956 0.897269909859016
0.257416573273959 0.22113043268549 0.923110183903995
0.220120558584049 0.218283111939501 0.900591457527504
0.237219223203638 0.223672947584215 0.930438927741257
0.232489126721532 0.224789341244993 0.933656908161149
0.207924933602888 0.224203368908241 0.931967855658869
0.195982008606719 0.221185868484879 0.923269976388727
0.185410911028954 0.220877003386122 0.922379679466499
0.180184149718461 0.222340124691665 0.926597094773105
0.170594206402671 0.224761650906277 0.933577091362703
0.168112214621579 0.230050728938138 0.946959722968653
0.148825351997413 0.227166897314697 0.940510161765414
0.150126565077646 0.22814021445393 0.943315727227166
0.13589582165244 0.228910909147153 0.945537237900004
0.115937852084348 0.229176687382368 0.94595271066332
0.102624753978258 0.230543598918245 0.94752757484208
0.10322212307604 0.233965637115883 0.951470218703338
0.0875657509112661 0.234199625727821 0.951739804754451
0.0718694317831868 0.230829296342733 0.947856736333502
0.0686705782807397 0.233900100118319 0.95139471135181
0.0428131399579128 0.235750315778033 0.953526406263285
0.0295732149446921 0.234348946509807 0.951911842186665
0.0228839429023227 0.238202342403905 0.957317953704174
0.0137340864987727 0.239495317721176 0.965335917435963
0.00969197445601514 0.241410288217927 0.967944950660909
-0.000741586071986165 0.239324939255932 0.965103786926698
-0.00691804696323035 0.243040564642861 0.97016610517254
-0.0273709863548697 0.240968441513117 0.967342960846894
-0.0530298540675373 0.240733858257814 0.967023355135924
-0.0481002440245269 0.245037941465853 0.972887412107957
-0.070576084348352 0.24288400258199 0.969952798691176
-0.0999077604325191 0.242733719015463 0.969748046284339
-0.0963764570543515 0.249001596162782 0.978778155871643
-0.11743375524004 0.245599282701432 0.973652206101725
-0.0997811821006307 0.253302699524786 0.988833061218562
-0.14096542248836 0.247847134951762 0.976714770885794
-0.146436693490981 0.253450875626846 0.98917945993431
-0.165444829796805 0.253932366173956 0.990208917241248
-0.166820899917977 0.256552260570402 0.992170463079547
-0.193094180992521 0.251172978770792 0.983854306049377
-0.207424620639001 0.259328206185579 0.994248846306053
-0.216104138637762 0.260391570265409 0.995044999535823
-0.234339384035564 0.257948552711571 0.993215883475984
-0.249369001553676 0.263177269065794 0.997130685087141
-0.252212367780317 0.265934659444615 0.998495648814886
0.00923625692534176 0.251259502023668 0.0936945259621347
0.00927613891857422 0.246288155706484 0.105399397960626
0.00925661927757241 0.246393677592941 0.106395060073894
0.00891794486522931 0.248406037406814 0.118041440486208
-0.00503300149763948 0.245332535886886 0.120505605757326
0.29118147328102 0.222762943584472 0.553352494268348
0.290335959353618 0.229596919282677 0.562062836976989
0.290541463779532 0.222613008684028 0.565939981515333
0.289167159731232 0.2287460404393 0.582261924955286
0.289368372054249 0.224295424654592 0.583672977514965
0.288555657887328 0.225483362386665 0.593879149497239
0.287354962998482 0.225955534292434 0.609431075028655
0.286757206272968 0.227435175900493 0.615772628725952
0.286691356312851 0.229147908749299 0.615209814443654
0.285680525506164 0.224474651271342 0.630731745162981
0.285054577125253 0.222561561007583 0.639578270353264
0.284334455523979 0.22194287701924 0.64852114497344
0.286669941510527 0.222354413942997 0.845115962812675
0.285503241601632 0.225762836314443 0.861509262825711
0.285314259890777 0.225682206757221 0.864141526209385
0.28005583063846 0.224492313136682 0.874521202121753
0.284310822732596 0.230814775786871 0.878321245624119
0.281715958109385 0.223648187674316 0.889557744312495
0.28151956983698 0.225491484860299 0.898921560174349
0.280582332957609 0.223443002347676 0.902948587818231
0.280665877927016 0.22634484738356 0.911224066550085
0.278859282994017 0.223617583339458 0.917470470543409
0.276923855220237 0.226757623000194 0.929775132074398
0.273550363211547 0.228014634648993 0.941192475600416
0.264607941290118 0.22745951246039 0.94135361855175
0.269886379049332 0.232222211351138 0.949461559976596
0.253399338615915 0.228974053104279 0.945719248981583
0.245693295790511 0.231116530337946 0.948187668159088
0.222791817536002 0.227426794592743 0.941259310010623
0.216557988102043 0.228571198417708 0.944558029118918
0.203070798125968 0.231174537412843 0.948254500036625
0.193457004855623 0.23260190654657 0.949899019421804
0.167517576242015 0.232333181969949 0.949589412912118
0.183204385053565 0.238813941184756 0.960253217946748
0.147189591450667 0.234646480283104 0.952254640728661
0.159322431151163 0.239083773850772 0.964775213428653
0.140260865237298 0.238790409907365 0.959802586843825
0.141596765127705 0.241036460434139 0.967435632574826
0.116842460913432 0.242189767531734 0.96900694479154
0.117113540602016 0.244534568305989 0.972201596164128
0.104085704399008 0.242210917110917 0.969035759833274
0.0872500691812594 0.24651530002074 0.974900225131134
0.0768439329867783 0.247381591874894 0.976080496176469
0.0523019754067118 0.242879436433214 0.96994657758548
0.0421899517386019 0.245288950624283 0.973229397133429
0.0283766077224419 0.246751054870144 0.975221427069273
0.0320054326193035 0.246662798102363 0.975101182480724
0.00578637099648659 0.24684910897585 0.975355019947108
0.0127995117131906 0.252023314758049 0.985842179193853
-0.00691467664941511 0.251964070062159 0.985703679892782
-0.0140069601247789 0.25384799380437 0.990107823042673
-0.0459437984248003 0.250508470452783 0.982300851580265
-0.0508445217937723 0.254803885362278 0.990861433937787
-0.0709416317397498 0.254592221726253 0.990702958876759
-0.0776430688457344 0.257552467357524 0.992919329699276
-0.0873078120329285 0.258707919260731 0.993784430168656
-0.101775268975715 0.25604217700225 0.991788557495241
-0.108690958405617 0.263216278912294 0.997159892219367
-0.133845762912394 0.257057074229003 0.992548423020408
-0.134853576213887 0.266398503415626 0.998551571732201
-0.157557433085864 0.264030707313876 0.997769664370443
-0.184376017952157 0.266736728571681 0.998592349533828
-0.203661566380737 0.26134828567256 0.995761303646355
-0.203117954575099 0.268863782674284 0.998848795835034
-0.232179923114004 0.264911209585776 0.998372257533749
-0.249463962329082 0.267453712828602 0.998678792074469
-0.256618646369589 0.272763842586377 0.999319002934004
0.00876123071346302 0.256274160006786 0.0840273910861079
0.0089169488496487 0.261127235697902 0.0862262210454006
0.0093829205905001 0.257017870478934 0.100111471942122
0.00910406245426054 0.258871638605635 0.111987457924536
0.00757714357842001 0.26241973012221 0.118102078145393
-0.000364166417781053 0.257808727476354 0.119843987460209
0.287479534192008 0.232540958272928 0.602197070333952
0.278306787981332 0.232366336366541 0.888231787462993
0.269489049013513 0.232424447306229 0.888282563916728
0.281380594055246 0.234153343921737 0.910156806396287
0.277869006166194 0.235691972767519 0.909093075580007
0.279617617371302 0.234864065079 0.925072799702133
0.27891401973718 0.238560651972315 0.938240654185564
0.278786574275024 0.239369567707914 0.943264754998663
0.27534516675698 0.234728770060724 0.9491528930438
0.268168091898405 0.236643741616212 0.954555751844178
0.257685419763255 0.235742656823753 0.953517582127687
0.263699409761293 0.241066637490901 0.967476747016983
0.233519075507087 0.236458044274623 0.954341803769497
0.233646701383375 0.239033522894852 0.964458274330013
0.235321884477381 0.2422734843636 0.969121003987855
0.218852999626024 0.243425990952073 0.970691225558578
0.203420836580061 0.246563184229679 0.974965464513298
0.181418200395926 0.239682202706465 0.965590537095476
0.181227178565663 0.243303493602161 0.970524330216623
0.171866754385587 0.247014191217156 0.975579934666759
0.170710574803232 0.246859486240888 0.975369158352537
0.154432387932473 0.248977529147986 0.97872189320242
0.15118633029236 0.251050778473023 0.983568632275924
0.13919001190824 0.25233403829833 0.986568573219673
0.10693217945483 0.246353998053151 0.974680460809227
0.110867947900075 0.252168463572631 0.986181500867621
0.0875916482841366 0.248643465493922 0.977940935820381
0.0720150557696947 0.250074616753366 0.981286609997374
0.0534226699212789 0.250373984123744 0.981986456134461
0.0584252800059274 0.251639368257461 0.984944608176194
0.0409443467428087 0.259373763651042 0.994282955717831
0.0319635062498798 0.260394630773962 0.995047290974678
0.0280977558951869 0.259259120565713 0.994197121087542
-4.10977530186329e-005 0.260130483040306 0.994849520450662
-0.00180054125819535 0.258314589139434 0.993489939267208
-0.0248210479013067 0.262534502110856 0.996649437886046
-0.0405575676898001 0.264077953813673 0.997805038382151
-0.0479767884749023 0.260730644852878 0.995298868679108
-0.0656446281751097 0.263181467655982 0.997133828621141
-0.0790145751815221 0.267868202393963 0.998728764623731
-0.0938951258733575 0.263674675664606 0.997503099274967
-0.105715488197174 0.268325356826839 0.998783881023096
-0.127072428398602 0.270420747029337 0.999036509795612
-0.137620516701366 0.27596268132043 0.99970466795329
-0.153519640225294 0.278368098804516 0.999994674876902
-0.169956019431809 0.27676967171933 0.999801962000797
-0.192744598041024 0.27764645151309 0.999907670141839
-0.215837922928934 0.275945602603162 0.999702608873615
-0.233321030118136 0.276681284942142 0.999791305731143
-0.251816693840813 0.279490814895198 0.999540854143607
-0.263924931170779 0.282060783145771 0.998446799339575
0.00889860785937677 0.266336615303193 0.0856895877995237
0.00919219998904151 0.272599287866444 0.0899739511120942
0.00937071489657042 0.272967818486066 0.096276277472327
0.00903494342483551 0.269964529892536 0.113306973172542
0.00894937429787502 0.272762856178969 0.115618504420841
-9.59449793001125e-005 0.269299638620298 0.118502814632744
-0.00847767499142478 0.273054608404253 0.116736047410977
0.282323461736903 0.244064606588701 0.90651764074123
0.275362780298945 0.242177560416215 0.91472073227687
0.280844656035453 0.247972680159185 0.927281280267666
0.269622748003039 0.246975202019252 0.927079733144562
0.278347194073561 0.240948406001599 0.944201122152458
0.276951417340366 0.246216582033643 0.949877696058219
0.277194225476356 0.246907218047765 0.962040501313399
0.276264862591355 0.245058325641098 0.96418523127149
0.271093678773324 0.24288317420287 0.969785381058536
0.265560856519062 0.248733791521772 0.978152095512199
0.250262862009111 0.248437274273971 0.977518800557063
0.261255569008797 0.251217237079587 0.983957770920665
0.239157174662549 0.252407801756376 0.986741013760223
0.218173010812907 0.248665446519384 0.977992321967575
0.215027203296112 0.251505922195313 0.984632644614548
0.203972809456436 0.253752346603384 0.989884223777167
0.197003184561875 0.256470793966744 0.992109468072426
0.18005313855582 0.253083802924593 0.988321335642482
0.162623500611 0.251239783525798 0.984010478880341
0.148008433586923 0.252125891348725 0.98608197764166
0.149158773723317 0.260675800849877 0.995257806327133
0.140867975563593 0.260918765150365 0.99543971656486
0.130040663006251 0.258270811653626 0.993457162547194
0.109028957357436 0.259690407529939 0.99452003072502
0.0955840518768631 0.262658641853968 0.996742382776038
0.0789374084538434 0.263826970181021 0.997617123975839
0.0611510528771976 0.262039312601884 0.996278683659536
0.0546329979562141 0.26446887306856 0.998097724239479
0.0355322700158416 0.2693474021082 0.998907102962656
0.0299814029141838 0.268220509751444 0.998771240232886
0.0113922532213698 0.271208498059196 0.999131484266468
0.0023670600717275 0.27456868561345 0.999536602156321
-0.0172764166663312 0.268962672419711 0.998860718385292
-0.0263963131335353 0.267571672117506 0.998693013726516
-0.0475275987658077 0.274773834671922 0.99956133576191
-0.0608616896331069 0.277392663441804 0.99987707241887
-0.0732346996732659 0.272314085583145 0.999264778398869
-0.0952153262151745 0.279420606082458 0.999570742562986
-0.11209318074657 0.281739850911282 0.998583422604409
-0.131262354993722 0.280614794397659 0.999062367619882
-0.140985901740324 0.282638065242732 0.998201046011175
-0.157552866100825 0.279984162212944 0.999330832481699
-0.17917650548671 0.28892466063086 0.995524795094903
-0.205147872470283 0.290380464385946 0.994905048492343
-0.222807314111289 0.285434599812092 0.997010540222021
-0.260102353393561 0.29845441061456 0.984737455841975
-0.247848386738204 0.292317756985602 0.992893524823797
0.00890572875106308 0.277414516668314 0.0852687511143128
0.00941461123710564 0.281826596613313 0.0988458563146498
0.00903408780908269 0.279856913686447 0.112718467875258
0.00853803296126912 0.279695548493348 0.115907331131186
-0.00637931287876356 0.277845746638144 0.116439334481574
0.272510271500531 0.25271633678548 0.942637136781696
0.268207768997317 0.253671098788944 0.944847924072948
0.27703376976766 0.249255793701715 0.962346503978147
0.275744083801402 0.257341739463466 0.969041915945665
0.276709715222468 0.253293047966217 0.974330006649498
0.276784269122992 0.257095782198439 0.980081887459393
0.272438284136119 0.256791785679946 0.990536462872372
0.269476818962544 0.256943469531491 0.992407490166042
0.254705800009029 0.25768647462367 0.993019662520159
0.238933203571647 0.255021901046505 0.991024664852231
0.233037226195783 0.257885902821986 0.993168976764648
0.225798449235452 0.262544797148526 0.996657145902188
0.208214581092145 0.26225074572873 0.996436986135622
0.180161532404282 0.260630248595729 0.995223700817129
0.186648652467533 0.262061042106292 0.996294952795802
0.173131806235077 0.265903570401386 0.998491900593281
0.16053934108663 0.262254741324575 0.996439977685363
0.138621119966538 0.262732490411524 0.996797674062181
0.118420221683116 0.267844929918184 0.998725958799316
0.113959179810634 0.272237189354207 0.999255507476487
0.104320648834285 0.27082732123275 0.999085528036616
0.0870917446076346 0.273352137626958 0.999389930178869
0.0731074721959887 0.271532310848585 0.999170524454502
0.0655268299926962 0.271272705477389 0.999139225374175
0.0476484018941969 0.273742315748507 0.9994369716415
0.0359591554392453 0.279185475132727 0.999670839575886
0.0174121171891472 0.282945773433572 0.998070052321135
-0.00478754216184533 0.285189397155 0.997114924836458
-0.0151600318731808 0.284388490793259 0.997455876695474
-0.0347295682955979 0.278806849252225 0.99983202345954
-0.0542272263417643 0.28019296398805 0.999241943996367
-0.0656660176516661 0.28683079365197 0.996416170008483
-0.0717375558539215 0.28343428328193 0.997862090006311
-0.101774327655414 0.29219019634672 0.993063062398018
-0.108975186933533 0.291101512965355 0.994510003564109
-0.148247987288775 0.294129932013411 0.990485009462233
-0.173115717658696 0.293961283384924 0.990709156029857
-0.20598318417985 0.297564363292449 0.985920394915148
-0.2107287938213 0.294938908208174 0.989409819945588
0.00868844029881551 0.286888946372063 0.081420235392284
0.00933128699304281 0.288053341805316 0.0923115803993029
0.00941284697139367 0.290371066670084 0.0990557293809865
0.00930048517243416 0.285909019334648 0.104606708181262
0.00440941269856463 0.2909612890673 0.115102402539458
-0.00652739288120803 0.289528504748446 0.115022438538393
0.201988729148664 0.270384668545856 0.889438288558966
0.27904741032839 0.264309368977422 0.952939447011028
0.27868770444633 0.263375538408224 0.95792115766228
0.278878664722124 0.266342223476255 0.967944160275607
0.276752496379495 0.258437854766629 0.979231176573375
0.27803573142366 0.26271234614779 0.979212592279581
0.271541008866606 0.261193479844741 0.994229003496628
0.270599196988418 0.259542577751163 0.993604738594747
0.248497357189361 0.262537520149732 0.996651697527352
0.243480359862568 0.264828730021541 0.998367153384967
0.235856478487374 0.268197967868651 0.998768522491735
0.226920960820875 0.26405644008876 0.997788930802537
0.216199500589217 0.267962110481145 0.998740086564993
0.195720544937652 0.27078416086774 0.999080324447318
0.177011151512589 0.272999632420555 0.999347430716243
0.173776155829618 0.271267837166083 0.999138638430746
0.151582321276412 0.276364309917313 0.99975308993184
0.14322163075656 0.280671383795265 0.99903827708791
0.127494997987614 0.274932272629872 0.999580437687074
0.117198619749145 0.277809261804968 0.99992729921338
0.0968656663729801 0.276004351659356 0.999709691898979
0.0782650510339775 0.286252328053578 0.99666242716234
0.0688338128534214 0.285413235156351 0.997019635316579
0.0611492949562301 0.284377788555419 0.997460432718576
0.0454810773895765 0.282544661967201 0.998240808487728
0.0218457734005473 0.283212619925175 0.997956453763638
0.0165211276649805 0.283698280959787 0.997749704210242
-0.0149609460555115 0.29344865920931 0.991390471676927
-0.0376576884174157 0.296112700932855 0.987849762133675
-0.0691456919692378 0.295870133983441 0.988172151646225
-0.0800505134436788 0.294052231873847 0.990588278725336
-0.10162345311871 0.297325381136814 0.986238019970209
-0.108722665960175 0.29551908274623 0.988638724843927
0.00870645503351517 0.29702347437545 0.0812148402781925
0.00936553935093189 0.295194195407523 0.0927284015025217
0.00932787937783532 0.296364016796442 0.103162909150751
0.0091529494999254 0.295183832373753 0.108316266631788
-0.00366486985715206 0.296379279759275 0.114580012247414
-0.00371498530647697 0.29979627337322 0.114164699820159
0.278269256695354 0.268315883046015 0.974036699613003
0.277635702510674 0.271892243226562 0.983321214919628
0.277850471074081 0.273393475537834 0.990239895997649
0.277754744522959 0.275441640783128 0.989631166991323
0.272666054053494 0.268476846649131 0.997048479465785
0.249989467000815 0.27162964846277 0.999182259873499
0.246009309951021 0.279955626437539 0.999342980375807
0.233724972164159 0.271856977966191 0.999209667643822
0.211566613059553 0.27979641552923 0.999410757656344
0.211921039394376 0.274547410924421 0.999534037193208
0.190675212522158 0.283681725171568 0.997756752133745
0.18313526091314 0.2789278036497 0.999780532263259
0.165339919712534 0.284763076239167 0.9972964128552
0.154279969648881 0.289627854394075 0.995225440223636
0.143173364088922 0.281177853472446 0.998822669138943
0.128525579025056 0.287110185707192 0.996297230710242
0.106635837578217 0.294447773116145 0.990062575002688
0.0797010747846036 0.294582308990653 0.989883766821658
0.0727905188994182 0.288356931211456 0.995766481776655
0.0456235266156706 0.299221555437737 0.983717863328664
0.0426485927544736 0.294542060344153 0.989937260265662
0.024231691982709 0.295745315890091 0.988338044173504
0.00884457527495933 0.306768490374843 0.0829038881003844
0.00941150366815508 0.314032126063584 0.0919037705706231
0.0091493353504709 0.310486495427375 0.10747242126602
0.00097555251466793 0.309419848092745 0.113375108825798
0.278613968387345 0.280714587337942 0.959582888270634
0.278459415725989 0.282710441178691 0.961810934940566
0.276957972673109 0.280429303806922 0.976337901450593
0.277235760640261 0.277900009981621 0.98355059435765
0.274596546752218 0.277563930991938 0.995989826661268
0.26953462614238 0.282662805992053 0.997908030211073
0.261476547297629 0.286776755756347 0.99643917434688
0.247215743587472 0.285017734800272 0.99718800279134
0.240929661105258 0.28125291734308 0.99879071388492
0.217337835520138 0.291537593187104 0.993930420523376
0.204901834739895 0.291072863272764 0.994548081135894
0.176714129310706 0.293041377598998 0.991931779221654
0.168651184763844 0.297249820993176 0.9863384450196
0.167890707943892 0.28861043194141 0.995658564610219
0.15088079404335 0.2918367374788 0.993532835515958
0.114953160548138 0.298090256857238 0.985221443263181
0.00907977726919517 0.314789163720046 0.0861919166089675
0.00945750694215997 0.319410031263879 0.0971889740196115
0.00934324867328028 0.320206864054371 0.101238247173189
0.00358796617491125 0.32013096462196 0.111718513092908
-0.00541032112853007 0.321305594173931 0.111368653341753
0.277462966112008 0.292188381063238 0.971326114478394
0.277985787883796 0.28953892940153 0.983936240531242
0.275524128536906 0.291049934613921 0.98667525495744
0.272441640742451 0.294888880722294 0.987189321091187
0.27016147442365 0.291221022931843 0.993620799695897
0.238232051616447 0.295713252129676 0.988380659295292
0.234715699170285 0.297805932089978 0.985599332020673
0.21969314163475 0.292652688952691 0.992448375334683
0.194244842119807 0.298409061736176 0.984797727873397
0.190338625497381 0.29670022125106 0.987068903943979
0.00871106432647226 0.327359777223306 0.0798298415918212
0.00919692337887301 0.333908963704246 0.087103153436242
0.0092596259326181 0.327121232697549 0.103238047621727
0.00909736658870864 0.329469936167068 0.107804636707122
0.00330271767971184 0.333665473746447 0.110135783869561
-0.00813799500374286 0.327250721601685 0.110298301636504
0.273552306857433 0.295240781314259 0.959794825373258
0.271096739804217 0.298697045442155 0.983215697137745
0.00874703886186221 0.343345095806128 0.0796239316342771
0.00893507456675469 0.340313802896448 0.0827061462912358
0.00943727602966581 0.335375434921302 0.0975670841158118
0.00905262517853505 0.334419294157551 0.108797110324688
0.00181252501194037 0.341296382778617 0.109418507925493
0.00906686865127893 0.347057434270057 0.0844405456992244
0.00903289485880974 0.349033283562134 0.0838150678824484
0.00938284091519778 0.35057597177089 0.0982054753841742
0.00926867654033936 0.345721278308728 0.101821955557717
0.000688063417430141 0.353043611624087 0.108160273692526
0.00883777943223207 0.35517445647759 0.0804729259044902
0.0095310133234027 0.359312033725791 0.0933607043690745
0.00935761802288308 0.358655463847232 0.0984370303388279
0.0048286559850435 0.354242993321454 0.107471350261957
-0.00730473871964663 0.363860756490216 0.106029060537851
-0.00602601505223755 0.364721331577253 0.106094538824481
0.00910513772300432 0.36844157400005 0.0832696070077767
0.00908556387101268 0.366361686378562 0.0834837670735256
0.00919200200280396 0.36471346186707 0.102871115626554
0.00657965874661449 0.364855924367915 0.105970195643701
0.000522115674083031 0.368350617224667 0.105881785361735
0.00885980151692216 0.375826776048808 0.0774920344430393
0.0095351157357941 0.379804494415141 0.0899847281073879
0.00931356511001752 0.380107631417174 0.0956577132942657
-0.00453615284589572 0.375599031229941 0.103460550930592
