ply
format ascii 1.0
element vertex 857
property float x
property float y
property float z
end_header
-0.0345369111248233 0.242753508737094 0.726982778141898
-0.0436680732926719 0.241063972008982 0.739059916913529
-0.0336095958437831 0.239724016214258 0.748638182843758
-0.0517038743015958 0.237525204102227 0.764355721603276
-0.0493229883302599 0.236249710422618 0.773473199734814
-0.0504467490135296 0.235689909309858 0.787459486479055
-0.0434154091216797 0.235689909309858 0.795193488654751
-0.0454071992862781 0.235689909309858 0.80725307750716
-0.0518025437211176 0.235689909309858 0.823673436190949
-0.0416430207876048 0.235689909309858 0.828086089000229
-0.0479530608007691 0.235689909309858 0.838412748631835
-0.0385083415109103 0.235689909309857 0.846745654534025
-0.0395657429827093 0.235689909309858 0.857973403156739
-0.0459906947203146 0.235689909309857 0.869248831062828
-0.0513831095969146 0.236984822194326 0.882099014694023
-0.0489559882085418 0.238339450171035 0.891782160248926
-0.043970959696337 0.238981482432578 0.896371532346911
-0.0440499492738867 0.240498851795596 0.90721798514079
-0.0355636495186025 0.240995239761418 0.91076626334514
-0.0393542975933532 0.24184236475609 0.916821678387223
-0.0369691908927158 0.243559761191795 0.929097963794231
-0.0342108357468782 0.245829013423214 0.940870192220341
-0.0324198958261857 0.247360871561365 0.946345202915602
-0.0322813680186701 0.251114137664315 0.959759742776725
-0.0299139789975193 0.252304358523521 0.964013708448601
-0.0258872654069498 0.259867559594736 0.978359413144242
-0.0255433406910407 0.262865947516417 0.983122316018253
-0.0174319212823058 0.266703156658351 0.989217676234371
-0.00939707446422596 0.275572113145705 1.0
0.000358010873711434 0.282368302603112 1.0
0.00409953326219314 0.296836095859338 1.0
0.0144411868615167 0.30119216990405 1.0
-0.137268953740051 0.149254978427429 0.100174384626089
-0.137542354765382 0.149647669941584 0.103795635602941
-0.136715238342231 0.148322518418046 0.122857757866521
-0.136688921507248 0.148273903175353 0.124876450072563
-0.126295513900556 0.157548492092576 0.134370742572157
-0.125480303798181 0.165475982820815 0.13300603352326
-0.113453900408636 0.177134972976668 0.132462528678928
-0.310896165640603 -0.0545989803650579 0.526915821455977
-0.312414642662933 -0.047320104696076 0.525723842829789
-0.301604753212431 -0.0467768827059697 0.531096492190045
-0.29703385558343 -0.0372809547507229 0.532808052343809
-0.291107323144242 -0.0369614059823945 0.535751346765382
-0.290138058405833 -0.021497551382976 0.535269488222122
-0.280191096213274 -0.017599140374573 0.539999318630377
-0.28127386272967 -0.0156719356682633 0.539337485078034
-0.267403417944702 -0.00652798666229848 0.545701210657646
-0.26863716134571 0.00422788904055244 0.544412096725714
-0.262063161813857 0.00332087428382003 0.547755784913936
-0.255705642943011 0.0142031376273738 0.550254402890387
-0.253505041155993 0.010591636029102 0.551580422633787
-0.241340088384893 0.028032381363561 0.554850028815783
-0.239349392975366 0.0312498293059597 0.554673527213925
-0.22880784695476 0.0362501875073688 0.55357169374221
-0.221007556419213 0.0469829585417509 0.552854061058183
-0.220138487228764 0.0585444749860693 0.552918074432082
-0.212342170282414 0.0651715442831969 0.552143859622725
-0.198760774540086 0.0801587077062873 0.550842970698898
-0.194312980601526 0.085978458771034 0.550429601248291
-0.177776367091793 0.0988414788375094 0.549581239504038
-0.173187168730846 0.111183607363348 0.550074198552
-0.164837317963611 0.112022698558072 0.549214618412527
-0.159588086402215 0.127918066362536 0.549922961867914
-0.143978390481448 0.128465877099795 0.548233064029724
-0.132686753228387 0.144343607430466 0.54826859592724
-0.132083975457369 0.14902009663235 0.548581612661104
-0.126867386334285 0.16439775592376 0.549413211094528
-0.110426107129963 0.171239453114131 0.548082445848384
-0.09805369952053 0.190715127552433 0.545228544140585
-0.0888191854095195 0.197942395789424 0.542007094156194
-0.0781560037807734 0.219227217445593 0.533706355823511
-0.0661181465614479 0.22887945496713 0.530268336067006
-0.0619775925978669 0.229140920258917 0.530175770433541
-0.010829777394328 0.294161274193833 0.476028486235047
0.00440024485687328 0.308343282237693 0.478958373431806
0.00280534612482352 0.314173620512233 0.482198374533448
0.0178360701652966 0.323049040519814 0.487430554192175
0.0212350211779095 0.327104344663902 0.491323118104301
0.0266387374614434 0.330365113343423 0.494453031431811
0.0250779216930522 0.340152024153601 0.508180257425148
0.0357633551378779 0.338533248212962 0.503030440431428
0.0346347217017801 0.343604117224301 0.519162411973591
0.0390855090054138 0.344558720919052 0.522199295711533
0.0411000730210232 0.345268904925768 0.537748859984535
0.0398143412348217 0.345268904925768 0.53733798759344
0.0376132522389852 0.345268904925768 0.553167937926173
0.0326103293993876 0.345268904925768 0.570403347970238
0.035850276807878 0.345268904925768 0.581547608417867
-0.0491393848097071 0.251049152395192 0.690790012724927
-0.0457436581254513 0.251822920415021 0.688024490201199
-0.0527460901094435 0.247721247130923 0.702684271377808
-0.050020847837644 0.243836632326214 0.719240399018093
-0.0556031724787411 0.242322178294762 0.730066012452102
-0.0513871897509229 0.239808855102606 0.74803173788712
-0.0540670622453286 0.238488591667676 0.757469238980438
-0.0556290611177789 0.2374163353218 0.765133936925402
-0.0611574984223022 0.235689909309857 0.777887776615258
-0.0631276584812339 0.235689909309857 0.790100982510483
-0.0615144766080693 0.235689909309858 0.799620157409862
-0.0589463253661366 0.235689909309858 0.809185091004031
-0.062792042943041 0.235689909309858 0.829869390195763
-0.05402452030398 0.235689909309858 0.824978423467831
-0.0521028922212695 0.235689909309858 0.843871463101429
-0.0513273079014018 0.235689909309857 0.848593153403555
-0.0651983688433174 0.235689909309858 0.867538421308585
-0.05863041704712 0.236383313159076 0.877799310538308
-0.0581968658397997 0.237344934888421 0.884673170619523
-0.0609788639367065 0.239186215579871 0.897835004901168
-0.0590222457144797 0.239219245995484 0.898071112768142
-0.058298651327068 0.240875037544756 0.909907034405552
-0.0536625822583239 0.242102176071593 0.918678860453504
-0.0501028057178835 0.244052797321398 0.932622282418125
-0.0429018263368209 0.244654905258731 0.93667381489411
-0.05609036236921 0.247194796878636 0.945751635768944
-0.0518101095316183 0.250610667660886 0.957960291780018
-0.0420266617414127 0.251797393035851 0.962201764249597
-0.0378627565183708 0.257574957863847 0.974717643080384
-0.0417697541777194 0.256946440546707 0.973719250939551
-0.0308277465164637 0.265622917835457 0.987501729956378
-0.0309770900733483 0.268315043917678 0.991778139610211
-0.027257634159319 0.270626927700573 0.995450538979988
-0.00847831678369811 0.28531791752633 1.0
-0.00636528622135166 0.298853110030962 1.0
-0.140199521138551 0.153639322568174 0.100663975836464
-0.143864161659142 0.159074109909343 0.111734727809954
-0.13886446628177 0.151533852050793 0.124107458183422
-0.13717057592249 0.154926468530676 0.133388557043297
-0.137671715206991 0.164174449661796 0.13160023741314
-0.131059936727069 0.171540125274622 0.131123591066992
-0.125540153443515 0.170094424751493 0.132138686152982
-0.116026548845194 0.185734771650316 0.130514791499069
-0.308149879604801 -0.0382307959969474 0.527309405411012
-0.309529941178038 -0.0382399345008238 0.526619945780885
-0.302403809402164 -0.0254726426502451 0.529385055928161
-0.299547595032721 -0.02433860034974 0.530742285469101
-0.290477277332908 -0.0133927672311893 0.534593329749098
-0.286617577479554 -0.0104602059525223 0.536339894595858
-0.282192530043808 0.0021831531699548 0.537762208368577
-0.281234496292758 -0.000790781973706931 0.538427096190581
-0.271309875734407 0.00674251135393825 0.542918575636778
-0.267458887384661 0.013099334573116 0.544446768360453
-0.259273878942206 0.0177684676460031 0.548247451764625
-0.251823243093307 0.0209439062389622 0.551774304777014
-0.244715444861583 0.0331862153669066 0.55456305957238
-0.244481242084986 0.0387799578007814 0.554330552058562
-0.240084912626678 0.0469514176782618 0.554973329235908
-0.226127815962341 0.0612142901103232 0.553620636168093
-0.225789401177164 0.0654025376559136 0.553641204630096
-0.219966273668183 0.0710620731357879 0.553072795121874
-0.204895556437535 0.0858388931358368 0.551603504596248
-0.19342300220255 0.0929951234303134 0.550844704017541
-0.189835609458101 0.103909428790091 0.551332955835007
-0.182101044401401 0.10552445755082 0.550604790230442
-0.176248970935401 0.120569117527252 0.551177026275842
-0.164415939099977 0.131096510375877 0.550717657072361
-0.162620425294109 0.138166522275828 0.551184072598047
-0.151671357606958 0.14777781559918 0.550797867349362
-0.144469369326595 0.155501767094898 0.550682501536156
-0.12521923645878 0.174438010166584 0.550205092876952
-0.125298170746765 0.183260046745708 0.549823307540701
-0.105586823588325 0.194772566806443 0.544332792009043
-0.108148158923994 0.196182212784472 0.544017579450133
-0.0889681230531159 0.208898530488352 0.538139022473093
-0.0712054476825486 0.229010847644652 0.530221819581608
-0.0171348095801684 0.301254328993375 0.477103498178797
-0.0145931237941285 0.310384071106399 0.480092468551415
-0.00482072776648158 0.308352748973188 0.478963634230062
-0.00776160725141191 0.320180474277611 0.485536467779636
0.00178078929832483 0.322917136246445 0.487303943265812
0.00564909439029334 0.329934843560374 0.494040028468171
0.018038115159737 0.336279157609773 0.500129743823276
0.0213048261833517 0.338686162695239 0.50351690775507
0.0184106428318711 0.341646626404156 0.512935040267872
0.0227592456561088 0.344736032178488 0.522763376579116
0.0203828369492991 0.345268904925768 0.536923519908398
0.0233320163652419 0.345268904925768 0.538716813494866
0.0267761433033609 0.345268904925768 0.552639906248331
0.0288906055109658 0.345268904925768 0.558827170050867
0.021807786241504 0.345268904925768 0.574885176697011
0.0236754611519781 0.345268904925768 0.58142796458368
-0.0590919796276051 0.250136129398478 0.694053246145524
-0.0597519366865192 0.249834070570319 0.695132833917775
-0.0699039237888219 0.243281583949338 0.72320799330649
-0.0650076660323041 0.242983969590031 0.725335398918919
-0.0702988557778055 0.239635297486094 0.749272361653743
-0.0612556621325406 0.239507013170664 0.750189363015059
-0.0790121671448245 0.235924622884198 0.775796989001472
-0.0732712120540119 0.235907681457562 0.775918089630464
-0.073491161814686 0.235689909309857 0.794184895381453
-0.0658287927854646 0.235689909309857 0.794172262424745
-0.0753964784555335 0.235689909309857 0.811730024992086
-0.0768436963775463 0.235689909309857 0.826727068267456
-0.0745672648594824 0.235689909309858 0.834101703722223
-0.0698218345267537 0.235689909309858 0.839000730363645
-0.0715098657540885 0.235689909309858 0.852201395718836
-0.0700445999392861 0.235689909309857 0.862814294820631
-0.0789051075098507 0.235689909309858 0.872861626890199
-0.0688243368888641 0.2370199339699 0.88235000052882
-0.07220909877533 0.237280899197186 0.884215430982081
-0.0724485740475621 0.240175867636417 0.904909231240068
-0.0639660999043522 0.240017316013087 0.903775873245799
-0.0601036852575606 0.241915123128512 0.917341769454744
-0.0647964236494003 0.242335975024649 0.920350101068603
-0.0674272775225795 0.244068817280575 0.932736796217608
-0.0658727312941721 0.246038560065668 0.941619132399607
-0.0599792653323186 0.248099052329194 0.94898353312272
-0.0601213636044599 0.251653609381864 0.961687867418176
-0.053444205107363 0.252564747813863 0.964944365220301
-0.0465487095226848 0.257778766974603 0.975041391382713
-0.0558708281648326 0.261584525176054 0.981086792161049
-0.0465912451083664 0.267541136574852 0.990548797175663
-0.0457015744480574 0.27072812975721 0.995611297220418
-0.0369201106823425 0.279849389501371 1.0
-0.0249187351332892 0.291177245956509 1.0
-0.147897788126671 0.165165114428299 0.100063667485671
-0.149307756096177 0.16723264106579 0.109467486547281
-0.145967842949242 0.162196156420683 0.117605046851345
-0.146995870138543 0.163688768845659 0.127711703936084
-0.144756035982669 0.172724087373126 0.129051977970142
-0.140594065848787 0.181594651534284 0.127964201277025
-0.128136191237783 0.188730395959581 0.128320565698165
-0.125319530281908 0.191684105300469 0.128151765998849
-0.313293564918658 -0.035991032514131 0.524597577536407
-0.314112921975692 -0.0279594812659632 0.52368592705488
-0.309635646514382 -0.0261320245943264 0.525810348743557
-0.304087454377829 -0.0104872435327145 0.527606645995483
-0.299688059409714 -0.0108174211509382 0.529826979580679
-0.295382589763796 -0.00126342702641285 0.531382589770856
-0.286349549651231 0.00600171325690977 0.535445038559431
-0.284240475374294 0.0129589966419982 0.536064745486331
-0.27232343014617 0.0217868370601644 0.541471528074258
-0.27091066463063 0.0260845584059002 0.54190930324792
-0.26184338086287 0.0287502332381848 0.546276340454782
-0.26052316643812 0.040757088235532 0.546186019229823
-0.250236864175699 0.0387870125032182 0.551452300094303
-0.248653743274523 0.050994943383398 0.551480864864879
-0.240381166996805 0.0556884132306039 0.555127593548593
-0.238513514391451 0.0650606514789313 0.555050246568114
-0.223559613863861 0.0720163324419188 0.55348530874509
-0.216091399121145 0.0846677159930883 0.552831220767444
-0.209333023103553 0.0890891419061722 0.552295100321745
-0.205508951316686 0.101001273016693 0.552838133633841
-0.195099793183584 0.109663647536107 0.55238542899517
-0.192530056567597 0.109650953817632 0.552098871265792
-0.183310362770849 0.131655588839542 0.553066322935791
-0.171338704542532 0.140983496924333 0.552527226953853
-0.161612174093928 0.141175469368843 0.551358591061607
-0.159868161781344 0.147281931079373 0.551749660041389
-0.156568872185621 0.154974313009586 0.552107697207325
-0.144355692132262 0.17215552409359 0.55231591402754
-0.132339730854338 0.176852667512452 0.551313360300879
-0.125585045118081 0.193500662993723 0.546218448712919
-0.103130552414424 0.211419229063533 0.538263134521547
-0.0962253233006756 0.221947029818145 0.534040392722132
-0.0756210708405775 0.240524568449023 0.526145657684518
-0.0261621382052619 0.301641552396466 0.477162185133147
-0.0247678046806885 0.30736036837383 0.478412154352951
-0.0201684731734481 0.315605143643267 0.482993892100899
-0.00636504125623857 0.323147158572277 0.487524734745983
-0.00257427332330035 0.330537185694414 0.494618198482158
0.00425441564017199 0.334829211916361 0.498737984763984
0.00675133433006834 0.335698792374464 0.499572668770321
0.00282079419128867 0.341478389193705 0.512399826700873
0.00262205472122768 0.34419786146543 0.521051292396217
0.00749219652605014 0.345268904925768 0.535036278851849
0.00673627183968537 0.345268904925768 0.54317074640856
0.0114082069833491 0.345268904925768 0.544790347874214
0.00631706273306785 0.345268904925768 0.559985960403011
0.00690821701263702 0.345268904925768 0.57563142623379
0.00635960930328201 0.345268904925768 0.580853716954789
-0.0734417162586622 0.253203192383311 0.683091263291637
-0.0840066010247 0.24583993040462 0.709408281219945
-0.077957905205683 0.244989256069537 0.712448674430497
-0.0769448722832488 0.243471082286934 0.72185342214976
-0.0814680802852346 0.241649631024956 0.734873511793655
-0.0825163763511605 0.238510779683123 0.75731063470912
-0.0854125981339261 0.238249501442471 0.7591783026431
-0.0810616159626592 0.23651211002021 0.77159751612225
-0.0911504303701458 0.235689909309857 0.791096656086311
-0.0828980030258561 0.235689909309857 0.793542435930351
-0.0915701194195322 0.235689909309857 0.807328953815742
-0.0841796023861748 0.235689909309857 0.822180094995749
-0.086572057998426 0.235689909309857 0.829033828330717
-0.0899078233257875 0.235689909309857 0.83282398462444
-0.0827094702267911 0.235689909309858 0.852357717765481
-0.0867843545219416 0.235689909309857 0.848568360798557
-0.0818597088036137 0.235689909309858 0.865289124153117
-0.0785807364871768 0.235689909309858 0.869387728235081
-0.0792359958484175 0.237279233622813 0.884203525130899
-0.08963751719914 0.238907216790369 0.895840667020344
-0.081299553677238 0.241143085273949 0.911823091966784
-0.0800338811373341 0.241489105375316 0.914296511284906
-0.0767544927500625 0.243632268224811 0.929616258238545
-0.0753084248826478 0.244025129603127 0.932424508159955
-0.0750698560081564 0.244766848366682 0.937073910502202
-0.0699725893147994 0.247999196525114 0.948626638719963
-0.0698475485664531 0.250055110444997 0.955974675995454
-0.0733272790621916 0.253132957576475 0.966975202443395
-0.0649155747869724 0.256823742909564 0.97352434723001
-0.0596196825144752 0.263988935928059 0.984906169499858
-0.0570681292227059 0.263935875467287 0.984821883600998
-0.0563644439766194 0.268465310380245 0.992016836064814
-0.0460348768959076 0.282145375220531 1.0
-0.0381096614237623 0.294196766824734 0.999999999999999
-0.0382011612392507 0.295533189055084 1.0
-0.11682958504775 0.221510095467822 0.0330978495257933
-0.112473050926471 0.224675302781638 0.0279753882908181
-0.15584780150947 0.177017773632823 0.110397223809493
-0.15176809065239 0.170862387972627 0.121061553657969
-0.149669741454366 0.167700376496977 0.125685240019237
-0.150391517707635 0.179682056673407 0.126995690532422
-0.139853643256229 0.187741778939627 0.126920618139766
-0.134879815201271 0.197441707910526 0.125788279783567
-0.126732022978422 0.199961664882564 0.126420802454138
-0.312745660825871 -0.0167171118197504 0.523666909539402
-0.307287145705295 -0.00593274304060579 0.525722144050993
-0.303400600689325 -0.0105007449413451 0.527950916677774
-0.303347379278599 0.00241860427026579 0.527170068057412
-0.296040101346854 0.0128607651528582 0.530171071968122
-0.287012397773002 0.0156543977137178 0.534510321719994
-0.285521384323133 0.0145161440096079 0.535326969301436
-0.283345805683912 0.025085096473787 0.535754199092036
-0.270924311571471 0.036865530032726 0.541228669050822
-0.266134446529657 0.0366809385832143 0.543635138537323
-0.264635332475227 0.051796149604787 0.543439994875691
-0.258341011298746 0.0516861616483875 0.546594029711206
-0.249897380302302 0.0558950428209898 0.55055279013614
-0.252770794400542 0.0659048624910339 0.548490469357642
-0.243230806298671 0.0676275504079916 0.553152795413769
-0.23153416139769 0.0827668689223132 0.554520682588854
-0.226773118355584 0.0839121731431859 0.554007584809466
-0.225850287040897 0.0960008506906394 0.554733755640416
-0.215429970554735 0.100845984306335 0.553940670984622
-0.203609720670905 0.114644334775755 0.55386225232622
-0.196854371018244 0.11899772535053 0.553468025535804
-0.191042822303301 0.136805422481182 0.554519859977205
-0.181827488205672 0.133782978587166 0.553095690620202
-0.178492817478407 0.143326710521209 0.553632532454923
-0.163128396435866 0.15518272556912 0.552929240407137
-0.148231684018609 0.171484861899528 0.552722840743608
-0.143794655247744 0.183802961602672 0.550958683472434
-0.130482977169638 0.197088099878975 0.545299949381955
-0.114912830550477 0.223221316571931 0.534930554271915
-0.107637008855196 0.236003397305588 0.529883138474008
-0.041235091100612 0.302728766037671 0.477326961478844
-0.0363444180303211 0.306965758672845 0.478192864183888
-0.0326125741389851 0.318926266561933 0.484839486886053
-0.0213614218900322 0.32244709647339 0.486852766290462
-0.0251655317345087 0.330203100088888 0.494297519804204
-0.0180559588568601 0.332749884084432 0.496742100807452
-0.0129403407641986 0.337357249675807 0.501164571821642
-0.00322472184490734 0.340703587024849 0.509934946123042
-0.00379805969749381 0.3450610653393 0.523797405596382
-0.00836848562117337 0.345268904925768 0.525303278268389
-0.0103099155111805 0.345268904925768 0.542154057205051
-0.0159051970304829 0.345268904925768 0.552396015594661
-0.000926417979501926 0.345268904925768 0.555537612866458
-0.0114709393919951 0.345268904925768 0.574038919800454
-0.00420219972763809 0.345268904925768 0.581512556409307
0.00202713838599651 0.345268904925768 0.58593946766109
-0.0913206746696955 0.24909542168095 0.697772837237023
-0.0813712825275996 0.24773759042988 0.702625858830095
-0.0977930137989307 0.243357971826261 0.722661957831376
-0.0898912688543559 0.242277791330039 0.730383299151877
-0.096949967776352 0.239693102749225 0.748859158334192
-0.101601363400719 0.238497913276008 0.757402606302066
-0.101563559466773 0.236027581160654 0.775061023117004
-0.102700559392378 0.235689909309857 0.786005191738026
-0.096817581661505 0.235689909309857 0.78781237704758
-0.0974456259692046 0.235689909309857 0.802005005010749
-0.0979273529749265 0.235689909309857 0.807104101755225
-0.104802370260618 0.235689909309857 0.830742841931776
-0.0983515147668651 0.235689909309857 0.830402280042401
-0.0979600479030401 0.235689909309857 0.84053914721711
-0.0971475394679391 0.235689909309857 0.85190191719941
-0.10130238293396 0.235689909309857 0.866939673378369
-0.09718616319549 0.235734929032701 0.873164534068962
-0.0994213753626981 0.237117105322041 0.883044600347174
-0.101133077093516 0.238893875958797 0.895745304148649
-0.0966970116163461 0.240426536189936 0.90670105905663
-0.0952297562662806 0.240821309048454 0.909522972612144
-0.0887272732538051 0.242197276271526 0.919358655271041
-0.0904943280181064 0.244017843323499 0.932372424408989
-0.0949045277833921 0.244484762302407 0.935710052534828
-0.090693836338649 0.247117681661373 0.945476018445923
-0.0890027190616658 0.249853792150503 0.955255144735962
-0.0857924827027845 0.251242903190432 0.960219963351411
-0.0805218531708516 0.258333449494085 0.975922497842322
-0.0758532041790121 0.259560786049202 0.977872107085167
-0.0767205927421782 0.261861840087394 0.981527303536738
-0.0710099279699825 0.268558576146539 0.992164987604218
-0.0665367957943394 0.276754724121914 1.0
-0.0636562674747267 0.284050415536602 1.0
-0.0406562537977933 0.300753601083079 1.0
-0.160796760104061 0.189566072953157 0.045985127229159
-0.154226984848125 0.194339294076032 0.0503009016395429
-0.132853536829699 0.20986801303153 0.0329735179382338
-0.132000833124541 0.210487538537114 0.0537759137757305
-0.138963634545014 0.205428767191085 0.0596357524756962
-0.161722960522342 0.185855094241646 0.100949346778432
-0.159306763125198 0.182211435664837 0.10686004044928
-0.160039820034697 0.189344634928801 0.123893789253591
-0.149988486873252 0.194904121812587 0.124218116532956
-0.147253234871675 0.193354227523964 0.124876204334024
-0.137921700757875 0.207993901421641 0.123413873123364
-0.30189373275591 0.017207806164249 0.526972566200383
-0.296670385203215 0.0182925008622392 0.529516446558105
-0.296149580484795 0.0278147872181914 0.529181706020069
-0.288754605456719 0.0268773684625833 0.532937782206332
-0.281555426383528 0.0378960081234416 0.535848706764124
-0.276285593105134 0.0367618475180227 0.53855450844116
-0.276618706906352 0.0407666194727825 0.538137653293378
-0.269611998822146 0.0586219011913898 0.540525052228068
-0.265804889758924 0.0603221827200881 0.542322339164135
-0.258997073577983 0.0692793598963255 0.545166423681091
-0.249525893597225 0.0773639925189044 0.549396724132559
-0.244519079868123 0.0854676129788294 0.551393654718365
-0.239686920987667 0.0865625545955084 0.553741300307551
-0.237236979783432 0.0972965804059364 0.554739181519831
-0.224574639132266 0.101189817534572 0.555091259402672
-0.224571520665094 0.11279316946669 0.556238614631633
-0.215226129187444 0.116567452098333 0.555470857669511
-0.208868687541289 0.132618344776784 0.556282264858835
-0.195355245221861 0.143316991404438 0.555690500084733
-0.193299989167081 0.142521649196814 0.555360879463773
-0.189321360560918 0.152405330247249 0.555852718813986
-0.173882697561752 0.165821030216088 0.5552946366556
-0.167872649747236 0.175367361073536 0.555505067804229
-0.148092203075159 0.193045494783315 0.547995037900276
-0.137757804720311 0.211289154560504 0.540794549728735
-0.125598647431688 0.226211452016578 0.53463893994993
-0.108946865119931 0.237392989287996 0.529485200853974
-0.0342697633284122 0.321189060459522 0.486096953327235
-0.0395275979874984 0.328797452764759 0.492948281411059
-0.0285277338680662 0.33305729597915 0.497037176196381
-0.0299595567446995 0.336109478109585 0.499966873598112
-0.0195679309407439 0.337808927727938 0.5015981239359
-0.0185575016566567 0.342706942863115 0.516308228355231
-0.026011370871078 0.344623738541248 0.522406136477614
-0.0190804655771504 0.345268904925768 0.530231475960321
-0.0227321054926623 0.345268904925768 0.547481406107078
-0.0197096117173901 0.345268904925768 0.553915607614713
-0.0153124499364907 0.345268904925768 0.562697565558139
-0.0168499066737359 0.345268904925768 0.582422961933821
-0.0840568358109149 0.272245099795462 0.659749082224885
-0.0947934096407155 0.250786453471663 0.691728924351357
-0.100287344579656 0.245799034128396 0.709554448507986
-0.106231128509439 0.243626058928761 0.720745618822042
-0.11166210517488 0.242108548598092 0.731593079280246
-0.106737731026372 0.241080648179821 0.738940712384821
-0.111749894722621 0.237716472178994 0.762988500005033
-0.11332804006019 0.237154515931073 0.767005473105887
-0.110009898852603 0.23582848588492 0.77648419506338
-0.107900618980932 0.235689909309857 0.789688176082811
-0.109710414728579 0.235689909309857 0.797810747516206
-0.118285714132662 0.235689909309857 0.809279227726612
-0.111432083046852 0.235689909309857 0.815806970302994
-0.11777360887743 0.235689909309857 0.825179489941862
-0.116114151841195 0.235689909309857 0.846427437314224
-0.122172364359333 0.235689909309857 0.852708024594516
-0.113998523221653 0.235689909309857 0.854430015832635
-0.120650504012827 0.235689909309857 0.871810241115677
-0.111233831492473 0.236254326552093 0.876877289059704
-0.11222825870984 0.23780903316325 0.887990635801268
-0.107259626320796 0.238688917232583 0.894280219112168
-0.107661042398485 0.241480110043369 0.914232210893905
-0.103601573544914 0.24173063810713 0.916023034462223
-0.104992090819803 0.243547019817545 0.929006885960642
-0.109069889007861 0.245096147061135 0.938250856218756
-0.108113214014399 0.247553580154722 0.947033962261801
-0.104767502664862 0.248406470532956 0.950082275827148
-0.102312849446506 0.250747675796703 0.958449972247323
-0.104817836483782 0.254774482578034 0.970269122029806
-0.0988078037874915 0.258852863734517 0.976747581068099
-0.0890224773148334 0.264240950959975 0.985306492323709
-0.0904736413895162 0.264610139201834 0.985892943371448
-0.0791645784809834 0.267000683199495 0.989690293539043
-0.0836218627542673 0.273508274281533 1.00002752310277
-0.0691325772121327 0.280268393840504 1.0
-0.186601538464735 0.170817804048375 0.0313769541278114
-0.168297575560009 0.184116411529691 0.0295272075320611
-0.170718600426196 0.182357434003048 0.0361862399588211
-0.164870942937961 0.186606005857459 0.0542210181018694
-0.183510946989541 0.177729639158295 0.0739376093501986
-0.160571958915647 0.189729400576886 0.0558103887755669
-0.16113115604301 0.193222882684971 0.0733173955935095
-0.165943598241399 0.194238809147355 0.0769679799183368
-0.155365715229001 0.204044111973689 0.0786831129046707
-0.168242835888111 0.195604038125872 0.103191739640652
-0.167347871869791 0.194206633477773 0.115840164065201
-0.162384716766965 0.18675404205015 0.120996390608066
-0.153791008836305 0.197877668876348 0.12315089359978
-0.155123331331243 0.207303986738964 0.121217041336522
-0.143482976600067 0.215055067734049 0.121348416571338
-0.306757604751904 0.0184837108719266 0.524460886158156
-0.300488539701356 0.0279187452058477 0.52700572903756
-0.299641560433568 0.0240468799094201 0.52767121025248
-0.293329215132501 0.0329804282978261 0.530269036128739
-0.285039755971495 0.0444777079730661 0.533695185729539
-0.28815515873525 0.0473760351936948 0.531956338896373
-0.281766674916411 0.0609487491289722 0.534302286184837
-0.275237618412334 0.0672542396517086 0.537172721279204
-0.267852436818331 0.0654380360998463 0.540978824798197
-0.265379646140675 0.0724512249281626 0.541776895835256
-0.25190407181032 0.0814935440408835 0.547949538055888
-0.252143272712296 0.0834716314714493 0.54770630714049
-0.248769110670698 0.0910950146322982 0.549098215528789
-0.236490710065484 0.0996193256118585 0.555065461412756
-0.234352103342035 0.105183198260027 0.556022529018548
-0.226066789285821 0.113566354411459 0.55649766823743
-0.220516595106349 0.118958948082396 0.556353384746853
-0.222175269226178 0.127701277646627 0.557420651797348
-0.209411187499959 0.142674325097648 0.557343183968658
-0.19351325425844 0.149313847404652 0.556058764158363
-0.192032872330513 0.164058774417003 0.557336489503218
-0.180793868240625 0.174609429606618 0.556869049605364
-0.164860969846211 0.18126003724653 0.55337097729456
-0.158974279205541 0.201947114359012 0.545624688212941
-0.1542126204357 0.208903112540478 0.542820313470973
-0.139784117509613 0.228489426272467 0.534850636575249
-0.124022377602165 0.234686096769109 0.531525554899971
-0.0425747389931707 0.333389863633307 0.497356397838683
-0.0459639906523355 0.330527529318208 0.494608929618418
-0.045224409090689 0.339100260411691 0.504834278123451
-0.0312387372286223 0.344777072599969 0.522893938601114
-0.0406463807130966 0.345268904925768 0.535916318674135
-0.0339084227303441 0.345268904925768 0.539045382825253
-0.0350966756605237 0.345268904925768 0.548291261199336
-0.0434602423450533 0.345268904925768 0.569438369316399
-0.0293026774892632 0.345268904925768 0.573297954687027
-0.034086860304011 0.345268904925768 0.578087830250247
-0.109904317661893 0.253400583234773 0.682385769097368
-0.122525581114536 0.248956846224289 0.698268119462198
-0.118940505850173 0.245261684946386 0.711474986999982
-0.121361653076465 0.242949334313274 0.725582978647035
-0.120075470710231 0.240758639764394 0.74124249147849
-0.118119017852534 0.240003513417191 0.746640282206287
-0.124238903489646 0.238978979077177 0.753963853925551
-0.12856697915279 0.235689909309857 0.782418447702938
-0.133652647829569 0.235689909309857 0.787317188332198
-0.121596196569692 0.235689909309857 0.791790902272271
-0.128749986693868 0.235689909309857 0.80289700014895
-0.126663356449162 0.235689909309857 0.812550746223012
-0.123023497847979 0.235689909309857 0.829520168859226
-0.125487682024244 0.235689909309857 0.835032680025451
-0.123473046637876 0.235689909309857 0.843032301246458
-0.130502158548002 0.235689909309857 0.860170769352814
-0.126946010330751 0.235689909309857 0.869732013765245
-0.123286326244821 0.235729490538375 0.873125658648507
-0.123749454190452 0.23744119273701 0.885361240535932
-0.13072319900998 0.239751207754287 0.901873679398026
-0.122640361876578 0.240773916220642 0.90918419941548
-0.120669984696846 0.241023937585635 0.910971401001959
-0.118544096363609 0.242531753657828 0.921749565005719
-0.120796058875487 0.243861569368058 0.931255347629989
-0.12539989560837 0.244693663157719 0.936812339412932
-0.116221558808677 0.247756297561744 0.947758494086204
-0.10923206459579 0.248662173627334 0.950996183676489
-0.115319224955856 0.25259637825909 0.965057415522809
-0.10739005693566 0.254740777209118 0.970215581459783
-0.106112645717399 0.259668610820443 0.978043385427479
-0.0978357189041439 0.264341228220358 0.985465781536495
-0.101091810002731 0.268018594903554 0.991307233944151
-0.101511105487222 0.275279275109651 1.0
-0.0905489046172375 0.277263899641067 1.0
-0.0804016216474364 0.291844258182304 1.0
-0.191997023057946 0.176834238141732 0.0263294464266052
-0.189778693646097 0.173780969645614 0.0378393841408774
-0.191800768204043 0.176564116509015 0.0565576460330877
-0.189953162759654 0.174021105779194 0.0515552343528216
-0.194093236679032 0.17971942867124 0.0663584636966505
-0.18853441830462 0.176363851997825 0.0719477387539613
-0.185161975217939 0.184790291400482 0.0773792384823438
-0.173118839259512 0.195759944748234 0.0824161053222872
-0.166433320320338 0.199627175006077 0.0816151108856747
-0.166991851245649 0.203718053300345 0.0852529971885041
-0.171124346038167 0.19992443972627 0.101604656273898
-0.172457749687961 0.201875862230958 0.111336746526884
-0.169068611598321 0.196772830191344 0.117912818547236
-0.166634633178223 0.207549800156646 0.119615294870313
-0.153551074943482 0.214271921615086 0.120133188813761
-0.30636095394118 0.0359115509013789 0.523569971561677
-0.300794769963254 0.0437352124092152 0.5258640847064
-0.297123134694991 0.0497235984818624 0.52732562821099
-0.287588473265209 0.0621632698447186 0.531315479465704
-0.286428864554547 0.0701379898699274 0.531396863819459
-0.275260334663981 0.0709758415650996 0.536928763033793
-0.268699501912758 0.0828816527698325 0.53946506620911
-0.27107052400014 0.0839036897604298 0.538215677853506
-0.265050699818887 0.0939430543719767 0.540899969622984
-0.255449224109732 0.0955554302977668 0.545668182248764
-0.249101237910075 0.106764079596156 0.548616071822047
-0.245612880180677 0.111086188980218 0.550273064073281
-0.236909247604127 0.119477577018659 0.554455607295945
-0.232283288102044 0.127716679334159 0.556602385925022
-0.234470899567348 0.128054049524916 0.555501774681032
-0.227610473892318 0.140014594526838 0.55869071657391
-0.212439689915676 0.150722304650375 0.558509028152306
-0.207728777544386 0.155572469463177 0.558413568388793
-0.189364987496707 0.167948941018145 0.557395529187737
-0.191419904647093 0.177709583055499 0.556534195264215
-0.181052497376664 0.192988490770904 0.550380938580766
-0.158885154621626 0.208044016911938 0.543459826440693
-0.152104899333969 0.226649207855122 0.536386444707152
-0.12950099396634 0.240802904979615 0.529753269697176
-0.109139273398511 0.27798502335033 0.652910732974343
-0.125574274772543 0.252812620841502 0.684487204152874
-0.125840506386157 0.251831520244815 0.687993753569045
-0.125640749945907 0.246140495415332 0.708334032497242
-0.133996331982573 0.243306863106561 0.723027292949565
-0.13650284527445 0.240420043034723 0.74366284708474
-0.140402687672985 0.24016946297861 0.745454042304547
-0.144693193842809 0.238063305194584 0.757398102030143
-0.133523900020463 0.237515983053175 0.764421635464254
-0.140673425144777 0.235689909309857 0.777993816723313
-0.142575065460841 0.235563639994692 0.794624654107297
-0.142622038603774 0.235558396770381 0.80361683434939
-0.143275583423467 0.23548544695537 0.817797664836757
-0.134719851175229 0.235689909309857 0.817508710220463
-0.14797048102337 0.234961394279729 0.837817783251856
-0.144033401201312 0.235400858010525 0.842205316994896
-0.139596340961372 0.235689909309857 0.85186463007494
-0.142690323309703 0.23555077471216 0.866208691525281
-0.142338174963183 0.23637378645211 0.879840708529735
-0.136800034127275 0.237853387267338 0.888307687606799
-0.135965813281059 0.238387130857697 0.892122991116917
-0.143617779237644 0.238960765514842 0.90421619277546
-0.13024160118379 0.241185541165891 0.912126574980879
-0.133650814314394 0.241798204027129 0.919618535049476
-0.135149599860768 0.242639156977452 0.928621570330024
-0.129521013351674 0.243875405237158 0.934050408092459
-0.133594884262299 0.245818696748938 0.943075950132006
-0.129106930396091 0.248862443291811 0.952703641449185
-0.119899165524904 0.250069109813742 0.956024711107517
-0.126536740272535 0.25366724536909 0.968522902005529
-0.119313048586235 0.255585946135814 0.97155812205664
-0.123324961977629 0.261204327071169 0.980482852079327
-0.110279396460694 0.268538163055163 0.992132561655969
-0.108990259694267 0.269383351341697 0.993475133005693
-0.0998219884551346 0.283957156125832 1.0
-0.095576788027489 0.289235380711163 1.0
-0.0880221923299384 0.296468762065615 1.0
-0.194057388843583 0.17967008835864 0.0283210934144779
-0.19819703631974 0.185367824301947 0.0385029773087629
-0.197591821316522 0.184534817313519 0.0438072677413756
-0.197026446356543 0.183756645440317 0.0598237307347606
-0.193290033531452 0.181924403351154 0.0715383497673769
-0.199043919438459 0.189864943407051 0.0715470760714929
-0.185535885918488 0.194231341406814 0.0810892933059948
-0.189631069047566 0.196922724942349 0.0798652085976386
-0.183984526126762 0.19776192977171 0.083444173995379
-0.173778524890967 0.205427029390059 0.0906246945689025
-0.180035854240578 0.213271836480614 0.0997828696287328
-0.177476083449426 0.209384056950966 0.112087861927666
-0.175854700960848 0.206933490828666 0.11725783882672
-0.164641608083026 0.222866945430139 0.11703495501449
-0.163449150891499 0.227406665719386 0.116351531364571
-0.154541846101814 0.232619209475658 0.116585765791113
-0.296928395990757 0.0591626947016486 0.526833054049372
-0.290153604227829 0.0626320917639396 0.530003612614443
-0.290959627761453 0.0750604005488036 0.528823831548577
-0.283948652053192 0.0783681353179574 0.532122585979635
-0.275617307241094 0.0937027590884262 0.535621513205213
-0.272484886390548 0.0983086205195887 0.537094813103567
-0.264047199648983 0.103350341742845 0.541211953680544
-0.266576449457698 0.105590066809696 0.539902148512033
-0.252389345438139 0.11101486276586 0.546886270253828
-0.248216354872075 0.112109072434787 0.548950692880438
-0.241189546553368 0.12313878604838 0.552241603046231
-0.236536006584234 0.138575712509473 0.554256975696565
-0.229883301038534 0.133948606560286 0.55767666754578
-0.227603231204883 0.146187034181504 0.558569826004002
-0.22484868817357 0.151281589907673 0.559844328935756
-0.21027234740636 0.16708561390245 0.559862955474295
-0.20479510895857 0.17293258531051 0.559185382007665
-0.198045269617028 0.187513701846975 0.553538812218399
-0.182235622854729 0.192108293131152 0.550777470479684
-0.163855905481122 0.220984652466673 0.539235273788754
-0.157470498673289 0.227073226046302 0.536621446063087
-0.120399829371406 0.26974520742384 0.662727368775656
-0.144939178202051 0.24727171771028 0.702199251496804
-0.145176396690082 0.244653056388678 0.71141664656492
-0.138586318784204 0.244866516039883 0.712887359291943
-0.150289558028461 0.240588340576664 0.733990288610819
-0.146280238066184 0.241366324927475 0.7322679195559
-0.150100627156934 0.237973246830355 0.752864386045718
-0.158353529481789 0.23502293136048 0.76657637491954
-0.153571775616494 0.234336167987545 0.779747773629394
-0.163236032537659 0.233257426739234 0.790926060961431
-0.156747181476815 0.233981723635579 0.795944144085726
-0.157906799058964 0.23385228509433 0.807953304201575
-0.153809845977207 0.234309594157792 0.814952349572033
-0.148405377606233 0.234912850363057 0.829030061101211
-0.148969327577458 0.234849901281622 0.833423105960071
-0.150896769139926 0.23463475688572 0.849414149363042
-0.161108536743102 0.233494901538167 0.865497625777406
-0.160955334939183 0.23351200219128 0.872339393711412
-0.152834837120524 0.235817273352985 0.885333543789072
-0.155314012190655 0.236054562242051 0.889923406247905
-0.159622646508668 0.23724848261437 0.904878826494571
-0.145450650509172 0.238562411488838 0.902485987277755
-0.154918979703097 0.239701845434418 0.921380401870509
-0.151595968697111 0.240676530524018 0.925753030589335
-0.14285339644303 0.24173291180991 0.927719413037843
-0.144959977203886 0.24577287646392 0.946080049529614
-0.14932025450187 0.247206921447501 0.952420834633104
-0.137010203808212 0.248689241544404 0.954287531791198
-0.143821752299365 0.25499208529584 0.97084815406265
-0.138344002893645 0.255537878144579 0.971645178930074
-0.135261986600164 0.260323626635598 0.97920791965786
-0.124022070637692 0.264672530498486 0.985992051190016
-0.131413051206413 0.268216597805689 0.99169665105203
-0.122818818410072 0.271192330191848 0.996348673984868
-0.116330180900248 0.289726609437314 1.0
-0.100327554394135 0.302934760050388 1.0
-0.202584511478049 0.191406665786359 0.0239594485649577
-0.203050639332274 0.192048235737543 0.0429089273803514
-0.204210176402916 0.193644201597691 0.051259085011398
-0.204152474872955 0.193564782255069 0.0624448590898234
-0.199370759791332 0.187808351611048 0.0705053283702999
-0.197525829380714 0.191719556105002 0.0731863437959428
-0.196721031204421 0.198233154733054 0.0763539648213469
-0.190074261684624 0.202420441961173 0.0818966744852657
-0.188910020568473 0.214085844593056 0.0874111474652193
-0.186501623919631 0.217257967579782 0.0901073179939234
-0.18168477054595 0.215730654170674 0.101827307947876
-0.180458647403688 0.213855325791326 0.110586971866872
-0.180092704640023 0.224968177060083 0.114555457051575
-0.174676510246836 0.224973540373791 0.115286580516142
-0.168573578673307 0.228841607257248 0.115391879226595
-0.164258020109832 0.239005582457008 0.114084225423694
-0.302339435634626 0.0698628554026538 0.523458774183624
-0.297398478115045 0.0725936756327272 0.525758576679035
-0.291285000708133 0.0777918372912424 0.528490430278834
-0.282303791626973 0.0908832875495738 0.532335146059477
-0.282683105667746 0.101809483976604 0.531925083218718
-0.275440882506697 0.103249337609652 0.535517149730968
-0.271089708964418 0.106967759823828 0.537617727609116
-0.26594455922407 0.116701175210018 0.539993957720385
-0.264359747625189 0.11707143226728 0.540778894606832
-0.256688823763401 0.134123262041229 0.544270382991647
-0.251099288284462 0.137560545245171 0.54699581304078
-0.245736598485827 0.146698318269188 0.5494928286199
-0.242465389815918 0.144959806432712 0.551163502627097
-0.239080687708405 0.15569596467189 0.552639281355786
-0.224487266505726 0.163246774088131 0.559783675242432
-0.215095403309502 0.176678589948633 0.558598499168909
-0.214507856869386 0.180365406084769 0.557251097628196
-0.202462666611939 0.194265966624623 0.551465389725016
-0.186854228426701 0.205610472251698 0.546328841372521
-0.167758376901309 0.237762502945835 0.533601209452147
-0.170456977179603 0.23307644808962 0.535428248951315
-0.137958669280244 0.26166324835523 0.672355939297799
-0.158056461383376 0.243778668422338 0.707225669837259
-0.163970018703728 0.240335063953499 0.722702089270304
-0.161469580343287 0.238716421671397 0.736666562615067
-0.162401603045977 0.238889226878572 0.734538930751567
-0.171927828248641 0.234777959454217 0.755234157476451
-0.167514722735094 0.234238908849763 0.764446132307566
-0.168158406166055 0.233133150793906 0.773678286004413
-0.172171963600047 0.232259982496216 0.784165881765183
-0.174977829969371 0.231946786788101 0.800152803593383
-0.1739491943011 0.232061604899198 0.811380373381359
-0.170960499948149 0.232395208186385 0.817046854793734
-0.171104597032932 0.232379123817935 0.820427917491154
-0.165925150285691 0.232957262716275 0.835079857644059
-0.168202953400983 0.232703010351501 0.852628475404865
-0.178315432458943 0.231574237764897 0.868833731714023
-0.173761658708 0.232218198933076 0.874054091116996
-0.166594377926774 0.233637443136978 0.879583332480269
-0.164102370286566 0.235242986567714 0.891436007380827
-0.166605628227208 0.235359085433742 0.894967723217718
-0.167228174816272 0.236594969263454 0.90662388403243
-0.163612800360305 0.237707911751574 0.912958271104543
-0.16085505304201 0.239915201917964 0.925931421467506
-0.162546811011104 0.240616436535638 0.930917708815794
-0.155524356737088 0.243714546231629 0.941559484178092
-0.156994036233103 0.244863020468899 0.946182466084253
-0.150070982388821 0.247528603050025 0.953779811339112
-0.156891824507474 0.253522065213177 0.968679972700855
-0.153470321638968 0.252133772193856 0.966430987478623
-0.147099655456503 0.257690616845669 0.975176603290961
-0.145907791820779 0.264324163984392 0.985698690337188
-0.139836862382738 0.26697655852954 0.98983445051959
-0.136038600619322 0.273157703207634 0.997902116069194
-0.133672393418017 0.281831934657735 0.998375357509455
-0.111975010440874 0.296469485776761 1.0
-0.209720515110137 0.201228532169982 0.0386722718000493
-0.209301391215665 0.200651657619194 0.0479104761472312
-0.209921754827536 0.201505514878692 0.0580056956260723
-0.211051496844825 0.203060471366085 0.066982332192493
-0.210626289645666 0.20424448410812 0.0708977735910356
-0.202679029751276 0.205171597320255 0.0758294274601103
-0.198749115048663 0.212596964035791 0.0811637624076934
-0.192789254030288 0.214385838127374 0.0853166731232173
-0.189731047083201 0.217179143209036 0.0882271281168446
-0.189224533765597 0.227021651337213 0.100688671670288
-0.189859638970803 0.227935949020675 0.108644855626172
-0.187265612937238 0.224036035178433 0.112383223269442
-0.172117549477454 0.25234882795762 0.0926408643567921
-0.29375305426904 0.0903335802014819 0.526621603565175
-0.288808562044706 0.100730600221481 0.528884118528701
-0.285725406024946 0.10255921395529 0.53038880930954
-0.27666913366142 0.111812439881931 0.534730287227828
-0.276174672184001 0.120865317117929 0.534794901184271
-0.270731249111977 0.128175045800645 0.537369159143207
-0.264012834239291 0.137133724881067 0.540547649984772
-0.25761936832847 0.136524225220344 0.543756677911596
-0.252924850562618 0.145378787626214 0.545925320465946
-0.246261987916309 0.147904686722152 0.5492057987547
-0.238860586033471 0.162399343729776 0.552614110044321
-0.239597224073976 0.167226249814786 0.552148421532074
-0.230629180756618 0.166376592278337 0.556649582683679
-0.222705859311584 0.181137951938244 0.556543260257494
-0.218279650916318 0.195075758777072 0.552313963340849
-0.203556311557594 0.1991801846701 0.549804122660589
-0.191206390341513 0.230388911122802 0.537868993916108
-0.178247881381778 0.231181851506647 0.536658177165052
-0.171787536880381 0.245518726177545 0.692398004907729
-0.173799473877272 0.242172816517606 0.704862789142638
-0.181276793638231 0.237609772091295 0.725612240466685
-0.180839072128502 0.237270404985661 0.728457209347576
-0.178361542727044 0.234775854882516 0.748840391800963
-0.185594723517387 0.234098637184111 0.7476781222104
-0.185958257195437 0.231473843202454 0.770753535039627
-0.185068526130201 0.231227462193645 0.773840367024522
-0.18507888105485 0.230819289811759 0.784186795576688
-0.177972561066446 0.231612509668984 0.791364966765256
-0.186625410469179 0.230646663495575 0.803777473426051
-0.180723344317936 0.231305462434753 0.818942805873873
-0.191894861916703 0.230058478115283 0.831190059291705
-0.189697619924258 0.230303738106724 0.833524516332019
-0.177866557234695 0.231624342001952 0.840355237497729
-0.181588422324098 0.231208900915759 0.853941568223095
-0.183341832568442 0.23101318219975 0.869856767926088
-0.183023104879319 0.231053978801767 0.872889332557487
-0.184617796426291 0.232553024182932 0.887864307882564
-0.181046420025682 0.233831726134582 0.895722675559067
-0.182346438170081 0.234436738707035 0.902420798621907
-0.176151246833981 0.236467623010399 0.912375401707607
-0.184993203051841 0.237499887043558 0.923673237472486
-0.170250069261264 0.23944567491366 0.928028761553054
-0.175865027543294 0.241144811971712 0.936944559493752
-0.169394459971607 0.243726717901293 0.945577659653399
-0.173500759741386 0.24565519469066 0.953614799559245
-0.174191707886117 0.250424262556601 0.963980100548709
-0.16559911181814 0.25327518301481 0.968399010636638
-0.160960538033747 0.260966574022786 0.980557449320539
-0.160197060895889 0.263224711871044 0.984134722983726
-0.158030748079575 0.266358166696401 0.989084510386806
-0.152335022538114 0.270421931500061 0.994642831685435
-0.138521097186586 0.283301933228859 0.997405616755741
-0.127604780103905 0.287992078884524 0.999588880172277
-0.123264157143565 0.303710333357823 1.0
-0.214479766873445 0.207779080251972 0.0255065412819549
-0.218114997213538 0.212782545568823 0.0297249487325864
