ply
format ascii 1.0
element vertex 850
property float x
property float y
property float z
end_header
-0.110713121632838 -0.229610659946145 0.562191764731039
-0.104877073162863 -0.226942148983661 0.562821443705911
-0.0992008766263041 -0.217453081309918 0.561498527737405
-0.0862331094685338 -0.206638598784292 0.559887817609058
-0.0848152065345285 -0.203572963020167 0.55943122150625
-0.0607841342070582 -0.176169178399513 0.551633402808354
-0.0553746272476646 -0.177734567644486 0.551250017132658
-0.0487783982265005 -0.170649046861725 0.552985360071595
-0.0391841856133466 -0.162780042713289 0.553516735946847
-0.0315554365350291 -0.154814818008361 0.552399074876801
-0.0238501820990051 -0.147513963499597 0.55137463662618
-0.0153511017061439 -0.137518251307456 0.54997206246181
-0.00653075920685468 -0.132226103888005 0.549016612341118
0.00621394743379129 -0.115890254999752 0.543098408683218
0.0181134614336116 -0.106595772254991 0.545323830714228
0.0271462558113319 -0.0920233477568081 0.543434506162428
0.0363194682329302 -0.0890825856624485 0.543006294062788
0.0505524411354412 -0.0728405672057263 0.540641251056047
0.0488521068869906 -0.0723578549288117 0.540581885526459
0.0704125300787962 -0.0565454706569215 0.534101226602345
0.0766332986352987 -0.0507440333116303 0.535532192324587
0.0851332407021305 -0.0434655866473677 0.536483855671999
0.0970387098711789 -0.0299420914821485 0.534608626551992
0.100338931248593 -0.02516344143152 0.533945997281987
0.123444257077793 -0.0143980046774154 0.532453213039137
0.139595535936471 0.00269189541008509 0.525447287311902
0.138518806137651 0.0131421017717694 0.528065541197581
0.153324320533941 0.016477020656654 0.528234825775187
0.158500650573404 0.0319127272559418 0.526152095734496
0.167032488065904 0.0329564386089113 0.526011268427714
0.176048909216148 0.039227764879188 0.525165082376297
0.201113671731833 0.0669242785467234 0.518752545339429
0.206652168220811 0.0674550289003055 0.518923677110832
0.215184074504796 0.0742683892134564 0.521120533715315
0.218915268364306 0.0830369362719224 0.520804756790861
0.227315039903148 0.0987762480801769 0.519737173082856
0.256378838949442 0.120458072434624 0.51367849752592
0.257190543473443 0.117002005161832 0.515170795186135
0.26224607722382 0.124932633519708 0.517559210776793
0.275456019496872 0.13071798584215 0.52523978013902
0.282182866120144 0.135777950183299 0.528438482331115
0.288818193510809 0.142748492501779 0.532662600039675
0.298114403509838 0.153365399325922 0.539096398455487
0.300237986169249 0.159672422332355 0.542918426405756
-0.00881341422221922 -0.122033691227349 0.0946905528091017
-0.00906508914112198 -0.123673741523472 0.105353704869431
-0.00907179628251226 -0.12217430389508 0.114063742030253
-0.00914309527536703 -0.117003567780749 0.110359693484242
-0.00662945872254481 -0.120071645656919 0.135268243760336
-0.0084481660616989 -0.111888643407554 0.136008346984221
-0.295412347239565 -0.386814765880313 0.532115895501996
-0.291907802049283 -0.388297398676262 0.536861259634795
-0.293361906424208 -0.388964982763051 0.548578506906236
-0.294321570062833 -0.388026379542951 0.552736621670852
-0.290223475535011 -0.386516335753155 0.557093276762381
-0.285228652007192 -0.378458353625278 0.565808280256226
-0.285492307944401 -0.378558270524539 0.565700216461551
-0.280391487786639 -0.376470096576103 0.566655843315833
-0.269014780105281 -0.367940284519684 0.568276866303443
-0.268024356280194 -0.35764401726541 0.570050154185766
-0.25863308168196 -0.357039887782613 0.570280474047135
-0.249268587747504 -0.350746886965071 0.572679633692813
-0.244170380639101 -0.347707699496651 0.573458034216822
-0.241204181536849 -0.33637009802202 0.573282869701161
-0.233990986541938 -0.332746035727279 0.573226878394886
-0.223513567259787 -0.32793209176784 0.573152503566669
-0.222774776157608 -0.321529891629311 0.573053590380407
-0.215758559815105 -0.312743313853767 0.572150423580229
-0.201697803169424 -0.302611580115682 0.568037740126515
-0.197825820475341 -0.291325498143944 0.569779517370921
-0.194376566999662 -0.294555335848146 0.568938259480075
-0.180822900262681 -0.284293093912222 0.570456777221164
-0.174083210780889 -0.281816024317474 0.570146020085448
-0.162766225083356 -0.264454254961554 0.567967924755602
-0.157411207200759 -0.260595552007254 0.567483836831627
-0.153638699102644 -0.254140691968799 0.566674051825482
-0.13842739201702 -0.238743753097236 0.560036661449231
-0.134756889709862 -0.234492076141521 0.561039914433611
-0.128694557462683 -0.229608737902254 0.562192218268853
-0.116442289863862 -0.222051841874536 0.56218346760408
-0.106315915523249 -0.216947004385437 0.56142315258875
-0.106005097833034 -0.204658802170269 0.55959294649981
-0.0902582832635155 -0.199894433698989 0.558883340974657
-0.0736445860760327 -0.182834681145967 0.55190391626791
-0.0735294466252896 -0.17626530670933 0.551609859643527
-0.0679228900940551 -0.172178936780025 0.5526106686765
-0.0564880026083042 -0.166319177301935 0.554013338754415
-0.0478516369879889 -0.152375219019109 0.552056756245774
-0.0393655868852937 -0.139022467412624 0.550183130428372
-0.0246644192402255 -0.134521734269234 0.549551598436824
-0.0189692886932422 -0.124043483482665 0.544340041199023
-0.00203538891069734 -0.115970177554181 0.543079272447422
0.00108866505794867 -0.113878662918715 0.543580053703977
0.00862233715685447 -0.102104501095394 0.544902449402785
0.0231593573773733 -0.0908561586958014 0.543264548694787
0.0313878186039253 -0.0811465164640071 0.54185070216337
0.035900645665285 -0.0733728288105671 0.540718755067611
0.0536495389081363 -0.0591061473856325 0.533927356514869
0.0546111203463 -0.0567313720515054 0.534055372703124
0.0701478029784812 -0.0411753524600367 0.536166281421611
0.0776212419977656 -0.0379491469863325 0.535718921151392
0.0892951381024495 -0.0236102423731232 0.53373062366238
0.101276564940607 -0.0149946343901483 0.532535944418674
0.112714602580739 0.00672373493265564 0.526457447219854
0.125302559969008 0.00172532579573957 0.525502153312488
0.134408205748967 0.0141247353993126 0.528311735791684
0.143275982119124 0.0278488034337491 0.526700438382311
0.150615045684985 0.0293516440501425 0.526497661057023
0.166801380328369 0.0505350207089603 0.522746782781104
0.178800531993235 0.0566100296834177 0.51931764954166
0.190889432050004 0.0666707211315121 0.518670789897676
0.197446146812652 0.0752042083046135 0.521336043855315
0.213723217772641 0.082910316072421 0.520813345327877
0.216539281962791 0.0899113013386516 0.520338474640947
0.225386910238605 0.102846905904394 0.519461063934824
0.240936435487834 0.121453284300175 0.514281602126815
0.245694301322796 0.127808276774611 0.521376882761025
0.249651828640164 0.129879481786399 0.524126591485718
0.264180730070783 0.136685124939685 0.528988226207291
0.267201541790811 0.142572960482832 0.532556228415233
0.277420161043305 0.155161991077377 0.540185125083292
0.284614529068016 0.154142500369308 0.539567318238874
0.285020044049692 0.157483830002178 0.541592149167009
0.302500198288327 0.174333407114096 0.54698956493177
0.297214920907415 0.173048998522243 0.554337816328688
0.299048536624089 0.182462817201122 0.587986758869977
-0.00875754931470542 -0.109462133777602 0.0941490382492478
-0.00873878172528838 -0.101826935318062 0.0944772965877039
-0.00889072840100131 -0.0996535674731051 0.101388136735485
-0.00881285498569019 -0.105870901053571 0.127023218158989
-0.00880922289515412 -0.110210129263696 0.127269157307549
-0.307046743795099 -0.382507647965966 0.53484425157208
-0.30473831918857 -0.386631196663227 0.548397209432399
-0.303083070873429 -0.386779824088116 0.551290311224977
-0.297923614584902 -0.38407527305308 0.559733375688172
-0.300849141013423 -0.380057571540509 0.563008238166592
-0.288931874923144 -0.37223968845651 0.56745979875629
-0.292599409594028 -0.373108697153266 0.567294650560227
-0.2774256002397 -0.364371695386932 0.568955048305492
-0.276928616816675 -0.364664729139518 0.568899359569804
-0.272124606006452 -0.354011663202012 0.571434962092262
-0.263688121224322 -0.35002036564504 0.572956614529664
-0.261230653635078 -0.345158877158562 0.573418655232533
-0.254418809321168 -0.337543223771075 0.573300994346317
-0.240875572383494 -0.331449118702336 0.573206841190101
-0.241067348618188 -0.327872403280715 0.573151581387057
-0.238555679753849 -0.320306732398126 0.57303469272425
-0.229054184932412 -0.315190774749261 0.572955651822547
-0.219071832044029 -0.2980464278892 0.568028954122908
-0.204237075059914 -0.295874488877291 0.568594667016106
-0.202106250413302 -0.286013499529251 0.570672608186493
-0.192262930992067 -0.282783782820996 0.5702674288102
-0.193325419129042 -0.280129879548348 0.569934487264582
-0.17434465140147 -0.26475039174215 0.568005076161405
-0.167578575165258 -0.261111590536066 0.567548575688974
-0.160165919288057 -0.246827140475935 0.562893678670734
-0.159223385720958 -0.244235194797462 0.561462111475212
-0.148504286461234 -0.239538129194356 0.560055491007606
-0.135071019557241 -0.233716615487938 0.561222897106819
-0.129804278354529 -0.227818383883351 0.562614681694759
-0.119661186315975 -0.216603902633532 0.561372050978892
-0.11345435569453 -0.204122164608347 0.559513019646705
-0.0991367835509595 -0.189602465447537 0.555848284888276
-0.102109241097936 -0.195029808940088 0.558158803267819
-0.0867509377920091 -0.173596573228749 0.55226346972293
-0.0773459398386014 -0.171966567868099 0.552662680787262
-0.0745626683095398 -0.168819086708498 0.553433542855586
-0.0550528575007408 -0.149639227286734 0.551672848501734
-0.0561843175238091 -0.152326057738234 0.552049858053718
-0.0449789905563292 -0.141852948631236 0.550580296708638
-0.025254403746225 -0.12273563438238 0.543592572899428
-0.0158577913121631 -0.114228782686048 0.543496222869588
-0.021638709086383 -0.10920864151012 0.54469821905146
-0.00514674088945763 -0.096900902539859 0.544144739737177
0.00262737881534424 -0.101410810965035 0.544801439359235
0.0161818478442919 -0.0869404500485326 0.542694372064504
0.0259321904995428 -0.0752037428586125 0.540985359275506
0.0335945601634711 -0.0566395192422955 0.534078028850842
0.0432514228511372 -0.0471207862469268 0.536425891944907
0.0511364249025419 -0.0523445715101269 0.535137408211121
0.0618160224070686 -0.0302049989618164 0.534645082494463
0.0715336025831314 -0.0249806965771885 0.533920657052395
0.0757903252203435 -0.0203334448684918 0.5332762480719
0.0931542417928313 -0.00483006700247017 0.528054324074189
0.107654303447226 0.00965218143272159 0.527191156790979
0.115712558821799 0.0165704665780921 0.528222217176643
0.121246780931955 0.0226178385454855 0.52740624913639
0.131949350838015 0.0326330468154623 0.526054903476022
0.140482205203457 0.0333276594621148 0.525961179834897
0.148286194646241 0.048627804017385 0.523823340886516
0.174098192756737 0.0684651539162223 0.519249375402215
0.173622833321302 0.0699673317301478 0.519733728071082
0.196583544033272 0.0902873776630778 0.520312965713885
0.192120760689703 0.0920369356870108 0.520194294728436
0.212844022962708 0.103866303257244 0.519391919106946
0.218020945281251 0.106215734886878 0.519232559221239
0.2350100211509 0.125459767742494 0.518259028304862
0.239241722089877 0.128556865104592 0.522370700297403
0.241317743450719 0.13971050117142 0.530821590776594
0.254647647470131 0.141650741806706 0.531997367990463
0.262090825409833 0.146486008740913 0.534927518292864
0.26854739173072 0.153414422894608 0.539126106520535
0.270426342410763 0.162744885017815 0.543562179115155
0.282555082573994 0.170458936378115 0.544846692477787
0.282470291643156 0.17312154953419 0.553381767114179
0.284855312679361 0.173570466248436 0.564367090862015
0.286119399073946 0.17748332865377 0.576769417476155
0.293725032078698 0.178309690648173 0.579388679360276
0.301366132232928 0.184205300809512 0.586253881980777
0.296947129513533 0.183708245786037 0.594628591652244
0.289555844757354 0.183165170759977 0.62099103715775
0.289239738785582 0.180534867191777 0.637516177566436
0.281900638136796 0.178732174406308 0.648841771978331
0.29042111198918 0.1786695981881 0.65226244325504
0.286388836451691 0.173184193159686 0.687556438655727
0.28412797008096 0.171347038275917 0.701209861368906
0.273396411998329 0.171403300419896 0.717030672209616
0.284319558167517 0.172380471419028 0.720895580132531
0.279654385821564 0.171303041681522 0.731639502718025
0.271514157831329 0.168501237165534 0.746770265281481
0.270176673061898 0.168547046569439 0.755211158565349
0.284382244160592 0.168623955644651 0.76938251294005
0.27365507393995 0.172362083753692 0.781909953275761
0.277314002674506 0.173178115230747 0.783913104280101
0.276577180501615 0.175460149529222 0.799606787569107
-0.00876763678684158 -0.0942846274782461 0.0968557820492239
-0.00895917848587614 -0.0906623462127627 0.105699455210614
-0.00907551650423337 -0.0910091384513577 0.110690058630705
-0.308059497927356 -0.377431846650629 0.533653235213453
-0.307469640199445 -0.382320530835976 0.543289189822696
-0.309422295317218 -0.377323951509039 0.548638835753063
-0.306786582060306 -0.379173013667551 0.553871121292387
-0.30576158390606 -0.379706365947216 0.556819048398928
-0.300676975502841 -0.37057267717952 0.567046669141747
-0.30244732714291 -0.3742063443332 0.565569582833928
-0.297320270699122 -0.364686273270969 0.568895265278851
-0.290005538567136 -0.356474514015954 0.570496018580661
-0.2881214616932 -0.35889891409711 0.569571734124274
-0.281927795327933 -0.355551513663052 0.570847905583989
-0.269638655720553 -0.342263329054168 0.573373919378797
-0.26992826681146 -0.336736083225151 0.573288524126481
-0.258612327071989 -0.334977440201302 0.573261353313132
-0.249773308866888 -0.326806625820189 0.573135115259446
-0.247371898780165 -0.321356316975015 0.573050908673846
-0.24080704243774 -0.313373946500233 0.572413433631226
-0.226774777686072 -0.308591439562104 0.570418853425561
-0.22583544642226 -0.301278724901796 0.567870506209558
-0.217144135713608 -0.290948368124441 0.569877746332819
-0.209323191601833 -0.289011641909321 0.570382194655024
-0.203180359597216 -0.278931728177068 0.56978417494026
-0.190478377487866 -0.263715289095228 0.56787521887584
-0.180794738419356 -0.259866749872263 0.567392406027885
-0.180311843132243 -0.253626665972739 0.566609565447482
-0.174325780925296 -0.252682703063073 0.56612778630682
-0.157379588009228 -0.235356425265792 0.560835957066318
-0.158810806166904 -0.229977705720228 0.562105154254258
-0.138850822447426 -0.218016644171281 0.56158246484735
-0.136808884330987 -0.214154962457929 0.56100730557982
-0.129804251973495 -0.20955866018367 0.560322731851162
-0.120314350720756 -0.193003579561208 0.557830506422898
-0.118069864500673 -0.1904998073261 0.556371269515124
-0.0990876783522566 -0.184489019969531 0.55286809033912
-0.0935213026198428 -0.174593219938805 0.552019377032507
-0.0885859740417539 -0.164822343069489 0.553803306594383
-0.0782848300398229 -0.157062422256153 0.552714453269965
-0.0648524817507079 -0.139870417451835 0.550302112727463
-0.0666172584191704 -0.144969351035888 0.551017582758349
-0.0408970000778486 -0.120568545170711 0.542860899781574
-0.0366101500743767 -0.119185051329286 0.542659503338911
-0.0250811900089382 -0.111111485261729 0.544242612158351
-0.0219500704379372 -0.109521031433083 0.544623422052432
-0.0164619071075064 -0.102481378923819 0.54495732757417
-0.00726830603463678 -0.0865250930594077 0.54263389084137
0.00615287792851549 -0.0732428562628492 0.540699829423248
0.0128473008383956 -0.063864972918011 0.535669377237031
0.0275500011654042 -0.0505535168785746 0.535579184555822
0.0314267099743504 -0.0465491424653625 0.536566891943368
0.0447457836911822 -0.0368409957707209 0.535565259882357
0.059243922994367 -0.0345447364076427 0.535246850153797
0.0657269175478919 -0.0165575318529936 0.532752662862989
0.0718251848067313 -0.0144527345002457 0.532460802124374
0.0940722428027598 0.00537530792278395 0.526119604680104
0.100346809411918 0.0108948848430011 0.527502510741332
0.11190874689227 0.0240664497198779 0.527210788955103
0.113999049036652 0.0234406765892328 0.527295224124266
0.127993308730441 0.034067165836631 0.525861398711721
0.137819575313384 0.0545597388625016 0.520474968063179
0.158220084399985 0.0657019401839363 0.518358422324972
0.155687105866029 0.0706190264690144 0.519943856381546
0.170476587837278 0.0875006524865233 0.520501986837134
0.176930635863148 0.0886768691178989 0.520422205095211
0.19560810389006 0.0969231967853131 0.519862863926051
0.210479827342049 0.115522528948372 0.515880779145237
0.211743724999011 0.123334938261031 0.515438128330981
0.217217911599038 0.128347085541282 0.522092199283642
0.2248260447041 0.139008270159164 0.530396041899786
0.234601046058478 0.140947790106762 0.531571382380115
0.232419319395915 0.145404410673175 0.534272074664128
0.253524077910578 0.156592998040492 0.54105230895189
0.258055095155671 0.160927081088946 0.5432594855851
0.261060965187318 0.165332004123748 0.543992975969761
0.268266473155712 0.172783102976565 0.546283501489832
0.261954071022287 0.172690894032059 0.561579172254565
0.264800558886054 0.174564750344831 0.567518603701804
0.267124310660468 0.177291471453097 0.576161301110302
0.275262087207921 0.179473279579843 0.583076825908825
0.276884696456075 0.183835058825301 0.594783301402512
0.286141693285376 0.188102796147654 0.599989868323279
0.269734600900033 0.182603292563103 0.624521092094441
0.272173769104395 0.18173996238748 0.629945048683976
0.267087024394645 0.178958633478261 0.64741902062518
0.275134205976853 0.179095693913705 0.654135977041397
0.262124031743553 0.177805144839207 0.671923610017058
0.275376531972551 0.17434570855071 0.678924253769405
0.256726860127031 0.171631581516614 0.699095184386715
0.265108182846307 0.170868497176514 0.704766297450316
0.266627572559116 0.171445530875322 0.717197702158221
0.264482644431386 0.172406802426128 0.720999724563801
0.269659455057896 0.171702866538655 0.730626565795378
0.258850311357228 0.168567187166487 0.758922288068558
0.264140405658062 0.168586939538916 0.76256188285838
0.257355072271477 0.168661596418704 0.772826192256654
0.265813154834989 0.172552318940099 0.782376932571813
0.261773956321193 0.175269299413799 0.795771558002434
0.264654891622664 0.175425570763767 0.798911909793663
0.274449178209148 0.181344866225182 0.812962709504165
0.274123102418387 0.182832001990474 0.816197003780528
0.277373871579936 0.185577548420019 0.822168149999864
-0.00868183702357313 -0.0833737447842435 0.09476847181196
-0.00890271465723277 -0.0767548932009361 0.105331740443674
-0.00889288719678444 -0.0772201928736074 0.104836209913745
-0.310798351367262 -0.370404243725106 0.533907159990474
-0.310033645669566 -0.365201180767737 0.534888058144161
-0.309313174859981 -0.373311112678865 0.550368673055712
-0.308696351630627 -0.364337829658943 0.553848800102877
-0.305021069927098 -0.369730544580115 0.564221434997569
-0.304229049068467 -0.370062135325724 0.56592819006614
-0.302423885518053 -0.365768701551899 0.567929375237388
-0.291737795111008 -0.356733336838573 0.570397344309131
-0.289257332687638 -0.3517957639063 0.572279757178629
-0.281494004174589 -0.341222241453957 0.573357834706421
-0.278766989190932 -0.334056079113014 0.573247118400295
-0.271728937007003 -0.328426529323016 0.573160142564659
-0.266845177496413 -0.321165288766352 0.573047957312068
-0.26022247074521 -0.322970706193616 0.573075850784062
-0.245895343327528 -0.310173081227631 0.571078488884396
-0.242224828244208 -0.303660196312751 0.568362241631428
-0.234382008473859 -0.294488254940141 0.568955731671668
-0.224596320015396 -0.289129151455517 0.570351587596082
-0.2233285037542 -0.290619485959516 0.569963408443965
-0.218351957260417 -0.280854869499017 0.570025439816328
-0.204866570594109 -0.265923128698486 0.568152200157547
-0.203317275153274 -0.26635931030082 0.568206920681217
-0.19316989759012 -0.254730859433744 0.566748090419871
-0.182509682201267 -0.242482367582391 0.560494000931325
-0.168858363665603 -0.235637294411337 0.560769681379942
-0.164149793365231 -0.231669670036407 0.561705907494133
-0.164635073582381 -0.222909429835687 0.562311196842322
-0.152730653249629 -0.216866875265361 0.561411218149449
-0.141974290702843 -0.206282463612277 0.559834774800282
-0.137418711678638 -0.201962133903036 0.559191304453552
-0.130864985855784 -0.193084634614783 0.557869088805777
-0.11056969060212 -0.173937873880694 0.552179880429416
-0.105811906725882 -0.17543098682863 0.551814196227693
-0.0988933694361929 -0.169732794103118 0.553209763161175
-0.0908479430356292 -0.15355588054084 0.55222242381557
-0.0800853830195272 -0.154176584126984 0.552309519441867
-0.0800621449048063 -0.142767435746101 0.550708615329293
-0.0645758097382053 -0.12760882235813 0.546377721070609
-0.0504147647188806 -0.117935042013108 0.542608815642572
-0.0460002487709051 -0.115270244602323 0.543246860709628
-0.0427653260182454 -0.102172155911061 0.544912300798354
-0.0282005556318702 -0.0925053515963048 0.543504692008655
-0.0205176500628578 -0.0894212433632468 0.543055606900911
-0.00400857288017174 -0.0750642680162593 0.540965049977041
-0.00339113025459833 -0.0731467019166474 0.540685828136114
0.00384650894260028 -0.0650839443698204 0.536374462666685
0.018189706822088 -0.0478340595534663 0.536249958018279
0.0232289189074249 -0.0474609202819171 0.536341995469591
0.0439431738693074 -0.0323866205313083 0.534947596027094
0.0413073540803753 -0.0249677046812479 0.533918855537231
0.0704690301587355 -0.00510625451821555 0.528211574391845
0.0771824533479335 0.0017374469518943 0.525500517996062
0.0810159099788014 0.00824211738914342 0.526837871359729
0.0906884556014485 0.0123128354140409 0.527857772107838
0.0956697004960228 0.0221418952434704 0.527470467862394
0.108133475863059 0.0414434945102438 0.524866115391212
0.133400871087221 0.0632014124548358 0.51755216805338
0.133703336060331 0.0594191456359409 0.517732000380194
0.138532009503113 0.0674066132947645 0.518908066290634
0.153879390537582 0.0815029034414998 0.520908808891566
0.163858030220568 0.097595140946701 0.519817286543245
0.173176061333228 0.106137052652003 0.519237896168184
0.185938846559465 0.109510028216295 0.51876611047739
0.189672373879787 0.122266748556739 0.514774566542513
0.196900868444827 0.126486595982451 0.519622234049394
0.20848312820968 0.130909892326884 0.525494553052564
0.213146803353009 0.139591544715533 0.530749503692275
0.227011560490719 0.144518169266268 0.533735016304832
0.2222583267353 0.151412038675076 0.537912670570418
0.233925757005736 0.158247481500633 0.542054918585859
0.237013431279095 0.161214816022903 0.543307398069772
0.246344808385706 0.172963622506322 0.555462868492225
0.243213098599205 0.173946570347606 0.565559201750573
0.246094693667173 0.17527136073159 0.569758297281007
0.257215449803296 0.177313321171157 0.576230556635216
0.257670975648771 0.177806983697135 0.577795284256611
0.259795257095308 0.182395563383557 0.592339384731099
0.270721666515561 0.185145897884103 0.59638250275126
0.256810026364157 0.183132197226842 0.621198196616994
0.261284485367601 0.182401266720328 0.62579033928644
0.248754675339112 0.178640071147917 0.649420419741803
0.254646030894271 0.178562892685937 0.649905301006528
0.259559678439163 0.181034176655916 0.662659444172279
0.255835092912033 0.174347878614795 0.678908126222115
0.25110145680997 0.172495378463083 0.692675592357389
0.242925989637819 0.17097120431309 0.704002995475218
0.240612538363481 0.171172874595177 0.716119291707746
0.24552070881702 0.173066841662519 0.723622988450637
0.254073476078226 0.172912518462589 0.727561971197416
0.241962534073284 0.168513816328324 0.749088116238981
0.241420426906929 0.168578775091391 0.761057492396968
0.252659946722981 0.168592652244659 0.763614512568167
0.246569331598069 0.171025724586618 0.778629529317918
0.254657883621324 0.174031282836832 0.785831088213274
0.255926661785015 0.177401738820272 0.804387006670362
0.254902309778054 0.176836844122724 0.803158446555228
0.261895461086697 0.182602502919351 0.815697878179835
0.258757021474369 0.18638990309675 0.823934897961044
0.263401089916528 0.190707345759747 0.83205615669627
0.269860423565869 0.192376690625855 0.833639735093281
0.274734315723393 0.19666523917239 0.837707949499244
0.280599946451646 0.199972561516671 0.841894200406864
-0.00849811340012156 -0.0604416469969675 0.090234384460345
-0.00863982068131856 -0.066470622687629 0.095474905030204
-0.00888224783449992 -0.0580208794428392 0.107245975034115
-0.00902230336579033 -0.0624931331918012 0.112647683025483
-0.308799773858553 -0.362718081278667 0.539830729537394
-0.309066823127516 -0.357578518862395 0.548678563641817
-0.306716504718381 -0.352141972926439 0.55619542784628
-0.305060235625717 -0.359143564052659 0.5625146205356
-0.305188442704207 -0.351853926064164 0.563473445486987
-0.302202316159222 -0.353262190981233 0.569244169730451
-0.293462023209751 -0.347170222300984 0.573449730261805
-0.293168856753116 -0.338157816698593 0.573310489729685
-0.281992680359216 -0.327253757032145 0.573142023380388
-0.283519685529133 -0.330911261888022 0.573198531370023
-0.269129650052511 -0.321892269766369 0.573059189077009
-0.262556599434753 -0.316766054373018 0.572979989694445
-0.259989912619882 -0.306040472338988 0.569354953509816
-0.248746097579315 -0.292817471966989 0.569390911234477
-0.239276788608816 -0.290039866660707 0.570114378663979
-0.233743934505622 -0.281561185726588 0.570114049683509
-0.229931389958343 -0.283399283749839 0.570344645577175
-0.227824504049565 -0.272613118994393 0.568991483085543
-0.217150074043792 -0.265660254835336 0.568119221702302
-0.209521681105511 -0.259705493726214 0.567372175874413
-0.191304552170036 -0.245190380611209 0.56198967371849
-0.188329635563219 -0.236046844456938 0.560673041322434
-0.177357266775903 -0.225988016780383 0.562769721895283
-0.172135836433864 -0.22934034112313 0.562255550895592
-0.164354578304128 -0.219138530025057 0.561749558640626
-0.154694251890623 -0.205922604863607 0.559781177401619
-0.150306413234343 -0.196532806843211 0.558382659928524
-0.133058088779131 -0.182413300747578 0.551658329300805
-0.130803293812692 -0.177563922511579 0.551291810507561
-0.124831028070936 -0.176732488198223 0.551495440376009
-0.118969183276253 -0.165418381171373 0.553886941219572
-0.102678940193776 -0.153303058072876 0.55218694837821
-0.097026926379914 -0.148445047050253 0.551505284018574
-0.086345402636969 -0.143407769437386 0.550798465404476
-0.0757831814143293 -0.137536280010819 0.549974592205871
-0.0716053718363429 -0.127414701682234 0.546266776274687
-0.0654831703845423 -0.112104765895768 0.54400478627103
-0.0522321045170464 -0.10769721133665 0.545060107937452
-0.0418234463123333 -0.0985798416869536 0.544389214480212
-0.0284725089954887 -0.087872502713737 0.542830090703393
-0.0178487108739321 -0.078381610709568 0.541448096967701
-0.0126509592539254 -0.0760871429740078 0.541113993488713
0.00337532063326689 -0.0594115455006354 0.533969703272336
0.00766879524699756 -0.0566200737434338 0.534082825221236
0.0214554824346496 -0.0379219555653286 0.535715150665741
0.0295322383164704 -0.0289617449021431 0.534472687252864
0.0326044370480812 -0.0266381667365874 0.534150489375361
0.0398544709684539 -0.0105352723403294 0.531302643786438
0.0630109943289783 0.00385674199745183 0.525739134572906
0.0646530902924687 0.00604984607021998 0.526288607287749
0.0781738836888326 0.0135320028927859 0.528163229232611
0.0918234651207425 0.0348556016285358 0.525755015573483
0.0983882256433053 0.0335752030421217 0.525927778937624
0.103212892870675 0.0468838843380875 0.524132047063686
0.122991202228513 0.0627093805579869 0.517492432260314
0.132651991427152 0.0716987472942709 0.520291994703453
0.145094014724366 0.080512264413887 0.520976003067479
0.13932245457283 0.081632527436485 0.520900016609737
0.162851755509306 0.0965655582289798 0.519887122235484
0.173450072706225 0.109113553302248 0.518956374319822
0.181689662755419 0.123939248246436 0.516240403542671
0.1817781368509 0.127796616519964 0.521361402736715
0.195092090924106 0.130321742861304 0.524713732367153
0.199873596874249 0.14059088869462 0.531355101708345
0.208359855632305 0.144427936576167 0.533680335695098
0.205753818137759 0.151073376307242 0.537707442678551
0.215469839104088 0.152234697150956 0.538411197955704
0.234273687060324 0.162641696576769 0.543544996583538
0.239475237828576 0.172986734701967 0.546928659229381
0.235053912645564 0.173436439473494 0.563942275556575
0.239645285480922 0.172987205323305 0.562518369454159
0.245892494435661 0.175773106328622 0.571348645248038
0.249164242726336 0.176748124137143 0.574439091081095
0.238009328365884 0.184959929824454 0.596155624882602
0.249544235368137 0.185064125104307 0.596282741351214
0.252798045869074 0.189300232742188 0.601450720595081
0.242093501961497 0.182139402819513 0.627435524952928
0.25111183892554 0.182726560037548 0.623746652083919
0.244327440741131 0.180118918352097 0.640129416989301
0.23583783350486 0.180672337494613 0.661068445123964
0.245771575960748 0.180896912692808 0.665419857876346
0.233789382648483 0.172155917931181 0.695198405309873
0.231899184850813 0.171616200290771 0.699209495041818
0.231452174517051 0.170188785196824 0.712227020123827
0.237895088949974 0.172751762439924 0.722364110829453
0.239600504507544 0.17195253447722 0.729994044157813
0.236100338838429 0.16847560327478 0.742046935181855
0.227046648152302 0.168581544404964 0.761567769290737
0.221911064579678 0.168634672393703 0.771357193406892
0.239496917490531 0.170323020386041 0.776904568131098
0.230795612733088 0.173657978654117 0.785018778311686
0.228604734737625 0.176511436484606 0.802450734397391
0.24405905894961 0.176129554604624 0.80162019934639
0.247738239457564 0.179223368921353 0.808348775291006
0.245074086084458 0.185048788701924 0.821018177973288
0.242881379528932 0.188759457507346 0.829088318681992
0.251372436941371 0.190700990687508 0.832050128130627
0.256929173202207 0.199734065570432 0.842604810612538
0.254540913794676 0.199388176355692 0.856975433380735
0.265323796003895 0.201511801174592 0.863643381213232
0.268498465436918 0.203713439312933 0.870556282268934
0.268599626644641 0.205598361911848 0.876474731444136
0.274339631793809 0.208019417983227 0.884076580621932
0.272459310531047 0.214418066944571 0.894255519849162
0.27612951049502 0.217708611317426 0.898580198600684
-0.00850008761301423 -0.0523297334256452 0.0915329426064931
-0.0088013208438136 -0.0569904735412367 0.103892420250781
-0.00892985870520915 -0.0552295699679375 0.109726971351233
-0.00892590146532431 -0.0501532916974755 0.120482897079612
-0.303607638007761 -0.343401302045623 0.530231446083977
-0.00853515236010622 -0.0511655038176944 0.140398860170783
-0.00704601553387806 -0.0488924167151177 0.143830266638851
-0.00253904920639836 -0.0390669136395266 0.146742526646472
-0.304005426537586 -0.343232956040102 0.567428788438296
-0.302561966822914 -0.337544713124661 0.569877389534508
-0.297253313673228 -0.334046757596027 0.57324697438403
-0.287608608531026 -0.321045216984116 0.573046102218147
-0.28569881462971 -0.32301208559262 0.573076490090568
-0.278693256640171 -0.320765504946249 0.573041780702371
-0.264503599829394 -0.299741354620543 0.567677611699135
-0.259749753372121 -0.303628132850306 0.568348869325158
-0.252100535148351 -0.287765020415908 0.570706895232662
-0.248832252853001 -0.287138299795066 0.57081371835538
-0.243997085134342 -0.286211281790072 0.570697420670163
-0.232048857461468 -0.270428921776816 0.568717467824682
-0.221308692058041 -0.259138502148876 0.567301044777037
-0.217299838379638 -0.256883201220673 0.567018109304366
-0.21183873198298 -0.246639936050022 0.562790283095271
-0.198496260770335 -0.237805070480353 0.56025815902456
-0.196623459658687 -0.229744077389661 0.562160282694711
-0.184065982890961 -0.230289124178361 0.562031669956
-0.178197927708015 -0.214452979120863 0.561051692211938
-0.173866955325021 -0.2115719324863 0.560622588832879
-0.155333083322373 -0.195923970496055 0.558291979780995
-0.153646415943159 -0.195800265754663 0.558273555184218
-0.142958263661305 -0.175941935134997 0.551689057855681
-0.13257438191125 -0.172615746177516 0.552503687958097
-0.133314693788062 -0.164296154545252 0.553729473093029
-0.116161494180934 -0.154341642912244 0.552332680091489
-0.111144176796903 -0.154665036864104 0.552378057948821
-0.0985684664638 -0.138695362288364 0.550137231828303
-0.0933366056733197 -0.137565129325601 0.549978640271962
-0.0835591730299974 -0.128591469836648 0.546939328552472
-0.074226097733295 -0.114250293428272 0.543491072450682
-0.0667207327972783 -0.111059502213546 0.544255058705819
-0.0550195064333001 -0.0972089571307388 0.544189596376011
-0.0450716713469408 -0.0931781863141607 0.543602665240763
-0.0389235409487736 -0.0751516784124706 0.540977778034629
-0.0323274989350575 -0.0731427771010761 0.5406852566334
-0.0152004840282556 -0.0560691055611452 0.534218725436299
-0.00896958989120239 -0.0508457847447051 0.535507094610994
-0.00227736589911311 -0.0481802319973806 0.536164572126517
0.00740197067130473 -0.0347530397257313 0.53527573443579
0.0263034722608867 -0.0169507614763143 0.532807189864441
0.0293953743841249 -0.0157506612964431 0.532640778535363
0.0343967429345048 -0.0086479299217364 0.530228065183386
0.0545133568146422 0.00469972641598658 0.525950340663294
0.0618206615929778 0.0106780653493091 0.527448187557444
0.067476180047267 0.0248890696532575 0.527099793372472
0.0777146009395244 0.039875435915787 0.525077692536659
0.0877669505678406 0.0515332049722803 0.522183342158904
0.103612342709728 0.0652776645772502 0.518221621594373
0.114279825328319 0.0648488581785666 0.518083359983993
0.122591461836216 0.0793367904074928 0.521055734437801
0.13547686943712 0.0838343950713062 0.520750665860304
0.135284729379793 0.0960557484459866 0.519921702185683
0.158489294934033 0.110106060293863 0.518480081401468
0.159925585132702 0.124828561072793 0.517421045354417
0.168107826528331 0.127705708238248 0.521240713913563
0.175598919842636 0.132300965415275 0.526331444993136
0.173252350372989 0.135937780949895 0.528535339066317
0.19333676638818 0.145014496297757 0.534035788283131
0.19516765917702 0.151264173844377 0.537823065139262
0.198450608538269 0.160647647795389 0.543212955456796
0.203382633540003 0.160125307849966 0.543125977472285
0.213792470919165 0.173361493682061 0.548115992175634
0.215501739867628 0.173425058933209 0.549382237476474
0.219995260776302 0.172688259069033 0.55909150151689
0.230426527396472 0.175804980178455 0.571449673563151
0.228042105813839 0.178653511053879 0.580478462880996
0.218030306348615 0.182100998934901 0.591405724376426
0.223878831733332 0.186163051432401 0.597623412774042
0.240592868085621 0.190720265684801 0.603370809358446
0.229056406075 0.182658649675247 0.624173305602468
0.22696736993625 0.18154555720059 0.631166418357187
0.217190521610327 0.17850952515086 0.651558605536116
0.232259764864095 0.178857729301547 0.653089651734558
0.22768941564357 0.180035152708171 0.66798329771828
0.21371639996245 0.173167622427066 0.687679589522939
0.210383180248322 0.172074338924814 0.695804686613801
0.221245132400022 0.170384458883805 0.713000948928295
0.209738990212523 0.172225579097957 0.720282949836056
0.222078552983712 0.173003306469977 0.723359018082715
0.214871303138371 0.168498626394948 0.746289201700123
0.212541310693666 0.168585836645985 0.76235866254223
0.221438155439557 0.168562704509402 0.758096308534725
0.224945874243474 0.169415459538244 0.774676735657863
0.218641728601384 0.173060196751313 0.783623644219859
0.213167285167042 0.175293582698572 0.796259542888005
0.227852124860277 0.177326200225205 0.804222721706357
0.22221073086438 0.182605136899497 0.815703606686343
0.227775874087833 0.182792193207338 0.816110425727298
0.230683518296062 0.187517476000582 0.826387197659673
0.238410113094066 0.191305820729159 0.832623883624332
0.237137609026543 0.199671879831888 0.842409573133095
0.253453257633109 0.197827544394754 0.838810538591671
0.251222084253988 0.198993707210499 0.855736843749333
0.248695758471474 0.200299188424084 0.859835910849611
0.245906636055128 0.205649424566985 0.876635062552346
0.249368159454894 0.20687091222031 0.880470399132483
0.261037681893828 0.213731307453889 0.893422296111089
0.259419926102853 0.217908395940656 0.899511456666586
0.263894243995259 0.218182291313385 0.906646619335314
0.2667963834671 0.218095068883543 0.914360813834024
0.269085698776101 0.227492907296552 0.941449878439876
-0.0087301617991639 -0.0392155803171472 0.103466073567429
-0.00891780728879816 -0.0397339362395439 0.11152171545932
-0.00927032243813203 -0.0361700022667318 0.127408524628015
-0.00870657034856746 -0.0402660721427911 0.131515057366455
-0.0100039424016889 -0.0315762933409347 0.133409632941961
-0.00577171772353734 -0.0387724110607746 0.145342742260378
-0.00915458212556359 -0.033415362539464 0.155963359966396
-0.303167397615086 -0.334874132387322 0.569302996933321
-0.302914138485633 -0.330524641042164 0.569464038887693
-0.296932003229942 -0.324513856145972 0.573099692256582
-0.293183671736725 -0.311999494950895 0.571840208356402
-0.282136037037104 -0.301380328486572 0.56788325445504
-0.274661575907393 -0.295431780714559 0.568709976752802
-0.263677317491132 -0.286556451818363 0.570740723470194
-0.256109530533952 -0.285593268325125 0.570619888696653
-0.25465085221325 -0.27304252332065 0.569045353375976
-0.252798425233469 -0.27389041685978 0.569151724617289
-0.240012065612339 -0.269148527272587 0.568556837808648
-0.230574649172634 -0.258772926719983 0.567255182047378
-0.223997298979938 -0.251578418825204 0.56551787495621
-0.208045248879264 -0.233796946894678 0.561203941592468
-0.209523953921928 -0.237071549702445 0.560431245295508
-0.198063363708395 -0.228270552359665 0.56250798511879
-0.194848017767912 -0.217112327782324 0.561447775872314
-0.183183385423826 -0.213849296750062 0.560961779698173
-0.175199355284362 -0.203473224964342 0.559416366510061
-0.16709788156952 -0.191847491800549 0.557156720722536
-0.159197089318334 -0.183207722690213 0.552121330608505
-0.148371650397941 -0.17005519028561 0.553130803836097
-0.141983829790606 -0.169934753611967 0.55316030045852
-0.131404938616121 -0.161585792147668 0.553349161595272
-0.127058139077791 -0.155621767328613 0.552512304054151
-0.116313101621231 -0.140755950871325 0.550426368635596
-0.11007826468899 -0.136902644798876 0.549885682045112
-0.0944253203689169 -0.125306173133234 0.545061699749555
-0.0886118688599036 -0.112781191548415 0.543842826472827
-0.0756874305484607 -0.107690420338341 0.545061733938346
-0.0799659623938661 -0.107314963830716 0.545151631268483
-0.0643397133911484 -0.0915557412823141 0.543366416754369
-0.0526853869563915 -0.0736957049893423 0.540765769916824
-0.0429290560437639 -0.0785532618882284 0.541473091547085
-0.0262685836790132 -0.0534124350223436 0.53487401209201
-0.0241479914160101 -0.0447929775872885 0.536667917714671
-0.018886164041141 -0.0450920739581918 0.536709391772787
-0.0112803298475426 -0.0346938249220414 0.535267523442784
0.00620114910181084 -0.0216121176972989 0.533453554640523
0.0191568317953385 -0.00712900044044178 0.529363246428685
0.0262565242220709 -0.0049442546485749 0.528119338032455
0.0309262666833746 0.0082355686838707 0.52683623061002
0.0504629708278937 0.0146173464295315 0.528435157349054
0.0513321616248302 0.0181809639352824 0.528004913796023
0.0583980640229288 0.0336275920912092 0.525920710116664
0.0690724032797573 0.0408475421774296 0.524946526859154
0.084041155222974 0.0530069834804128 0.521351444973063
0.10179506473388 0.0663340659261807 0.518562240932514
0.10721435208469 0.0817010613810225 0.52089536801242
0.110342957471417 0.0781270873087119 0.521137787537423
0.117342096890673 0.0872447518637852 0.520519344351811
0.136937772339423 0.100246744081601 0.519637430629505
0.149561680047667 0.117482513039085 0.514940204871827
0.156397149634103 0.126395035590268 0.519500679491642
0.156522775622447 0.125939427971548 0.518895819887161
0.166152652181827 0.136310438354064 0.528761167799328
0.174105634092201 0.141490872849772 0.531900488112086
0.173635779827608 0.142223993372775 0.532344755895313
0.187315876666338 0.153461889306296 0.539154870955355
0.196024003321249 0.158252289939044 0.542057832478196
0.191990879427495 0.162173529435553 0.543467039240405
0.208895046286094 0.173471630325439 0.548768537656648
0.207804261984578 0.172842197229788 0.557062963889057
0.21359169133225 0.173518993072472 0.564203939932074
0.209977512845316 0.17660403979601 0.573982397010719
0.215212104532201 0.179439116278945 0.582968540880611
0.218118969851934 0.18260405441324 0.593000224182731
0.2165166251603 0.190429769210491 0.605195658198985
0.21056788825237 0.183514096479593 0.618798877066968
0.215993135834162 0.181872458950514 0.629112626018289
0.218624716469463 0.180431344499638 0.638166569043586
0.21538571310222 0.179064073553052 0.653996942992334
0.205515792385962 0.177661731997745 0.67217701333051
0.207124286006993 0.174366487338981 0.678769829348127
0.206814107514512 0.172593707298134 0.691944829174763
0.204550931390183 0.171227445921059 0.702098651415164
0.196979953191327 0.170618204651809 0.713925460473877
0.207729991521859 0.172630461482363 0.721884341134741
0.194057090899983 0.168467945615374 0.740635926080441
0.20310452686618 0.168548472081037 0.755473824966716
0.202128029755531 0.168568041711145 0.75907974744704
0.201508095243245 0.168628053231144 0.770137538924911
0.205067092077299 0.170780805736163 0.778028315449253
0.205495686381413 0.172389265122894 0.781976676666398
0.210932728894542 0.176280250082795 0.801947939108893
0.208656630080642 0.178145984822176 0.80600562861487
0.210043355012922 0.183169878312936 0.816931833431834
0.218512726387737 0.183889984371059 0.818497954667378
0.223975510943989 0.188350851834819 0.828199663443657
0.218113960894431 0.190787502005276 0.832132194728544
0.228710039571642 0.199722347587912 0.845439618661492
0.236522166820322 0.199715520443126 0.845532890185624
0.234454226960415 0.199793879249775 0.858249295745292
0.239244060679341 0.203614044467663 0.870244193411627
0.244193922872974 0.206217708744524 0.878419412224729
0.24554577563588 0.211251365483951 0.890413460344808
0.250208987777854 0.210673457252763 0.889712302423895
0.245883720824953 0.218377273447872 0.902541168546004
0.247488333246418 0.217966768891978 0.911184556605376
0.257502493106401 0.220340850355398 0.920834230029124
0.250778220647838 0.222833866178408 0.928020293858383
0.2621047816646 0.22420068761445 0.931960126887898
0.259918981858806 0.228828833541003 0.945300656752314
0.276303530210446 0.237843352052407 0.951742623446453
0.269360028670768 0.238871766216002 0.961360584842858
0.26694683373463 0.242452728702765 0.969365213722186
-0.0144545580703571 -0.0247601890349269 0.0953620841216134
-0.0162382561948116 -0.0236664507309918 0.0992393071247275
-0.0105013326930066 -0.0294749948322315 0.10942473231334
-0.0142062096801295 -0.0253819557660094 0.116130950389817
-0.0114551031615386 -0.0272152149180393 0.130271609549851
-0.0108130276238653 -0.0282087229654157 0.143213246292801
-0.0169386935430999 -0.0234193272997222 0.148730766728462
-0.0151435047310987 -0.0247030810673576 0.157893746870735
-0.305228713675024 -0.322558386070689 0.563588146366582
-0.304081466424423 -0.312428897855635 0.566344799138373
-0.300512938625061 -0.312922194633694 0.570863889095545
-0.295093224383126 -0.305852075595662 0.569276381242193
-0.284379602193172 -0.298780388908117 0.56783778337215
-0.281898088747341 -0.292933883187382 0.569360590250357
-0.277647242048961 -0.290239324345896 0.570062427028348
-0.268041969853187 -0.281164648648687 0.57006430270555
-0.260802265434201 -0.267671442928154 0.568371532356972
-0.254304636027485 -0.26703986972444 0.568292299266308
-0.24088951171821 -0.257263434455783 0.567065810907623
-0.239323060388954 -0.252458148328926 0.566003761643157
-0.226105985568565 -0.23450593766304 0.561036643580021
-0.222190297518284 -0.233364656617856 0.561305947580895
-0.210058053758121 -0.227707324044008 0.562640888087302
-0.201624282593367 -0.213256898107306 0.560873547784011
-0.20103428529564 -0.205508298783332 0.559719470611844
-0.189566240602004 -0.201750156788699 0.559159732560562
-0.177235034446803 -0.190966403836735 0.556643209126807
-0.163608523751184 -0.180184058187196 0.551232342566629
-0.163671633020813 -0.176345450770195 0.551590231244376
-0.159334916443829 -0.167623935982104 0.553726251950315
-0.145145047590417 -0.159044563729746 0.552992582568563
-0.138167411050334 -0.159941574104398 0.553118448895291
-0.134025171945 -0.147160276089684 0.551325008064066
-0.125213484224905 -0.13437023501924 0.549530340428403
-0.108651889434079 -0.116521811422394 0.542947192137298
-0.100864659743812 -0.114552247842903 0.543418774074846
-0.095583368283068 -0.111133866933271 0.544237253208713
-0.0878979759734636 -0.103101766394148 0.545047663824685
-0.0802289472666297 -0.0902653882802712 0.543178525061483
-0.0698273490299586 -0.0856913795243898 0.542512491621755
-0.0544290323528989 -0.0673220659696169 0.537669051582176
-0.0448833868082802 -0.0670700340468926 0.537523269631125
-0.0449932198997647 -0.0576037321336565 0.533840198893478
-0.0300188661650429 -0.0482251451832835 0.536153493970247
-0.0156294914923931 -0.0323809979693563 0.534946816377176
-0.0155758439775175 -0.0230081735851553 0.533647138076024
-0.00760621280299351 -0.0225326186000663 0.533581195466861
0.0123386895995573 0.00402076780508455 0.525780230527696
0.0172358053207985 -0.000257717040105294 0.525769694005881
0.0277772129038668 0.0076538166710645 0.526690475166031
0.0316329928193774 0.024749446881008 0.527118632584027
0.0450139761960365 0.0269547111995107 0.526821077676885
0.0602415254949622 0.0408907562064541 0.524940696017796
0.0653919811357752 0.0561761746347315 0.519562545767297
0.0821586422696407 0.065663872386655 0.518346147986315
0.0896360171302592 0.0700113976830567 0.519747936416926
0.088134428660991 0.0827801023055812 0.520822177613414
0.104165843744863 0.0918414891337217 0.520207551696633
0.113360478839501 0.0920202006009049 0.520195429854641
0.124758077485722 0.11226738278329 0.517442887099876
0.13787965848161 0.121272635591354 0.514172127881976
0.143957219895213 0.124592399416037 0.517107519766981
0.148178740982711 0.133171045110573 0.526858709426927
0.151131689804684 0.1369567493946 0.529152829421455
0.156846886642785 0.147707635021605 0.535667818397181
0.164627305474154 0.1512503362229 0.537814679602061
0.178523797526491 0.158960302342648 0.542486884852502
0.189860532793128 0.166870242981767 0.544249117428478
0.189241382592723 0.172885965391347 0.546609396106078
0.183578390298893 0.172725219099776 0.558604456506614
0.186460282624912 0.173072673817614 0.56278927296975
0.194395440170402 0.178355044144981 0.579532433170721
0.196160990324393 0.18039276204199 0.585991245234167
0.201814968732788 0.182303428479638 0.592047351162677
0.202811676702076 0.189121653368222 0.601232856797244
0.204238088328656 0.190707189772057 0.603167184233152
0.204917143786011 0.183439079329154 0.619270179679732
0.189989664319054 0.181027781219733 0.634419396791829
0.197363236441514 0.179244899177374 0.645620528265125
0.195970304834543 0.1811013026594 0.662954595772994
0.204333986478551 0.180483252104982 0.660237040712486
0.190819968706564 0.173267923151935 0.686934171590473
0.18617114442574 0.170968869620242 0.704020346515492
0.179880287602977 0.171049012172667 0.715629390903756
0.180433131002649 0.173073155499948 0.724734595240211
