ply
format ascii 1.0
element vertex 870
property float x
property float y
property float z
end_header
-0.0408670295739639 0.196961302824643 0.541568206699557
-0.0252836810546711 0.199861355671574 0.540541511236374
-0.0148424081454291 0.204021453774478 0.539068726403102
-0.000712011538272675 0.197632782005249 0.541330485297659
0.0161345781606232 0.199086006756322 0.540816005273445
0.0149291583144243 0.197358802312628 0.541427481360236
0.0357761706728897 0.200086073596846 0.540461955143243
0.0480825538076853 0.199483235613334 0.540675375744651
0.0695063832147549 0.20500504926378 0.538720507567178
0.080109358768245 0.206546434607017 0.538174816360001
0.095060933367992 0.210352504298799 0.53783074625299
0.104080461119319 0.210579395705418 0.53839779582422
0.109494570296889 0.206091806472845 0.540375117988854
0.130583186126053 0.210378688049006 0.540371080414444
0.135652402614104 0.204510787829158 0.542812314584531
0.152667483153262 0.205095135416903 0.543826694705063
0.167203370636804 0.213384031730719 0.541935516983658
0.172668976870095 0.21100072648257 0.543171563116742
0.189475298136595 0.209488265537596 0.54491328529108
0.201530782369012 0.2145831360617 0.543974846696076
0.207925718984058 0.218266370039406 0.543129879917484
-0.129534180231411 0.202904164800675 0.125494577757595
0.118471232347436 0.219272365576962 0.031546244372038
0.122783383274529 0.216139404541251 0.0364413843217208
0.114944738001446 0.221834513694093 0.0465272002025434
0.122032998908121 0.216684590695797 0.051348237216465
0.120829583516084 0.217558923156968 0.0680411576977887
0.131696539965423 0.214126389944658 0.0737728804096471
0.132801650266813 0.219739611484501 0.0789636395658842
0.139379471847552 0.219427979870073 0.0825778708111974
0.144335959688231 0.22088591888884 0.0866707187100599
0.133669975871142 0.217384580059605 0.10850574535831
0.138758882056427 0.223839411015364 0.10863522033935
-0.276414514343895 0.186710082135673 0.506719756589207
-0.276064971412791 0.189370232495337 0.507717007892608
-0.276908859139649 0.187690742979752 0.522489923668769
-0.268203314375562 0.190907690058255 0.528042345660133
-0.265863042459792 0.191037228563628 0.530121307590793
-0.254667879617907 0.194397603234904 0.535867982603628
-0.254875457624198 0.190848182684583 0.537020782417407
-0.246762359618217 0.191533072214403 0.540834862399948
-0.239157695930753 0.190206527074814 0.545106826332615
-0.237211569632693 0.189385223893725 0.546370652545089
-0.228313498060322 0.197023581662559 0.548115507517557
-0.222937863955259 0.190442972728185 0.553133034301088
-0.207274710836175 0.199520738675654 0.549950445031387
-0.195921264499359 0.196214901701415 0.550305907055123
-0.181907975528015 0.195233075600577 0.549647697948771
-0.1710142763677 0.201079563101122 0.54679599315356
-0.156564592574398 0.203037754705275 0.545065617799307
-0.147833331777049 0.199980638890465 0.545521232889444
-0.138012453435533 0.198583871329812 0.54531083363172
-0.116951287604935 0.204692315413789 0.541636621009709
-0.10947005829198 0.206065265076605 0.540613596476778
-0.105271169878188 0.202791209770851 0.541471324177531
-0.0813328320365394 0.199507637084887 0.540915625517372
-0.0706388421561258 0.209449648545171 0.537147001786861
-0.0558910625364315 0.202744033383256 0.539520967030935
-0.0432889274244643 0.208761733687937 0.537390541853286
-0.0351892856690219 0.212788871387604 0.535964828521808
-0.0245307609058206 0.203826826650158 0.539137629556285
-0.0131196129501459 0.204490874097055 0.538902539184815
-0.00138027206337804 0.210965010857431 0.536610523421398
0.0236352993360996 0.215462463026171 0.535018306320108
0.0202247785042349 0.212436902675528 0.536089434761398
0.0469052644004112 0.21582310827017 0.534890628358575
0.0567273657751537 0.219208233283682 0.533692204510073
0.0675029409733088 0.21279397174741 0.535963022859445
0.0851746369558559 0.21304212997654 0.536168960263412
0.098660925147725 0.220066050022393 0.534650282802762
0.101554266271119 0.218135207656717 0.535541521191151
0.118185975306561 0.214881278335163 0.537887236497619
0.131439722909263 0.219957568138027 0.537041381127809
0.144521051734394 0.216319771206615 0.539268167767019
0.154281382746239 0.219307311753657 0.538911045510034
0.172230510082174 0.224658280853283 0.53830495651433
0.183010434630444 0.225798017823973 0.538675186788877
0.204135687733898 0.226735739803098 0.539859469988036
0.204352995398044 0.219706690277936 0.542363536779174
0.218207322023221 0.224660862963268 0.541604020562482
0.225144516477793 0.229440188236116 0.753061000784291
0.208826924926982 0.22852748834078 0.794461531997391
0.200472286085674 0.229460047730123 0.804531226865419
0.225141680347706 0.226706406826495 0.803996553708251
0.231185903063475 0.22603174012313 0.826605968385571
0.234674554240234 0.225642330781467 0.834868207751603
0.204645715068314 0.22914273933101 0.874169066147718
0.207424630482207 0.230000150361835 0.884594982035611
0.216982633420745 0.229129745782344 0.886250839615328
0.229619746580061 0.228114008903138 0.886642003413556
0.106949642267532 0.227643290760257 0.0337924485825249
0.107832676954268 0.227001728506639 0.0451194865960493
0.105822899632713 0.22846191720257 0.0570186281075646
0.107394591058426 0.232537052806367 0.0679315162939317
0.109111454648911 0.231094285726736 0.0717442256311874
0.117436988563053 0.224134866753941 0.0734883542175445
0.123161196404891 0.232439126445447 0.0792225885796241
0.13321858161005 0.228546327692528 0.08633348873759
0.139715996383737 0.230208582101271 0.0896200249942356
0.146420850735275 0.233518779103777 0.09927564390913
0.146932063860879 0.234183041892882 0.103151208814509
-0.273839798728016 0.199231546109769 0.506779058730254
-0.274045048364254 0.199437520099609 0.50801480236943
-0.268813329805746 0.204838089206453 0.516364766242748
-0.265892618039584 0.197327255019053 0.525077768032142
-0.262074729951642 0.196300468349586 0.529456688490072
-0.255087037413348 0.200834642971731 0.532356825038717
-0.255200746472294 0.200485957768999 0.532528851226535
-0.247100149729493 0.20176084317358 0.537045065727508
-0.241117998130165 0.199716440751864 0.540759914093426
-0.234289139570879 0.206676933266077 0.541710144800472
-0.22162274627323 0.205467613062452 0.548471472808321
-0.214344425220993 0.200738666689127 0.55002669387755
-0.210528654515384 0.200464617734017 0.549849838140409
-0.190700218169663 0.207825746352889 0.545820620996243
-0.176107626700253 0.202762993065069 0.54656558878114
-0.176409560968137 0.204828406587692 0.545856049011932
-0.151876266742784 0.205813552429104 0.543746408115922
-0.146262723136869 0.21236454164973 0.541024273370155
-0.122928122555885 0.208020572405093 0.540887316300643
-0.114217311840779 0.213148415723775 0.538446707028458
-0.0965474878816697 0.21383028848577 0.536937057288956
-0.0921761225178399 0.21224186790245 0.537185646179488
-0.0855698854268247 0.213204749140785 0.536370599146174
-0.0668321306620611 0.210908835389681 0.536630411023772
-0.047105871783515 0.220187740254918 0.533345433117756
-0.0435409030188433 0.219639919846476 0.533539376041445
-0.0286865207720329 0.21744720469849 0.534315655238175
-0.00531386085623339 0.219551564973839 0.533570656004836
0.00255139586125466 0.216915496946197 0.534503893855135
0.00479262808568508 0.216406282440228 0.53468416926757
0.0124163580773976 0.220772407942276 0.533138445282097
0.0407499310496434 0.226144216898884 0.5312366827364
0.0388673470312947 0.225269357388486 0.531546406157888
0.068485226655393 0.228685703621564 0.53033692917133
0.0757380020126637 0.220437247537845 0.533257100935918
0.0911425432990966 0.224248650437487 0.532629900923624
0.10020294490943 0.231915844826032 0.530565820032165
0.105459999508092 0.223132668552668 0.534052621133251
0.124352186752716 0.231706825223898 0.532373126400698
0.146076930909054 0.231709697946574 0.533931399351801
0.154959677014023 0.232682903477917 0.534224416489894
0.162558505431763 0.236505924792664 0.533416370432172
0.174664542407221 0.235247398498181 0.534730830880474
0.18790230130468 0.234024142506298 0.536114033864655
0.205878179388275 0.231622045440213 0.538254655521688
0.198765404449644 0.237976626660314 0.710890934566252
0.191080993041702 0.236829897273128 0.724879097243744
0.220327482597943 0.233096662517929 0.725212190548971
0.182415727563528 0.233272985255136 0.76142482785956
0.217550563875506 0.231282616947649 0.744178258044287
0.169685303815627 0.232896544499262 0.789417235399295
0.184840473636634 0.231204897956291 0.794762248722548
0.169731167739207 0.232891425087953 0.814230354679147
0.161781101079648 0.233778825423275 0.831773833945565
0.167453314406134 0.233145683058124 0.833681886181612
0.165249869939259 0.233391635380601 0.8448256786576
0.190108048819542 0.230616922007935 0.849144120440804
0.153818292123419 0.234689116635753 0.873034424958223
0.201123790112589 0.229387325711969 0.860121170985554
0.199078940180456 0.229637668170147 0.873039998447515
0.19162952611671 0.231900384492789 0.885819707129249
0.166131825970716 0.23682651524572 0.904393086093349
0.192264328116158 0.23422844386671 0.905168439548451
0.220522551948347 0.231405751481571 0.902555715439374
0.211108266669426 0.233351971505666 0.90978802027998
0.21809574577776 0.234401731573723 0.920196329024992
0.113437621424478 0.240854570547059 0.0229364367828686
0.109743650592992 0.235770255879854 0.0409654189917544
0.113372591926289 0.240765065121454 0.0387575761490297
0.112875020671165 0.240080217041757 0.0559466482041481
0.113399096155178 0.240801545062914 0.0654935480139617
0.1162687164359 0.23826370537365 0.0728588149158968
0.120886697872053 0.242150632691305 0.0738850721560492
0.124268226756524 0.238413429621995 0.0773727965809182
0.138870246811449 0.243151414618432 0.0837568144622056
0.139750986666264 0.240702659698938 0.0852784202476257
0.15385277010341 0.24587684841878 0.0911949740497994
0.150371101297754 0.238533837531787 0.100476875953715
-0.27232717371148 0.204777096724433 0.507391979267291
-0.269942644320013 0.211589329315485 0.502549373265424
-0.267034039909398 0.207287116484137 0.51607095373348
-0.264929549149109 0.205752508868287 0.519257121762455
-0.259994267699841 0.207878062645932 0.52216416818351
-0.252601754571543 0.213685167613831 0.524426698633548
-0.245838927029168 0.211764369402567 0.532264649369561
-0.244493848060043 0.213973490868614 0.531757254983185
-0.237552808973846 0.207693225847013 0.539718515627237
-0.225704218822335 0.211453376907384 0.54431161770813
-0.219402831387777 0.216680042767399 0.544746091105415
-0.210225870180764 0.215985169222862 0.544333419836416
-0.191767325480868 0.216817498213299 0.542713894307319
-0.179259958125241 0.218204361760302 0.541325193652313
-0.167985998086103 0.217772206724107 0.540669001328628
-0.158568652585216 0.216802178188259 0.540336488665537
-0.144444248010511 0.220212769097359 0.538115272379743
-0.129954441540526 0.218635772472419 0.537633567425435
-0.123847806565358 0.222721352624078 0.535748861189124
-0.118283412407029 0.222594109853324 0.535394525013902
-0.100660944720547 0.222476888673524 0.534171174668074
-0.0783142675481801 0.220052192590858 0.533425652143674
-0.0802085501063967 0.221783497856207 0.532948686079352
-0.069682888700028 0.220339577692717 0.533291678646111
-0.0556976465001936 0.229039086306873 0.530211822347792
-0.0326070076278087 0.227825310507186 0.530641531105748
-0.0234951013278489 0.226540424093646 0.531096414903084
-0.0107771346895141 0.226719442322166 0.531033037712133
-0.00267209088181482 0.233735308282574 0.52854923547402
0.0110403183095004 0.234744409697295 0.528191986865435
0.0170966203870599 0.227826089343261 0.530641255377163
0.0453934628932034 0.228730659051869 0.530321013759172
0.0536704151519588 0.236011564721527 0.527743380449209
0.0599934169698966 0.235128578537903 0.528055980928107
0.0775791575576852 0.233666998385486 0.528573418985538
0.0818708909599026 0.235040279140365 0.528143907406509
0.102091023638827 0.235001621431667 0.529608889985941
0.117915711436301 0.240011845802681 0.528970952341001
0.120877435198432 0.241543292038488 0.528641357081214
0.0460270112976589 0.235689909309858 0.784824006511684
0.0171464101551812 0.235689909309858 0.825662584835433
0.0584308442571713 0.235689909309858 0.805360835686787
0.162683406705457 0.238841305945782 0.737691073810859
0.0313487344388758 0.235689909309858 0.834093456479335
0.128059358318696 0.235689909309858 0.784531432293851
0.100181920090548 0.235689909309858 0.805365918744593
0.126757016585727 0.235689909309858 0.806380369950095
0.039158861886776 0.236015443491493 0.875169706250129
0.0424275173524642 0.23701414793538 0.882308640823128
0.0627524647881108 0.236622989791524 0.879512565954552
0.0774624648346162 0.236404234286408 0.877948858845747
0.0943079745986761 0.236810720824135 0.880854504069819
0.0859207686926006 0.238282791528736 0.891377153199195
0.10178705950986 0.238371773986651 0.892013217201002
0.12959756707109 0.236854503469317 0.881167470975394
0.110563177619477 0.240841124755345 0.909664619158197
0.146280612214183 0.237780413981554 0.893124862820739
0.153974810546539 0.238016601269932 0.902902763119858
0.151789373556685 0.239772469187366 0.91640330320269
0.155321839103363 0.239955428246173 0.921466971085897
0.14699349400326 0.243914276847472 0.938968388208294
0.140542571617026 0.246124000274414 0.94520723920968
0.167793632792035 0.241417141632893 0.934783903336075
0.186034754962613 0.241612576254289 0.940876579332543
0.186758800469408 0.243370549965299 0.948248285920757
0.201900643634401 0.242654158996336 0.949743027349747
0.116027624057699 0.244419403345397 0.0263136158689728
0.119516704837506 0.249221711049787 0.0398714885223028
0.117630498606224 0.24662557089477 0.0518057860110044
0.11638858291734 0.24491622059384 0.062003015483919
0.121759714810149 0.252308949423569 0.069192784293173
0.128926865368369 0.249066742115744 0.0756100202714671
0.134185866493858 0.251992809146555 0.0774023395529862
0.143941842277171 0.252720439157216 0.0826809341122776
0.147099033027319 0.25511627994321 0.0834912651124853
0.158099099553948 0.253184219396861 0.0905869950092776
0.161490749248514 0.251130907724715 0.0926408643567921
0.171202051934345 0.256429021215335 0.0926408643567925
-0.268595006108042 0.215339921502183 0.508193697677029
0.204612083498312 0.259331691182102 0.0824893810319316
-0.258330923729607 0.217210238252685 0.516273294219725
-0.252911751587011 0.215417787980466 0.522755959525802
-0.250586612570433 0.217490294529995 0.523271396836812
-0.24338927771918 0.217782631304308 0.529749660722396
-0.238312026454171 0.221442733015019 0.531565371285267
-0.22696325361021 0.226304544641771 0.538270864691853
-0.223508757706588 0.220179311726327 0.54232013639177
-0.222060593464955 0.226737495531033 0.540722447871015
-0.207686705648615 0.226214193194228 0.540529826499692
-0.200812732590966 0.227730465874849 0.539499647543893
-0.181661905325625 0.22073611293985 0.540601286096003
-0.16980093705004 0.225589624273289 0.53803169556184
-0.161587214097522 0.228452935902632 0.536428468835924
-0.146890648025663 0.225483395541593 0.536424921083767
-0.12203626025665 0.231581443942891 0.532482130922184
-0.109453795658043 0.23504084795029 0.530354305998129
-0.107295153018526 0.22894262120725 0.532358303442621
-0.091034179566103 0.232659956406988 0.52987513967641
-0.0799995558468406 0.234386373689281 0.528471933946643
-0.0650030224643013 0.237604887020629 0.527179302185047
-0.0625002548482789 0.237210924173523 0.527318775459892
-0.0360824472701712 0.241585819184597 0.525769946836122
-0.0376352047657291 0.232402861620117 0.529020956858244
-0.0110133222320179 0.238141999336987 0.526989150209365
-0.00932921087238819 0.243956602215667 0.524930626895878
0.00524560860166714 0.241087719547262 0.525946287290885
0.0139156450775078 0.235876841314502 0.527791076101005
0.025856010789298 0.245950432515129 0.524224758199387
0.0416232684404136 0.244595868686733 0.524704309645727
0.0560252419456233 0.240356728196509 0.526205077576117
0.0774606013560382 0.246486440238851 0.524034997278734
0.0900400850975731 0.246147286348782 0.524798075464586
-0.068920678366913 0.235689909309857 0.788921368404577
-0.0549327884897384 0.235689909309857 0.782771289233941
-0.0310729691717251 0.235689909309858 0.785062557712477
-0.089618278997279 0.235689909309857 0.830411640801249
-0.00780725789223485 0.235689909309858 0.786020304763437
-0.00695702735942039 0.235689909309858 0.796210191293746
-0.104622784083648 0.236113844243527 0.875873094059217
-0.0852224839921407 0.236315568731342 0.877315060127449
-0.0210239075682679 0.235689909309858 0.837773802299118
-0.0171362420663967 0.235689909309858 0.838667280139049
0.00959288228454757 0.235689909309858 0.839154739409269
-0.00171436076928847 0.235689909309858 0.857035598504963
-0.0528833157794419 0.238664242317431 0.894103837995665
-0.0542281126584196 0.240132230267485 0.904597302797526
-0.0223428518354886 0.239401714916582 0.89937543628177
-0.0380453946386311 0.241753190361989 0.916184242388044
0.016142611109814 0.237629996523826 0.886710846907918
-0.00291592654014885 0.240472183244733 0.907027353126548
0.0357384607211277 0.238642741893281 0.893950148761339
0.0273163226782157 0.241317714670362 0.913071377025631
0.0128936029572212 0.243398205514656 0.927943132236145
0.0546153632562556 0.241029049449065 0.911007941600917
0.0453107802056737 0.242641930488197 0.922537130524501
0.075788200645736 0.24264856926459 0.922584585795779
0.0784475830876353 0.242973980433608 0.924910688437222
0.104353256451288 0.243196276015862 0.926499700709358
0.114657929694351 0.243790615002095 0.930748151953242
0.110636994791788 0.245083637735667 0.938206146666987
0.108145390638208 0.246948728671691 0.94487216394891
0.125920392201341 0.247730618723217 0.947666715407698
0.112124033819784 0.254347643908899 0.969591093977043
0.136908483324126 0.249761556303095 0.957195267114741
0.138274976834711 0.25471957261729 0.970303352558745
0.144297519833423 0.255783087446189 0.972069651401676
0.169370859200904 0.253094762302422 0.968119509969404
0.185913919819296 0.25313589515035 0.968396132870447
0.202928868959344 0.255827547800665 0.972889101197319
0.123778538693998 0.255087622117915 0.0330859878488724
0.130421647853444 0.264231077460692 0.0341000087975099
0.131494471166716 0.26570769207294 0.0504947376147029
0.124354662519325 0.255880588535047 0.0566242946461216
0.126352599970596 0.258630513521209 0.0657774022445387
0.132203979523583 0.257437452955289 0.0740056378790318
0.135547989262242 0.260338943947019 0.0747126789652832
0.150356798373466 0.267574226799919 0.0801770486234042
0.154830018087456 0.261627480383666 0.0852076329708284
0.162087342887133 0.25841899570058 0.0906928010401716
0.173112186201016 0.260608452499365 0.0926408643567925
-0.235866195595025 0.226456306484883 0.505135812912409
-0.234695671710409 0.2271818071642 0.525570748632833
-0.224068550383269 0.230731769872802 0.533100309037661
-0.21388070374646 0.231602375275732 0.539066840638366
-0.208527390275015 0.232687527675536 0.538298434766338
-0.183719032644159 0.234449695422236 0.535893964919408
-0.166607964636905 0.233335534571397 0.535060263231641
-0.148951308131741 0.232875013872346 0.533955996104809
-0.136232142215569 0.239395605257639 0.530734618114093
-0.128293009015416 0.236495950357878 0.531191342701984
-0.124852170480377 0.237022647261165 0.530757912433154
-0.100658224731887 0.243750751258206 0.526639469033446
-0.0824111524190604 0.245309878624789 0.524777816039219
-0.0799341318561534 0.242152078734425 0.525717973030359
-0.0633457042351113 0.243987564936189 0.524919665273326
-0.0559493696651873 0.243756407216665 0.525001501224063
-0.0379551085953101 0.245694327806658 0.524315426044481
0.0230851684401607 0.253751251905666 0.475476237698118
0.0376193410040093 0.25698342190843 0.475476237698118
0.000505548137494976 0.245941729697417 0.524227839227195
-0.248053593984154 0.2337289230317 0.765386975548849
-0.239745902892561 0.228997241342484 0.767896456782957
-0.243184142001371 0.228168957988539 0.783323534048694
-0.253545548833606 0.233248872906689 0.799026089004529
-0.252928313519753 0.232946259281955 0.807606881683945
-0.24471515210727 0.228919570449059 0.808250252221029
-0.241666591590814 0.227424944449215 0.822771638220136
-0.251628200910329 0.232308849560783 0.835620207380935
-0.239394780537541 0.226311137507011 0.830600875745244
-0.251148547839179 0.232073688753845 0.855617665149046
-0.251239611542755 0.232118334801799 0.862543160763857
-0.25159831027299 0.232763194677842 0.874182909102143
-0.246996046303112 0.232803599347716 0.880746015936459
-0.240886803016019 0.231530772064195 0.885667749214338
-0.238807116781379 0.234438896062425 0.896891411421018
-0.230656494686903 0.228821750797193 0.89225900444903
-0.221117602510606 0.229652609898833 0.893522693790391
-0.211838743452584 0.23176968726784 0.901908706455273
-0.219660951657047 0.234202265179658 0.921239109121307
-0.221789574560772 0.235868352443035 0.923387074746329
-0.210170999427858 0.236421085322657 0.927566312377252
-0.108944867785209 0.235689909309857 0.859203242463463
-0.184599119658226 0.238540941414698 0.928822168540189
-0.109524058525377 0.237777531553903 0.88776545614031
-0.10725461172983 0.238112241195499 0.890158026081229
-0.106009446450727 0.239158653698371 0.897637987184933
-0.126643046301119 0.243442106090335 0.928256942131972
-0.0920289836654091 0.240864084011683 0.909828736410151
-0.105401784010465 0.243213486141806 0.926622722053528
-0.0791761447213306 0.241764489562881 0.916265011284582
-0.0989328556180284 0.244889236078935 0.937511336146827
-0.0740418910338418 0.244233992831372 0.933917503340137
-0.0705165625991294 0.24481940308852 0.937261746214258
-0.0507281726407532 0.244308402295731 0.934449396735543
-0.0449774219430444 0.246885785713031 0.944647199663202
-0.0154241528552819 0.244847852463019 0.937363427059094
-0.0298907872624553 0.250768976681755 0.958526103692247
-0.0294216466912696 0.250803144045446 0.958648221189277
-0.0194722000619125 0.252833204016474 0.965903853924833
0.0107060483694436 0.249581390486087 0.954281554565342
0.0139269972139673 0.252714346452029 0.965479045373479
0.0203637789008557 0.25468636622743 0.970129150274814
0.026478313140868 0.253764717955602 0.968665123165122
0.061552696857326 0.25120215820259 0.960074336782823
0.0628889640262766 0.254492189656557 0.969820703145345
0.0634564431308223 0.25877780105536 0.976628344911995
0.0874205994349054 0.258493204580662 0.976176266861163
0.0932377459462056 0.257999785145485 0.975392476068483
0.109474087418734 0.257157891055957 0.974055137510776
0.123010300642987 0.265291639254115 0.986975497944916
0.148616632117607 0.258401187880494 0.976283634842724
0.157524556409424 0.264175237864884 0.985569413064692
0.159068982364807 0.265187192022974 0.987196615005804
0.178882716977002 0.267393270291894 0.989976530695372
0.198830660188899 0.267574329334978 0.985986942052993
0.131970037500789 0.266362252977143 0.0277943791937523
0.136089654641194 0.272032419528459 0.028501564492035
0.136214087360076 0.272203686473044 0.0425077047135944
0.139612192567392 0.276880777044252 0.048229564896032
0.13881431506268 0.275782592872016 0.0629260320486835
0.140354689305065 0.273040873971553 0.0721831422547444
0.146022052262076 0.273328123359809 0.075305833274589
0.149924772107504 0.268017784702429 0.0797455484588973
0.161273745731129 0.277715080584536 0.0822074008383668
0.168839389640655 0.277017042302196 0.0868255372202099
0.179220342631166 0.27728406166987 0.0828904990297526
-0.0252839826510695 0.262496729502641 0.475476237698118
-0.018998122369029 0.26284937890263 0.475476237698118
-0.00975192944068164 0.261874837011439 0.475476237698118
0.010350539014975 0.255647766393431 0.475476237698118
0.0143295989163994 0.261909327992469 0.475476237698118
0.0323666688015116 0.263987751837503 0.475476237698118
0.0350623719227096 0.267191249154746 0.475476237698118
0.048756387995427 0.26135646418316 0.475476237698118
-0.229315775732685 0.237080025198693 0.717617525357167
-0.241659937174665 0.237497513322008 0.739085328022416
-0.239797378002035 0.235536254140019 0.743078632904353
-0.247440547620114 0.234446574192626 0.761507538663818
-0.254069605361404 0.23350580351627 0.780874788478631
-0.254429462677468 0.233682231734742 0.787008845724315
-0.262351793195194 0.237566334119208 0.802333512764853
-0.265979944052689 0.239345117441271 0.811843304278691
-0.268929189938654 0.240791052188935 0.821644100616462
-0.264633032523872 0.238684763487465 0.831875935466385
-0.258443838158469 0.235650370446326 0.835686768439168
-0.263684623000379 0.238219784188329 0.848040907208242
-0.257334509936111 0.235106497101989 0.855816807265301
-0.25747664583804 0.235176182454597 0.857121294799697
-0.265315730852667 0.240159285487451 0.876099786075124
-0.262469725464547 0.241718310590042 0.884541938433835
-0.251338364702197 0.236812286688883 0.88611752366673
-0.254686654684589 0.239932943506802 0.890344056936263
-0.245644011572813 0.237460882889931 0.895948549183203
-0.242591017155057 0.238823701432393 0.904120019775083
-0.245829378575451 0.242884754830576 0.911187779794524
-0.234613940458914 0.236824767812503 0.909583660707964
-0.225233051826621 0.238372223765054 0.924940868016789
-0.224545663124622 0.238477085773014 0.925782641668477
-0.218347099713815 0.240173121529455 0.93480298159319
-0.217573185772244 0.244556948413163 0.943877107214879
-0.201537345276832 0.24060822582483 0.942197579602263
-0.20992489825775 0.245520781548327 0.952766776701255
-0.202843289369836 0.246712002874326 0.958449151933375
-0.186665994736609 0.245965050204876 0.957056014272695
-0.175270781263109 0.246116082289874 0.955755426383658
-0.15726555582004 0.245594899920861 0.94887395717634
-0.129710810342263 0.246728309330252 0.945244361448096
-0.122718067712485 0.24950768184847 0.954018112690909
-0.110005612769468 0.247460718915682 0.946702067118079
-0.122622490541644 0.253306383433251 0.967595043404536
-0.0881021760895767 0.24805777978466 0.948836021014962
-0.097117763032995 0.254792890343585 0.970298362542287
-0.0661679238665302 0.250229901484928 0.956599396254612
-0.0788790666864703 0.25807884964452 0.975518069066962
-0.0678614188707844 0.256946190692656 0.973718854049421
-0.0459554875955661 0.255298247967584 0.971101117003224
-0.0384319137935827 0.257220403861628 0.974154438344949
-0.0104697831285596 0.256772121290382 0.973442346913577
-0.0143351722850463 0.259006391169549 0.97699145753794
-0.00345614734224355 0.262524431733111 0.982579822335543
0.00810532931243645 0.26208105655008 0.981875526230874
0.0324274804758549 0.260949647207824 0.980078296203048
0.0479947828804285 0.260942742268273 0.980067327790257
0.0503685799597179 0.268816535577944 0.992574753034612
0.0536507176786687 0.267540023692919 0.990547029376199
0.0783646122668058 0.268645573456266 0.992303181776338
0.0928722422913652 0.26671407878576 0.989235025901386
0.0930382450314601 0.270884152350855 0.995859137219474
0.130479944063451 0.267414748684544 0.990369929652939
0.135625676503098 0.267708596779426 0.990902423809845
0.161351638144272 0.275074323627475 0.993482746461918
0.175416562469293 0.279824944872883 0.990669761596914
0.21268846601807 0.276588882431179 0.981536281730948
0.145726882395944 0.28529692557356 0.0400825928588001
0.147402885152359 0.287603745466149 0.03853409602777
0.146125190603568 0.285845149789309 0.060828616457957
0.148480660136057 0.286610717575312 0.0711917039844272
0.14795676598698 0.286608283205237 0.0708930161523573
0.151460196602128 0.28677905116617 0.0728262178200603
0.158791883357708 0.279027988907642 0.0802419431015129
0.171859006352888 0.290569583865734 0.0764691706956909
-0.0391686458370659 0.270669557849775 0.475476237698118
-0.025495338803622 0.268250338052785 0.475476237698118
-0.0226019466761222 0.273139063318715 0.475476237698118
-0.00361937959301117 0.266254421762586 0.475476237698118
0.00785037290627654 0.275396374386639 0.475476237698118
0.0198428350005509 0.268810392794089 0.475476237698118
0.0275823414894202 0.269774874797699 0.475476237698118
-0.259807987349195 0.250955029368606 0.721711406183553
-0.261913537603308 0.24787404292276 0.737383217074812
-0.260960156336853 0.246382106215274 0.741286690969314
-0.277040854884154 0.248219331194902 0.76467509197554
-0.279470695734942 0.245959264712714 0.780290986160435
-0.271700777455093 0.242149885887841 0.777865242994664
-0.280260245440173 0.24703885282131 0.798936686216885
-0.273143156984083 0.242857045195991 0.798253895029648
-0.278356244503562 0.245412879696905 0.814931491194721
-0.280291889050244 0.24800409197595 0.822627841373802
-0.280281417516775 0.247684674119051 0.832372725529339
-0.269537940086439 0.241089505768379 0.833951965888443
-0.280330007000056 0.249166820803974 0.845876283896324
-0.280273459323658 0.247441921804131 0.862947937508628
-0.280212969718332 0.246737756865235 0.872952917329068
-0.277255750890027 0.24731960347257 0.879833023735422
-0.272634562695462 0.245562270623403 0.881285538085799
-0.265152483930234 0.24231862611753 0.882498890412375
-0.266858348614748 0.247627421583783 0.895279108878465
-0.262452652310755 0.247493478225293 0.901068623396255
-0.261779629418564 0.249896677259055 0.908878745118168
-0.256300430042363 0.250733478605597 0.918946149488574
-0.252556924490419 0.247753427389062 0.915675088647529
-0.242512610593859 0.247071783412236 0.925374954251092
-0.237576993026876 0.246734204674086 0.929341636948179
-0.234605020338033 0.249632856214992 0.937639412805488
-0.225295881100523 0.246887879761841 0.941104731868986
-0.225458370260208 0.249035109569764 0.945043498295617
-0.217397724385212 0.250760234938515 0.955269805880281
-0.213333481160614 0.253535515034484 0.962843505779191
-0.21302054785379 0.252922361040638 0.962113228123532
-0.200638727563391 0.252528579226472 0.967660556856493
-0.18707374958418 0.250465858961408 0.964210702177834
-0.168190703037479 0.251488546873193 0.965594059940005
-0.169260680048171 0.256153650390829 0.973018185819315
-0.148639057459662 0.255168674751686 0.971190189700765
-0.141606892865767 0.256776030255999 0.973653641375161
-0.134401387551516 0.256464390305403 0.973066578162371
-0.125654502866427 0.260152842984123 0.978813927495955
-0.118564138450092 0.262461827902541 0.982480376909423
-0.103072994814056 0.261888407074297 0.981569504873449
-0.0756131582368231 0.25876899191208 0.976614351694661
-0.0929873555607102 0.265502213598158 0.987309992738331
-0.0599989303393853 0.260642778930751 0.979590839664073
-0.0493658677711208 0.265032123024477 0.986563259559398
-0.0356812958449178 0.264603216901512 0.985881947381284
-0.0357340559628545 0.267354033221083 0.990251585765837
-0.0112174074706799 0.268955764877284 0.992795917089196
0.000794879748973533 0.266102308144139 0.988263235651651
-0.00249459380475159 0.270462720150984 0.995189697277615
0.0185341967675014 0.269209454572674 0.993198900095678
0.0392611966174862 0.272294123000644 0.998098858508234
0.0423103979645997 0.277800588771005 1.0
0.070539870155281 0.272269600775349 0.998059905250556
0.08777528732271 0.277613046769855 1.0
0.0956062887829425 0.278111522271051 1.0
0.106492785969554 0.274773072832353 1.0
0.127230365242333 0.283977426100629 1.0
0.160552454895063 0.281331664346568 0.99364258311176
0.156727739344798 0.282174185557219 0.994407526221814
0.200704089597966 0.292055839220976 0.98561225617118
0.153454890733797 0.295933616531031 0.0246870421230863
0.154145418711374 0.296884046754947 0.036605228624397
0.149188240118496 0.290061075763164 0.0462094902484919
0.155004499892052 0.298066470560249 0.0533736986357256
0.15557548904202 0.29689748685447 0.0709749233460044
0.156217780886486 0.295876580669091 0.0717666698311549
0.162844325201544 0.298699851163514 0.0743840327977456
-0.0440435577337694 0.273759597476534 0.475476237698118
-0.0348504498945654 0.275285674065046 0.475476237698118
-0.00739051404246536 0.274782171531736 0.475476237698118
-0.00530051956049965 0.280828030205822 0.475476237698118
-0.245025027965939 0.258540823028863 0.689545613600836
-0.263574228563046 0.256068782219995 0.712322463618213
-0.267832145914147 0.253929081731007 0.727756440024404
-0.268986729832527 0.253945792668476 0.732274990510311
-0.271050825051904 0.254562992915407 0.740264558394288
-0.276613936160506 0.250223808473063 0.762701605109195
-0.277147680193683 0.251682409728852 0.764572019852043
-0.28045773094996 0.253062841427222 0.780496269214298
-0.280523952674139 0.255082832222263 0.78970788304679
-0.280352113017827 0.249841130525843 0.79556114022553
-0.280505064944752 0.254506691386676 0.803325539374168
-0.280384998087391 0.250844238473198 0.81539504963943
-0.280505950885221 0.254533715624029 0.827175296705939
-0.280320161259231 0.24886649177929 0.834546422745293
-0.280353877614484 0.24989495680488 0.846175480418018
-0.280515406468945 0.254822143512616 0.854349807016527
-0.280390508116427 0.25101231334699 0.862329332675951
-0.280603151326642 0.257498664051111 0.869002522757187
-0.278706591377718 0.249243165838926 0.877632609823908
-0.276547506779709 0.257717459036689 0.884811608676418
-0.275233111609219 0.25846552615672 0.888756006772818
-0.270768364195267 0.256648835008129 0.901733507687509
-0.268753068396047 0.25875228293338 0.907873628503195
-0.266327117610158 0.253182007640052 0.911895794826139
-0.260935334044174 0.253102959953225 0.919223657779813
-0.256052461511465 0.255575886442952 0.928929511120893
-0.254909183947379 0.260270882608066 0.938941401332248
-0.252088027156251 0.260782675471014 0.942551290212008
-0.249302001536877 0.259618813250124 0.942936200859543
-0.238633016930941 0.25794810905256 0.949718107764079
-0.238746186808302 0.260807557622474 0.954603839231506
-0.231834722231543 0.260450163611303 0.959418718185021
-0.2172887630096 0.255557333043581 0.962974796355009
-0.222055710078986 0.261246852230841 0.968300067222312
-0.20249381713166 0.256762044387316 0.974409057700392
-0.203982419425485 0.256602237072553 0.974174217777311
-0.197985403743212 0.263283900049822 0.984711366038759
-0.196548854908075 0.265222981613761 0.985800065211443
-0.178761474259346 0.262081340067317 0.982555590817802
-0.167862570010306 0.266173284406765 0.988916396703681
-0.14726630051724 0.262345580586897 0.98257308512653
-0.13103141433558 0.263971968981844 0.984949235437464
-0.125270027902758 0.268495601757649 0.992064953550698
-0.136257344652752 0.272406178583368 0.997858367262508
-0.105924611776031 0.273441580889704 0.999921581458157
-0.0990151627512535 0.270644829947976 0.99547897648302
-0.079878443881341 0.272378045862526 0.998232168957216
-0.0664261529440516 0.271295253306342 0.996512166104844
-0.0569139757159536 0.270073564697295 0.99457152855588
-0.0382575779610705 0.275124882355067 1.0
-0.0343152696299307 0.27803715356588 1.0
-0.00576970662883497 0.280839629200586 1.0
-0.00852467223054817 0.275931806550872 1.0
0.0212529033783145 0.285565371110722 1.0
0.0300715735742108 0.280987511698883 1.0
0.0514629037963298 0.284795068961469 1.0
0.0568200929663745 0.284777820940429 1.0
0.0820904893420406 0.289840906578692 1.0
0.0894258606559443 0.292078204794759 1.0
0.0995986704884811 0.286312533536538 1.0
0.113083004714688 0.287212526893168 1.0
0.161088152028851 0.291422454486566 0.993535443685003
0.169015966244047 0.293040550776337 0.991949880841964
0.19763976983883 0.293158082160059 0.986225120123007
0.158652414971151 0.303087394922535 0.0250291390209672
0.158616752103747 0.303038309196607 0.0409988778240693
0.156363836606853 0.299937437038333 0.0551136301924442
0.15694170078017 0.300732798838976 0.0664868038622368
-0.0458301780036188 0.290232007225252 0.475476237698118
-0.0359871173661148 0.281829679996247 0.475476237698118
-0.0294285125883955 0.291638013369677 0.47564606489476
-0.0100944133880854 0.289657061421776 0.475476237698118
-0.00776031544715164 0.292760505107282 0.475816187931842
-0.253228486222494 0.262650577748332 0.691559176769426
-0.263000472648057 0.267237867407444 0.71028865150548
-0.265662036086604 0.260100218384528 0.718329746684041
-0.269976817235087 0.262222926779704 0.734905789113542
-0.273043580147093 0.262156714082642 0.746924446065137
-0.273475233615281 0.265693754749614 0.748082185880342
-0.277582378758761 0.264969430358302 0.764412015295701
-0.27984761274129 0.261555529415207 0.773920625358164
-0.280707829460838 0.260691707876773 0.792662819972538
-0.280825307708806 0.264275199283146 0.795395621800799
-0.280628581970863 0.258274386336748 0.806065311277488
-0.280864202213405 0.265461615708276 0.812604638034655
-0.280646131389513 0.258809704082813 0.82665318890651
-0.280646394047879 0.258817716068145 0.838290263565404
-0.280732003975448 0.261429113880503 0.845975715882091
-0.280769297962237 0.262566708996872 0.849933873748975
-0.280777382576075 0.262813317579431 0.860490938689697
-0.28083528052294 0.264579404481693 0.868915698250691
-0.27974472284965 0.261843709639397 0.875791252599582
-0.2774979457883 0.266202583477633 0.882831131366886
-0.275216020750446 0.266550342935331 0.889587169809678
-0.272432615982144 0.259818083998338 0.897136773023357
-0.268975447481853 0.266250198087222 0.907942641739333
-0.266776485037203 0.267963327357757 0.914693559741226
-0.264092964400097 0.261624735439394 0.921496702986197
-0.261910753165021 0.263016104450676 0.925873940702665
-0.257350760982499 0.263988519952807 0.934875043631175
-0.253230089400773 0.265840771687984 0.94308224150099
-0.250296539944026 0.262187047450564 0.946899872376118
-0.24347487469114 0.267571139524724 0.956703817847087
-0.243203266718769 0.268909601934397 0.957182657270703
-0.239828179596821 0.269146118144916 0.959723214055127
-0.232243105041739 0.268528602377044 0.965193830195304
-0.22374946511536 0.273056124200511 0.972405084460115
-0.216995402513529 0.272679176822657 0.977192859403529
-0.211877807979443 0.271121146361689 0.980147465561821
-0.196533386581047 0.273029695369211 0.985803158876849
-0.185817643915239 0.271865970855672 0.987946307410011
-0.178457611809112 0.269464183873543 0.989418313831236
-0.171543283300501 0.271901941241181 0.990801179532958
-0.163321665476443 0.272756556792288 0.99244550309777
-0.15498127737904 0.277531243127526 0.99411358071725
-0.14406050240935 0.274246038552979 0.996297735711188
-0.122778125812094 0.276649432012228 1.0
-0.120906912951337 0.278217850109217 1.0
-0.103074085491637 0.284490056000808 1.0
-0.0793457623826144 0.280441933653553 1.0
-0.0667900362498965 0.284860469407519 0.999999999999999
-0.0538575855731457 0.289026677698599 1.0
-0.0456748110657952 0.283245665886638 1.0
-0.0330524344454095 0.288152123524231 1.0
-0.00877917413853308 0.292847257895818 1.0
-0.00481265333642941 0.288101434612794 1.0
0.00494753457448785 0.292741901890944 1.0
0.0260945906339155 0.288307185827361 1.0
0.0536617424934897 0.292743929294016 1.0
0.0570899429174108 0.297963204606028 1.0
0.0767501638409069 0.30147114554824 1.0
0.0905526492408268 0.296023803619341 1.0
0.109917035613557 0.305093145854168 1.0
0.117503789255701 0.305050021772037 1.0
0.184184043142984 0.303209040302162 0.988916265462176
-0.034105799211098 0.291951608979844 0.475693592939582
-0.0310797867469728 0.297322253077449 0.476507559095734
-0.0222235337513624 0.301370752367124 0.477121143117521
-0.00879001883440676 0.300589307606127 0.477002708610078
-0.25439715968514 0.271878560751054 0.693001205478003
-0.265852626593272 0.268685999840378 0.717783444783418
-0.268085944575021 0.272641711585698 0.725933027434631
-0.272601045162581 0.271411971699538 0.743798189584132
-0.274265116556246 0.269122104020495 0.750659027828299
-0.276372464428687 0.27148176242349 0.758718378127878
-0.278379255918995 0.269878933760035 0.766955727378893
-0.281112111996038 0.273023718403765 0.77896334517812
-0.28113756955738 0.273800261754345 0.790627265044032
-0.280996754460282 0.269504916028081 0.803695930173971
-0.280984685337748 0.269136766199234 0.804906819654824
-0.281119966802236 0.273263317061339 0.819527810078095
-0.281013123738982 0.270004235438819 0.819600847672679
-0.281108417043255 0.272911009610641 0.828041102231117
-0.281071924767397 0.271797869440452 0.846264962696455
-0.281091992475649 0.272410003697762 0.856286162715207
-0.281127672422873 0.273498365045231 0.859413932985634
-0.28104794988631 0.271066552947161 0.866490890903178
-0.277827515972651 0.267292784966777 0.881965521140656
-0.277338089853666 0.268886545125119 0.883561271251454
-0.275432154697865 0.270423281637248 0.889324488574124
-0.274024107383591 0.27441086311496 0.893857647125396
-0.270363839631748 0.272980717393293 0.90451021869921
-0.26758017330007 0.270712169292348 0.91259955568129
-0.264404680962442 0.274768433897015 0.921875806011191
-0.262259520055633 0.271005948402152 0.92579254194527
-0.258020033720846 0.277186725029196 0.934558198723638
-0.254707802172918 0.275114226181861 0.940887130816454
-0.249821212297696 0.279328216979709 0.950982675675959
-0.24840911571406 0.27413610356352 0.952792252659938
-0.242581972040127 0.273619369962219 0.958274556519329
-0.232681544073833 0.272802270760181 0.965758946228818
-0.229656723492123 0.279711873518348 0.969428690258404
-0.226540511897802 0.280740503621684 0.971682059597
-0.214956294805736 0.274530741064747 0.978370123477645
-0.210281961712327 0.279030458933207 0.981068815851904
-0.203533500818499 0.27913684656624 0.984403136029359
-0.197549512647657 0.277222009774825 0.985599933663527
-0.176833634402038 0.277523229942614 0.989743109312651
-0.163816935886839 0.283037182855179 0.99234644901569
-0.162460709457702 0.285961528344842 0.992617694301518
-0.148520022520118 0.282506399111533 0.995405831689035
-0.142301761436075 0.286251626517117 0.996649483905844
-0.129291139734156 0.287841332626162 0.999251608246227
-0.114584356869842 0.290112525711353 1.0
-0.102187581452276 0.288168276640879 1.0
-0.0855613743680972 0.288929422255309 1.0
-0.0716147631454511 0.292244408335608 1.0
-0.0596642983830033 0.292191201666622 0.999999999999999
-0.0512629919279007 0.295385528394723 1.0
-0.0290130869199296 0.300468085871768 1.0
-0.0149612298420314 0.298509332422382 1.0
0.00112096057454764 0.299806971097436 0.999999999999999
0.0310603381079664 0.302134913090059 1.0
0.0465052461456188 0.301912859561111 1.0
0.0729549102946481 0.304824786175083 1.0
0.080239667781604 0.304631424802993 1.0
-0.0432435302402558 0.308209463644861 0.478884008554885
-0.0393507864584837 0.306507479608671 0.477938192052896
-0.0286689482273669 0.308173979602735 0.47886428957287
-0.0164345883767548 0.313097857691581 0.481600557981494
-0.257157955580285 0.286739675173437 0.697104014378884
-0.264292233611853 0.286750719154076 0.711371721208626
-0.266560023336746 0.286349314125339 0.717894187263077
-0.268925197018606 0.27944323312528 0.728195350042253
-0.272808189018141 0.284973873193509 0.742692019239157
-0.275874274710888 0.278921312162771 0.755750050829212
-0.278699493884977 0.281640055172704 0.766694411347053
-0.280773193387153 0.27820663518619 0.775439443073455
-0.281422315342007 0.282485989451636 0.791578355506513
-0.281287259875688 0.278366332312504 0.801043894915989
-0.281298235309692 0.27870112087222 0.807183884010013
-0.281413038995561 0.282203028917704 0.812300201756818
-0.28142214173163 0.282480693736892 0.831933965183305
-0.281342545337304 0.280052729411752 0.834313991390855
-0.281491926046644 0.28460935582944 0.840467780454682
-0.281263947961312 0.277655238588543 0.849170262966472
-0.281417960123339 0.282353140273717 0.861882257488551
-0.281269659540546 0.277829461437935 0.869553615197866
-0.279117317624656 0.279062120745169 0.879302478165812
-0.276456247962441 0.282247789228183 0.887449539404831
-0.275321476816758 0.278678046559086 0.89044776815984
-0.273101599411239 0.278082778717329 0.896929941422667
-0.270182434896704 0.284762875337442 0.906413426863217
-0.267520736168232 0.28266888040868 0.914156994589111
-0.265902618220777 0.283829927601667 0.919145267542788
-0.261909030056311 0.285503864253568 0.927570104030532
-0.258572513767487 0.286793526693591 0.934199672871897
-0.255384142010179 0.287002164496751 0.940570169417913
-0.252445969912449 0.288534042412856 0.946588913592052
-0.250323370298558 0.283323321231232 0.950349735718139
-0.238839909409595 0.287136303911991 0.962403260860238
-0.235730628390285 0.283347555600117 0.965174285601656
-0.233628142393489 0.28447549413442 0.967210063862008
-0.224371038948277 0.2874659773005 0.972934589099723
-0.219950510024339 0.286283637086638 0.975486749474011
-0.212016872941058 0.289928557994868 0.980067177412916
-0.199384207995188 0.290104142082557 0.985232994594021
-0.191438938511045 0.294578970699874 0.98682204849085
-0.180037292530982 0.294190928357532 0.989102377686862
-0.172361678983392 0.289091726705157 0.99063750039638
-0.159838252741651 0.289488368163442 0.993142185644729
-0.147833638229014 0.29549304885262 0.995543108547256
-0.143975856667414 0.296963384353466 0.996314664859576
-0.129463986377065 0.295290874445039 0.999217038917645
-0.113624417914721 0.295677358155505 0.999999999999999
-0.103670209857717 0.294223946453248 1.0
-0.0941497159985158 0.297632333038732 1.0
-0.0713734568472868 0.300121809605709 1.0
-0.0657093737579909 0.302002724759003 0.999999999999999
-0.0414043351126311 0.311171153851485 0.480529861519213
-0.0391799721366844 0.315826874766196 0.483117111209076
-0.0295934600304602 0.320526491709331 0.485728754540227
-0.252855584865864 0.296597122092262 0.687756676712544
-0.257380789629397 0.291947088413608 0.697149255369821
-0.266551817931161 0.29328645977505 0.716817655093056
-0.268854466326353 0.28965687626369 0.726380700677633
-0.271856120266754 0.286646114077381 0.738664458730239
-0.273816918609708 0.294878129798474 0.745428165451196
-0.276705730131338 0.286657521718957 0.758061402273455
-0.279556260190587 0.28981562408358 0.769049391942656
-0.281800783661212 0.29403057743208 0.781522305285519
-0.28169850027764 0.290910581753008 0.789506871910617
-0.281550875754597 0.286407525069387 0.796377708790163
-0.281655613811433 0.289602396742092 0.805618918862899
-0.281755324702968 0.292643922548924 0.814696319822053
-0.281721647358488 0.291616647486349 0.822015291200758
-0.281638472698874 0.289079533738803 0.834569461440487
-0.281783242649809 0.293495516135989 0.839652686565085
-0.281742173399224 0.292242762463825 0.851670380116909
-0.281743415427132 0.292280648595219 0.862408417112663
-0.281571217026437 0.287028003958823 0.871545478704099
-0.27985539787621 0.291179548416546 0.878298400565064
-0.275847047850291 0.287913949842845 0.889791442147017
-0.27467523795667 0.293432602565874 0.893935013353413
-0.272269282682519 0.287723033521706 0.900494318165604
-0.271401833245093 0.289013273377322 0.903245487107989
-0.26833232816966 0.295432935322079 0.913194467862105
-0.266731257188152 0.294727195135623 0.917916278345854
-0.261902171219906 0.293787905355444 0.928207122665974
-0.258714203861347 0.287661377746395 0.933987589508753
-0.254767697032898 0.292993287654427 0.942359980913633
-0.254229108574823 0.293240017316145 0.943460093272744
-0.248461115327563 0.290444932568888 0.953459237620974
-0.245888917888957 0.296945358283935 0.956174661917232
-0.238408750185148 0.295226602873057 0.963327695725661
-0.230697461056165 0.297084814838812 0.969828687958891
-0.222513166355794 0.298004808460904 0.974299310035363
-0.215347094131892 0.299151360220295 0.978229910160032
-0.209134571440814 0.302122090756338 0.981731253319262
-0.203766787389569 0.294615347682033 0.984356478715145
-0.197169628421796 0.295278131163145 0.985675910508699
