ply
format ascii 1.0
element vertex 848
property float x
property float y
property float z
end_header
-0.260944260518919 -0.263406895275137 0.94204323690748
-0.262431765676917 -0.259075532484229 0.944098693570215
-0.265553434784669 -0.264039304140555 0.957200420283266
-0.267779265161241 -0.263338493475455 0.964407908737916
-0.272507932735872 -0.251978927238165 0.975320084569612
-0.27218385351822 -0.255206708420399 0.974606016175385
-0.279310383242914 -0.249166031329617 0.986938633157382
-0.279770446044605 -0.245014652017951 0.990404653410278
-0.28553983594939 -0.242864890188586 0.99528382071992
-0.297180720082906 -0.23847278995915 0.999771309629015
-0.317996758606917 -0.232044852284181 0.00534948700458754
-0.316937982310097 -0.231303708876407 0.0155043086932787
-0.320805402383148 -0.234010902927543 0.0174638174375393
-0.31741012490534 -0.23301363277087 0.0248532254859485
-0.316411232595951 -0.232584863817293 0.041782752026893
-0.318398748238376 -0.233957004994552 0.0496603770901143
-0.319486310619237 -0.234642281645267 0.0619831405518963
-0.321803787871117 -0.230939900245266 0.0657347921620143
-0.31751216442427 -0.226065968877977 0.0857812579010059
-0.321940898922007 -0.232904214257099 0.0883578656900883
-0.318533552622495 -0.226829833476741 0.098056434230447
-0.320558745199734 -0.227773504133244 0.105821959876224
-0.319142192514506 -0.225913851324507 0.120237898178349
-0.325058371188371 -0.230201119356722 0.119541122826942
-0.322865771507634 -0.222730256551666 0.139875681294564
-0.330605468404394 -0.223670508089572 0.139527476778776
-0.16383007944802 -0.345541802141574 0.480406421370593
-0.167801158792514 -0.347551580049477 0.480221968056579
-0.173094453353764 -0.342809800535492 0.486149387318503
-0.173681105135468 -0.338144895215333 0.487388070675433
-0.179953041003827 -0.336844008804158 0.490972034028781
-0.199504898768948 -0.322228762444839 0.498806582529907
-0.242879417391101 -0.290704731989432 0.509895106935276
-0.242888787024981 -0.290468632677353 0.515232107191528
-0.247476157140592 -0.290016553234186 0.519500411770001
-0.2166167403762 -0.305047647595193 0.559242094976588
-0.216219279807846 -0.304346341407006 0.570354586270987
-0.224074088543985 -0.303906151257218 0.57921037171962
-0.225653761174262 -0.303946713586775 0.578926294273814
-0.22483026527974 -0.30288400122245 0.591300016534082
-0.247553084723854 -0.286958245606877 0.583755338819824
-0.249283100682963 -0.286051398056151 0.593133653811682
-0.218535594069729 -0.300729144562499 0.625249627601409
-0.248828738094511 -0.284479880996012 0.610970466879666
-0.257519844878313 -0.283825796391645 0.611700868758499
-0.252040168274831 -0.283383900226959 0.62075044206171
-0.235270354584049 -0.297219081802825 0.655698539061205
-0.241546180561943 -0.293243684721834 0.661713047049061
-0.250815184701652 -0.2799316869665 0.660104272192009
-0.184789689626362 -0.325580946468891 0.771195671966058
-0.195574697971795 -0.321300782941556 0.770204695790301
-0.23294308300865 -0.289115488369791 0.794916497574308
-0.238980630945745 -0.286745022189214 0.828587219767853
-0.242850695076496 -0.286426568541591 0.833521122027446
-0.245468996298916 -0.284721934385969 0.857227844221533
-0.240630560440492 -0.283386826667413 0.863224076600515
-0.243888987393613 -0.283383974766783 0.872894009254618
-0.245587614866578 -0.283344638866548 0.87432808800773
-0.255531920500393 -0.283005253581103 0.88261067946315
-0.251610812984835 -0.282214964835575 0.891659683547687
-0.25594937838754 -0.281177294617704 0.906913622768558
-0.251856441810518 -0.275917107881069 0.913499148884375
-0.258043850243036 -0.275140019049866 0.923939077483912
-0.259218693464979 -0.2751415893429 0.923872745577957
-0.257801565587158 -0.272334391814195 0.936650295351695
-0.263370636774556 -0.27355632555948 0.942417343275192
-0.264914275692549 -0.266982932730297 0.955130751441639
-0.268008017916517 -0.270106274938963 0.965148635821155
-0.272070616691024 -0.267686601145171 0.974356512859656
-0.273008166180646 -0.261787465024272 0.976422286973195
-0.279350318345166 -0.255708504864647 0.981821627363501
-0.279266715145728 -0.260618843768855 0.988950343214539
-0.289801187793855 -0.25309933675678 0.997489021533802
-0.291110343216516 -0.254900121378974 0.998168048878216
-0.327867817168711 -0.238954593277438 0.0125261267315759
-0.324311412690823 -0.236465110142916 0.0198929145219165
-0.322161257501535 -0.236842977231968 0.028922031431864
-0.324663975306078 -0.238556574936007 0.0404742788052596
-0.322068336248905 -0.236589658222336 0.0518257650080201
-0.327243077178767 -0.240301628326526 0.054942928128581
-0.328148078210592 -0.237715123077657 0.0662860764632292
-0.327682583294948 -0.239747984558354 0.0820633320562956
-0.328132917430536 -0.237416856511429 0.0931260528260717
-0.325682834432467 -0.234348550237315 0.0974152564391806
-0.330315493710849 -0.235348079920713 0.10986911495375
-0.327087830673098 -0.232440220003554 0.114185656715207
-0.334270497856921 -0.229655798966903 0.131852024224807
-0.33506254324057 -0.228670456685552 0.132678099911784
-0.175724097202315 -0.348799404614403 0.479698216269325
-0.185375671459903 -0.343913887326664 0.49257530875595
-0.191244892257149 -0.338893364206846 0.498559167734437
-0.193740622998807 -0.336288770294364 0.500660835727413
-0.193570704736303 -0.332286515450483 0.500217989982923
-0.207784014069613 -0.328756835805851 0.512910907399801
-0.205226192117895 -0.327449931875183 0.509192241408344
-0.214592872556378 -0.323130110507321 0.517372050611344
-0.256911060267899 -0.289191872055761 0.532845593279404
-0.248770870908916 -0.289446516403444 0.541514497181998
-0.259607553932795 -0.288605600296733 0.542240575000053
-0.263388780617252 -0.287849764790492 0.552610126727334
-0.262709356348813 -0.287135345853162 0.566508286096246
-0.265882529282436 -0.286300736054167 0.575101013757101
-0.264309976128134 -0.285983338498196 0.581076810819254
-0.236825421388053 -0.303392366917893 0.645305098930931
-0.236011399574953 -0.307171188926715 0.657798517515695
-0.237985100261741 -0.299499290642853 0.66034617356374
-0.23826951771462 -0.304386411883284 0.671721077849015
-0.235144351091781 -0.307649634098539 0.687774563758699
-0.234317193267479 -0.311395433240834 0.699099416773636
-0.234293242810029 -0.306759775036318 0.707485831587868
-0.230913970376924 -0.309864088939834 0.727467493424374
-0.201521209401532 -0.332880197811294 0.767808996718681
-0.212700056930119 -0.323430723824261 0.765382073981385
-0.257400515406349 -0.283532096529855 0.873522912358219
-0.269828508759955 -0.280605557130729 0.914881084889094
-0.276500097041831 -0.27993775960147 0.92278419815492
-0.265653551632861 -0.275311137693309 0.936812882832175
-0.267497385552676 -0.277114424844915 0.942435180007379
-0.271037257022569 -0.276512472170209 0.952890442291913
-0.273712622568581 -0.27773955345106 0.958711670034507
-0.275168103000793 -0.271491637793858 0.973439083727839
-0.281558646865192 -0.271278534164102 0.978800836775741
-0.279193353915702 -0.265993941295831 0.987926909269896
-0.282379971291873 -0.270070441436605 0.990648496125399
-0.291305894396207 -0.263546437899832 0.998259783490834
-0.293560633841087 -0.261291251224174 0.99913242355257
-0.33661969447685 -0.245166199541706 0.0197140848149243
-0.334543602851968 -0.243683276952504 0.0310352424826235
-0.33417035106795 -0.243416668535349 0.0303547840385004
-0.331151397334019 -0.243167022992171 0.0496884913792788
-0.332866728419427 -0.244315855439023 0.0607606785033996
-0.333622453786874 -0.239991648320278 0.0678775180680096
-0.338225627204245 -0.24194513613738 0.0714710378884866
-0.335695524148592 -0.242538656848937 0.0814967190481192
-0.332992331747532 -0.239282352216555 0.0955898065986435
-0.334895409023512 -0.238173907374421 0.104505491274031
-0.340293688411732 -0.238666838869944 0.104412492524123
-0.198097631842658 -0.344537958245525 0.501278229679552
-0.202910703467853 -0.343273206902888 0.506441932495287
-0.208435719875499 -0.341326249275655 0.512934983062809
-0.209502200362605 -0.34011761855606 0.514816338627713
-0.213275390771034 -0.338302193373053 0.520453374581654
-0.21566320241812 -0.329306515356901 0.523070372436957
-0.221382442311461 -0.332621471907053 0.532512536586652
-0.229705215295784 -0.325217550833974 0.548675015457468
-0.233474708228198 -0.32533203940824 0.562785283023899
-0.236182743166253 -0.317976683922333 0.565994087262059
-0.236554135942663 -0.321725898098255 0.579733684874401
-0.237348186352661 -0.31803949269254 0.59904470708405
-0.238474137504099 -0.314403281360175 0.605099921976914
-0.236125536921498 -0.318008610931795 0.624729820454381
-0.236400323887225 -0.316762741797461 0.628671764435736
-0.23528342564943 -0.319990911783013 0.641250921590786
-0.234819944390933 -0.322279027647673 0.653857927075042
-0.235086557093681 -0.317444007812716 0.653527331745202
-0.235783506386876 -0.31338869451409 0.664358606126222
-0.235475155623833 -0.31323433910656 0.671214436422706
-0.234032359656452 -0.317140950849215 0.681397552493424
-0.233534523643216 -0.322135357581727 0.69823893708532
-0.2330660365665 -0.321136888723757 0.708866505935297
-0.23259884807566 -0.319407972936589 0.715165312997369
-0.227331648437048 -0.320027545969231 0.733891745364957
-0.214308985914656 -0.336474530119688 0.760332023386487
-0.218296831176767 -0.333183558629723 0.761329584271016
-0.282625103512555 -0.277351004409789 0.962179415303923
-0.290755830282167 -0.276107616290819 0.980496252857667
-0.294536798631868 -0.275707556137791 0.985472369157092
-0.296845486675785 -0.275412932500808 0.989412985666358
-0.300829512411344 -0.269642255920491 0.997137540100764
-0.30383735176794 -0.265118955078341 0.999259627090528
-0.21162676422933 -0.34704466450561 0.506394937803331
-0.21879925528527 -0.345661909495003 0.519642415665923
-0.224654107809683 -0.341260931812603 0.534728231385593
-0.226552945923679 -0.340512054657931 0.53908848061776
-0.226873515196262 -0.335739169003307 0.543494682356252
-0.229662806213942 -0.333778972346498 0.549212920980162
-0.232739345941956 -0.331691844212623 0.559761057190494
-0.235149574819347 -0.333971327667213 0.567999536351441
-0.235157761179387 -0.327420482072355 0.570097339246649
-0.236677281049663 -0.327969707163123 0.58865564521537
-0.236948483853736 -0.332486576517207 0.600895409472172
-0.236928186732967 -0.328057675617684 0.600498386478467
-0.236607992175197 -0.333225003574412 0.616529822696017
-0.236186938867124 -0.323881553505422 0.618289569227747
-0.235914466157381 -0.328142725391515 0.633190875041118
-0.235833417218175 -0.333665025434991 0.64826136420755
-0.236186829362375 -0.335239640627237 0.651395941042791
-0.237471012535138 -0.337447123811921 0.670943362112994
-0.235252851943993 -0.335199292347171 0.677167150373984
-0.234569692622455 -0.327533342051145 0.678845684633898
-0.234679012327766 -0.332300833389493 0.6893052968396
-0.234613824121289 -0.334926190104655 0.699981570310247
-0.233819591331848 -0.330152213682271 0.71635686377114
-0.237096199278008 -0.338373420795012 0.721926931236686
-0.228496044458749 -0.335188352641677 0.736886818502338
-0.31048849284044 -0.277113036740851 0.961660315704696
-0.309077807817929 -0.276606559812465 0.972336026589966
-0.30755292824022 -0.275452440612214 0.985630283508703
-0.311615832540423 -0.270142481957589 0.98987458871435
-0.227383899206943 -0.343917888620726 0.534935936085667
-0.232949407260189 -0.344428633591134 0.543560177117144
-0.232254707804938 -0.3432668798361 0.544293797173764
-0.234190988399185 -0.341124816961031 0.55475891423287
-0.238239054811385 -0.343005994773864 0.56138521589573
-0.238601382929957 -0.340773300169024 0.571060524287683
-0.240557302217564 -0.34178825672555 0.574674957285452
-0.24031107534118 -0.339113059877851 0.589929612910134
-0.244935515055817 -0.340765327840429 0.59168793784579
-0.238118776737278 -0.336134968150542 0.607371294714173
-0.240714044402664 -0.338894191435137 0.613690204325272
-0.244551742924814 -0.340170900687939 0.629359552742801
-0.237287789136574 -0.336694408981576 0.63710829161055
-0.241085010270352 -0.339593569792844 0.647510000877562
-0.237004892259182 -0.336967331309825 0.654738226808903
-0.236870113251292 -0.337045926832206 0.665923923314324
-0.240725571727215 -0.339617568476013 0.675549083521105
-0.238646040363108 -0.338377354655045 0.691399846798047
-0.240718480186315 -0.339636085960352 0.697775116973293
-0.238494467091226 -0.338452658615616 0.703023749565754
0.09720582341614 -0.374565391096014 0.0870487401178481
0.0876671041558566 -0.377414639962021 0.0925507228475086
0.0889641636876985 -0.376951646498468 0.0927115843504398
0.0859277122478322 -0.37541151990835 0.105112666185916
0.102123989454284 -0.367937891355534 0.0906147505090446
0.101623415936492 -0.364491225296588 0.0980442100441454
0.100727818637394 -0.363399183362003 0.103708858545917
0.0973895599782306 -0.366221511988321 0.11426004651774
0.0915180401940703 -0.36614151843877 0.1284612919483
0.0880413511885455 -0.364999542537721 0.131278760638063
0.101510997575258 -0.354426940127184 0.0944644902534888
0.100273269877418 -0.353162355002452 0.0988561580404287
0.099477683954919 -0.353432853280369 0.102884473669661
0.0971353666302737 -0.356091238413738 0.123354267291965
0.0954373655496182 -0.355569559387416 0.128508253146689
0.0931738615379158 -0.362448847831561 0.129002556157295
0.0891041251573739 -0.357980508997947 0.135675676972422
0.0823625405668859 -0.359935038896446 0.137033983596945
0.0980216778379436 -0.34681272292736 0.097199715112819
0.099405213448529 -0.350106023465862 0.0993413679158877
0.0983572694108498 -0.352730930158263 0.112496450842195
0.0982682314512935 -0.352779315511015 0.113536689333279
0.0973855221894592 -0.351149593050083 0.118425269698321
0.0945645318270346 -0.349944631216102 0.130639426495491
0.0904914435377377 -0.348242422275722 0.140874161593655
0.0802215798614531 -0.354803583183299 0.141940370319538
0.107351840308504 -0.342655486727981 0.562026623813698
0.112717780185351 -0.341690693289734 0.588743706330116
0.0954203162208704 -0.341041943319262 0.0809179264473501
0.0626695129570154 -0.339845789109804 0.0573969532224012
0.0915481287446739 -0.340423758671258 0.0962773760032276
0.0938653875433366 -0.342730426412171 0.109857369584963
0.0927602412972573 -0.34045327124769 0.123688351530326
0.091745599804061 -0.339031108777939 0.130694029544006
0.0879226866650324 -0.338855714384869 0.139894112420598
0.0871334925501659 -0.336245135883377 0.139857406673221
0.0813668272862076 -0.337838539696425 0.146500898643214
0.34222189957839 -0.308059424774163 0.521866129786211
0.10276580057823 -0.340694601705989 0.531278311650977
0.106255302820014 -0.338799526479922 0.539653750463811
0.108851603757281 -0.333510431803996 0.547353437002607
0.108449356721586 -0.341719997158986 0.562485226434059
0.111278175848617 -0.338002299147131 0.56590915760914
0.115122174521899 -0.337131892783155 0.585297001568862
0.119792092519527 -0.33477904285397 0.607350480603895
0.121499353591241 -0.331196623879285 0.611471003123707
0.122073984750308 -0.333391464559147 0.617643762781368
0.123621720795875 -0.33267038692261 0.624963325918634
0.123168430397971 -0.339737714338764 0.640276072793466
0.125419372553827 -0.338815382000909 0.647723740748624
0.132488022080448 -0.334290123641618 0.672919918092483
0.134164813674986 -0.332120351654123 0.679579522903845
0.132984043150948 -0.338625768635443 0.693575872998505
0.139073703542499 -0.331901145130194 0.704903327549585
0.136254382961706 -0.338402061052051 0.712329490124732
0.144219695388119 -0.329960013906073 0.729824174392231
0.145346477544068 -0.334407314355944 0.739910609698547
0.145332442877934 -0.33440880992971 0.745885814652518
0.144590813426642 -0.335138274165351 0.753928393419754
0.142524742825575 -0.333168740641053 0.767641513785284
0.137399612843028 -0.333027175321947 0.778784218452574
0.132474113939243 -0.334006014634922 0.782170574425503
0.0597909063856579 -0.3305665064289 0.0500366137934274
0.0883548345796661 -0.333312345463843 0.120706309666788
0.0851924328868061 -0.32658336965347 0.130442875608387
0.0839207980141812 -0.32647957701855 0.138976832439168
0.0747296296493222 -0.334652041116867 0.148472900086003
0.347621521114839 -0.302363977291122 0.506051536658119
0.349431679742664 -0.302745703374081 0.512061704132402
0.349578154315313 -0.297024298194271 0.520845732952765
0.345186244681624 -0.300804280856621 0.529883142407933
0.342326568183018 -0.298771376987699 0.532501115201288
0.326371024826134 -0.305203410331647 0.533897123646146
0.319383791363138 -0.30071186233846 0.539058589099882
0.312257219341305 -0.304363502762529 0.535967458250654
0.300358192596408 -0.303579936297004 0.537733909905794
0.287531419918872 -0.303953582512849 0.537893875031557
0.099235165716474 -0.332518096644005 0.521547156618954
0.100217790169441 -0.327298195096729 0.523300896809097
0.109250336804254 -0.329736948988438 0.547589171948936
0.109752682481311 -0.325410848498173 0.552616643156632
0.112271974694744 -0.325668465104676 0.564295790237251
0.113845853179441 -0.325136956122597 0.57201899539265
0.117078007825884 -0.323448834098369 0.588283288234446
0.119614478781917 -0.330753283801284 0.601228787064808
0.121898370789829 -0.328994844613533 0.611638610721674
0.124719931572389 -0.327586650483055 0.625122494330934
0.127560569657117 -0.328511629206661 0.64082465562897
0.12771189663242 -0.321741321718918 0.639267855909809
0.128535975680623 -0.330380634076965 0.648203459897016
0.134606485793984 -0.324292170426864 0.673735778547407
0.136441346373563 -0.321325106003785 0.680543474955118
0.137286763643028 -0.328822992576686 0.692684246183969
0.139517813379672 -0.327173773588602 0.702721284839467
0.14160917157604 -0.327595015954546 0.713999111252357
0.145526583945714 -0.319409215325209 0.726132085175869
0.146476403808596 -0.325976582082794 0.737776701695346
0.146657237700681 -0.326919021368084 0.74887357319067
0.147350970684513 -0.321449826030289 0.758605981599038
0.142918611422758 -0.326020090327648 0.770083144080516
0.142661278672437 -0.327223376552474 0.770457155837703
0.139372119794907 -0.326821725681331 0.779123160037128
0.136078637195747 -0.325641046703521 0.782659447539016
0.127219678001374 -0.328156842038851 0.791328285695961
0.126965185374267 -0.323431140617247 0.792406212965836
0.113815499698889 -0.325943898129665 0.799826943783137
0.108324188777685 -0.324825144531859 0.802298033697679
0.0995757760300746 -0.324549035541317 0.803347054386772
0.0908992861436311 -0.329691649068938 0.803760220571841
0.062633009627848 -0.330761325746113 0.800245702613738
0.0471618875525489 -0.330693378419455 0.798544325142071
0.0359026088240432 -0.331320232282246 0.796704970565267
0.0840349873243979 -0.325310192042077 0.136955346573525
0.0804922353231114 -0.316937741018489 0.141678120213186
0.0772769274536311 -0.325891109364016 0.148065329597659
0.0704173772923772 -0.32237823175638 0.149839292834312
0.349436195203594 -0.290064721912368 0.512296544911545
0.349535324618609 -0.293211602022458 0.517452082612582
0.347326104323865 -0.294909689491344 0.526674536466668
0.340183163829768 -0.296020915820048 0.531872544102562
0.336726623686343 -0.290799658904068 0.532670983473631
0.332168012670926 -0.296947009834376 0.536826417084805
0.331272165605245 -0.28975595247426 0.537453096396341
0.313965021632268 -0.290942943110052 0.539735935316241
0.303345667003502 -0.297503263479322 0.539710308978381
0.289501482547464 -0.299156273639435 0.537438511966816
0.285169231350595 -0.295699090352655 0.537564457842725
0.281951636384454 -0.298026043926294 0.538239965668147
0.264454135307376 -0.300663423979383 0.541515395008476
0.25928518511226 -0.30256726490677 0.541592887012933
0.25528405116165 -0.302340357298307 0.542162668340543
0.230646143595453 -0.301661554518769 0.539817548219821
0.220595089198534 -0.305936077040062 0.538394631458335
0.194979148104875 -0.306497749411867 0.536048854383841
0.0991967762112664 -0.318897829193304 0.537238751041431
0.105069401444255 -0.317917438160078 0.550592223573565
0.11022713609089 -0.320270100924994 0.564625795623383
0.113790624251622 -0.322134956535647 0.575613575847553
0.115036813296651 -0.320490572359023 0.584589376293362
0.115594631635102 -0.314300995988632 0.597953830409659
0.116615663221302 -0.312568663326686 0.60752317747374
0.125281737147071 -0.319424316553734 0.629697538712474
0.124324280279901 -0.316562306534346 0.631090751368469
0.130116361897668 -0.320306884894227 0.651572678839322
0.130013151940444 -0.317152263836768 0.654349222588474
0.134958801635193 -0.319089064180474 0.675117924836246
0.136868185708856 -0.316372527389149 0.686141245795482
0.137739502924847 -0.315050318258543 0.691219646744235
0.140541714881718 -0.312729929062136 0.707205581710418
0.142250217547502 -0.312346488341373 0.715208003713803
0.144941435062872 -0.318204809694511 0.722408375445724
0.147610072335244 -0.313300076116689 0.738659734374983
0.147365083986147 -0.31125831789435 0.748586076704573
0.148071168348595 -0.317706469070585 0.752308313499775
0.1464287848409 -0.315975417960672 0.764221925973375
0.142409372391626 -0.314214134621505 0.774750633113795
0.1396137077103 -0.316773430245014 0.780163768145307
0.131327699293442 -0.316057317480574 0.788482475488085
0.127144540119953 -0.319058405405314 0.792905215381707
0.12181867296981 -0.311820772152305 0.795953473866421
0.11039425806007 -0.317990669481409 0.801366502520606
0.112406593478042 -0.321468577290008 0.800460951582518
0.0989411278626123 -0.321781962671244 0.80345679451435
0.0905303307949586 -0.316378539370833 0.804480046992583
0.0748939859596157 -0.319775730705833 0.803416589629407
0.0550182542540917 -0.322345825682892 0.800759721727736
0.0440309844972532 -0.326985202050412 0.798990178151405
0.0221082429084486 -0.324013989401689 0.796602340281885
0.00046222312581324 -0.334362652208967 0.78996482092679
-0.0218094058638782 -0.327391954870326 0.790946753460142
0.0807780539514556 -0.312322446381326 0.129562255274635
0.0816710111071336 -0.315838608572057 0.134104553657146
0.0741469841340841 -0.314070861174844 0.148833812725208
0.0702446800243982 -0.316861535634726 0.150369853743742
0.348863277495824 -0.280538248414499 0.510110315725672
0.349513888054937 -0.28273606061695 0.516337206547065
0.346842111303559 -0.283437764904374 0.527927217458733
0.34716555819258 -0.280171959661159 0.527090065365996
0.334723724745681 -0.280260749954243 0.535038598667077
0.333363757392656 -0.281305282198811 0.535989947884097
0.322512503444361 -0.289929546622698 0.538667500089729
0.313987443936335 -0.282540468728735 0.539733132528232
0.311360323810599 -0.28725740897232 0.539786265550748
0.288424341068319 -0.285263559271966 0.536655254804045
0.286249472784215 -0.286954547718097 0.536932641709621
0.271372353449113 -0.293378794827557 0.541027070360916
0.271148400289308 -0.290741993316955 0.541042878166566
0.260775821017664 -0.291553391017378 0.54177503000297
0.246067763498366 -0.293913393637154 0.541708630191184
0.23792189944549 -0.29464439574039 0.541276637994466
0.227262775048825 -0.298993298700112 0.538243000923077
0.211798287380476 -0.297921005941596 0.539460511879712
0.20230324040377 -0.301126762607936 0.539357824160838
0.198614201823776 -0.30084222324174 0.539189288639392
0.176851368791085 -0.302246283251954 0.536478871603083
0.166947186796473 -0.305682874509607 0.532843245445012
0.141499928819645 -0.301743157728151 0.530853848328998
0.136962429947493 -0.301808306240176 0.530349692441669
0.112685630964786 -0.305004741019667 0.525688219849684
0.0240162370249959 -0.31793269733542 0.494532814804281
0.016363390700072 -0.313074353279509 0.495798983021434
-0.00319902015558654 -0.32519684530434 0.490992816908899
-0.0116781986298948 -0.325448972033768 0.489519154097808
-0.0386714816136338 -0.322168941030864 0.480606253174188
-0.0496483490846337 -0.325156746537967 0.481474594901341
0.12073008600301 -0.312096663555293 0.622375537875045
-0.0872642873374652 -0.325277632534691 0.473888898955927
-0.0967278536340269 -0.325756714949021 0.472448576016989
0.130461362053177 -0.3092560114599 0.665012235280335
0.132851724949964 -0.308292680855463 0.676208816625727
0.137597197371723 -0.306861444686925 0.698642692612146
-0.145799199288753 -0.33063924837202 0.475765400088591
0.140440959149111 -0.304492586688134 0.71377736131298
0.143075375748661 -0.306323987816565 0.72374763785756
0.145035583702995 -0.303141081096795 0.735125674087206
0.145579197173076 -0.302626299882059 0.739613013779515
0.145156268109071 -0.301435095788704 0.759726615543297
0.142494417770968 -0.302578097578499 0.76755214749394
0.142748504257577 -0.308265164165287 0.770269856943876
0.13807803531722 -0.308602725574346 0.780233158618501
0.133980039151984 -0.309582328936252 0.784844407752982
0.129053886916092 -0.302563912526983 0.78828942800415
0.123994242297693 -0.30649042625082 0.794036345515643
0.116588060512934 -0.309342518975732 0.797937795713059
0.0993094541160978 -0.308349004239323 0.802956826631675
0.1042739580986 -0.308022511704665 0.802451092665368
0.0816039177076843 -0.311010917405819 0.804071884070792
0.0729561364805962 -0.307417641408762 0.802400411717535
0.0585973603214472 -0.31811539556712 0.801530135295342
0.031581746798488 -0.316608106618651 0.798209279148001
0.0193042937002304 -0.321268673036449 0.796511034173213
0.0110890574979938 -0.315698434632176 0.795690244250599
0.00116159779547094 -0.316932630676775 0.794469925283843
-0.0250422778958594 -0.319105601598266 0.791248850863314
-0.038697858551959 -0.321462559496572 0.789395933035136
-0.0644657049673987 -0.330510695265441 0.785468760380848
-0.0653885877699116 -0.329145336631742 0.785484162989317
-0.0969138656393447 -0.330838431476964 0.781492818436532
-0.112358141193874 -0.332281595096248 0.778997252598589
-0.127449853212531 -0.333677173680078 0.776025296229643
0.0770449803245103 -0.300956020608634 0.134310547755155
0.0740770947217876 -0.307124850570649 0.147742376220624
0.0745053884980529 -0.302217599480296 0.14538967466264
0.346736291116346 -0.277744982980693 0.503158092305523
0.349512766421086 -0.278240780251937 0.516278872443061
0.347267569161061 -0.270623966045983 0.526826038415532
0.344990896447873 -0.272592824727331 0.530090697906959
0.334122272566403 -0.271270021961032 0.535459337487431
0.33130187277427 -0.271191870340469 0.537432315094548
0.326229725805382 -0.275372403864287 0.538202847294601
0.322091753870167 -0.278869362173946 0.538720093786503
0.313350794467833 -0.277922207002407 0.53980512965587
0.29683655271097 -0.281361019274146 0.539648620746095
0.282902294900856 -0.278533625670645 0.53780699552088
0.277932848343681 -0.286198367483401 0.540070291931284
0.263882026190611 -0.286213236101201 0.54155577751407
0.260422923932878 -0.28236857106452 0.541799939356944
0.245812401781543 -0.281060143008072 0.541695087825599
0.243552635498877 -0.281540161088758 0.541575247696402
0.219554429394661 -0.2866981983049 0.536791474897072
0.209118532403632 -0.290361263601652 0.539669184090017
0.200286735427715 -0.289325577383211 0.539265699150413
0.199736795028148 -0.292798373268844 0.539240574855832
0.175183113071656 -0.293155914977133 0.536181687747487
0.154748542510518 -0.289378019891938 0.530430162561715
0.160430134697629 -0.295878462345126 0.531484263541479
0.132187033417494 -0.292423498350339 0.529819104039829
0.12588336928664 -0.299580817432408 0.528929277191414
0.102021627572502 -0.297866712347637 0.523526098779967
0.104835846043266 -0.299406736391723 0.524068038952829
0.0824427852800248 -0.300922212518037 0.521701291214588
0.0632671900654968 -0.299588732030802 0.520616777362678
0.0554013429149959 -0.302147934584918 0.519501934540935
0.0438449664512525 -0.303041858444684 0.517288072263579
-0.0219274092833862 -0.307270881064992 0.507114222328116
-0.10978447730418 -0.326040214050104 0.471533081490677
-0.132857310853207 -0.329207291045581 0.47372453259891
-0.140595142512682 -0.324453746639043 0.47043735147015
-0.153071724736428 -0.327204546665313 0.476578835342876
-0.163246840243785 -0.327263307299302 0.480147386271124
-0.174150524195824 -0.326611859610432 0.485286630266089
-0.173170759646673 -0.329647585664269 0.486189517010948
0.142366274095592 -0.297778889387562 0.754784963624385
-0.195322430197614 -0.327085306711281 0.500155890172739
0.139117804540753 -0.298527248668262 0.774402469741534
0.138530871373092 -0.297676402419356 0.775509376197237
0.130714527386184 -0.295698057550373 0.78369157620827
0.126762478542449 -0.300870966372266 0.790536423184579
0.120170515610731 -0.294051985280032 0.789761966275806
0.112871317359001 -0.294829122309484 0.79513678653995
0.11198577422629 -0.302286618283101 0.798790857672048
0.0924967596874838 -0.301183359942607 0.802200350535469
0.0883514227307552 -0.299416244783012 0.801962981105254
0.06915745279255 -0.3051586036775 0.801352067142025
0.0511239220095427 -0.307995373445045 0.799788828827947
0.04074980993459 -0.308902491121847 0.798653303532227
0.013994220250822 -0.308585839541237 0.795270053946635
0.00918098157346197 -0.306913167999013 0.794280842148946
-0.00570893144836477 -0.308554403932594 0.792802509336902
-0.0297346990983223 -0.309164823123896 0.78992336771457
-0.0485503752382893 -0.314110361172999 0.788359151189992
-0.0482402384966369 -0.311286039739494 0.788013036248349
-0.0722723475448289 -0.317261782262065 0.78544316123869
-0.0880181896329621 -0.32454647491379 0.783121285161795
-0.113549239809623 -0.325039142773578 0.779958068688395
-0.123648696962308 -0.319452795058617 0.779127796027904
-0.142363514384282 -0.329495970264909 0.776088009246495
-0.174496726089679 -0.325667375303692 0.772449010697157
-0.175315388985609 -0.329763715593622 0.772033693049721
-0.195392173473323 -0.331038441798473 0.769477988383921
0.0742364757349892 -0.292166810240938 0.130225882138373
0.0720731457197434 -0.288223493541925 0.141449144488333
0.0724923733166556 -0.29724722715206 0.146506307282448
0.0643917953280823 -0.292174843380401 0.152984583849572
0.349486532710498 -0.262941961647819 0.514914505630678
0.349434727120232 -0.268966294486416 0.512220192608699
0.348975215718216 -0.263020465011951 0.522406271407405
0.342276912335182 -0.269078309199668 0.532506200146913
0.335866979701718 -0.262979486904331 0.53423884806655
0.331099616611046 -0.263197376796601 0.537573801022201
0.319994516264384 -0.263608636283318 0.538982248487226
0.314847546829562 -0.271557489243423 0.539625619666579
0.30435067963062 -0.270093072216602 0.539719833692437
0.301163095059974 -0.271379041232873 0.539689624289347
0.283455910541283 -0.274669480274698 0.537554855513476
0.272775804360734 -0.269676850767368 0.540928007327958
0.265456254190127 -0.272847496394182 0.541444660125562
0.253876636988293 -0.272823456988744 0.542122751073991
0.248667048421444 -0.27388091560152 0.541846475703523
0.232089736590272 -0.279672751336204 0.540489364478317
0.230666142253581 -0.277707319271576 0.539826854110528
0.212972429319043 -0.282349867285899 0.539022317200175
0.200143244359844 -0.276003264775044 0.539259143691201
0.198249716254328 -0.278667888980528 0.539172636938908
0.17148397107195 -0.285113451793611 0.535522720858258
0.157323053737554 -0.28302034768876 0.530313986210724
0.146429495780526 -0.282249901896583 0.531401566416724
0.140869762821342 -0.282184876856982 0.530783831364368
0.125780559959184 -0.285958562026973 0.528904384802252
0.117786597275306 -0.283628285652244 0.526968871410671
0.0958261829832529 -0.290078273700575 0.521966519612171
0.0743912229004285 -0.296263020627671 0.521405553857324
0.07445789291854 -0.295917623504909 0.521408002675831
0.0576921592743124 -0.295349474047866 0.519826616692171
0.0367007087680367 -0.294092400382597 0.514091882702991
0.0353929697047021 -0.295854496131336 0.514058586442735
0.020597676303591 -0.301577016955395 0.515737236210993
0.00402975069874544 -0.296199333643626 0.514441815611138
-0.0169369229448266 -0.299003876287539 0.510442314773271
-0.0352138445093968 -0.304982777026986 0.506166095699925
-0.0388294836154168 -0.30417672831863 0.50697272983249
-0.053937276297341 -0.302572170999097 0.506197475309228
-0.0618288764656948 -0.302461602788893 0.505422301446379
-0.0934038840878938 -0.30731467522864 0.497272177823781
-0.166765716624304 -0.313787366973587 0.480322439285819
-0.177340818470959 -0.318425137586804 0.485101686239536
-0.203220934187869 -0.322224714899751 0.502033895913788
-0.202972699891556 -0.324863410384584 0.505288362148187
-0.214667396165637 -0.320630155913888 0.512874753995566
-0.222776362038788 -0.322143746911854 0.528457741502905
0.113545613083439 -0.292953281936762 0.791770929567398
-0.226571396955554 -0.325515069545288 0.542056127156629
0.0883703124452843 -0.292890533348971 0.796375444189734
-0.234571700729329 -0.321148459498604 0.562179089023047
-0.235294156910473 -0.320297662521577 0.564524948318224
0.0423143143209358 -0.299261745698144 0.796446833496075
0.0310117319669969 -0.295559247379262 0.793400264350803
0.00678404645611369 -0.296462620774932 0.791353403858699
0.0022621368593775 -0.297969978767211 0.79114033619884
-0.00956578415288135 -0.299168806690918 0.789949796353172
-0.0297001887282456 -0.306622507457967 0.789324790318728
-0.0449836733349077 -0.306354357519815 0.787336572122917
-0.055249569480154 -0.306919756838642 0.786195265502219
-0.0878477768667876 -0.303728075409497 0.781291458861415
-0.103644573980375 -0.314111551524713 0.781586774600433
-0.122178429601054 -0.308986846304369 0.77833278017748
-0.120666920019 -0.313453429567313 0.779391113588971
-0.155079262923393 -0.313081608825074 0.775049065054729
-0.164776385478916 -0.313658570316924 0.773953122442509
-0.1702032700501 -0.315568871201357 0.773405140864288
0.0701472509804765 -0.28129646235216 0.128293263627204
0.0719869831378615 -0.287638065877375 0.14106812797351
0.0681415278713642 -0.282332154360883 0.147440229969681
0.0672002194163597 -0.284265486992311 0.149472116350289
0.349485273220348 -0.258367580117586 0.514849001875311
0.348859077619716 -0.256779485806045 0.522706862495172
0.343171200460538 -0.255985892395169 0.532024082996361
0.335266940656374 -0.259813965207086 0.534658598345628
0.331189752839534 -0.260614875731453 0.537510747280354
0.323372877887153 -0.256419390141039 0.53855995328438
0.315895251162297 -0.260133844643776 0.539494656624987
0.303256673895567 -0.256470969884496 0.539709465572156
0.296268215213689 -0.265617828009173 0.539643234493224
0.285549723112121 -0.258454798930549 0.536290500594434
0.276875490228913 -0.26343422092046 0.540551857594207
0.264962364684929 -0.268907265008889 0.541479521474773
0.261841752513669 -0.264648593623243 0.541699790886273
0.255352680182117 -0.262325314971748 0.54215782413911
0.228247299218835 -0.271537340619419 0.538701176152345
0.229517658011786 -0.265952476527073 0.539292373650739
0.211027947650208 -0.270144789325785 0.539756416511347
0.202725411805722 -0.271516460285394 0.539377111266632
0.193527490548355 -0.270917699945001 0.538956899761189
0.176083856306921 -0.276362553965317 0.536342146569501
0.166757585458044 -0.270900015517895 0.53370810100864
0.148984549826369 -0.270775083501392 0.530709067099223
0.143246912762663 -0.27276836157132 0.531047953554092
0.130909771160509 -0.273042479491988 0.529677189010279
0.113523587988006 -0.281158428602367 0.525936703524692
0.0932905854770329 -0.279611603310804 0.520738491924822
0.0850708798291918 -0.28425617211029 0.521797822260361
0.0679452800302712 -0.285098138488953 0.521168791596832
0.0481187260978808 -0.281262902256176 0.518469754163321
0.03270062301385 -0.2867685795492 0.512942473336334
0.0312796917661679 -0.284808551625666 0.513607472155351
0.00937848464943668 -0.291502781396531 0.514860024885379
0.00781925733093695 -0.285666398707804 0.51473811130148
-0.0151828215064466 -0.294089005517005 0.510790166459775
-0.0299799250815275 -0.290458693656289 0.504933278204246
-0.043979483288676 -0.298779324053357 0.506708458220998
-0.0597440124257343 -0.296180715967359 0.505766900185647
-0.0635359630498778 -0.300221845971545 0.50514014401383
-0.0887825433658472 -0.296318436452933 0.497970848562901
-0.0903561308620301 -0.297680115868241 0.498760647894869
-0.116215894410863 -0.297115267031765 0.500940853273395
-0.121134110550406 -0.30249343795184 0.501157372803446
-0.134445413920502 -0.305626320362923 0.502358867957795
-0.144173696171396 -0.305500383328423 0.503736993362986
-0.157503878087867 -0.301629548972553 0.508467509939481
-0.1577895907462 -0.304568922905848 0.509542788066599
-0.176065488019941 -0.306455027470931 0.511797641754882
-0.179217394430023 -0.305614564096524 0.514390269963659
-0.186790151876103 -0.307970015954868 0.522141796306909
-0.202280958497834 -0.305144334030694 0.541402600732302
-0.240453456896333 -0.314735191024855 0.563215622680525
-0.240910096639228 -0.313064966182636 0.583935289472937
-0.238165919956384 -0.312229206819136 0.616256831409449
-0.0215823157512712 -0.294306570230264 0.784243962675495
-0.043602530756112 -0.295052262317579 0.782543490973343
-0.0543800812488222 -0.294165024473411 0.779749015622092
-0.236266853101388 -0.307054493357169 0.666952257014346
-0.0822545774840898 -0.29657351701513 0.779975873613944
-0.0909743214101891 -0.303757110899816 0.780910327674862
-0.122095581567889 -0.30294462706111 0.776862399999195
-0.125745802023124 -0.306637537479158 0.777273104366204
-0.160952490576942 -0.301997786322029 0.771823899643357
-0.174490891265052 -0.302218560017967 0.770195478816412
-0.191041036033632 -0.303749312787753 0.768495769572175
-0.209019568626153 -0.314357534082087 0.766598754989612
0.068557016253041 -0.273987672644451 0.136720228005414
0.0662887594980994 -0.276985082251487 0.148194088244155
0.0652476098223272 -0.278909457423653 0.150365597618137
0.05620077061101 -0.271026426917842 0.155374970222876
0.346864721570563 -0.243145843051955 0.503577877415704
0.349457055897447 -0.248776774388041 0.513381471051927
0.346890504016733 -0.244255467233216 0.527801966412945
0.346281168093238 -0.252031089534631 0.528719817048254
0.336712605775236 -0.251170652394699 0.532849782684251
0.329524611027168 -0.248199304265136 0.537790986641878
0.324977758065533 -0.250542372403892 0.538359343262082
0.318025740423134 -0.247568005240248 0.539228345467383
0.306868086632404 -0.255770984202707 0.53974369168308
0.297816105792258 -0.248721001865124 0.539657904174731
0.283080179112531 -0.253086976838585 0.537725979517766
0.2761567449998 -0.258147086383446 0.54068936254802
0.271744998652553 -0.258058167920672 0.541000767079651
0.256310455210404 -0.25890670120705 0.542090219281392
0.250454052192576 -0.252957719660887 0.541941244248594
0.246475999635038 -0.258909146929544 0.541730279806782
0.235140651327065 -0.261625120068614 0.541129142593548
0.214057678301041 -0.255658889812721 0.538617298178271
0.212983950719437 -0.261390881450718 0.539018018100713
0.199488252378526 -0.25942761982032 0.539229220064022
0.179928316108015 -0.263701351499983 0.537027000439964
0.170606082502478 -0.261451643710398 0.535366333377119
0.155216849948633 -0.262867108044392 0.528990385437589
0.139473507074388 -0.266690265718195 0.53062869511533
0.12325223763064 -0.264935832788896 0.528292222609526
0.110936471093299 -0.267690778889301 0.525310305880206
0.0942197572940876 -0.266671458166619 0.520497329350479
0.0859864516683873 -0.275869109856513 0.521831451608721
0.0771458758361409 -0.269260952170813 0.521506733447195
0.0547836302556108 -0.27136636406893 0.519414384845265
0.047151833620783 -0.276496788572863 0.518332714488272
0.028896861830799 -0.281560192847027 0.514310957591039
0.0206486845676244 -0.282467378011702 0.51574122446864
-0.00445521336874132 -0.277577385746891 0.512917532928559
-0.0174073372790766 -0.283170636127959 0.510349028024885
-0.0128836922536833 -0.280153050529936 0.511246101316543
-0.0367852279345188 -0.282054052720219 0.506536225692571
-0.0648072111558632 -0.284355963734907 0.504930024559409
-0.0753836571492895 -0.283628954832274 0.503181886606331
-0.0807933656808045 -0.284403076140635 0.500918369489875
-0.0959693728139649 -0.286817118691882 0.500705552344949
-0.108649525211653 -0.295007012707867 0.500852918479805
-0.118687638445746 -0.292168400180053 0.500969579376469
-0.139311192045524 -0.29341670075605 0.503642753761149
-0.141253107231484 -0.298507331853167 0.503908274880475
-0.15708481095837 -0.291708411038193 0.506890352942759
-0.161634555665204 -0.291386740668787 0.512481834606755
-0.167349744980361 -0.294263849665919 0.516634062876382
-0.172758694253318 -0.297409451039347 0.520563489782946
-0.182719725131712 -0.295326527470499 0.529202220468165
-0.193886704055994 -0.297057888301136 0.537205001601183
-0.200667009998002 -0.294664961918441 0.538092177051337
-0.199083709033622 -0.294262808921961 0.54943226564714
-0.208028809088502 -0.304548752615547 0.554482700795785
-0.203685913067489 -0.297163311597887 0.5642954175889
-0.205811087399958 -0.29744519540324 0.574595608350114
-0.21366323536164 -0.301697500425827 0.57765640406006
-0.212115117985916 -0.299611860480875 0.58969171818317
-0.212897357878707 -0.302321215599826 0.599523605682075
-0.202300142889522 -0.293713784029856 0.662589952306101
-0.236550352361979 -0.306099961641041 0.647191548077445
-0.237478648566434 -0.306678644590812 0.660961305673738
-0.243174751219122 -0.301700307016382 0.662161235114211
-0.113237936622862 -0.295556923726926 0.77418718596149
-0.163212843704825 -0.29935601714255 0.770933875483937
-0.168512632637227 -0.301145486194743 0.770689418466924
-0.227224609577422 -0.29636819709686 0.743811837785967
0.0663709107899793 -0.266691966605728 0.133139471165255
0.0658546812836255 -0.266766208342428 0.140957251655309
0.063182371477953 -0.260231169745825 0.144234352012742
0.0536284536293788 -0.264156183278531 0.156147312461884
0.347745109524589 -0.236630794579921 0.506455495162511
0.349598319772874 -0.240964164041671 0.520728344181803
0.34586906443546 -0.23628905469606 0.529157668828886
0.345012272979658 -0.239448159054005 0.530067988985862
0.337903135428137 -0.241133158352963 0.531238362354207
0.327567061863567 -0.240836096361436 0.538035680287328
0.32013622986663 -0.244235056308247 0.538964534286946
0.320564946782682 -0.243493733753494 0.538910944672439
0.307940852201616 -0.242286180300038 0.539753858505883
0.286260595074617 -0.240103659953351 0.535288818372188
0.290340743564373 -0.248322879441525 0.537217612909635
0.27162114658064 -0.24315818010409 0.54100950921789
0.270412403738383 -0.248113752407791 0.541094828719291
0.258108162103144 -0.244100227025697 0.541963327563492
0.247304653404109 -0.250984540521317 0.541774225048158
0.226045686516038 -0.247204725891775 0.537676591732356
0.218437927783837 -0.249418682591173 0.536982568928843
0.211356153497023 -0.24630648085806 0.539625520124561
0.204730829172999 -0.252990701296155 0.539468729734258
0.1839854739425 -0.252521726489545 0.537749744437765
0.182498096210419 -0.249968685903171 0.537484782271593
0.156652398258222 -0.259150470818545 0.528227422432044
0.147482118956738 -0.254150878857181 0.531116272713329
0.147082276335608 -0.254016715110444 0.531224642531451
0.135101802228426 -0.255794919782015 0.530142960397182
0.117255728449918 -0.256988551596102 0.526840336444804
0.0978742359465546 -0.257449759484157 0.519488525783725
0.0765075323478548 -0.263345053429302 0.521483286815678
0.0792967920019227 -0.25951530588164 0.521585737525233
0.0631704762685585 -0.267735672772907 0.52060306991576
0.0508480573883397 -0.270287801376135 0.518856587944744
0.0244187946207124 -0.263575716287805 0.515633022172974
0.00756830512802705 -0.26710073641973 0.514718489735029
0.00603394938597807 -0.274184584470962 0.514598520821408
-0.00688747083522979 -0.269041749289252 0.512435197732192
-0.0295235992186038 -0.268150862582164 0.504783826105289
-0.0414393199442302 -0.278212916698846 0.506838806340358
-0.0505829138994957 -0.270483317791545 0.506369603924884
-0.0623433995678697 -0.278292449139383 0.505337258005208
-0.0884496845109789 -0.276035634907034 0.497777916331622
-0.104503660638841 -0.277578093719127 0.500804736090621
-0.11530896191252 -0.282331861742657 0.500930313089597
-0.121400861176678 -0.28564516835704 0.501193846036356
-0.126965814182943 -0.286739808834342 0.501954750818347
-0.138275899089006 -0.280624751093201 0.503501196525986
-0.156042433997103 -0.28057589829552 0.502967372584794
-0.16534472978949 -0.279722090236706 0.515187304006566
-0.16933105984788 -0.282976815103799 0.518082556507376
-0.178549360661496 -0.285937675249793 0.525452662314551
-0.177940381586634 -0.287726087651178 0.52490513164383
-0.188526478108354 -0.284514932618391 0.534423049037249
-0.190383219822719 -0.282325475157668 0.536092438147953
-0.1996897888667 -0.292816375571131 0.542749971016214
-0.200376428158229 -0.289104190416458 0.553607195881799
-0.202934998618495 -0.288785846389424 0.561870284876718
-0.205758670664784 -0.284742258299387 0.574331587660793
-0.206953998816803 -0.290117944531363 0.580352468923611
-0.211801431319817 -0.289166498349015 0.596011746119061
-0.207405010324542 -0.28838324747241 0.605222220317906
-0.206297396119872 -0.283806469120145 0.611414727301899
-0.203398303910733 -0.290142886637543 0.63008154764389
-0.20230597457221 -0.292747274749246 0.644052015010746
-0.20244315647501 -0.286341653139543 0.647675646140345
-0.200460803954786 -0.288355222600262 0.665451546625607
-0.200129037702324 -0.284320059957408 0.667717037279941
-0.197524663048293 -0.286953153892849 0.686579553330716
-0.196677867797731 -0.287235408258477 0.70121714437209
-0.199462518465108 -0.289107189612711 0.714475534043264
-0.198147249259848 -0.287567395059744 0.712637764829181
-0.196629523770101 -0.287621735903901 0.730106842254425
-0.196832218497144 -0.284837657172361 0.734344991373802
-0.198001145595228 -0.283450277188909 0.748848826482037
-0.199152303924649 -0.283066764033517 0.756872127240674
-0.209381055381931 -0.289031061290658 0.767802673782085
-0.223833914508969 -0.286589404428655 0.813642847574164
0.0631188167028854 -0.257798739770283 0.1314947488563
0.0630742686632649 -0.258592451025227 0.142581932163457
0.0591031438282138 -0.25840489366167 0.151882818986736
0.0532468841291842 -0.255571388203873 0.156691818937271
0.0503830031376795 -0.251429552296217 0.157506075031552
0.349244149752277 -0.225954782980865 0.511355226857663
0.349534562472267 -0.232348818280222 0.517412444789671
0.34655177147491 -0.231653187198657 0.528432304848888
0.341811915092616 -0.227167088943008 0.532397231113201
0.333839417245486 -0.230265905974728 0.535657205610872
0.335500011066987 -0.232790226991593 0.534495556672492
0.327378746032856 -0.231140795260056 0.538059219766167
0.318444813577768 -0.232167737394865 0.539175961323053
0.302633366258108 -0.236830335290997 0.539703558355813
0.286445538070632 -0.236748384723152 0.53502821713735
0.285780464525956 -0.239847221478069 0.53596536528967
0.275173953865418 -0.232929324275483 0.540758733175614
0.264364000708598 -0.233024836199097 0.541521757188055
0.254324260819605 -0.23767215633333 0.542146489501362
0.245781655189073 -0.233824916786515 0.541693457269535
0.241934117252349 -0.239748460787356 0.541489414290859
0.219015606100118 -0.236897467781955 0.536766976271339
0.208601649196536 -0.241442583336969 0.53964557002935
0.202114669572303 -0.245526354817171 0.539349209210704
0.190760868733933 -0.239690836939468 0.538830505298234
0.183887080060157 -0.245337735995977 0.537732216505457
0.162556697862374 -0.247203337851238 0.530997866314261
0.150939482640984 -0.249376724626613 0.53017921934822
0.135237037199482 -0.243882671005075 0.530157986187547
0.128228408290029 -0.244372563716629 0.529379265781014
