ply
format ascii 1.0
element vertex 836
property float x
property float y
property float z
end_header
-0.0185457077846082 -0.327146790193567 0.0735377261973875
-0.0174436815077822 -0.331624723080887 0.0752851219062156
-0.00787691496906816 -0.341684972259314 0.0798199170566846
0.000976656582956409 -0.345377360437737 0.0821975467675326
0.00291951722678426 -0.355257614113077 0.0908542160742448
0.00714588162081779 -0.360961919479743 0.0962011736629614
0.00527813448554262 -0.362385143689806 0.0972066714298895
0.00968902716276729 -0.363167355978849 0.09837066936558
0.0241534021107018 -0.37169977526339 0.107284112221747
0.0196657067180952 -0.381604570096454 0.115238704151128
0.0224341063121057 -0.386329990297565 0.119585715897684
0.0293502137872616 -0.38367742317065 0.118097925176325
0.0270995803798418 -0.392072505106981 0.130230040055748
0.0290509222583485 -0.396099031927759 0.138969249267232
0.0348117406559018 -0.40033953401574 0.149168253871325
0.0421428148011001 -0.401688368705379 0.153889342722135
0.0456547566984679 -0.407594648142264 0.164789567551603
0.0483117341671593 -0.407872989880949 0.165826743564014
0.0502335475990392 -0.409677672747695 0.169224382642825
0.0572334051922119 -0.414742817311076 0.179109535232396
0.0558695093999793 -0.420433236237431 0.188208995428623
0.0612434682754499 -0.425660621705431 0.198008595464226
0.0686843232040616 -0.427130386165298 0.202052967114599
0.0704151104017989 -0.431553213527022 0.209732127489536
0.0699516424451852 -0.430113287218349 0.207253789302661
0.0691727034742436 -0.436791234211927 0.218111003029239
0.0766937285378028 -0.442171019851861 0.228628979924477
0.0798284416635358 -0.443931627332091 0.232217506016001
0.0832910428336426 -0.451238575552973 0.245035357212611
0.0840592693844121 -0.454859213168981 0.254525104150796
0.08157894567366 -0.455185754017928 0.262975537851284
0.0860649756626295 -0.454595156897621 0.27009065763331
0.0892702941030246 -0.454173168670789 0.281235875362823
0.0830734636572987 -0.454988996970036 0.291463731582763
0.0888140401840316 -0.454233235645674 0.31002237265827
0.0916614764285076 -0.458354601261689 0.320471937428621
0.088956344384148 -0.454847821277414 0.320471937428622
0.100884755323725 -0.478751268697171 0.320471937428621
0.117781356153075 -0.484315613981486 0.320471937428621
-0.191960517970264 -0.111822296084559 0.0464067540361088
-0.186400569747521 -0.120024773772315 0.0464674320544675
-0.178215915855571 -0.124474263783605 0.0460730897462966
-0.176436311308735 -0.135321870017341 0.0466140458059296
-0.161340519168997 -0.142251087249774 0.0458056924696222
-0.162274841564668 -0.147624209245506 0.0462237447178257
-0.14695695935686 -0.155337724546916 0.0456079730352662
-0.142453076526499 -0.171298201470304 0.0466416436844674
-0.137859157539241 -0.168587611736471 0.0461261835078149
-0.133020097651151 -0.179743324575294 0.0467414141701282
-0.128791745582633 -0.187772550602286 0.0471369350613389
-0.126625821788933 -0.195560404985601 0.0476433233088186
-0.114226427481672 -0.208167254930873 0.0480393291598555
-0.108088781381219 -0.209303508212641 0.047903977933511
-0.0940656301915182 -0.225664698780529 0.0489198138856643
-0.098406705448577 -0.231593113600607 0.0496636017425244
-0.0892189179834875 -0.241309067991401 0.0502325455381702
-0.0790819119257631 -0.24631441231179 0.0503101784692952
-0.0664451503540069 -0.25449304958932 0.0506394853680362
-0.0603727906744974 -0.255748371234096 0.0506865796077972
-0.0588312415062095 -0.270981913078896 0.0530259032221673
-0.0566178784764803 -0.270623344546911 0.052763779343149
-0.0467530413417273 -0.281871517206996 0.056776292894409
-0.0371300610500743 -0.289108656695021 0.0591840368801164
-0.0357054664992712 -0.297458116255831 0.0624756552311384
-0.0321804716666969 -0.300292144182768 0.0634314345216917
-0.0243197407147992 -0.311067936386917 0.0673598479707194
-0.0219103615105582 -0.311322471650844 0.0673345755869685
-0.0141646987349405 -0.323018300399756 0.071640140295225
-0.00366982994396601 -0.329635463593006 0.0737515616628172
-0.00164530382660764 -0.330470892010437 0.0739809913053074
0.00969962696227275 -0.341551920138784 0.0799112245966318
0.0107319445624251 -0.345156519566113 0.083105799719494
0.0157663878616845 -0.350189282287368 0.0879700856393526
0.0240976049393388 -0.35792814078141 0.0955161909044496
0.0210910726951775 -0.365935106118489 0.102016482400107
0.0232124942590386 -0.367986190237122 0.104006735980121
0.0320270143984935 -0.376024184250866 0.111862659039648
0.0386149170043314 -0.381965385093454 0.117677462769171
0.0393030334373101 -0.382266501507244 0.118012001081562
0.0458347082401264 -0.386193632819702 0.123268042074947
0.0511214428293454 -0.388621094002514 0.129640671233255
0.0453611396092049 -0.393278101438346 0.137594844029184
0.0567678743604399 -0.398421303695869 0.151152079206843
0.0486035396839766 -0.39919644332565 0.150540588095255
0.061880781554219 -0.403919600149722 0.162248636122789
0.0580281159150863 -0.408352468015138 0.168730627704547
0.0616809217715112 -0.407990671894299 0.168927292292643
0.0660991520121096 -0.416761204738156 0.184369533429491
0.0722848902511632 -0.418283813237737 0.188228319500837
0.0733352852317144 -0.423977666131272 0.197858275512743
0.0723057900493497 -0.426003701916897 0.200979845513099
0.0790284083468453 -0.427320771930774 0.204615957611266
0.081128831902049 -0.433395265732231 0.215102681413593
0.0835317102282569 -0.439361684775804 0.225476702055375
0.089843387501546 -0.442258414088272 0.231631796070767
0.0975707136108092 -0.446875658806747 0.240935521354239
0.103633017544833 -0.449088609899359 0.245907359886678
0.101555036301377 -0.452555851491925 0.258194469836874
0.0982094636614064 -0.452996304536555 0.26613920423455
0.0967656004793195 -0.453186392752539 0.274065656258711
0.107188799361333 -0.451814152428859 0.281405904824302
0.101895791220402 -0.452510990250604 0.300939763490142
0.101606756914658 -0.452549042343225 0.316511285367098
0.108879950675025 -0.463092682856253 0.320471937428622
0.112824535030213 -0.460601985045288 0.320471937428621
0.126236278094556 -0.482771180369182 0.320471937428621
-0.185237414710793 -0.105996109708766 0.0455038382036746
-0.170460783885009 -0.120287409318419 0.0451664490916308
-0.174367023664294 -0.117440326149315 0.0453087626144297
-0.165757229945602 -0.136830486174823 0.0458269649154064
-0.156619801322466 -0.129747394234248 0.044622349836815
-0.145427703527875 -0.145304930206055 0.0446839855409465
-0.141460850978541 -0.155014506007832 0.045232635877835
-0.136044555928933 -0.16488521074311 0.0457050289055681
-0.13221084118161 -0.165530599428886 0.0455152062206655
-0.128500768701282 -0.171405889496264 0.0457655492798843
-0.126490413474878 -0.18208541964306 0.0465208419325186
-0.113017199317665 -0.187279891421486 0.0460956289547947
-0.109839318646087 -0.1992534292112 0.0470063183519437
-0.095764482650799 -0.210188870121308 0.0474977893929072
-0.0861784001224512 -0.218128212333519 0.0478798279513829
-0.0868612737518062 -0.221133288391011 0.0481963371985926
-0.0807559793374479 -0.234086896440319 0.0491998610894989
-0.0759350669771071 -0.239167415391954 0.0494967036319259
-0.0705829538686484 -0.241391519451033 0.0494973954149848
-0.0599485764558957 -0.245661336190593 0.0496387798197015
-0.046874590169472 -0.257698039035545 0.0507044094735526
-0.0395889235017708 -0.273502754993998 0.0530208794277585
-0.0370171381373035 -0.28069722304185 0.0557857917677046
-0.030170431617532 -0.279621471062659 0.0549884312440556
-0.0265443676115349 -0.286475240912391 0.0575599672590834
-0.0238505590284532 -0.295235656155805 0.0609499321850557
-0.0219804151492216 -0.30072050215199 0.0630626236137324
-0.0141946781419449 -0.309612988741955 0.0662354999260826
-0.00628949957741681 -0.312792816948063 0.0670981749000803
0.00147366143683614 -0.322145697300886 0.0706144073681099
0.00244602524534591 -0.325680814915275 0.0720917128497667
0.0187268051600195 -0.331587412815045 0.0753382011219316
0.0204660197694746 -0.341020430123196 0.0806678542951975
0.0277897735873426 -0.347749141146536 0.0872379675270998
0.0280990732865232 -0.354423205748301 0.0929727211876859
0.0298125037931078 -0.35341280663296 0.0923024451870018
0.0418057264039093 -0.359607359555705 0.0989413855260681
0.0380622853773575 -0.370482014670846 0.107807967670246
0.0413225610526009 -0.375428899025989 0.112399426006534
0.0444796399455307 -0.378688050244819 0.115537874713037
0.0592490597067202 -0.385398943207881 0.125249814141416
0.0604247375466583 -0.385850437621524 0.126486760295412
0.0564039571911603 -0.390716927653822 0.13533556766233
0.0699620670870869 -0.390932420718072 0.139416966908855
0.0703942156770993 -0.39706538440456 0.152045750030508
0.0669693223818979 -0.397439883430114 0.151889882394412
0.0754144873015919 -0.401706636662985 0.161536615859543
0.0810177100523085 -0.409683527035944 0.175926001753455
0.0760204126458353 -0.413371760308806 0.180929638644041
0.0849591652123771 -0.414436192839124 0.184630348761582
0.0862978123748892 -0.421048381062074 0.195839309593524
0.0878874610759767 -0.425314047496593 0.203228286723813
0.0908935206180197 -0.422617744571946 0.199429651508948
0.0947082597771913 -0.434009289471017 0.219068485988728
0.0995975446571055 -0.435310461090721 0.222279811400503
0.104258069967657 -0.440942512395688 0.232592502253303
0.103711072470895 -0.443527994302661 0.236742709406975
0.102588316373803 -0.447439313506266 0.242956962258012
0.119804600509655 -0.44711682943177 0.246167007557838
0.117261127291846 -0.450488105147594 0.258309519357345
0.116842092441634 -0.450543272138553 0.266839025117122
0.119292691474438 -0.450220644618149 0.27886114297943
0.109818758323113 -0.451467911723119 0.297867136557292
0.109608779212367 -0.451495556000673 0.308701776670156
0.121357763507127 -0.449731969423592 0.308761074270501
0.123177702667752 -0.459694317486248 0.320471937428621
0.134678765412619 -0.468690998652422 0.320471937428621
-0.170774309921539 -0.100974006330093 0.0439673151657482
-0.171151527733039 -0.113432553766913 0.0447887443479988
-0.165186009561716 -0.114799610430215 0.0443823249823206
-0.158722160251866 -0.120507396119459 0.0442100446040731
-0.143741106528321 -0.138217169827649 0.0440949877866989
-0.143357980649097 -0.134276729417927 0.0438133746333914
-0.134525042383274 -0.144170789296042 0.0438963148763879
-0.13297760056722 -0.148208480205539 0.0441319310355398
-0.120129538348497 -0.16147008524172 0.0444132307520933
-0.117470723108755 -0.165746793058236 0.0445981104091441
-0.112347179491556 -0.177079875739464 0.0452099582906893
-0.105262163961022 -0.187322858174593 0.0456753258980013
-0.0937900154394752 -0.189855405163135 0.0454616803740485
-0.0877153891011738 -0.194681289241743 0.0456840203849351
-0.0877474445284346 -0.200474563597346 0.0462429819731762
-0.0806176929403661 -0.212234008755308 0.0470907020100011
-0.0724568248294341 -0.21793395404044 0.0473139961511659
-0.0663278247069472 -0.232351508533712 0.0484575000575638
-0.0553660845755263 -0.232699060552654 0.0482374028856538
-0.0553547125982972 -0.24809701747315 0.0498279177182662
-0.0349384482267855 -0.261551016007992 0.050940102999076
-0.0379235961182682 -0.265887988116821 0.0514287279360372
-0.0253945253533483 -0.266305494121972 0.0513014598406297
-0.0197059453918643 -0.278652048594877 0.054041869375003
-0.0192493405829577 -0.288593456104455 0.0580268994953471
-0.00928687550032381 -0.288634892475556 0.0575146615814024
-0.00696625160106486 -0.295384546216825 0.0601135198373357
-0.00692905498925334 -0.299459268877807 0.0617548410205172
0.00331898245500005 -0.310787394748128 0.0661316899996326
0.00947940700681264 -0.321958186989244 0.0709638447803016
0.0186683089553752 -0.319622531667237 0.0705097748781194
0.02428017082506 -0.333506990895052 0.0764071997295702
0.0274560368810712 -0.333211258162255 0.0764565535946643
0.0345009218605603 -0.337249617814126 0.079025448305311
0.0398343691534214 -0.344971107255774 0.0862196573093448
0.0447136356763212 -0.348761886170067 0.0900057807605667
0.0476617755962242 -0.357300596390978 0.0976297377753623
0.0583687808924279 -0.358990801162387 0.100277125800732
0.0603037990717455 -0.369459584276484 0.10943554616757
0.0551111736608367 -0.373700467615413 0.112473620714112
0.0690111978692757 -0.381837508657941 0.120985936984519
0.0676825756144784 -0.384671687301024 0.126031302203416
0.0790949706193681 -0.385657134521903 0.131107246990678
0.0747531709954952 -0.389486133463216 0.137753098803101
0.0809365057296247 -0.394429816015697 0.149500248008219
0.0843629752482593 -0.394879255592059 0.151337570051077
0.0870505032832404 -0.40231767650328 0.165075028814815
0.0886947516514372 -0.402024147080388 0.164947788325916
0.0932726850821785 -0.407120174681784 0.174357449536768
0.0929021352953756 -0.408707995382473 0.176898687825173
0.0977005085579971 -0.415080389094166 0.188463788512762
0.103259814451421 -0.421103288702743 0.199617222741643
0.100425019418421 -0.422455392241373 0.201233562883032
0.104440352564353 -0.42640823319604 0.208633309011904
0.110643783193759 -0.431810836440941 0.218902539460521
0.112751385959325 -0.435551072061716 0.225536526254294
0.113649864846114 -0.439905398059597 0.232921648391386
0.126264492557338 -0.4373202767808 0.235210539862699
0.122906405560409 -0.44308201822281 0.241935685726929
0.130100174074624 -0.443276343598225 0.246819524048612
0.124220786875775 -0.448546066264924 0.261126356605571
0.125469280389009 -0.448028923297411 0.272678539390916
0.124926146259087 -0.448253896829695 0.295991471148755
0.128916168318041 -0.44660117550905 0.289361122379841
0.127793676541349 -0.447066126846204 0.307111461047944
0.125470124064924 -0.448028573835391 0.318889975315383
0.134817313196075 -0.460752541644357 0.320471937428621
0.147178851073641 -0.473950291607746 0.320471937428621
-0.172553509055848 -0.0878677721186751 0.0435599892194345
-0.160137733687852 -0.104139132900989 0.0432908235502115
-0.154300207420932 -0.112527243881798 0.0433383276587357
-0.141709970727321 -0.117959174176984 0.0427153036522392
-0.147349300365954 -0.124641737982658 0.0435321634551391
-0.133761964232064 -0.132444366682247 0.0429482750252216
-0.125338872035003 -0.134910142495936 0.0426316463328405
-0.125620295954424 -0.147750838818463 0.0436274261199473
-0.117651112744666 -0.158116406814225 0.043978796431242
-0.117056747880611 -0.15728079936904 0.0438720213880157
-0.0989711263942926 -0.169812860656366 0.0437607953900917
-0.0935627631525209 -0.17788641997345 0.0443004372819069
-0.0877409024458091 -0.181627424209787 0.0444284212179111
-0.0820876592919787 -0.186534379914996 0.0446753676635763
-0.0728262031560084 -0.199496034688169 0.0455538179145674
-0.0678824083307444 -0.20542632843631 0.0459275633328626
-0.0669211676638959 -0.213453228386339 0.0466619360040763
-0.0547711124825292 -0.220566780659135 0.0469759989182339
-0.0522614034103829 -0.228630931049553 0.0477749247682324
-0.039037314495114 -0.243134386453234 0.0490933382319286
-0.0281547575973602 -0.249208678496442 0.0495728313258152
-0.027628139049032 -0.248873798066441 0.0495310747330282
-0.0200757169128992 -0.266244100947857 0.0512227807242781
-0.00573501981633318 -0.276180487647462 0.0523033381526355
-0.013682027577373 -0.275010020702205 0.0522532399618646
-0.00675286837939559 -0.282385918965399 0.054859970206222
0.0100724956475652 -0.291202397762203 0.0585918230561528
0.0100353561545514 -0.298293909489127 0.0614497890144513
0.017601039674323 -0.304643110273862 0.0644120538325288
0.0207432219321988 -0.306513833878568 0.0653333300972484
0.0286624466901722 -0.322231841235261 0.0720927146544904
0.0288846370264134 -0.319963445872043 0.0711896898353862
0.0370597363050087 -0.329146257713829 0.075327078920082
0.0411956801347106 -0.337679199243096 0.0801450748067288
0.0484416987901646 -0.342773804607032 0.0853108417351768
0.0587201066286992 -0.344658811170702 0.0880764094948171
0.0603940380073529 -0.347589890778872 0.0907679073953813
0.0677575686086764 -0.357570311442303 0.100119611683668
0.066018730199371 -0.356682970806933 0.0991662685621682
0.0689692791105021 -0.369699960208968 0.110615165304755
0.0818591989850393 -0.372886228374846 0.114785706269503
0.0796273303119271 -0.375436324174669 0.116712666365201
0.0884386247949668 -0.380506832541204 0.123109132793492
0.0857873723085445 -0.385803755663858 0.133203984797867
0.0824520138374933 -0.389112634961355 0.13905900123069
0.0865152959525552 -0.391346712979424 0.144708460285205
0.0993857763475754 -0.395461699392845 0.156436004204019
0.0952078276778553 -0.397196674520271 0.158392558357238
0.101010988623527 -0.399138397202905 0.162860214690577
0.100662346358824 -0.405503718426943 0.173294763867106
0.110367544474303 -0.413379520600702 0.188408933779457
0.118191820359119 -0.411237643025357 0.189933197752915
0.113339980656575 -0.41513327140613 0.19283500672926
0.11349176406216 -0.422473258008285 0.204225499664214
0.119665931033743 -0.422743481277665 0.208576291863332
0.120508040256604 -0.428554153074083 0.218053655211502
0.12204182238226 -0.433267031201288 0.226282712554402
0.135326519029266 -0.432594430336371 0.233714603709981
0.134998374133762 -0.437690720113701 0.241346931422505
0.135444586268987 -0.439953949037181 0.245113661458848
0.135756732274971 -0.443767721024386 0.264919472036279
0.132159650165363 -0.445257681281953 0.275593535755273
0.134732730818458 -0.44419187633344 0.288242402076318
0.143475734981231 -0.440570405280699 0.287273939301868
0.134677409772463 -0.444214791061942 0.301634073671067
0.132560709986845 -0.446305516854696 0.320471937428621
0.14197626769523 -0.449217575336979 0.320471937428621
0.150993060756432 -0.455168208780455 0.320471937428621
0.162869330736219 -0.467797710795186 0.320471937428621
-0.165588322569677 -0.0826291957429752 0.0427495580724321
-0.157035307628012 -0.0938103961688049 0.0424795515340922
-0.144527853724453 -0.104543256755738 0.0421652931315795
-0.14158575024854 -0.113413791384147 0.0424495853210257
-0.12829329828862 -0.124399143896392 0.042091831237043
-0.128950522297806 -0.126118539845857 0.0422372373174873
-0.12165545635276 -0.13231436477059 0.0422327643638413
-0.118649035595425 -0.141769757741681 0.0427586435109652
-0.106902931550238 -0.149496916801191 0.0426640429429587
-0.100279785190835 -0.155265457321605 0.0427145396371644
-0.0982607517754356 -0.164586237727886 0.0432862525268811
-0.0953106619124579 -0.170383067530843 0.0436478304260034
-0.0822920032812784 -0.172958650800857 0.0433766624661419
-0.0774314255925726 -0.183922560499661 0.0442382817746658
-0.0691768176080346 -0.190163080925526 0.044509876041221
-0.0638629861344221 -0.198455107600914 0.045096216398972
-0.0521799975959539 -0.210817652940537 0.045933635961614
-0.0431857410926188 -0.220433853824865 0.0468047034644874
-0.0379935167478607 -0.220553059440703 0.0467464024846792
-0.0287317004847129 -0.231789638059192 0.0477812225073949
-0.032605750077066 -0.241132568369486 0.0487990718676586
-0.0225057695747003 -0.246338547291825 0.0491995080124185
-0.0198317857838321 -0.252917309407368 0.0498427532409748
-0.00432726666942386 -0.265337614035923 0.0509149546884209
-0.00292093399260351 -0.269008772425716 0.05127507335241
0.00403854563303199 -0.276168207064279 0.052208312237923
0.00773049248194155 -0.288257704049181 0.0572799099239168
0.021334927853826 -0.295779190462448 0.0610355687390387
0.0281511725159524 -0.300030638204938 0.0631120392739379
0.0301305138117251 -0.303182189162152 0.0644881206901946
0.0383112099791291 -0.305758443464955 0.0659614464049008
0.0451246072462805 -0.320247002052343 0.0721662932020334
0.0413082266455398 -0.319275547834242 0.0715718875440635
0.0519699215106656 -0.334888080736606 0.0789727540265231
0.0566192134908601 -0.332741235730077 0.0778153930747628
0.0704886316319781 -0.341630435264795 0.0868132542544889
0.0637201761538919 -0.351033063624244 0.0940825281755235
0.0736956818455618 -0.35354461540767 0.0973491385040999
0.0814158424193889 -0.362681359626082 0.106020400597048
0.0754441446522575 -0.367566820600071 0.109521378807003
0.0878520035497491 -0.366746480115797 0.110215878734382
0.0942971569436776 -0.375523518314051 0.118436575506352
0.0891561069752233 -0.379500384425593 0.121254965484685
0.0981670620273923 -0.383074574328968 0.130961020187997
0.0975368591870523 -0.386754210201872 0.138299079892188
0.0973928057270461 -0.391424233658181 0.147788347133294
0.106314784742471 -0.390107639308162 0.148425273467856
0.108943666816652 -0.392953075765239 0.155905266857167
0.113743384147096 -0.398108844230036 0.166897275978219
0.114458915850527 -0.403295848466296 0.175334353721791
0.116708643759421 -0.404396591389119 0.178461854031726
0.117724150810678 -0.411262859287546 0.189673935081968
0.126652535424204 -0.408732022069424 0.191470200939981
0.129429966206161 -0.417865591027955 0.207293826141984
0.13236625712284 -0.416342413405084 0.206821570788616
0.132171977136517 -0.423859974453363 0.218264732558684
0.134378381638655 -0.423615133874895 0.219294223591954
0.139744735236879 -0.42940052538551 0.231616146445287
0.138156375825449 -0.432406107374442 0.235228403929551
0.146879527445672 -0.438724776250555 0.250510263631251
0.152587831719332 -0.436796051071043 0.25993740516697
0.154612597238386 -0.435957365697076 0.26094551486816
0.143678787180444 -0.440486298302371 0.279348978016535
0.150373613375827 -0.437713210377633 0.289852441028127
0.147493933551015 -0.438906012866636 0.303554953247305
0.143019647252612 -0.440759323011487 0.310126312393264
0.146334188192675 -0.446703002868588 0.320471937428621
0.152759860052262 -0.445254182714366 0.320471937428621
0.171118280104106 -0.461694534106777 0.320471937428621
-0.160832749427047 -0.0824575705137272 0.0423360656522459
-0.152060319963488 -0.0946307293024287 0.0421598725722285
-0.147420687352381 -0.0904831003052859 0.0415844300362382
-0.133992821339022 -0.102470386538536 0.0412732718569054
-0.135210970326939 -0.107405739694699 0.0416414784057226
-0.118368546401239 -0.119997310292862 0.0411411176956235
-0.10657129914539 -0.12668455696897 0.0409671288951363
-0.109104621695294 -0.141772994146488 0.0422201137768291
-0.100041978169303 -0.147665107158391 0.0421419951469019
-0.091953774366032 -0.146229567377749 0.0415798225472757
-0.0819147547435812 -0.159677336470883 0.0422178214202232
-0.0794778284365829 -0.169704913591746 0.0429903934736141
-0.0732531645386302 -0.171019573967362 0.0428821360642466
-0.0649681704194284 -0.174884015051454 0.0429192034323177
-0.0616107004554184 -0.188561918073011 0.0440540517431789
-0.049993351822131 -0.193276436705343 0.0440918204916199
-0.0472350259674732 -0.198544284297226 0.0445984960248766
-0.0429296630172891 -0.216057841651678 0.0463491614827772
-0.0355931838460046 -0.221280474733439 0.0467889022912381
-0.0230495711043466 -0.229036245679264 0.0474195080438764
-0.0194086906735049 -0.229338058944077 0.0474011697693208
-0.0124084030004904 -0.249131667804501 0.0493507219462008
-0.00646003190942746 -0.245274055462763 0.048871316273285
0.00380768152598587 -0.262480665098777 0.0506127540633605
0.00594100557853669 -0.264846824785554 0.0508862013427498
0.0154885865614078 -0.27211601595632 0.0517669865924003
0.0178070138702404 -0.282853856397231 0.0556355952617605
0.0315294940000123 -0.284542568279126 0.0570452202109876
0.0277156395926757 -0.290543756380913 0.059262947650322
0.0409958158872138 -0.295595316335919 0.0620052928279315
0.0511388779628645 -0.300818891581045 0.0646504475936558
0.0541519153651192 -0.30785166379343 0.0676466711187185
0.0548447733805306 -0.318542237262427 0.0719948623646259
0.0630762002508087 -0.322327479407532 0.0739584546467936
0.0678416130232834 -0.327230000918981 0.0761886096747193
0.070400460319627 -0.336756685959446 0.082640920834622
0.0766253260914803 -0.343417008271489 0.0890290703621276
0.0844315929453699 -0.34415667892705 0.0905385036212784
0.087654386665613 -0.351841886945427 0.0974644095549183
0.0975834936978429 -0.353264881139183 0.100431783907308
0.096652685785543 -0.361502237638044 0.106726568035006
0.101977768010603 -0.36963450253708 0.114908068988437
0.104386954425594 -0.371787324970638 0.117415575347251
0.107432019113032 -0.376531956108032 0.123495018325175
0.110290694820574 -0.382788622508124 0.137641402952901
0.117348645631265 -0.383543176792399 0.144634115609543
0.116763297281023 -0.385515736226377 0.147923380985536
0.11345856314809 -0.393347177883803 0.159389156166166
0.119789271440456 -0.39059753576025 0.159193166397404
0.12924004538591 -0.392023884578451 0.167411139551085
0.127730959389301 -0.398168197172388 0.17590336523174
0.128625230703706 -0.402209777895094 0.182691940638248
0.134652314999864 -0.406145863685712 0.192589514154275
0.143255744341181 -0.406296653680568 0.198304791821441
0.143190689280704 -0.412275800135646 0.207463213518971
0.140966502653779 -0.420795915954123 0.219155238235267
0.147749560885303 -0.421730858952144 0.224916876654629
0.157740151874479 -0.420104202482213 0.228781351618987
0.158117134622646 -0.428593933729731 0.24208443990741
0.164487953839443 -0.42904191156606 0.246834069520114
0.162913967539622 -0.432456847990857 0.251085345469637
0.156410207553525 -0.435212771093301 0.26653020578009
0.158143452732337 -0.43449483740306 0.278518448420795
0.152689872617916 -0.436753784345151 0.290405035030738
0.16082720723995 -0.433383189841074 0.298444696903605
0.158259614310739 -0.434446721699831 0.310614656312694
0.157142259927697 -0.434909545058771 0.320428926424329
0.175011904662673 -0.455117892819233 0.320471937428622
-0.150355097492155 -0.072479854681538 0.0410844027214575
-0.145461547858154 -0.0792605481914712 0.0409057931822615
-0.139142387738634 -0.0875284228639399 0.0408086488713741
-0.127443158688385 -0.0986611520731696 0.0405764196062311
-0.123699984949815 -0.0975131256074867 0.0402362482311274
-0.110598061734197 -0.118892508066536 0.0406212106102906
-0.106996682462253 -0.117508777734587 0.0403161238804377
-0.101522991996226 -0.130392738966647 0.0409549523822808
-0.0873674056028034 -0.140424823423287 0.0408939022610384
-0.0908819469630168 -0.143338710978213 0.0413066533148652
-0.0767885034647707 -0.151836142328446 0.0413641738616072
-0.07335906471181 -0.159916432364058 0.0419347056502394
-0.0627818547290592 -0.164267281947223 0.0419321035534504
-0.0623412414420877 -0.172770234005485 0.0426449026137866
-0.0494997374478585 -0.179426968897655 0.0427594935110914
-0.0479460485028352 -0.191537694573288 0.0438843578190398
-0.0453638438582276 -0.196471346131515 0.0443589048750176
-0.0280065656196982 -0.209059683586944 0.0454232668441739
-0.0230400837365741 -0.210396340398457 0.0454938035067803
-0.0185887664501267 -0.223790842739423 0.0468169693748906
-0.0041359755158689 -0.227301475954337 0.0469830704665307
-0.00218409797518561 -0.22699914558604 0.0469252925885515
0.00298779684218055 -0.243479602859931 0.048638719016577
0.0145107761035529 -0.249520763315719 0.0494195097207578
0.0147367005118637 -0.261061648716549 0.0506148011783977
0.0255785431936762 -0.261040586576842 0.0507600768457149
0.0354899262565427 -0.272360302839293 0.0523425067055563
0.033770009912168 -0.283271587200296 0.0566516042344522
0.046123526081591 -0.283035673539184 0.0572123623628961
0.0494325715124916 -0.297654019891798 0.0632834906168443
0.0536492016036354 -0.294860125384482 0.0623806185990506
0.059829431703131 -0.303811150588808 0.0663186144381687
0.0632622042573394 -0.314511051769826 0.0708160409770726
0.0693718013969507 -0.315619519431361 0.0715874592799312
0.0718128478121774 -0.328229892069408 0.0768027055277151
0.075891745840268 -0.327890764148102 0.0768825042770646
0.0878814755478919 -0.337048606166414 0.0848557595132334
0.097381678443888 -0.342245995356258 0.0915959108216939
0.09766348543425 -0.342901725084549 0.0922106690287408
0.101883858988601 -0.355952109065485 0.103988023278642
0.10910126254407 -0.360223416575397 0.109766550487612
0.108129197833099 -0.358484260059504 0.108062006751062
0.112699033341618 -0.363060827756533 0.113210702064437
0.11597299752693 -0.369712404976987 0.119583602312568
0.123658520532794 -0.375896505108184 0.135065311183488
0.121146343278905 -0.375347692866859 0.132043563613076
0.126410765457125 -0.381739903846876 0.148342177083787
0.133433435544187 -0.380062785124883 0.150684010935489
0.128965099136177 -0.384669541860912 0.15592354736441
0.141266019450679 -0.387465478480821 0.168061863687919
0.139296078248213 -0.393472685999121 0.176049412091146
0.13522778294495 -0.400323844747725 0.18399816231914
0.138312393804927 -0.401965705794562 0.188490360112286
0.144878637687122 -0.404020854164418 0.195837432333646
0.151964960993206 -0.407732023555362 0.206064025235625
0.151076868212286 -0.410496478887401 0.209751574499631
0.155369222723469 -0.416617593088753 0.221905564253791
0.155344511269024 -0.417037073453806 0.222535253153448
0.164017404751372 -0.420783255052335 0.233826894007685
0.165046995618131 -0.423044226943494 0.237961958663851
0.168604034004629 -0.430161922587149 0.251484887787018
0.172639833246388 -0.428490239735741 0.252196090981326
0.17199625478589 -0.428756818673765 0.272764400539526
0.166799144096048 -0.430909532497383 0.286518766011216
0.16993780480237 -0.429609456610342 0.295272254640937
0.166017305646952 -0.431233380600233 0.310323868026537
0.16985749930814 -0.429642720236587 0.310675479814365
0.174261847575523 -0.441530801149936 0.320471937428621
0.182563333536139 -0.443829490529093 0.320471937428621
-0.140217203847361 -0.0731845447020716 0.04024091162266
-0.135000787645816 -0.0732597342387789 0.0397966977439525
-0.130860150789209 -0.0824491281070397 0.0399126465968659
-0.116836548572882 -0.09340394162631 0.0394993814803731
-0.112571728448352 -0.10260946257519 0.0397052773434572
-0.106158621640948 -0.100646542919247 0.0391226925392647
-0.097809101687436 -0.112605107276545 0.0394367596674539
-0.0879347315255119 -0.126661218703854 0.039913405779187
-0.085782883560815 -0.125447551531836 0.0397026536292542
-0.0791711407059943 -0.139127255515203 0.0403599718716309
-0.0769597690227406 -0.139085033615317 0.0402778842471551
-0.0659915257768496 -0.148722510656236 0.0407143032029639
-0.05896635600892 -0.161570586398082 0.0415656889799906
-0.0538673904935226 -0.16454678996705 0.0416397187198095
-0.0453504362768699 -0.169764548928231 0.0417877143643324
-0.0325075031399577 -0.185880983949952 0.0431139132242903
-0.0287049973565482 -0.196226488681678 0.044107046175526
-0.0212318067537577 -0.197391543653293 0.0441257639055656
-0.00924478961356825 -0.20621567808317 0.0448743056289877
-0.014244358921908 -0.20882084698262 0.0452114250576456
-0.00208080559601577 -0.221867967176445 0.046393816884281
0.00236259330253235 -0.222290785132639 0.0464413279333752
0.00865340072290966 -0.231070768887939 0.0474338911527767
0.0213000595575306 -0.244326147990581 0.0489752212980896
0.0220391629986383 -0.251665470446791 0.0497434541337452
0.0291454123581145 -0.257252485653933 0.0504172613403345
0.0336160557755415 -0.25876256078652 0.0506340597821694
0.0437864281922112 -0.275861908705846 0.05419516633683
0.0538260314761796 -0.280712611877048 0.0566844523544688
0.0587351167433132 -0.284170372052809 0.0583395773319425
0.0620811239006925 -0.288575486858296 0.0602937708851531
0.0705636276027515 -0.297437005115639 0.064317906771688
0.0743184741364775 -0.308251264224657 0.0688785530070219
0.0810977514680332 -0.315024357284985 0.071970015873388
0.0831789316114868 -0.315655889139363 0.0723352050949481
0.0898415525325739 -0.330366320766314 0.0796559037049082
0.0932215170730745 -0.333402150830466 0.0831861663579336
0.100316696580221 -0.339617623056561 0.0904716595393151
0.105649179595076 -0.340238808005094 0.0927238834567557
0.108453040274513 -0.348589133800348 0.10029375738582
0.116146785667699 -0.351998136064486 0.105543048098881
0.122000340683971 -0.352791402547442 0.108103994213273
0.126031945146516 -0.36025077293633 0.11536953056335
0.125523415947406 -0.36715589556554 0.120697313130476
0.131350631277542 -0.371261975390768 0.132311703418666
0.134629199225625 -0.371279919649193 0.134927699780294
0.13439418734894 -0.37534568952374 0.142472466369574
0.136358994258855 -0.381806083622296 0.156226552924303
0.146116479164355 -0.378950205827521 0.158051105574554
0.144201320001095 -0.383337993428589 0.163581829092558
0.146063580900279 -0.386456552119567 0.169567119087118
0.154274953381358 -0.391240649344692 0.182161617658513
0.158413850864443 -0.393186319011435 0.187793207437787
0.162630532216471 -0.400017575143149 0.200991636248504
0.168069031466104 -0.398552248532694 0.202203137885762
0.162131311905233 -0.405581538102326 0.209234522489871
0.167740738801796 -0.40655627858358 0.214309399957606
0.169786440730797 -0.410064937751218 0.221011835915968
0.167341574114661 -0.419083422026413 0.23333003409518
0.17410777646023 -0.420676109355199 0.240092975673533
0.173707120698094 -0.423469923985542 0.244136359424216
0.180665354089665 -0.425165960017236 0.263303764423901
0.177676195112679 -0.426404110257778 0.272277264850462
0.181998460710477 -0.424613769151533 0.275311790667575
0.180820269431254 -0.425101791979026 0.289598010199551
0.186595781432982 -0.422709496477433 0.295657530332855
0.185571105725129 -0.423133931070549 0.311836048652995
0.182461754880198 -0.430575102624293 0.320471937428621
0.195098758364033 -0.435026117703072 0.320471937428621
0.211663026974255 -0.447295459444059 0.320471937428621
-0.129954547628779 -0.0613434206856951 0.0389415439694787
-0.121685563808457 -0.0735539773303269 0.0387355991443628
-0.120048447390496 -0.0737681432138744 0.0386272538306792
-0.113855792437064 -0.0837383562534559 0.0387344940251785
-0.104165495915927 -0.0918329976606786 0.0384785566139416
-0.0999212037758312 -0.0939958062909509 0.0382884120790142
-0.0869549758156681 -0.104307851671058 0.0382136720033706
-0.0895671255217206 -0.111234896247445 0.0388707127662529
-0.0794762927810313 -0.128398255105915 0.0395637249084007
-0.0673549285992092 -0.128640153849173 0.0390422603566652
-0.0672394857864645 -0.133126239831176 0.0394224796380307
-0.055828348059702 -0.140133667379913 0.0396178703698297
-0.0538239561238974 -0.150754554155831 0.0404566187927628
-0.04701803273759 -0.1604621417889 0.0410467439644099
-0.0367528167181464 -0.167823239833323 0.0415051836596507
-0.0346661835007042 -0.169927763274119 0.0416734047872301
-0.0213991737198084 -0.182055536646235 0.0426277792741103
-0.02148155260198 -0.184389226569604 0.0428433206292025
-0.0100829790816538 -0.19990292687351 0.0442335731679641
-0.00825695180533692 -0.206660307059778 0.0449068027399194
0.00189520157383533 -0.208047999846533 0.0449636355857238
0.0119635252760569 -0.225217885519976 0.0468742837192695
0.0205903398521495 -0.227977499661263 0.0472766893044451
0.0253061919319048 -0.228476515949256 0.0473923762848873
0.0284325021391119 -0.244640165231078 0.0491046633173003
0.0423471810909911 -0.248634041591944 0.0497064891726164
0.0518239977272126 -0.26391850789305 0.0514143214448654
0.050816096837379 -0.269212514887608 0.0519475055050435
0.0588709667515919 -0.274022374941093 0.0542542014381318
0.065177404759375 -0.285004750583928 0.0590181220982827
0.0690633989666698 -0.290266373058955 0.0613464070512879
0.0807800034959024 -0.295595354307112 0.0642792122582902
0.0809885012469918 -0.302743682820872 0.0670115385072893
0.0917171209680682 -0.309899851505562 0.0713574566860785
0.0931918284859388 -0.310219567916709 0.0717071675019025
0.106956993559701 -0.318655141304323 0.0770200567971451
0.104596269204725 -0.325579021021003 0.0807098469685112
0.108791959618147 -0.327343474756851 0.0834971933581944
0.112111666879388 -0.340308077389237 0.0949093736727527
0.123128086937541 -0.344080146678763 0.101542931588776
0.126203932034477 -0.337862647515842 0.0976087089945207
0.127652217817879 -0.34979292604303 0.107580810724056
0.136213357595948 -0.352676496366715 0.112697875152688
0.140928699494589 -0.360376083953742 0.120379981994932
0.142283502606025 -0.362943606103699 0.125106489603065
0.142799503992846 -0.366459078311532 0.132196455514797
0.149283321102312 -0.367610756145642 0.139492047430575
0.151150647442625 -0.374251846706804 0.153588608830363
0.154674002319723 -0.371376243662579 0.150896165275789
0.155546452601091 -0.376566741097825 0.16039380772684
0.158832315796161 -0.38076690047953 0.168950626205708
0.155432515167767 -0.38821704839361 0.178247072871538
0.162254396212683 -0.389537332552668 0.184626364090344
0.165053878233882 -0.390957030821578 0.188595006066246
0.171093555610025 -0.394642895931246 0.198115600613806
0.174211859294631 -0.397955391361976 0.205199813118227
0.179287752774366 -0.402239863829088 0.215027209080191
0.180641168223648 -0.404814370712288 0.219851082613106
0.179737185729108 -0.410979885770849 0.228761585089732
0.186881786651871 -0.411633369269954 0.234320576216483
0.187272300101233 -0.413839828910545 0.237964458834964
0.192102113377754 -0.420428699010849 0.253642363354896
0.197179910882698 -0.418325406328668 0.262051454014573
0.187125236565992 -0.422490188971429 0.271702714757669
0.196316765305693 -0.418682932948035 0.28791959530988
0.187536651753694 -0.422319775213733 0.305338355667301
0.196099932561118 -0.418772748015391 0.309204799460141
0.203989057838942 -0.419880770674573 0.320471937428622
0.202686495019218 -0.426152434410012 0.320471937428621
0.213554995744618 -0.444748162091786 0.320471937428622
-0.119551431177687 -0.0528355373656828 0.0377484233960633
-0.115938899683235 -0.0616650804275551 0.0377522600673963
-0.109585088876947 -0.0748381187092846 0.0379179141766564
-0.107104617545258 -0.0815402107752665 0.0381137610590473
-0.0953229809248754 -0.0808797117876505 0.0372097594377321
-0.0912725311851679 -0.0945776204220557 0.0377415859248439
-0.0825169646815522 -0.104838925423871 0.038002221446835
-0.0789229496258977 -0.110359179664411 0.0382054428417645
-0.0733174589819129 -0.111167895917775 0.0379485146242241
-0.0599730966879641 -0.123409252722717 0.0383321931051071
-0.0546135778686672 -0.129399475446546 0.0386551832819668
-0.0470802087212267 -0.135708640366483 0.038928357627139
-0.0399628172783536 -0.143713697881855 0.0393615773354774
-0.0427376802706342 -0.150387526650207 0.0400317795475896
-0.0302819406507357 -0.162402690164184 0.0409285347246808
-0.0182383473381701 -0.171191951033605 0.0415907953915946
-0.0139601754183766 -0.179348952994054 0.0422889173060661
-0.00633022191376321 -0.185258881928945 0.0427398903822532
0.00520732966798758 -0.194520943684911 0.0436112831798276
0.00385918919644641 -0.19705699467272 0.043854932207561
0.007469637231924 -0.205356301475997 0.0447613861248924
0.0184644742422706 -0.21203414731253 0.045600766080117
0.0321996446999907 -0.219165119154134 0.0465242248768459
0.0311356779350662 -0.230848453282967 0.047716689041608
0.0452132301180095 -0.233143347621389 0.0481452184864966
0.0451783100782301 -0.242869732064682 0.0491495173189739
0.0599137281835414 -0.253888807676827 0.0504882361117078
0.0567672835294316 -0.264057438489473 0.0514959033068261
0.0741706926382904 -0.266076810509222 0.0521571115652651
0.0700207157221659 -0.269925871345345 0.053194108083805
0.0810877805853915 -0.276888818924705 0.0572970803431051
0.0879189662411976 -0.284337323814097 0.0611596499594401
0.0930400578207153 -0.292877506987662 0.065166279106726
0.0960551024446909 -0.30299762130032 0.0694388207839115
0.107066793853851 -0.312482049612177 0.0747172594033717
0.104354088361264 -0.313241562599559 0.0745804182286729
0.118719024113042 -0.3170981792491 0.0786159702328264
0.120124538217303 -0.31915705284615 0.0807178465984717
0.130325061520098 -0.326986180131224 0.0903112401831287
0.124694392865387 -0.335260908167203 0.095040502759459
0.140339335483119 -0.336151079444779 0.100906306417559
0.131660855699527 -0.343447036011974 0.103851904315029
0.139974632801134 -0.347027714516267 0.109442216793423
0.14673526313075 -0.352220158725381 0.115803252123458
0.156864408758121 -0.354970231458864 0.121430016248087
0.153772309061073 -0.363756467747604 0.135699366467914
0.155675061833337 -0.360035928954559 0.130124303261036
0.15802367232851 -0.366340455097006 0.143960001124327
0.160685152630043 -0.368392002175918 0.149956323730792
0.162814361420274 -0.36945875412589 0.153661189282796
0.166632826938276 -0.37776464939097 0.16930271285924
0.178675407009689 -0.377986626897516 0.17731941365073
0.167583602213709 -0.383704181455878 0.179047605195884
0.180993932009598 -0.385689821919526 0.190649700770879
0.179411520274884 -0.388607599946764 0.194130648323776
0.187172065254267 -0.392639619520726 0.205280625883307
0.181863873641178 -0.396462746001749 0.207780030119182
0.187129476224648 -0.400578030875854 0.217468011783607
0.194603476267501 -0.402760158356557 0.225589006273157
0.198593873460221 -0.408940702484103 0.237641990741834
0.197977519037124 -0.411274477993969 0.240840057714196
0.209008386510321 -0.413425891095005 0.25157810645584
0.205634196744875 -0.414823526316781 0.263500591721231
0.203394674359283 -0.415751166901228 0.261879906000011
0.208529718039665 -0.413624162075787 0.277869228949733
0.199370754433165 -0.417417929178779 0.298933962809753
0.207441021734387 -0.414075114869746 0.309049971656493
0.204845174554397 -0.415150350022864 0.316476034218911
0.214177007870362 -0.418372957204264 0.320471937428621
0.214501528073027 -0.427195097562612 0.320471937428621
0.22675861537999 -0.441914742440335 0.320471937428621
-0.114534481216098 -0.0458179580831732 0.0370696104915653
-0.105639988519347 -0.0650072239770914 0.0370727531632999
-0.105278740629217 -0.0642110220385455 0.0370012335163835
-0.101006683781633 -0.0675127376049663 0.036873336054987
-0.087085713346487 -0.0813174955707627 0.0366284961443621
-0.0742243846757588 -0.0900370876036876 0.0364452188521467
-0.0765829149471888 -0.0984497097318972 0.0371972298640071
-0.0667421238743769 -0.0988913607717176 0.0366742221073649
-0.0600449292598685 -0.111641479823929 0.0373266159079198
-0.0574784729636116 -0.112736716067112 0.0373293723126491
-0.0494941455449141 -0.126162908542275 0.038196248703295
-0.044125296776805 -0.126896143348254 0.0380685501074249
-0.0413544466798337 -0.137349464383997 0.0388657456688124
-0.0249351987428065 -0.148272947915845 0.0395648248697849
-0.0142007524743358 -0.154088594532723 0.0399695557135672
-0.0202551094158209 -0.162930456202175 0.0408556966168157
-0.00523699921328918 -0.168517113600308 0.0411875293178926
-0.00600606985307679 -0.169984254692546 0.041331717018082
0.00714711074668199 -0.184765095578931 0.042704381853709
0.018756525181713 -0.190256119896629 0.0433549821842722
0.0205245346244792 -0.192671835630026 0.0436285804382561
0.0222932004323289 -0.203502878085685 0.044771523954653
0.0300582039246228 -0.214273381774338 0.0459897651030947
0.0416757466222351 -0.218049988006947 0.0465379045365498
0.0462911515812279 -0.228322492173703 0.0476618651366843
0.0492469872266366 -0.236433001997502 0.0485399127098337
0.0587068931241208 -0.243683153964606 0.0494175387342544
0.0773319007864508 -0.256876574341974 0.0512571540761169
0.0733366811610292 -0.255809650026879 0.0509951430278443
0.0858055306619682 -0.26811749389469 0.0547351424293916
0.0934164536032095 -0.276037266258656 0.0588961947510884
0.0996626454776889 -0.276036042306572 0.0598680435491111
0.102088224083583 -0.284481446898779 0.0634194592653105
0.112046166437447 -0.296294060269875 0.0694088144325296
0.11229132636409 -0.299781569843199 0.0707576066207771
0.121119987132962 -0.30036716676698 0.0723519847316172
0.127196054856061 -0.313554920789249 0.0785905371911445
0.13248865303786 -0.318633340275889 0.0843768887296978
0.130076151460648 -0.319784787593771 0.084497981910636
0.141816168247494 -0.325000839450687 0.0925192627281833
0.147687034725368 -0.329783350963774 0.0982607433180123
0.147530095037639 -0.337127531890193 0.104053850680686
0.15511888096228 -0.339983408911864 0.10882833851504
0.157070491272262 -0.341707795598694 0.110844035463257
0.164471334178082 -0.351959238344031 0.121695991556132
0.16334604267837 -0.355878980793616 0.128262033391144
0.162605894761469 -0.358618154365219 0.132886880009198
0.171926980569236 -0.360090570509072 0.143026615838777
0.169553256383236 -0.364498819535456 0.1495382620877
0.1741049510162 -0.367480221495939 0.158240700679633
0.18256241165608 -0.36960825382948 0.166905254469019
0.183225925782134 -0.370713080755045 0.169028089809246
0.189827337771836 -0.372961521180145 0.176694986959703
0.195224254385554 -0.378484033565529 0.188631906642408
0.191944070219928 -0.38236303288624 0.192509799516169
0.194924429409683 -0.38795163728969 0.203008256884554
0.194079366573555 -0.392029314705378 0.208743835118496
0.195746837981282 -0.395188585729301 0.214667621544277
0.205167925623144 -0.401501795304247 0.230385899977871
0.205601867901728 -0.403140640748511 0.233184095076711
0.209138437185934 -0.404757571196283 0.237925981837225
0.2111044264234 -0.408035386326733 0.244222423267825
0.21570071973767 -0.410653835791481 0.254281425630266
0.211516326686132 -0.412387068216779 0.274348083377169
0.212863012701444 -0.411829252581469 0.282490126071141
0.215137888110341 -0.41088696829468 0.291856265195412
0.215236627146851 -0.410846069244897 0.298487171332379
0.211515588348544 -0.412387374046235 0.316870183685871
0.214161069552933 -0.411291579806189 0.319738653486403
0.237865188655368 -0.430486711597185 0.320471937428621
0.237244030996428 -0.42738347897048 0.320471937428621
-0.107484621264145 -0.0456718957740744 0.0364604773135482
-0.105572136256228 -0.0488404666880075 0.0364090745738655
-0.0912558993105969 -0.0582525665141914 0.0356332957192999
-0.0889065850584343 -0.0661866500582902 0.0359083352573534
-0.0834544230751536 -0.0710178499918402 0.035779960324018
-0.0729078386454888 -0.0829428287998827 0.0358490118356026
-0.0747981599019421 -0.0877543031215773 0.0363096742961564
-0.0596739013857506 -0.0939740509878351 0.0359134891059254
-0.054325604856735 -0.110847721342123 0.0370556656223806
-0.0500250637113598 -0.109923995227314 0.0368239267542436
-0.0417055286788554 -0.116659677894021 0.037105743085912
-0.0405685256561271 -0.12394369833679 0.0376894068398609
-0.0257898379308895 -0.128346824312248 0.0377432903619622
-0.0217996968805634 -0.136726227183036 0.0384653444889525
-0.0131470915989378 -0.14523037257153 0.0391424355486161
-0.00882867512821352 -0.153959038470295 0.0398926254433945
-0.00169389398830307 -0.159573940663975 0.040322468883423
0.00810560798553969 -0.171989878942694 0.0415415123373699
0.0121668795110231 -0.177335258508304 0.0420820865249685
0.0223865166272187 -0.184000188583992 0.0428185080255002
0.0282768553152312 -0.194096813463867 0.0438812195345577
0.0421507791133001 -0.207753318114607 0.0454806786021948
0.0386481474227795 -0.206354322073185 0.0452885202417354
0.0475143819754553 -0.217474370564685 0.0465578477296419
0.0547192412112986 -0.224657386413452 0.0473978691934962
0.0608155213041324 -0.225034656690881 0.0475333543398472
0.0776781803081016 -0.241417037283894 0.0497827656359262
0.0841504289139212 -0.249214816069888 0.0507914838822597
0.0824020895351973 -0.250933087634229 0.0508871784827081
0.0936933205711807 -0.260844466563961 0.0532297367375912
0.0969384157161606 -0.267041954246087 0.0560639395875814
0.0987410501039567 -0.27736292213461 0.0602232344604551
0.108051600855916 -0.275376361882014 0.0609259916480911
0.115188757071515 -0.28644770161575 0.0661976756411751
0.123647995068981 -0.293286981371709 0.070084723900263
0.127154408127008 -0.301161809156441 0.0735899602982024
0.128736338700558 -0.305562760890519 0.0754901175925578
0.138876101987891 -0.309615560573974 0.0793057439209345
