ply
format ascii 1.0
element vertex 857
property float x
property float y
property float z
end_header
0.073050694706501 0.387473612026279 0.133189784934151
0.0644338448542259 0.386780218376099 0.1294605899087
0.0597616364811545 0.393069477235783 0.141037209767794
0.0604902429024269 0.394807214564532 0.144778313355487
0.0370177100440056 0.393463635961568 0.135732313608624
0.0351866980053981 0.394849062362801 0.138067099239928
0.0183495846632742 0.398577886696771 0.141152299681377
0.00189338983703752 0.399780468973743 0.139185680134966
0.00146518970694239 0.402084479473441 0.143771394847063
-0.0059745466852823 0.401601912313428 0.143998064259058
-0.00824566019865016 0.404095432633595 0.149695466468468
-0.0151904945843501 0.402152504061943 0.147596829131119
-0.0211512982475246 0.407141767171746 0.158715141698802
-0.0365922562130852 0.405331049142268 0.159081908204542
-0.0439543031566906 0.404805193247419 0.159814005198862
-0.0602625449280244 0.402463878376073 0.159493189623422
-0.0623933278339018 0.403380876059904 0.161470520536292
-0.0717722590444526 0.407657512452868 0.170570868469525
-0.0764524683695844 0.407679482869063 0.171624543534714
-0.0827212984068836 0.409803129815065 0.176493819444585
-0.0757648086553683 0.413848109716528 0.181660616819996
-0.0950876777920997 0.411449165700434 0.181899973370471
-0.104148398725166 0.417043299998851 0.193106583722287
-0.103552518423454 0.418857151361405 0.195972057970784
-0.106748196081717 0.418055607338049 0.195343244488218
-0.125231144407363 0.412366859404056 0.196157084241114
-0.132087507157563 0.41361295020596 0.202444193366846
-0.134859858126261 0.419675109442272 0.213538720581768
-0.135238681426472 0.423561006070242 0.219759238002438
-0.14810311266588 0.421009161375972 0.224031759018435
-0.146462434799404 0.422845459479951 0.225811539834916
-0.156977528304401 0.421639317518859 0.23065732794212
-0.163575058868961 0.425890989314694 0.241404046674692
-0.175495423508667 0.418688603240737 0.237919271599594
-0.178375039874893 0.422608402321396 0.245785795281179
-0.179020345271154 0.424265445696267 0.248746699858777
-0.186015410020273 0.422949894197919 0.259640876422987
-0.187931175738966 0.422156358021461 0.268348943367786
-0.174459594613667 0.427736469865358 0.291726818358646
-0.172997997699743 0.428341883155345 0.302306785609705
-0.179441858300526 0.425672748587961 0.314665211486059
-0.18469344763608 0.423497468969478 0.31718270192048
-0.181503922169372 0.426949886698162 0.320471937428621
-0.205522213736733 0.426817146198759 0.320471937428621
-0.224522495746466 0.428859409008848 0.320471937428621
-0.220407361290144 0.427743732934694 0.320471937428621
-0.240193823105701 0.436730981344715 0.320471937428621
-0.24658175715155 0.430092365821225 0.320471937428621
0.329385620597549 0.369014898120479 0.320471937428621
0.322051357952251 0.362600071848353 0.320471937428621
0.309215477264735 0.370397010494733 0.320471937428621
0.30480359995409 0.365899590575727 0.320471937428621
0.301043552505654 0.373860047808404 0.320471937428621
0.282434666558551 0.374323591484646 0.320471937428622
0.279337516273332 0.374352498658672 0.320471937428621
0.274164927091219 0.375378611783682 0.320471937428621
0.0996019712437613 0.397143881201307 0.159260596334451
0.0744273398217168 0.395464988580994 0.149863867121603
0.0795527485035763 0.403548539154804 0.165477528206561
0.063622615703643 0.402030446954242 0.159507934759846
0.044610655700082 0.402603247707651 0.156320860791564
0.0374582395148252 0.403864695031177 0.156848933596624
0.0330261060443233 0.406507950710887 0.16024997392307
0.0182296539504681 0.406454982310107 0.156946017232513
0.0067797118477972 0.407633818674135 0.156403475138344
0.00414417734125881 0.412234409029297 0.163426991715146
-0.0140643318684272 0.408835488031043 0.159971206423216
-0.0169189135124319 0.413248131044883 0.167877844302971
-0.0193391682826981 0.416459633106501 0.173706758137716
-0.0266934526275859 0.413426108558958 0.170296536845964
-0.0288924300902953 0.41608144229542 0.175159010644029
-0.0405700336561659 0.416905962825102 0.179058960651684
-0.0562339235441394 0.413883531396818 0.177473422889523
-0.0581876698109406 0.422380789712021 0.19192869973434
-0.0629193373296761 0.422973074707516 0.193935257169591
-0.0686086615572176 0.423953303311476 0.196790560451925
-0.0802486281708819 0.422284530147056 0.196565433748094
-0.0968334843114508 0.418524714013193 0.193962538043711
-0.100618870057377 0.423161412745299 0.202441474855363
-0.10143533575229 0.425409203683898 0.206330484618726
-0.10525252345367 0.429774006645642 0.214367383769479
-0.117136204991609 0.429778793130729 0.217788974784422
-0.12817401228745 0.425824047050694 0.218738734622817
-0.13134930851001 0.427386446540441 0.223166464878888
-0.136712533365101 0.426446204402829 0.225137918900487
-0.146680549678061 0.427472924810584 0.233070655570636
-0.148669433394062 0.433386117829372 0.243436643415696
-0.159974200039625 0.431831158904633 0.248249006213238
-0.157657246200398 0.434303017903216 0.250575686172633
-0.162491066279368 0.432693996832019 0.260399841826846
-0.16138371148932 0.433152678223748 0.274767679991628
-0.15620491759598 0.435297804981517 0.284794535964856
-0.155272857180181 0.435683877062963 0.303343910507525
-0.157664978367818 0.434693027982442 0.303916260334852
-0.168382574284616 0.430253654210561 0.301400978363862
-0.160236872994961 0.435226009222938 0.320471937428621
-0.177416646076623 0.429546757262308 0.320471937428621
-0.190340328029396 0.436865936263498 0.320471937428621
-0.206534242554643 0.439230560921071 0.320471937428621
-0.218164778638331 0.444044385348347 0.320471937428622
-0.23589785961668 0.437236072690489 0.320471937428621
0.324003671299387 0.373939115728331 0.320471937428622
0.318249033831272 0.372589190145697 0.320471937428621
0.317207229159044 0.374043720342987 0.320471937428621
0.298616019584102 0.374556708729481 0.320471937428621
0.286349512907317 0.380584108418153 0.320471937428621
0.282548450747595 0.376436015059449 0.320471937428621
0.275424188765701 0.380805669973506 0.320471937428622
0.267350791612317 0.382633764379241 0.320471937428621
0.25921976648895 0.388004841124257 0.320471937428622
0.0993448213424076 0.408968836390857 0.178729913177944
0.0808370075379827 0.407009137835479 0.171470801069952
0.0630340963188951 0.405996489398604 0.165928679951838
0.068299599013674 0.409650355675908 0.173106528197761
0.0593754771821679 0.412952992570908 0.17661984893043
0.0489893253092271 0.414417855156961 0.17678083955041
0.0408715690965139 0.414945373509014 0.175887209663908
0.034825277824424 0.419810793548902 0.182606569416342
0.0124439775150224 0.414129094148838 0.168359706665811
0.00812833331556293 0.419743052206503 0.176691256061582
0.00238674312674196 0.424001193820354 0.182474122148306
-0.0203774020395309 0.417428965014825 0.175533001085466
-0.0235360913483309 0.420551863820802 0.181376137434017
-0.027760986009495 0.422897248346889 0.186167226900224
-0.0412000755972377 0.420426543708693 0.185009059759166
-0.045394204234064 0.42134571959101 0.1874385235037
-0.0469291574416189 0.428913477507269 0.200267982543311
-0.0500865219295247 0.427098696667806 0.197957796587679
-0.0621751331073941 0.428643577804588 0.203136542992231
-0.0678347206943239 0.428646537800193 0.204371728443658
-0.0780583288353461 0.429109296123694 0.207358267422296
-0.0856814670617056 0.433775667548551 0.216720461432147
-0.095481459867149 0.4330712149498 0.21768762970897
-0.0901596318886822 0.436460961163514 0.222127861116021
-0.102762929582374 0.436173543858489 0.224393023541525
-0.119949221701681 0.432790828033292 0.224216310246948
-0.127115203358004 0.435781091977005 0.233384442581427
-0.135105152915207 0.433327546696624 0.234701537485706
-0.133594138893133 0.443306328352758 0.249092484982435
-0.134969547024671 0.44347868003647 0.250234271054399
-0.144641331412061 0.440087599410444 0.257521705057757
-0.145904072372267 0.439564554956918 0.267726641792506
-0.143365735522867 0.440615968550125 0.279084606287668
-0.143744653739283 0.44045901547924 0.281016884783704
-0.136874073970115 0.443304902920943 0.306701340040227
-0.139419727752954 0.442250458554543 0.311702182664566
-0.142342459324721 0.441039823447315 0.318761782078716
-0.162655354224743 0.44118489799981 0.320471937428621
-0.164491910295852 0.445218494241069 0.320471937428621
-0.172954970348634 0.449579993424686 0.320471937428621
-0.199830417857771 0.447200081255814 0.320471937428621
0.278861087204467 0.390237014567559 0.270100629033049
0.275003360243258 0.394109745830522 0.272328887690882
0.306346334478352 0.385849784940127 0.320471937428622
0.301931999093198 0.389843709765407 0.320471937428621
0.290589210726046 0.389886527136588 0.320471937428621
0.280419372585082 0.389572950059351 0.320471937428621
0.270708325261798 0.389181937909454 0.320471937428621
0.268169587746695 0.391006154749162 0.320471937428621
0.256667422713448 0.395394362789996 0.320471937428621
0.244974951532786 0.395831713605392 0.320471937428621
0.0997397991923191 0.413089957541247 0.185620517871967
0.0990650369113073 0.420457488716037 0.197639010614052
0.0700828712717963 0.416612750087033 0.184990398947595
0.0755803733140387 0.420359067741163 0.192371334435856
0.0544700315209274 0.417287936906771 0.182711294240344
0.042104634622055 0.420840743727794 0.185889617982495
0.0492876698413849 0.424502980167624 0.193498125751151
0.0337286674301127 0.424553932750718 0.190199996664937
0.0217337762519554 0.428534458850716 0.194165106699721
0.00693126612880565 0.428209674429585 0.190411013913181
-0.000723281553984367 0.42661909229001 0.186435152217776
-0.0164409370166955 0.428083654529612 0.192270169488585
-0.0112686664099891 0.433256069610686 0.199686432455122
-0.0173314820345546 0.435836285598599 0.205264805380137
-0.0201369451307753 0.434540531613419 0.203735132646744
-0.0321575724831235 0.437238032556942 0.210802291802915
-0.0466080003762915 0.435465904086337 0.211017452534757
-0.0434348892010878 0.440738437474418 0.219033612795778
-0.0545926284287505 0.440654773040519 0.22132096960153
-0.0682331672973193 0.436559698680255 0.217524455319477
-0.0809663078690707 0.437360845696853 0.221615267043895
-0.0725116668693693 0.445247230695614 0.232799271468516
-0.0903309767965272 0.440942352584587 0.229564725534098
-0.0911394316144608 0.448056338589411 0.24148699374497
-0.101554680797375 0.447773676773472 0.243284363895891
-0.119705223566615 0.442024864161124 0.238268859353868
-0.115902663151873 0.444421537361768 0.240868360588362
-0.110608976001924 0.451363877580087 0.258157035723984
-0.134818338679035 0.444069796902361 0.251047429620093
-0.126737381969578 0.447503658402132 0.269548628804358
-0.134501390219553 0.444287700751071 0.271442280727897
-0.131837990723984 0.445390916990651 0.286712158695322
-0.131350028164515 0.445593037709232 0.298750261987435
-0.124733728726267 0.448333598784784 0.306513954866966
-0.131696753772899 0.445449419253764 0.311878133514908
-0.134653411224359 0.44601556794446 0.320471937428621
-0.151659566087336 0.451918993590136 0.320471937428621
-0.170204458869872 0.452939121174545 0.320471937428621
-0.185975499060827 0.451856368295336 0.320471937428621
0.252479466092108 0.405627882980906 0.258252484495312
0.28089500337542 0.395761887778331 0.287401261926463
0.279483704873087 0.400108102595923 0.295369157477544
0.287899770931439 0.398598479153221 0.320471937428621
0.284395887213353 0.395743758331807 0.320471937428621
0.27762195382496 0.400157333009346 0.320471937428621
0.272662369715915 0.400461760164726 0.320471937428621
0.256791750501118 0.399168511286335 0.320471937428621
0.243512008691692 0.405109287547717 0.320471937428621
0.236982049784252 0.40292383788176 0.320471937428621
0.104481171380925 0.423840486735159 0.204402349383808
0.0966342007986142 0.427245150638182 0.208318290106981
0.0943991913633062 0.428224262107194 0.209449133740029
0.0771751456028309 0.42610433909284 0.202204530270282
0.0733711421515044 0.431725894396548 0.210659846101789
0.0673441453564952 0.4350801283811 0.214888148792704
0.0426482159246247 0.429641117847426 0.200538850003654
0.0322648852745096 0.433681790094473 0.20495359832818
0.0356531794701875 0.438663661711466 0.213916159176836
0.0152003687083766 0.438737260424643 0.209591592754519
0.000367632294334939 0.435991490982455 0.201833429362145
-0.00305283012496018 0.440177252610315 0.209328619598376
-0.0104039751600687 0.437244404192759 0.206083951029321
-0.011087480416549 0.442730493240842 0.215291094424926
-0.0263487847924856 0.441891176147243 0.21722277226524
-0.0368817722261296 0.440173552179611 0.216676345312675
-0.0461513596597166 0.442347619859278 0.222281188848925
-0.0447454000478551 0.450772574504508 0.235886735952869
-0.0618151453112476 0.445560081091435 0.230990604496099
-0.0550274852734133 0.449168438524392 0.235473157066399
-0.0655024850487572 0.452874104495739 0.243868992482952
-0.0678860008318018 0.450998714467661 0.241290507872243
-0.0812304043515592 0.449345822765445 0.241462119990793
-0.0899082925102371 0.450665319476753 0.245527281385668
-0.0860098987838682 0.454602407907105 0.266158308171926
-0.113602298648294 0.450969799132229 0.257381980912557
-0.0946707677094598 0.453462182750477 0.271650995367837
-0.103640568065519 0.452281285994762 0.276414346463538
-0.0859386579714841 0.454611786939066 0.301081461654487
-0.0905272478350526 0.454007687553561 0.309937463512626
-0.0945562955179173 0.453477253302134 0.316090323180209
-0.100659358844982 0.454465361776338 0.320471937428622
-0.108356121878301 0.456805907253994 0.320471937428621
-0.124013954061856 0.457836245970028 0.320471937428621
-0.14257314524293 0.456658259312818 0.320471937428622
-0.14374945568469 0.466426237922273 0.320471937428621
-0.165335159162419 0.466917706379485 0.320471937428621
0.255970497975068 0.407727493205447 0.269919730745008
0.259071638568676 0.407565782052017 0.275335072738505
0.279837309728204 0.405248920790651 0.308583879396879
0.268664797633633 0.412878763892377 0.306281068162361
0.273757201598277 0.410048406954298 0.320471937428621
0.259475820484374 0.409143820295399 0.320471937428621
0.261570745229368 0.411582973195641 0.320471937428621
0.246150226882266 0.409912935293661 0.320471937428621
0.236666413545261 0.411290474043453 0.320471937428621
0.226492471661655 0.418066674789851 0.320471937428621
0.218236162459239 0.415525442838582 0.320471937428621
0.20551011579198 0.418938317337171 0.320471937428622
0.191376240671808 0.422585416017397 0.320471937428621
0.0794892561535825 0.437675879479269 0.221814359888206
0.0658280272741051 0.435977160205511 0.216039738252182
0.0707860633189791 0.442535565312975 0.227946686376659
0.0590120496689583 0.441446770369675 0.223589412454888
0.0445859425750261 0.442338673644583 0.221926122632682
0.0397323195100746 0.44561148509401 0.226275052866322
0.0350189807729544 0.447684528799039 0.228673437151816
0.0190813853075677 0.446857249146982 0.223842882414729
0.00263338831164798 0.447977196194887 0.222116611266566
0.00285007359239483 0.453843789129368 0.23185055919271
-0.0118851666608942 0.453772713038897 0.23369727179134
-0.0202518089478801 0.453321920100628 0.234771693708978
-0.0288643773352804 0.454335708769452 0.238317874436821
-0.0316468039598409 0.454708726124098 0.23953864814114
-0.0461682675898652 0.452206707616984 0.238564065616121
-0.0511000139545827 0.453281949716705 0.241411569459588
-0.0474178622207406 0.458574574967926 0.249350248404264
-0.0409094311892045 0.460539997792013 0.282449959120359
-0.04859918113637 0.459527622889072 0.271541568850466
-0.0440315464202611 0.460128963476759 0.28724616391394
-0.0696517022741829 0.456756005581616 0.285329566136347
-0.0575222916338748 0.458352872970555 0.296158740343275
-0.0581156601730534 0.458274754511387 0.303704276877377
-0.0660325585149618 0.457232474951511 0.31932867839995
-0.0769071316488839 0.455800810073378 0.316918280462989
-0.083139922413993 0.458970572582353 0.320471937428621
-0.100404190810536 0.468240723818015 0.320471937428621
-0.0953483940493688 0.465965795234211 0.320471937428621
-0.114288048229366 0.468941410938091 0.320471937428621
-0.129364779125138 0.473283601574599 0.320471937428621
-0.140417690235896 0.472355417518441 0.320471937428621
-0.143838761151913 0.475598458171891 0.320471937428621
0.252246165845606 0.416967333471771 0.320471937428621
0.249211140871927 0.424903989668164 0.320471937428621
0.230591027454847 0.423883002779155 0.320471937428621
0.220560283957923 0.429126594460757 0.320471937428621
0.215143849509614 0.424299798215442 0.320471937428621
0.205681098910779 0.423268151109567 0.320471937428621
0.200003770794025 0.425751947802421 0.320471937428621
0.186926952429991 0.426843292374214 0.320471937428621
0.180415026041728 0.432284014401756 0.320471937428621
0.166996633414461 0.433612155395507 0.320471937428621
0.159223813656506 0.436039251698941 0.320471937428621
0.0562305949385915 0.452305569998898 0.240914684674838
0.0576074222917772 0.450739236194835 0.238627672804478
0.0507621096615841 0.453313155278002 0.241389641489475
0.0367235056060813 0.458240766020147 0.246474297468814
0.0157612994627727 0.454442662077802 0.235646090607922
0.0152550221648159 0.460167885550092 0.244989451346328
-0.00460221660855258 0.459463592458467 0.241510790768742
0.00344870257926305 0.463056577026103 0.247192730066357
-0.000967951056719204 0.465798394014295 0.253418010284994
-0.0264536444184381 0.461923709680412 0.250323033495545
-0.0104002327973565 0.464556610422201 0.265783312430214
-0.0126583957989106 0.464259317588854 0.28670156362471
-0.033541979366562 0.461509941337008 0.27062368261443
-0.00939936419119843 0.464688377289132 0.30010410527137
-0.0044467058946458 0.465340407198651 0.310817278568864
-0.0121851111398358 0.465723841946117 0.320471937428621
-0.019535079590949 0.463353984888265 0.320307688565094
-0.0319099328457144 0.46361104281527 0.320471937428621
-0.049220719446581 0.47228848564491 0.320471937428621
-0.0560117299939912 0.464005429857006 0.320471937428621
-0.067531676886215 0.471009793762472 0.320471937428621
-0.0849572304024147 0.477346944145579 0.320471937428622
-0.0963393109111991 0.47238385757694 0.320471937428622
-0.102748658720681 0.473385019799181 0.320471937428621
-0.122750020209839 0.475446816098964 0.320471937428621
-0.124471396963599 0.478408336608209 0.320471937428621
-0.131195954347206 0.481995200409269 0.320471937428621
0.248448254640654 0.430371151607772 0.320471937428621
0.243525545642038 0.4291114882517 0.320471937428621
0.223128777351761 0.431964255869883 0.320471937428621
0.225699227336071 0.434500057985522 0.320471937428622
0.215241602686982 0.439559339877113 0.320471937428621
0.201558867470536 0.435776178511545 0.320471937428622
0.195944777795342 0.439820548843243 0.320471937428621
0.182683703920563 0.43925727581953 0.320471937428622
0.17125341805761 0.444705443350067 0.320471937428621
0.161549879940184 0.441914876920875 0.320471937428621
0.142243427666918 0.447667557047014 0.320471937428621
0.132607883803763 0.446338557865409 0.320471937428621
0.125869488290149 0.450346562773084 0.320471937428621
0.120450897298819 0.451252735730465 0.320471937428621
0.105526090805979 0.454029055286249 0.320471937428621
0.104777253274486 0.452371687925134 0.320471937428622
0.0844886254862509 0.461198705274395 0.320471937428621
0.0760389763901572 0.459582776028382 0.320471937428621
0.0640394669628275 0.461188790047309 0.320471937428621
0.0543941318983941 0.461407078452572 0.320471937428621
0.0401497835054566 0.468691375340189 0.320471937428622
0.0345942221436258 0.468740738021041 0.320471937428621
0.0144096387817963 0.472011571551188 0.320471937428621
0.005742875851252 0.465169761512917 0.315131908140452
0.000376789082738028 0.471673671666715 0.320471937428621
-0.00768561805763542 0.470491585543193 0.320471937428621
-0.0200586232940876 0.469620235429008 0.320471937428622
-0.0371969497578626 0.478447620662972 0.320471937428621
-0.0431584673814996 0.478295783435885 0.320471937428622
-0.058588781915439 0.483185201136208 0.320471937428621
-0.064843324871075 0.482880537681609 0.320471937428621
-0.0784259983684598 0.480139666547308 0.320471937428621
-0.0888878050805817 0.485625115532163 0.320471937428621
-0.111458840316506 0.482764670393592 0.320471937428621
0.233625037684276 0.438112154057959 0.320471937428621
0.214441011791032 0.446063302178678 0.320471937428621
0.201368821805529 0.447259553857976 0.320471937428621
0.192478979693513 0.4532883292807 0.320471937428621
0.174149271716196 0.454324982128773 0.320471937428621
0.167489304474436 0.455028641160436 0.320471937428621
0.157700303620376 0.455341775832303 0.320471937428621
0.15915898438703 0.454839948558584 0.320471937428621
0.139929753576254 0.454198340295359 0.320471937428621
0.130900270470761 0.459142730293425 0.320471937428621
0.12425319005764 0.457083957573843 0.320471937428621
0.114129802125262 0.465400425787418 0.320471937428621
0.0947477717376586 0.468611602626114 0.320471937428621
0.0860502612580819 0.469651469974007 0.320471937428621
0.0720619246204241 0.468488300187379 0.320471937428621
0.0656455864109682 0.465160201111638 0.320471937428621
0.0565570563494266 0.465870983454665 0.320471937428621
0.0368796158058935 0.468823136464241 0.320471937428621
0.0310105735659485 0.480279880409721 0.320471937428621
0.0196625286466188 0.476723387912086 0.320471937428621
0.0135336901767835 0.48001203533707 0.320471937428622
0.00555723468326926 0.476990420478869 0.320471937428621
-0.00799886889901036 0.480018466294879 0.320471937428621
-0.0242919816372957 0.484968455735874 0.320471937428621
-0.0255881069233884 0.483270759516645 0.320471937428621
-0.0460714078587042 0.488702134204393 0.320471937428621
0.197336210754904 0.454668488210307 0.320471937428621
0.175415740515689 0.458863022264629 0.320471937428621
0.168120645760105 0.459571692411559 0.320471937428621
0.160608721705534 0.463332137467735 0.320471937428621
0.154499251059867 0.463347460354276 0.320471937428621
0.142201271494377 0.471131047053687 0.320471937428621
0.127106221703452 0.466254473553684 0.320471937428621
0.112844097568138 0.468297722600835 0.320471937428621
0.110915448268672 0.476627433305396 0.320471937428621
0.0983678655568362 0.477308667170421 0.320471937428622
0.0917812109150327 0.477604759283951 0.320471937428621
0.0766756549546291 0.476384390601562 0.320471937428621
0.0660790239003596 0.474264197562868 0.320471937428621
0.0538079805844382 0.482291889174553 0.320471937428621
0.0398133779094144 0.485911093037723 0.320471937428621
0.0341247929045053 0.482320478269136 0.320471937428621
0.0130872623009791 0.491223906791893 0.320471937428621
0.0114077537924175 0.491924120023412 0.320471937428621
0.00420964991837991 0.493061356316459 0.320471937428621
-0.0117876369965452 0.487874770974785 0.320471937428621
-0.0424230606981625 0.492873225290738 0.320471937428621
0.132092895750687 0.474470977837586 0.320471937428621
0.114386475943022 0.478995038122229 0.320471937428621
0.110654325114704 0.482641836489324 0.320471937428621
0.0932007245242813 0.486329333642361 0.320471937428621
0.0915199912863729 0.482596092350811 0.320471937428621
0.0834135310813332 0.487718046502533 0.320471937428621
0.0724552052149321 0.488601216484991 0.320471937428621
0.0623118197517011 0.490805944299477 0.320471937428621
0.0437548611195939 0.488206952919195 0.320471937428621
0.0272454798493006 0.491367210932698 0.320471937428621
-0.258060845287392 0.425616724284173 0.320471937428621
-0.221722686578124 0.443858564219426 0.320471937428621
-0.236851663960853 0.43013910413771 0.320471937428621
-0.251812734471388 0.423644302106909 0.320471937428621
-0.249864531296854 0.429841986723751 0.320471937428622
-0.272052257640991 0.415861188887758 0.320471937428621
-0.275082088104589 0.411892549953683 0.320471937428621
-0.278888066005521 0.402549836996096 0.320471937428621
-0.293615637015799 0.394243378655941 0.320471937428621
-0.293409744873688 0.396238422626088 0.320471937428621
-0.354938095962002 0.351213844409964 0.320471937428621
-0.193103735079618 0.455691924587574 0.320471937428621
-0.207506089738102 0.443265807500016 0.320471937428621
-0.214730474733149 0.436345798042405 0.320471937428621
-0.229771098711497 0.428949194529273 0.320471937428621
-0.234046561572667 0.432084606609248 0.320471937428621
-0.23988469316961 0.424859070017827 0.320471937428621
-0.248616447664507 0.417911873880577 0.320471937428621
-0.257736040651061 0.403668823975415 0.320471937428621
-0.267170947041692 0.403618436341851 0.320471937428621
-0.27725081027568 0.40263517502274 0.320471937428621
-0.28229638678791 0.395089865154388 0.320471937428621
-0.283314167228848 0.389291370579098 0.320471937428621
-0.292962155196812 0.380250080657496 0.320471937428621
-0.312094697622562 0.375949606719575 0.320471937428621
-0.327762128682401 0.362027503430212 0.320471937428621
-0.321892876306079 0.364500117038626 0.320471937428622
-0.335260698069812 0.35832108694563 0.320471937428622
-0.345497463266339 0.343402222758528 0.320471937428621
-0.352881115756612 0.347253123226268 0.320471937428621
-0.363473757871267 0.329294798014105 0.320471937428621
-0.157872200890308 0.465888759771908 0.320471937428621
-0.162992533178737 0.464238107557744 0.320471937428621
-0.181718266223757 0.454298148663767 0.320471937428621
-0.184844600440842 0.451223648092871 0.320471937428621
-0.190327050328563 0.4440142716769 0.320471937428622
-0.195184699227024 0.442661020323337 0.320471937428621
-0.2048537826049 0.433064846998125 0.320471937428621
-0.216732018424361 0.421279237447342 0.320471937428621
-0.230640483483664 0.420867786547489 0.320471937428621
-0.232916294872815 0.417158122175221 0.320471937428621
-0.242479854780112 0.412094338653505 0.320471937428622
-0.250490753144099 0.405803981705978 0.320471937428621
-0.257915562542642 0.393972040007612 0.320471937428621
-0.265353230477624 0.394666413208889 0.320471937428621
-0.273175039080408 0.391634411423057 0.320471937428621
-0.291295931986055 0.379002597544051 0.320471937428621
-0.291959339497538 0.371075642072715 0.320471937428622
-0.303402892971326 0.366212565476683 0.320471937428621
-0.316787652495183 0.357537882276865 0.320471937428621
-0.317181512188654 0.351268555751929 0.320471937428621
-0.331252040220273 0.345931109996696 0.320471937428621
-0.336220130284805 0.34174875011427 0.320471937428621
-0.356247872526961 0.326699798250007 0.320471937428621
-0.359263730366871 0.326368861152776 0.320471937428621
-0.371541085637559 0.318324985069386 0.320471937428621
-0.379715523904824 0.313188528335919 0.320471937428621
-0.379030556841168 0.303722775492035 0.320471937428621
-0.129848708498645 0.478344855974695 0.320471937428621
-0.143479959239534 0.472252536077978 0.320471937428621
-0.143967807661703 0.468478946026524 0.320471937428621
-0.147681665107728 0.462193750175439 0.320471937428621
-0.158899046926617 0.454264827860446 0.320471937428621
-0.165527667406218 0.450309965898766 0.320471937428621
-0.175930629962972 0.451883599914583 0.320471937428621
-0.180233595855496 0.442807954311592 0.320471937428621
-0.191978207293628 0.441007067618264 0.320471937428621
-0.204126630751802 0.431428220530952 0.320471937428621
-0.213423008608769 0.422503156826302 0.320471937428621
-0.218880569377991 0.415085762485189 0.320471937428621
-0.230775617266658 0.407707584855606 0.320471937428621
-0.234014976105183 0.402888106230822 0.320471937428621
-0.254137950320622 0.387255424989885 0.307154117930124
-0.305474462443064 0.347863532554217 0.258676352703602
-0.276160725532339 0.370356754698343 0.300959962424478
-0.267776706740054 0.378184114587217 0.320471937428621
-0.276226227893408 0.373215009972763 0.320471937428621
-0.290994518462354 0.370622749878172 0.320471937428621
-0.292693631851433 0.3586668240905 0.320471937428621
-0.301542829631439 0.351915166767958 0.320471937428622
-0.3076142162559 0.349192064380412 0.320471937428621
-0.322964535757095 0.339471116491933 0.320471937428621
-0.329983877254923 0.329981899009037 0.320471937428621
-0.347412121285689 0.324001033125937 0.320471937428621
-0.349926609279612 0.320723560088921 0.320471937428621
-0.350959496203717 0.316737640205613 0.320471937428622
-0.373920255083307 0.306533207113396 0.320471937428621
-0.373394667051245 0.295977665107229 0.320471937428621
-0.391562440581922 0.293961994036146 0.320471937428621
-0.389504257116696 0.284682426635374 0.320471937428621
-0.401227975252796 0.279440611934554 0.320471937428622
-0.412604989821922 0.275210705474596 0.320471937428621
-0.126695558757191 0.473706690206202 0.291137839288803
-0.10552832127154 0.486116222813987 0.320471937428621
-0.117274011598275 0.482318920386612 0.320471937428621
-0.127397763568637 0.47379573293986 0.320471937428621
-0.125208445197462 0.468607563701423 0.320471937428621
-0.14004070019112 0.462264222797149 0.320471937428621
-0.144166996600738 0.458796506366933 0.320471937428621
-0.15625136284022 0.448736896144751 0.320471937428621
-0.157392397440795 0.445198114125046 0.320471937428621
-0.167637700355677 0.441568167348702 0.320471937428621
-0.180431585782234 0.429628103765796 0.320471937428622
-0.185118328246018 0.425600612951722 0.320471937428621
-0.193298772229179 0.420295591668074 0.320471937428622
-0.276411106165031 0.356177685925736 0.232700054817024
-0.280260555947567 0.3598727236294 0.241485005228478
-0.289245893539846 0.356911899343153 0.246682741297354
-0.29779374361922 0.347038480440027 0.242303465144598
-0.299626021892595 0.34774453544919 0.245094021182814
-0.313239960265057 0.331312507628154 0.237185262663512
-0.32183984958791 0.327885442466339 0.241376176748285
-0.32954658260116 0.317570838021809 0.239242853740554
-0.329903843075749 0.32887998767917 0.260776927268182
-0.343866622839108 0.308067337494028 0.24852846796043
-0.345612146227674 0.308408527815668 0.256701668446932
-0.345216536213528 0.30892409683976 0.262556843901047
-0.345657054284829 0.308350002494333 0.278359123903635
-0.350362103848059 0.302218262333865 0.278955388534276
-0.33967608939582 0.316144547932256 0.295735659845517
-0.339425005634792 0.316471766670432 0.31410463498077
-0.3440757737033 0.310410767533345 0.3149025583583
-0.348621342632913 0.307739236192778 0.320471937428621
-0.365719667460306 0.297085622335495 0.320471937428621
-0.378352565676641 0.291328137161854 0.320471937428621
-0.383775449420715 0.27647039807727 0.320471937428621
-0.388993719444917 0.274602198088578 0.320471937428621
-0.400642954444381 0.268808841726885 0.320471937428621
-0.407445523265189 0.260285749698303 0.320471937428621
-0.414476853436004 0.256864487011943 0.320471937428621
-0.431051198506146 0.248631317841536 0.320471937428621
-0.0919510140216331 0.483888682167883 0.320471937428622
-0.0994727959724682 0.481642567286448 0.320471937428621
-0.0983406130402205 0.477590744175061 0.320471937428621
-0.110675037598819 0.472703615970939 0.320471937428621
-0.118038023279556 0.466263471070262 0.320471937428621
-0.130198277664465 0.463255195128287 0.320471937428621
-0.130653582887218 0.455622889468382 0.320471937428621
-0.139224329551184 0.446053492903094 0.320471937428621
-0.144523244987063 0.443461762091142 0.320471937428621
-0.248600562415004 0.365548362239158 0.216885530779872
-0.250268511717649 0.367249982336767 0.220824900399234
-0.167796301004768 0.43052030740297 0.320471937428621
-0.258889397281915 0.362917014627288 0.223840151813349
-0.268783352472094 0.358846635683729 0.228493061462429
-0.278355642128865 0.345492702068181 0.220553686238403
-0.293389559338154 0.32878693870999 0.213722896382464
-0.294979626162711 0.337056892752747 0.226261904579311
-0.310576263947504 0.319311935484187 0.218628565776185
-0.30679680709264 0.331815266539866 0.231317138040295
-0.316829949920746 0.319415045976209 0.225105120895284
-0.326013883433097 0.310675255476468 0.227584067530404
-0.332926030897104 0.315496849550531 0.241605327939586
-0.338074894065711 0.310096050244938 0.242932795879564
-0.344267578137486 0.302291709280405 0.24320260471715
-0.351877028229747 0.294701191947361 0.245561142101794
-0.358593919188138 0.288687672470896 0.24833920378561
-0.365467475190033 0.281776118924263 0.250413789287893
-0.364503273575745 0.283789130574474 0.254613786159892
-0.3614921813075 0.287713262539493 0.2714605152252
-0.369988633777157 0.276640469760253 0.272796307312812
-0.356965080869369 0.293613094877901 0.302010380508735
-0.359925480931263 0.289755026284442 0.306222083324509
-0.356727246488696 0.295643866392821 0.320471937428621
-0.365856438710308 0.283942907042521 0.320471937428621
-0.371394860960678 0.275545140347542 0.320471937428621
-0.382302581641697 0.272903889892622 0.320471937428621
-0.390661957290327 0.264449119171783 0.320471937428621
-0.395683960739035 0.256211871740533 0.320471937428621
-0.402826516789825 0.253888975440869 0.320471937428621
-0.416572761367089 0.246719562351507 0.320471937428621
-0.428202171448535 0.228890057924386 0.320471937428621
-0.439403580403987 0.230627264498979 0.320471937428621
-0.0943243012749768 0.468119933423709 0.261086701121141
-0.105207797382194 0.467542849199531 0.263697899408586
-0.0779674180044564 0.484614003926125 0.304844847623751
-0.0771806774318764 0.485846557904123 0.308289739045921
-0.0797865376790085 0.483741640894623 0.320471937428621
-0.0848960053081049 0.476930292889352 0.320471937428621
-0.0932156047058442 0.471131412936596 0.320471937428622
-0.101121640057031 0.462602794362366 0.320471937428621
-0.110450984692075 0.458527014943981 0.320471937428622
-0.122782862659855 0.449433806828927 0.320471937428621
-0.222567025502772 0.371792140199659 0.198741125917202
-0.233291825225331 0.364291000366584 0.199703398272723
-0.234503934059716 0.371433891915517 0.210370048976236
-0.246426199219903 0.365943247600962 0.215202800062978
-0.256193599834494 0.351516707557041 0.206044026579518
-0.261289503732864 0.344955090854522 0.202540798727867
-0.273063442823782 0.332833853481305 0.198462307411487
-0.283102433179181 0.330719346309764 0.205846513154028
-0.28697428628372 0.333259441028543 0.213128175634234
-0.297981913965102 0.321238283804124 0.208404991074668
-0.304757550333544 0.318802330129523 0.212055915611272
-0.316530841020572 0.307862165391202 0.212202265661431
-0.317978972259339 0.310708354039666 0.217001267106604
-0.319955427456768 0.311689310055269 0.220607260409543
-0.32737441887791 0.302622466157718 0.221217370943035
-0.339897531688358 0.289849112813397 0.224813593608558
-0.343571200587517 0.291901943219928 0.231748802207859
-0.347478388416733 0.288542154427715 0.233504955160473
-0.353066326119129 0.279504898935425 0.231725731589874
-0.358645596637245 0.272740866240697 0.232239769601363
-0.367513171734408 0.264022569578657 0.235117238580601
-0.373110751791284 0.264719413080387 0.24321969898407
-0.378200307411297 0.262143113810037 0.247332432451418
-0.381942799021463 0.254626221264601 0.244656284415429
-0.390750789635709 0.249582700615659 0.255433692220171
-0.391725291576579 0.248312704921248 0.265610026641006
-0.37858457744432 0.26543801752405 0.291523608477115
-0.397170427163226 0.241216465847221 0.271025713532108
-0.384283245512548 0.258011368476992 0.301530803040364
-0.393104112801614 0.246515790060727 0.293260609950005
-0.383959809491002 0.258432878519766 0.313335391829532
-0.397769722272026 0.24753007699955 0.320471937428621
-0.410121195374507 0.237903059898084 0.320471937428621
-0.410843966595624 0.236690353927082 0.320471937428621
-0.425682283529224 0.227166592238694 0.320471937428621
-0.43154489788842 0.224393143791522 0.320471937428621
-0.436617521777396 0.216437801973705 0.320471937428621
-0.0618703981352898 0.481054599479745 0.287517470322558
-0.0722136857969359 0.478247472796942 0.283107046489275
-0.0483418536344596 0.490911064267925 0.320471937428621
-0.0515837317112258 0.48772082401132 0.320471937428621
-0.0741727393969088 0.474732714378689 0.320471937428621
-0.0768865196905049 0.476344213966116 0.320471937428621
-0.0889330494654834 0.464362812652428 0.320471937428621
-0.093197183807408 0.466320291992714 0.320471937428622
-0.0939715466173594 0.460827936842788 0.320471937428622
-0.102409708728341 0.453464775333968 0.320471937428621
-0.222179810351009 0.367914004549386 0.193224448570482
-0.226850144656893 0.368093062904812 0.19819606636758
-0.24452297303779 0.346659565786757 0.187794090083611
-0.237038668463417 0.358524421101339 0.195882887467851
-0.25373711472966 0.346119059062146 0.19642171396406
-0.262976481052059 0.327284327019069 0.180903141064514
-0.272523770107158 0.327380095935962 0.190709224825703
-0.275868324585025 0.326499642153616 0.192936786095814
-0.281859747345667 0.323659321818025 0.195258352352761
-0.2921752758456 0.315388790052386 0.194789102710517
-0.301996110555661 0.310210717755444 0.197904307281457
-0.304376983796455 0.302536972433073 0.190744670315214
-0.309542960463013 0.299952826157465 0.194950421579971
-0.319251106026759 0.288032100829015 0.195691727124335
-0.327527690405369 0.287259648365181 0.20584424918256
-0.330677141337222 0.279908039023845 0.202552101935716
-0.339103913349702 0.276220333653165 0.209947426338225
-0.344105229398651 0.277472177681318 0.217824744620942
-0.348888075402958 0.271500543449384 0.218089859253846
-0.360598198144931 0.258931924274919 0.220819465723353
-0.363897153566082 0.258532198485582 0.224773042341412
-0.36916619518465 0.255055180957282 0.228209731099128
-0.372878174733961 0.258163667772165 0.236265838975663
-0.377941835621213 0.249650125164596 0.234324867369497
-0.386542556444237 0.243883732343309 0.239842543503103
-0.394204071800735 0.23503196355314 0.240991150266458
-0.397367068357235 0.238165672667868 0.248347470273289
-0.404514113897907 0.223869856193582 0.246940223335545
-0.406933289697873 0.224682916235984 0.256263779670525
-0.404531924879377 0.23048032399335 0.271761046431273
-0.410560551269418 0.215925931786599 0.271537628332347
-0.404046098496403 0.231653212685519 0.299362289200633
-0.4043451601873 0.230931213864939 0.294066938894558
-0.399094620676184 0.238708807961505 0.315411781578972
-0.409152549532125 0.219325148819885 0.31899510241439
-0.42226476974685 0.217353246688803 0.320471937428621
-0.421537418600641 0.209355328729482 0.320471937428622
-0.438975442618884 0.210697842361763 0.320471937428621
-0.454256364126828 0.19799421478136 0.320471937428621
-0.0329350302443324 0.495284550324661 0.319314042920108
-0.0427254603412524 0.485118039084845 0.320471937428621
-0.0468237358598995 0.490276047200512 0.320471937428621
-0.0529954145836761 0.485412090483904 0.320471937428621
-0.0681470820067176 0.472831695317725 0.320471937428621
-0.0657775313819055 0.468919283357246 0.320471937428621
-0.0820730112598479 0.465030354064913 0.320471937428622
-0.0881091906046046 0.461432789740227 0.320471937428621
-0.092249257254114 0.454066121380579 0.320471937428622
-0.219861781557024 0.351901886012407 0.169717836756874
-0.227134884948776 0.35105667803793 0.17597493812121
-0.234911940037157 0.34210670839749 0.17203432313269
-0.244179870307523 0.332765462957959 0.169088251821613
-0.253136119344893 0.330770646751282 0.175532862306976
-0.261011974550393 0.323177534734017 0.173485203220665
-0.264673290402453 0.321025153138002 0.174353342746729
-0.272372893553149 0.311400472627574 0.169442721766346
-0.28347095682301 0.313714636516711 0.18375218050018
-0.294463396695817 0.298374840212771 0.174628750500276
-0.299202171534157 0.287669634026105 0.168834007769851
-0.304911434363331 0.293421794558394 0.182209379686675
-0.311948651660222 0.280548437719087 0.178455816289148
-0.318977289533986 0.279573172511564 0.186753830860758
-0.328127636243501 0.271171523491063 0.190325954071135
-0.328790740742305 0.27394823795838 0.19401727976188
-0.334792457950508 0.266183359387732 0.194074777197623
-0.346297052403549 0.260660052501245 0.203675733249671
-0.349768992232766 0.251734274382182 0.19921370827639
-0.355054992191039 0.247690122158988 0.202097812617271
-0.362069711371789 0.243392932179237 0.207009493910206
-0.370954944642189 0.23974501547206 0.215050913285185
-0.371070610003381 0.238934261221343 0.214381753985397
-0.380223733710744 0.235511284918392 0.223005187769147
-0.386437054622245 0.228389723346432 0.223994501438841
-0.387617544745848 0.220794277996216 0.218981947372807
-0.39638522367666 0.220295497596377 0.232154549176981
-0.400581737311747 0.214224383522493 0.23474223342393
-0.403084765114408 0.213683290618081 0.238248689253136
-0.407788872281477 0.211335798825299 0.243990581235785
-0.4120440674625 0.206323839568546 0.247343592454003
-0.416036769776048 0.202705170240149 0.264213225967161
-0.418241997544729 0.197381279228487 0.260445126034577
-0.414997028418951 0.205215328031609 0.288537802125311
-0.409580438814393 0.218292132667901 0.300185773815931
-0.415734007339002 0.203436103452649 0.300574141258468
-0.413843889137265 0.207999252642097 0.317583754020666
-0.421567947725084 0.198637871993188 0.320471937428621
-0.432204586237367 0.196126637174497 0.320471937428621
-0.442646321664776 0.18373184270627 0.320471937428621
-0.453570069121446 0.175251886044987 0.320471937428621
-0.453422769233229 0.171952099936547 0.320471937428621
-0.469399773921956 0.159501821771024 0.320471937428621
-0.0238504501686968 0.491974367300793 0.320471937428622
-0.0314824372165073 0.482521202879424 0.320471937428621
-0.0375501796559874 0.479835162829047 0.320471937428621
-0.0484772713685926 0.475326875834063 0.320471937428621
-0.0538372835247422 0.470356360163173 0.320471937428621
-0.0648638149072179 0.462139925629143 0.320471937428621
-0.0712548570868143 0.457867929809033 0.320471937428621
-0.21128705729015 0.349598809567546 0.157981322096065
-0.218607962791988 0.345218809323478 0.159616441916304
-0.22262181516782 0.348082947796749 0.167470222885303
-0.234085665660558 0.331972182720037 0.157806069248344
-0.241872132038666 0.322853229382762 0.153120743595684
-0.25189455302907 0.31432971410478 0.151760723567038
-0.255547988880065 0.3165554867692 0.159195954571036
-0.261307814204931 0.314669664481896 0.162543873076576
-0.272571697159947 0.301002203000458 0.155905266857167
-0.278075275007534 0.3018784172811 0.162642808300682
-0.293775706572125 0.285573368333992 0.159538829970151
-0.296660482690959 0.286755542464181 0.164548973969755
-0.297113148542698 0.286928670286748 0.165322597877835
-0.313222472018555 0.271793138503848 0.171262303258471
-0.315746477930661 0.271112880287394 0.173907536954996
-0.316942597991971 0.273137069217067 0.17754017464871
-0.324441220811028 0.267755310367248 0.181991634332517
-0.326313701572698 0.263303935196138 0.179952664117272
-0.340012333559745 0.254512655437576 0.189139311849
-0.343054002518045 0.246287189532143 0.184818792625844
-0.347896592508632 0.248860088689489 0.193825745009438
-0.352099999910958 0.244186992088926 0.194641785765347
-0.359007293267273 0.234626233570992 0.194075043781018
-0.367944401293239 0.230129863535534 0.201324797367543
-0.376380149130242 0.226359281642634 0.208647956740432
-0.383404581136436 0.213563762910488 0.207891364781741
-0.38586240075752 0.213713942841829 0.211768832552466
-0.391996638455452 0.213865612056768 0.221304013183386
-0.393050711681141 0.217425318687041 0.225194599191484
-0.401330770961241 0.202311870751874 0.228302487236968
-0.40311636838011 0.19956446296469 0.22929889978151
-0.409476434771223 0.196598254546626 0.237194423337435
-0.41252896026527 0.200895300003997 0.244629882795703
-0.418785160187525 0.184917907332868 0.24407311415971
-0.424077280902728 0.180589287646139 0.249457118878171
-0.425293381716622 0.180357731209694 0.257188549049003
-0.41967724833967 0.19391627714789 0.286307664586352
-0.422763231350818 0.186466054795116 0.280409467086589
-0.420734869983773 0.191362952523222 0.292711272643881
-0.42358781482781 0.184475334097748 0.306584159794823
-0.425078431492862 0.184641778246025 0.320471937428622
-0.434240254616623 0.178395733143239 0.320471937428621
-0.440462610475831 0.179017822207053 0.320471937428621
-0.452251339124707 0.172811331009963 0.320471937428621
-0.45711676156849 0.157562326031885 0.320471937428621
-0.472070026794202 0.152242268424516 0.320471937428621
-0.475193247226784 0.143859094144917 0.320471937428621
-0.0207804840925432 0.483262266605672 0.320471937428621
-0.0220151165856418 0.478720451073464 0.320471937428621
-0.027580967393333 0.477907796170734 0.320471937428621
-0.0374137376992082 0.465957529060443 0.320471937428622
-0.043239328128596 0.463566995395373 0.320471937428621
-0.200657500527137 0.344624467494306 0.137033359298354
-0.207489415244745 0.341004838071678 0.139682546971927
-0.227817356470921 0.319253094653744 0.129636255871719
-0.230801252209979 0.317156027014887 0.129950622461807
-0.234154645873159 0.321557056325455 0.141336645138368
-0.247809523965126 0.306166331659017 0.133315749096253
-0.249061138750752 0.312923143324249 0.145914841297773
-0.263090045970923 0.294955762028178 0.134155863302031
-0.263343801410871 0.302911234489763 0.147461831371667
-0.273068171515138 0.287693840348296 0.134800026567622
-0.280230504325698 0.287052222540505 0.142725033270054
-0.291197779230351 0.274111184947581 0.141827163964875
-0.2937596821933 0.280405593339724 0.153894948598166
-0.301755624106334 0.267372046682139 0.150621510334969
-0.306056726956192 0.260937798946528 0.14958306615196
-0.312441436282867 0.259435919360661 0.157701935825994
-0.318258761551273 0.25582264855047 0.161724919351907
-0.325586070614166 0.248294492824349 0.163773895277482
-0.331786017597879 0.248678477428895 0.172355057433007
-0.335488736290472 0.239645230118469 0.168088997727873
-0.340584389413631 0.238560046698876 0.173721559710031
-0.346295921645544 0.229513246810759 0.172095962353845
-0.349905393835414 0.231364934279816 0.178742419869708
-0.360732629352746 0.219388720880525 0.180906098466279
-0.361373831184202 0.228428170330726 0.190917976164389
-0.370824852715929 0.211254591755037 0.187063703980071
-0.377022415769012 0.2058742794732 0.193170598153101
-0.383899931392383 0.205818140418101 0.203716988676957
-0.388803453475467 0.195207004731601 0.20449900726184
-0.389152367312683 0.197622616142517 0.206575420152157
-0.394693401111504 0.195214704855842 0.213566551659897
-0.402237832728255 0.184651120421229 0.218442342651795
-0.404875007081985 0.192696870581654 0.227627896120485
-0.407568682574165 0.191570150525123 0.231054453849497
-0.414182129902756 0.18986601989156 0.240144210684928
-0.422061939125948 0.175597473729755 0.243174734361212
-0.423182732345954 0.172848398273619 0.24314717528392
-0.426002536469683 0.176162957094121 0.249598382636506
-0.427755172207286 0.174414442968917 0.261058216943831
-0.430862793135005 0.166911982062294 0.266949927673307
-0.425411111394063 0.180073506613745 0.290807174078878
-0.42885500041046 0.171759222692622 0.302086679803064
-0.427451308642943 0.175148034537985 0.30868228551268
-0.432687511043175 0.162506723155211 0.312171450066841
-0.437547807536971 0.162395356823623 0.320471937428622
-0.442525132363575 0.157712911518332 0.320471937428621
-0.456824571607297 0.152489131683051 0.320471937428621
-0.467965654736466 0.146951107205083 0.320471937428621
-0.469218880947463 0.143797373079144 0.320471937428621
-0.0128773562630042 0.474692369898963 0.320471937428621
-0.0239316862051358 0.473812889485796 0.320471937428621
-0.0267464165683565 0.46807016475928 0.320471937428621
-0.191844675520106 0.335552057661236 0.11740833984993
-0.200785364453281 0.338775595111721 0.127644688159349
-0.210830328526325 0.323516420759349 0.118771747027116
-0.21382946330092 0.328770467577718 0.127651156270635
