ply
format ascii 1.0
element vertex 857
property float x
property float y
property float z
end_header
0.355320260502062 0.331595933689971 0.38933448639582
0.363822078802308 0.324284923578703 0.393064867006022
0.364453682060527 0.328550525599787 0.402552689870483
-0.00794448689714852 -0.0169186966186149 0.0107548678601842
0.00447060590110308 -0.00780393759997196 0.0107548678601845
0.00924747429144163 -0.00613769389978592 0.0107548678601845
0.0163777406607356 -0.000719937234698225 0.0107548678601845
0.0264916528875998 0.00518133736602378 0.0107548678601842
0.0297063103695468 0.0142638699724751 0.0107548678601845
0.0367419678182669 0.0172626585991959 0.0107548678601845
0.0422802961982786 0.0250563955260354 0.0107548678601845
0.0469512069633549 0.0356037451627117 0.0107548678601845
0.0589385148001896 0.0387105892164745 0.0107548678601842
0.0653291404988305 0.0533594919390281 0.0107548678601845
0.0730881254880604 0.0533852924083193 0.0107548678601849
0.0840125099587074 0.0657979689996045 0.0107548678601845
0.0861553832531691 0.0713096528518929 0.0107548678601845
0.100233874798772 0.0753094807459774 0.0107548678601845
0.102934730897054 0.0849853929186267 0.0107548678601842
0.117951990961478 0.0984914185447138 0.0119636638919448
0.114684971892759 0.10346801997717 0.0119988664392682
0.122097757118078 0.107271026787736 0.0126581026110214
0.132944515330388 0.115384187560725 0.0137475117851699
0.143892803278722 0.124112926160868 0.0148735412592143
0.145413820517003 0.140368887087918 0.0157665662031949
0.157072177554398 0.145683490093434 0.0173011995518585
0.165424441833906 0.148182659960071 0.018449864472152
0.160615507285488 0.154806721885364 0.0184804979686015
0.174904733100419 0.154901343413086 0.0205528211620175
0.185140791264391 0.164564407709846 0.0274045999442738
0.189320354093646 0.166332184344015 0.0297796314702919
0.191038794915162 0.17153111387927 0.0322283221883415
0.200389254892736 0.179652836336839 0.0389134202506075
0.201690952008654 0.191075987582561 0.0432322979139761
0.206941098748165 0.193753994869293 0.0463662671136339
0.213117231197692 0.198140023882943 0.0504597673065647
0.221995604385988 0.200533046651054 0.055056480670155
0.226120513856851 0.209508756186562 0.0597808726221115
0.228497997727805 0.214436536899551 0.0635915873467387
0.23571142148402 0.218098179349718 0.0712412245308199
0.242816614499591 0.221767118075669 0.078812532819632
0.240332473379406 0.229583608947434 0.0815927371330304
0.243241268684983 0.231328786498696 0.0864325384775028
0.250771548491248 0.228808590951701 0.0928087886637896
0.24796355115838 0.239557189053242 0.0990064210906214
0.253337678788586 0.24291723376448 0.108066847916956
0.256751557642616 0.247618111564924 0.116066107820632
0.262612530716776 0.246452262287249 0.121724485381878
0.263901639086196 0.248574183947514 0.125048286210355
0.267589161793991 0.251376685571002 0.131699676824267
0.267111540175077 0.261423594630823 0.139938941770217
0.273021799835516 0.264473874154072 0.151018293871698
0.279728820754346 0.257573846279268 0.153711894023911
0.284293244708922 0.261207287877623 0.167733406899262
0.289536693684133 0.262601632522319 0.179773314509618
0.281449857115492 0.275446625975344 0.18314778924415
0.290733427229849 0.273274799404575 0.197673921345513
0.289724158528079 0.278167529117132 0.202908878458045
0.291272066203757 0.280049822434893 0.208615234107836
0.299811494627311 0.274529059553466 0.21682164839233
0.301488105299439 0.278190933534477 0.225784505833454
0.300401102514352 0.285692116573676 0.236007221371812
0.306236897677311 0.282967782746932 0.244207846302586
0.308829169384592 0.287425458582108 0.257373123812649
0.304511029372561 0.295891678359483 0.262142451802246
0.310941093155846 0.288840691333461 0.264375033078277
0.311013725732309 0.296945281884976 0.278150620208816
0.315937072832317 0.298146765229952 0.290949171541185
0.313926372526316 0.300561387338955 0.290603450602743
0.319398620358025 0.303078866520538 0.310842643960306
0.317112998262809 0.306478060820331 0.311734118160052
0.326699807406328 0.301333363448942 0.327313902880024
0.322509062709956 0.307526426041411 0.328864822330171
0.328932098053235 0.306139991166394 0.341446282331043
0.330461842104878 0.309738723798502 0.350570301529417
0.329937905426454 0.319287692612557 0.36129794208492
0.340709973550335 0.315300707065175 0.369386157780498
0.345162785198247 0.325830670361137 0.378609459260264
0.339546188610729 0.334687035645278 0.379351011128116
0.349905983275712 0.333654211221375 0.386175568365736
0.354301331179888 0.336692603448722 0.393298852434601
0.36042906774457 0.335750131481956 0.402552689870483
-0.0079929131600183 -0.0162947461249185 0.0107548678601849
-0.0103892180535347 -0.0143715644518413 0.0107548678601845
0.00034674755632115 -0.00243805891109504 0.0107548678601845
0.00895067010038888 0.00696674598954948 0.0107548678601845
0.0100573359823179 0.0128684656259116 0.0107548678601842
0.027800494716628 0.0239813553568177 0.0107548678601845
0.0278645017629712 0.0241801159363604 0.0107548678601845
0.0343314294988014 0.0383262832264913 0.0107548678601845
0.0427858478650306 0.0436991036709452 0.0107548678601845
0.0552970777309309 0.0549912595929535 0.0107548678601842
0.0560327998558434 0.0565659511820002 0.0107548678601845
0.0657723608328911 0.0633086483355045 0.0107548678601845
0.0736161096840332 0.0739361158464822 0.0107548678601842
0.0817777338274519 0.0839317093660351 0.0107548678601845
0.0852289436309502 0.0865657272909703 0.0107548678601845
0.0990868980121361 0.089116030409389 0.0107548678601842
0.0999751838198541 0.101767650252957 0.0110035629334505
0.106770361252369 0.112544800942321 0.0120239958452158
0.112989001860494 0.11566050091842 0.0125273074675352
0.118372334978757 0.125888140466283 0.013443544713178
0.130835278776189 0.132099439589357 0.0144501418435801
0.13974546891381 0.140480633167627 0.0154212449474329
0.151233278933839 0.150638129347949 0.0170733588830032
0.153484776473717 0.155638469515399 0.017810376206255
0.160730846084695 0.161734114171607 0.0192489451714744
0.166164633331761 0.166234864213601 0.0205487371168724
0.175695879873794 0.175807013532497 0.0270646928337124
0.175213198576221 0.180858302808634 0.0290728700603134
0.178832469347307 0.185990216796522 0.0324659739625004
0.1876243184282 0.190472636934932 0.037283217197034
0.191780414388582 0.19878143088836 0.0422159661143499
0.202209670695525 0.196970529038809 0.0453952824380341
0.206399726806043 0.206179895749931 0.0502245417140352
0.206021104013104 0.206370698184599 0.0501598147644731
0.218072662119515 0.212752380716799 0.0573960142996114
0.217926273687501 0.226423526084133 0.0640520244550519
0.22898106171311 0.2182877318028 0.0662156160544618
0.229045091260124 0.229150867648386 0.0726449849329751
0.234821445057383 0.233106329272858 0.0793511337013504
0.236986358890205 0.238916626046472 0.0864514119565358
0.23771272734378 0.247351634768559 0.0966967362062975
0.248390810336369 0.238199822249641 0.0983065445897913
0.245547453273001 0.249181861871373 0.105631429575043
0.248711531840406 0.253336779206026 0.113131445292858
0.253430472561618 0.257718788186539 0.122249521262069
0.254562205110028 0.260179994150684 0.126043068570169
0.258969190678531 0.26419121308206 0.134465965911781
0.262640133101061 0.262635556773164 0.135904059438423
0.270963256671114 0.268486075339323 0.152963727327325
0.272475699285717 0.268576301983785 0.155980062603877
0.271099477651655 0.274757111029437 0.164023070269272
0.275990344606056 0.277867933043648 0.177112520937065
0.277560820481595 0.276762038936796 0.177656086136323
0.281836978620669 0.278796288466592 0.188787714325051
0.283222075415567 0.283426911775222 0.198296187759233
0.284603937458234 0.286191600067853 0.205590708398423
0.292689601626685 0.284392168119108 0.217672834241317
0.286687069810756 0.295433748365243 0.226802555892407
0.290677667367735 0.293539778688989 0.229360225468574
0.298750863373606 0.292132355450025 0.243214204054237
0.297246132542183 0.29897974161999 0.252307022169381
0.298384010372254 0.301834228841753 0.26046882914563
0.303158964189944 0.297863581996151 0.262495035020838
0.300489396222363 0.309745531268365 0.281328320225414
0.308160207482448 0.309368798275327 0.293904593033164
0.303892186144039 0.313610589420054 0.296575724873898
0.313560594337542 0.309691327136707 0.308731576168427
0.317010647822642 0.308875478076226 0.316533786383855
0.311832214016182 0.31815009921991 0.325950031570718
0.317828963123128 0.317825463048621 0.336903445847577
0.315437362203857 0.323744382607971 0.345584816687373
0.317138849285636 0.324296665303893 0.349535117812242
0.32380815314887 0.327105014627007 0.362157908105342
0.326726213224416 0.325686992805453 0.363329494741964
0.334288676536999 0.329507749404824 0.372851167679148
0.336213553118149 0.343033983005168 0.382307645339229
0.345564807493555 0.339060655423486 0.386023736293497
0.34642704838986 0.346831828863195 0.395224150681063
0.351620981128802 0.348334238795604 0.402552689870483
-0.0182173624297964 -0.00162479627012179 0.0107548678601845
-0.00997148291307651 0.00428783706520454 0.0107548678601845
-0.00725338739454206 0.0103837424172387 0.0107548678601849
-0.00478111036640689 0.00869115628633925 0.0107548678601849
0.00455848173335333 0.021965596823389 0.0107548678601845
0.0149657914260478 0.029273138809445 0.0107548678601845
0.0156864059146188 0.0369345278714092 0.0107548678601845
0.0283134833146982 0.0464608295554103 0.0107548678601845
0.0312410893858611 0.0500938605174949 0.0107548678601845
0.0488169475272489 0.0635975956295065 0.0107548678601845
0.0514700054725399 0.0657981593808889 0.0107548678601845
0.049622536605847 0.0651537742546838 0.0107548678601845
0.0672514142279902 0.0809192705555693 0.0107548678601845
0.0761697742138667 0.0873032111955505 0.0107548678601845
0.0869518601885483 0.100117454598827 0.0107548678601845
0.0834537149987565 0.101445616806704 0.0107548678601849
0.0954931138865196 0.111124328864319 0.0113811674034157
0.104569926062421 0.11420013905353 0.0120218827030233
0.112451248338163 0.127424556360488 0.0132516628547745
0.121352760622232 0.127035827247942 0.0136627159768528
0.128244437662971 0.144720363424175 0.0151286470617873
0.130839963303473 0.155133034104118 0.0159201877161115
0.142725843209615 0.153921148000175 0.0166949302943318
0.154536757700171 0.160757404690667 0.0184731995562989
0.151980861570171 0.168774321449146 0.0192978333788394
0.159281368158875 0.170832397083506 0.0204461685114296
0.166372854377475 0.177990968755312 0.024932556797029
0.174409142462304 0.183773405278883 0.0300587989768879
0.178386109153852 0.185217009398437 0.0319873182464256
0.184814333608483 0.194077615572555 0.0379047730563996
0.188425876395195 0.203016808805504 0.0429287084055919
0.191763138677877 0.210476254263056 0.0472275200275204
0.193075013803837 0.212221574605637 0.0484081478691907
0.203856036761266 0.212445842340877 0.0520534087177394
0.210132145988659 0.225061338872178 0.0595316880190789
0.213340806658895 0.228588328918704 0.0630188417356648
0.220603678642408 0.236068461200002 0.0729809991610842
0.218888792231033 0.239434949061677 0.0745460254874565
0.218939269199092 0.244542858538716 0.078473945927352
0.231167933366519 0.244545590708098 0.087777973752901
0.234853303237981 0.245885029661421 0.0925259510376253
0.239478454954131 0.250245705661267 0.101537727246904
0.239291229229594 0.258798313566264 0.111118333417014
0.24173997161734 0.257690254505358 0.111996677720383
0.243596525563499 0.258566207745029 0.114617760619612
0.251451351170199 0.263197013944219 0.126760824209681
0.257166273288793 0.269617893371274 0.139072586342138
0.257768266038415 0.272367325311265 0.142731398530978
0.261738095656182 0.272792187614478 0.146686053316177
0.260112221805706 0.276291894269834 0.1508719866581
0.266317539468032 0.281753553811917 0.170368078729086
0.27054085502965 0.280063395073316 0.173324969951038
0.271838557504009 0.28342529455828 0.181635248945038
0.271581609115207 0.289566436365106 0.192970713460773
0.274502915961915 0.292829341576602 0.203468076033386
0.276503326210201 0.295147727282916 0.210816616050483
0.2773752430575 0.296887826789193 0.215410975933414
0.286436591974227 0.295663975588915 0.226885822048057
0.286034899287606 0.296997500040677 0.229130760435894
0.285783110518203 0.300300651979601 0.235940158780233
0.286531223658052 0.304952220948092 0.247381928160595
0.288438720616264 0.311681508693804 0.265320860334366
0.297647773891765 0.306846501001737 0.270206516068666
0.298281842735779 0.309091793728566 0.276188007342383
0.300177268725103 0.310634727191982 0.282750856117908
0.300359186605916 0.317000210458079 0.298450708210131
0.304312153983286 0.316894151372224 0.3065378424042
0.306818993106968 0.320276960407483 0.321198253616664
0.305471108326498 0.325217147041444 0.331989495274336
0.307157615084543 0.325159934844318 0.335086028187829
0.314012688455415 0.325845780555686 0.347728509120915
0.308513975283095 0.330334451551221 0.348301233531228
0.314363796788057 0.329859389135193 0.356081240074151
0.319644129252193 0.334564488371635 0.366882151452643
0.322021115982538 0.335204006010986 0.369116068987231
0.323903677458385 0.349232722919501 0.38023912172808
0.336439213664501 0.354495763999475 0.392798425069183
0.342229588118963 0.348904968607206 0.391441869280237
0.335800379584506 0.3549859586299 0.397351842702219
-0.0320119371763299 -0.00713510853920307 0.0107548678601845
-0.0175613867435956 0.00918899955871452 0.0107548678601849
-0.0165835684311576 0.00788813129962917 0.0107548678601842
-0.00453257065418218 0.0178985672066665 0.0107548678601849
0.00206042755375016 0.0261032828899718 0.0107548678601845
0.00120262473714125 0.0360185228470048 0.0107548678601845
0.0074138995171133 0.0410506420820276 0.0107548678601842
0.0232395509918037 0.0523553948786514 0.0107548678601842
0.0315632162029398 0.0556170670375683 0.0107548678601845
0.0375071341545087 0.0699432984436859 0.0107548678601849
0.0445306051146352 0.0730618825929212 0.0107548678601845
0.0453517921080019 0.0790321629695253 0.0107548678601845
0.0661141053040326 0.0868810181438894 0.0107548678601845
0.0693100726939055 0.0957957229849747 0.0107548678601845
0.0731781909119939 0.106978323326744 0.0107548678601845
0.0758744734704961 0.113950844601933 0.0107548678601845
0.0948859619840994 0.114241648190541 0.0115503604193106
0.0980921645036247 0.119147947523434 0.0120204308048094
0.0996180543314418 0.12903836876259 0.0127262715021975
0.108581305678534 0.146307764972275 0.0142671454623538
0.114720968953605 0.147699660472445 0.014656590825153
0.125971507695557 0.149091728680996 0.0152962989871577
0.138038239237128 0.158402378275678 0.016793837389685
0.137766137548359 0.175618662661657 0.0186960784937506
0.138684242718167 0.168805580589439 0.0180128490143502
0.156343414270028 0.183279981119962 0.0238999858443311
0.154560495990048 0.189791454535515 0.0261065721911326
0.157807982317796 0.189998783191397 0.0272645717097637
0.17040155599692 0.198082927596294 0.0348785089780517
0.175366100095403 0.20683348662997 0.0402669174122341
0.178500779486515 0.208520811581462 0.04202272045627
0.183110461261446 0.215057216540841 0.0463444076611882
0.191706722434576 0.220549671681223 0.0515305835364899
0.195810972012424 0.22451979455873 0.0545849150444058
0.20308862091772 0.233322474366715 0.0607571439815694
0.202365462852844 0.238841014035338 0.0644162679565093
0.209218334374953 0.238265550992372 0.0679902833996971
0.209540301087809 0.248666222851916 0.0761166346283645
0.217829239463943 0.250679671783284 0.0831054933453795
0.225056225872165 0.248219061213655 0.0866201727094175
0.220201635775221 0.26029340658612 0.0961328093589538
0.2239229243745 0.260170547030519 0.0992461402237806
0.231562210587058 0.258258025616172 0.103745726891128
0.236552697575233 0.264789405015057 0.115550053463653
0.233180433679231 0.274022971675081 0.123122003784666
0.243000376903928 0.274228893302317 0.131941630377694
0.247258893469998 0.276696955831423 0.138476557447277
0.247425138535811 0.283038224366679 0.145846726155659
0.249991709428088 0.284924669533667 0.152525461992208
0.250688899927364 0.288953081300825 0.161228065504856
0.256893393351407 0.285790369386437 0.164275843046138
0.260621107019594 0.291071328966962 0.179801776496914
0.257723348572403 0.294043953250722 0.18123034013714
0.257584062469585 0.299689592902076 0.191793036091874
0.261096830997553 0.300750020329519 0.198955667415673
0.26375446462876 0.303121186007928 0.207366596836637
0.272704141689262 0.299269494808033 0.213117568695096
0.270747985521647 0.307619911908591 0.226705501730531
0.275799457436226 0.306117086194755 0.231901981289531
0.277155225234134 0.310812419838577 0.244460498750963
0.28478230157838 0.309824282353405 0.255111199037788
0.283352558018861 0.317266128107502 0.26900340466636
0.286099928105655 0.314647592386895 0.267885846421397
0.28607596311692 0.317374951920226 0.273817283806048
0.289362702654385 0.322897034906197 0.291430246768073
0.29413448534865 0.320801253279339 0.295756050475506
0.296071102490839 0.322818744799659 0.305435521927833
0.293959470305174 0.328802742699974 0.317491479563115
0.293645918548184 0.329671585090974 0.319227191971555
0.300083011954775 0.330779632712977 0.335492488959704
0.299643697314142 0.333654424889184 0.340888240088793
0.305075177045021 0.336610683243428 0.355572502142741
0.307486919940228 0.337786901622338 0.359666614386606
0.306894302640178 0.345611396579936 0.36818811042412
0.321720969497408 0.345812805567867 0.37703503910411
0.322275824785922 0.356987544851776 0.384875754231006
0.324602667252095 0.360038335896345 0.388687009249539
0.325222966746269 0.363102292963717 0.395481393032069
0.331380830223546 0.35975456967317 0.401852551457846
-0.040244862895698 0.000185839707395149 0.0107548678601845
-0.0327559672506333 0.0137718290536033 0.0107548678601845
-0.0220680307176916 0.0233940464735363 0.0107548678601849
-0.0187204594786383 0.0256635281729312 0.0107548678601849
-0.00285781561794826 0.0401279047973218 0.0107548678601845
0.00448089957102217 0.0472988422243524 0.0107548678601845
0.00881578690200351 0.0454910577624342 0.0107548678601842
0.013756808145093 0.0531680152920856 0.0107548678601845
0.0216641026937368 0.0681276178580208 0.0107548678601842
0.0291255109597499 0.0807201776256556 0.0107548678601842
0.0332294503355764 0.081017339419553 0.0107548678601845
0.0463405587182379 0.0897266158258312 0.0107548678601845
0.0507892241894711 0.0939928925551319 0.0107548678601845
0.0643185399410641 0.0979809217273975 0.0107548678601845
0.0672925196294662 0.116274207966829 0.0107548678601845
0.0753249676096629 0.118057798208418 0.0108360805273983
0.0864844963165826 0.1278737906646 0.0120088786933417
0.082030509895751 0.125537405112212 0.011641702092781
0.0999815577765022 0.13516371103883 0.0131349397698018
0.106154660458964 0.147837118624684 0.0142459167425719
0.115073166508662 0.156576183112997 0.0152402634396434
0.112173069750905 0.162120167317689 0.0154520334133968
0.119685672176092 0.168067755206949 0.016299803337351
0.13462981873585 0.179100895577244 0.0188499874330562
0.132105800306476 0.181688704635362 0.0189475907822182
0.148782790360691 0.194192625854962 0.0260927501640939
0.151423209527002 0.197153370867093 0.0282321605798191
0.156629292623434 0.197830973348374 0.0302366721633601
0.160637256282985 0.209734484688782 0.0366628403076103
0.169501456205833 0.206035256779424 0.0379938608294847
0.171684214923838 0.218219848090075 0.0439397698531673
0.171443135646515 0.219637710026441 0.0444686904082726
0.17643135060183 0.228957427648412 0.050109068049957
0.192110527470433 0.238287176458079 0.0592731485528402
0.191943750481483 0.237990966167373 0.0590911682756271
0.195104519142495 0.246517548172304 0.0660228176137389
0.203116136117024 0.247046618273482 0.071118403168903
0.203950259477401 0.253178374186446 0.076286646385308
0.211693617751052 0.252810947600479 0.0805409262175172
0.209465312983433 0.259094297976625 0.0853804718497457
0.218401891850489 0.266694038393472 0.101851861374271
0.221204317707134 0.263431096117742 0.100584276630731
0.224269469351457 0.271468275980528 0.11242100440677
0.226815421208961 0.27090186152411 0.114001448112109
0.225146648296132 0.281082823787293 0.124142063963815
0.236136372371468 0.275832746410139 0.127768151339947
0.23686100801102 0.287235369658973 0.141393068254993
0.236868427045746 0.289986854834663 0.144534418088164
0.243496039648495 0.290721822486075 0.15407560809111
0.247090841977765 0.293294319172474 0.164241873842113
0.24627204329888 0.293237300092298 0.162934962106636
0.250219843886481 0.298668856282319 0.17907015084857
0.250016757817404 0.299793551238212 0.180917818328396
0.252821032658317 0.301400207145019 0.188085373946308
0.260391946015986 0.304916564724186 0.205869996246797
0.264136121333715 0.305907657798596 0.213239028216243
0.265052348061441 0.311024327765877 0.22459039148787
0.264425575320955 0.312572045054387 0.226926158788527
0.262221369698063 0.317038071135409 0.233001469729544
0.270364220809255 0.318585719671117 0.250070965712537
0.268236963022829 0.322277866302609 0.254581106146634
0.272991380350911 0.320154170539668 0.257919074619125
0.272736052858367 0.328346985112661 0.27542870806343
0.277899936840809 0.326264020510738 0.279543806135888
0.278481875431402 0.330445143398141 0.289676317895802
0.281108687835289 0.332149030776739 0.299493366977619
0.281858154894487 0.331969097920998 0.30058509394974
0.287033953747254 0.336035291938334 0.322791657916062
0.291145289642929 0.334758961515088 0.327981310999664
0.284746633683054 0.340865325464894 0.33128699924763
0.293850294080401 0.342457269093812 0.350153145821013
0.293853841199231 0.345955779965045 0.356566217820206
0.296770807120388 0.343961174567662 0.356895797598269
0.30162941132031 0.348749098098422 0.3672832351162
0.310842382816814 0.350765489085556 0.374517389539923
0.305978221594501 0.363038240267644 0.380271089357741
0.313994822296052 0.370151356589937 0.390946720649696
0.324194400260167 0.370636333238839 0.402552689870483
0.324899460371707 0.373453318353548 0.402160344494148
-0.0453260018093855 0.0103152097151554 0.0107548678601845
-0.0348113015384731 0.0180213270756733 0.0107548678601842
-0.0274687542766897 0.0258633344033898 0.0107548678601845
-0.0228194568874226 0.0353275208050776 0.0107548678601845
-0.0118593427395108 0.0428309534097926 0.0107548678601845
-0.00118744157256646 0.0537412112014091 0.0107548678601845
-0.00305435948443123 0.054159484113888 0.0107548678601849
0.0099152728528692 0.0691135527588213 0.0107548678601849
0.0125394943513964 0.0738125620745554 0.0107548678601845
0.0187713112814817 0.0849370978860819 0.0107548678601849
0.0242103181825472 0.089559716101306 0.0107548678601849
0.0373958135434037 0.0971929508167118 0.0107548678601845
0.0513428571275013 0.100154064878978 0.0107548678601845
0.043585054047431 0.105475344715547 0.0107548678601845
0.0591473949735002 0.108678933297791 0.0107548678601845
0.0629612234802936 0.122365172244401 0.0107548678601845
0.075056983981774 0.134775425767366 0.0119398507819366
0.072506192738527 0.141697085253281 0.0123756882489408
0.089308936448189 0.149453746283812 0.0135242332628635
0.0908438845576573 0.154323439118655 0.0139101354795754
0.10553428567021 0.161755078843032 0.0151036712846301
0.105346101678013 0.173784115303521 0.015862052122294
0.110573823271592 0.174456442918347 0.0162323505224553
0.129745667438432 0.185961569883666 0.0193166601821577
0.133324463875604 0.194241018190062 0.021470106084437
0.142397997651081 0.196799675508868 0.0251093757714743
0.14443223735338 0.201955282678292 0.0279908618324957
0.151683533040317 0.207918166885362 0.0329361038629429
0.148584645200314 0.214591282829893 0.0347788279513159
0.154332669957347 0.218634367631486 0.0384055818797189
0.161814885941721 0.221872816324225 0.0422580209455974
0.166857225781073 0.228167551943937 0.0466184570528025
0.17033536311866 0.234056606048847 0.0502899242727056
0.182814220505094 0.238316497109702 0.0562254400628582
0.182167608618262 0.248911763191913 0.0605580950661544
0.183758329977987 0.248499434700855 0.0609048561935709
0.189866473076347 0.255122193854974 0.0695223609672125
0.194406928634224 0.261006622142742 0.0766723623864192
0.203423965426901 0.261187451653263 0.0824836719386259
0.205545077897143 0.267317441332891 0.0913221516102066
0.210415363395892 0.264824400603021 0.0927395537867669
0.212686464942356 0.275768259404335 0.107193770635983
0.210465923742401 0.282703568113901 0.113154119933808
0.21980075558336 0.277769417757779 0.11569337675787
0.224108036219967 0.280908992426785 0.12303601284588
0.221426292050788 0.292629086819807 0.134044633405612
0.223218182322999 0.290885517267688 0.133624670152068
0.235761195193629 0.292072075314457 0.145942193822833
0.227464158167636 0.30046697896104 0.149200160430484
0.238381127842722 0.296984406266448 0.158533860047036
0.243092308826071 0.299845270000699 0.170883687701033
0.243974288453882 0.302054257808914 0.17638696624294
0.248191426625172 0.304626463799008 0.187463360954377
0.25157898808813 0.307392581051693 0.197695608839426
0.252470195284265 0.311386860411839 0.206617030789986
0.253044989478747 0.312532167124695 0.209642302230334
0.254688345965741 0.315176778544796 0.21709048318638
0.261222832640831 0.316845990415089 0.230903252611902
0.260847694984501 0.321005941707043 0.239381420486216
0.266099531800953 0.322603098115883 0.251702112245515
0.259189396493883 0.326684806941449 0.249029488983534
0.259625919843661 0.331717365585536 0.260781952622242
0.262314137863109 0.334390366055386 0.271151117145519
0.271603570488009 0.33411002896656 0.286144515909714
0.271503780565068 0.335023461949721 0.287976869339969
0.271982886585142 0.339681240972281 0.300956919304653
0.276973833190266 0.339091143383611 0.309907235441358
0.274761750004936 0.342355466215801 0.314236342589877
0.276632937266713 0.343331324989181 0.320899289837278
0.281824251988668 0.345839141067288 0.337723063313986
0.287787670108572 0.342752325518763 0.340889198990796
0.28727577740655 0.348831367622252 0.352979547067085
0.285807212117288 0.355843573543095 0.361589013719743
0.295595051702591 0.355967119012866 0.369491701145491
0.298841378356227 0.363069956510139 0.376847013584317
0.297181798933044 0.370531332671483 0.380738585914315
0.306652775491485 0.376109205822266 0.391329803002234
0.310090778190691 0.376106387756587 0.401873955389155
-0.0480190653475089 0.0251948246122799 0.0107548678601849
-0.0438278617952928 0.0271745416155867 0.0107548678601845
-0.0398919261818692 0.0370826899678386 0.0107548678601845
-0.0310698738218939 0.0408764727325945 0.0107548678601845
-0.0224037129042342 0.0467500406473424 0.0107548678601845
-0.0164271520948677 0.0640157650954279 0.0107548678601845
-0.00523608926085027 0.0616866533750982 0.0107548678601842
-0.00591001894971634 0.0683219117357521 0.0107548678601845
0.00481916879636572 0.0733628332970608 0.0107548678601845
0.0144068732248964 0.0932057610708696 0.0107548678601845
0.029907689852926 0.0965580777784714 0.0107548678601849
0.0251308250630431 0.101502310862243 0.0107548678601845
0.0365586110590494 0.113890586536655 0.0107548678601845
0.0461550875375908 0.115412407217324 0.0107548678601845
0.0501372695015121 0.126457828296984 0.0107548678601845
0.0632791889203405 0.139508712033998 0.0119290582108668
0.0713570918408471 0.138956349711292 0.0121366530663274
0.0700828646554522 0.143605462917117 0.012442909684351
0.0802186262107867 0.155031157827245 0.0136039415067335
0.086053218129678 0.163403883707039 0.014405713955357
0.0948554159605961 0.163679472251233 0.014703584229057
0.100256782204138 0.174535800217948 0.015670123593635
0.112720058243512 0.18910376935235 0.0180548106624054
0.113765475093912 0.196741927609787 0.0190945361073379
0.11937372866172 0.20447065527437 0.0213039901618018
0.124570481848072 0.208246778509599 0.0241516319955585
0.134734412835215 0.2034890325143 0.0254563971442149
0.136094200478535 0.213872395323388 0.0303586371794012
0.147437818429528 0.214544628608939 0.0343812842791434
0.147311655286168 0.226527217219529 0.0394804483808576
0.153782705771726 0.232874554788108 0.0443337742673242
0.153809377706453 0.236449629064102 0.0458763108143118
0.166070401622882 0.238324461722877 0.0507168941162887
0.169150499208721 0.249362029414597 0.05646611261647
0.176151390611878 0.251449027089049 0.0596661141591263
0.184381775566684 0.257790039964974 0.0683464898391555
0.187581079074128 0.259024048021562 0.0711618760090925
0.187429228630772 0.267458767526724 0.0775103321815598
0.190561256083292 0.270965759174543 0.0823793128296583
0.196542567134486 0.272631631450252 0.0895064166959837
0.193090188123363 0.281233560742658 0.0962886803093429
0.206428664784003 0.279564654694357 0.106048301688605
0.200393607511076 0.289070585185957 0.111602638253748
0.210187902325519 0.287134121191468 0.117958946653111
0.212083929829933 0.291235225144628 0.12428906661624
0.217859421220735 0.291076492645339 0.129157397795195
0.21750371456702 0.299188151941957 0.138088322504901
0.222331413474832 0.297130436046661 0.139964474557937
0.221922387171863 0.305160379893898 0.15004126580235
0.226421896816602 0.309510731077827 0.164921875404627
0.23030048572966 0.306217187596715 0.164316582409824
0.228987875100178 0.314704952671435 0.178582391761959
0.235100893886857 0.315234640559942 0.188537903021249
0.237886863678076 0.314753179175835 0.191696528016599
0.242336992246274 0.320343302577314 0.208869184482483
0.243027718407364 0.321277238824414 0.211661008697408
0.248526771155169 0.322935439849406 0.222905728761421
0.246093994653713 0.325208665300994 0.223795761424609
0.250087913545022 0.329302413537639 0.23946944307024
0.255958469248314 0.328694112859911 0.248000679392883
0.253787020892997 0.334351024763971 0.256738534799167
0.254955177571427 0.335580067432178 0.261392214714884
0.256678275419169 0.337845273296972 0.269246988754654
0.262834933963177 0.339137899827594 0.282421090403831
0.260624162886614 0.342303850043704 0.285638784352084
0.264704300577885 0.345497171426423 0.301594778956104
0.267360265069794 0.346654281169438 0.310422185471661
0.265182681377838 0.352372806244667 0.321604881878003
0.27133197894384 0.351274992069052 0.331608146214543
0.274303849206915 0.353112974001874 0.340919282767648
0.27253197224916 0.358845033431418 0.350216169022964
0.272257828941007 0.362201316231183 0.356125716219305
0.278924033750706 0.36136038228632 0.361907094844104
0.280042123129057 0.364380003119755 0.366247203960614
0.29175071000228 0.365856743577545 0.374859005413275
0.292884207887918 0.378920559604309 0.384387182751858
0.302067887600455 0.379312540127661 0.390957742337904
0.298027381819348 0.387866239081151 0.402552689870483
-0.056671420682028 0.0321938010061514 0.0107548678601842
-0.0539852179634855 0.0378030123667351 0.0107548678601845
-0.0442874164356909 0.0387122800378273 0.0107548678601845
-0.0335006636458584 0.0498833686921142 0.0107548678601845
-0.0260412855803372 0.0496415305841789 0.0107548678601849
-0.0235611141785548 0.0686617267730048 0.0107548678601845
-0.0120589078468265 0.0740291520817798 0.0107548678601842
-0.00762915426366356 0.0757230056184955 0.0107548678601845
0.00090962774397871 0.0847129180112669 0.0107548678601845
0.00549417559488692 0.0912697312283956 0.0107548678601845
0.0156865796523806 0.10726962496344 0.0107548678601845
0.0254484679737459 0.113262657318239 0.0107548678601845
0.024447780796168 0.114717074041175 0.0107548678601849
0.0288476824380664 0.123681430923942 0.0107548678601845
0.0451050872768495 0.138107640996226 0.011265537636118
0.0476495433303727 0.144570047899269 0.0118240816242264
0.0625821589310579 0.145324577238542 0.012339783101521
0.0663404001696581 0.157575222197178 0.0133658146687529
0.0724657620218196 0.164731231054519 0.0140861223041006
0.0860229579675783 0.168641838480507 0.0147940174909445
0.0921889788728733 0.180067449378112 0.0158328528238826
0.0901789031543865 0.178559199566083 0.0156589030943798
0.104298325010171 0.189291306159193 0.0175120184860563
0.110638202187711 0.197378231019758 0.0189719401843015
0.120126234377688 0.208535585951273 0.0229541115679718
0.116884924239686 0.213739378993443 0.0247747929371711
0.120346135287988 0.211126981364989 0.0241859092048102
0.13445142361633 0.224992582166667 0.0345885590254564
0.137102186525827 0.230212395598845 0.0377005461342143
0.147581576358976 0.233683061105004 0.0426392607437842
0.147685353547977 0.234115511872996 0.0428589509207792
0.156650811452071 0.24373678802401 0.0499379854209422
0.159504032489953 0.248742360467094 0.0530247081612434
0.160142482503791 0.258474396922126 0.0574100602420031
0.17143729477124 0.254278607897813 0.0593281919113862
0.174033392814124 0.26340129318163 0.0665687358944459
0.173144574024082 0.273198540107515 0.073525487202222
0.178536023549521 0.279054838371175 0.0811523826553237
0.183786946775306 0.2808876863908 0.0877613234565023
0.185217947745875 0.282021160797067 0.0903037727285366
0.187598769910479 0.28953637124674 0.100947532407082
0.195532191493889 0.285546072078077 0.103336979504585
0.199614139343889 0.290413309112158 0.112451006541351
0.198909939982707 0.295678055543909 0.117833676157032
0.199874987731261 0.302367519712474 0.126298903738421
0.202015399925401 0.307523748084227 0.134044815557713
0.212225312737418 0.300371637894132 0.134822105840747
0.217271081859273 0.307889276270969 0.148439008619212
0.212204337743807 0.312728674399529 0.150253659518791
0.221564104484504 0.31349515277557 0.165411809044547
0.218546073944247 0.318305334173308 0.170168688268847
0.227361800534361 0.31922294431405 0.184818942820629
0.226372234483164 0.321258692994455 0.187253154849103
0.233624717699883 0.320599803085253 0.196609402336634
0.230775619988815 0.327734676852197 0.206046791008653
0.232380263400599 0.329555154439182 0.211866657417597
0.239088413705973 0.328630428249035 0.219919402574627
0.237622658077085 0.335520742405063 0.232141885791958
0.239957777486643 0.339191456318617 0.24410235545504
0.244580585427977 0.337270886931662 0.247663962658799
0.243235163091755 0.341766114720348 0.255246057464274
0.250836901080987 0.339056579589809 0.262085093531563
0.247599171232892 0.349312258681702 0.279100734471172
0.252271670216887 0.349126072935154 0.286543354477686
0.253723026076639 0.351062984911978 0.293692046417837
0.257936192294673 0.35097951706452 0.302393208013778
0.255330192319969 0.356760853571538 0.312841211744034
0.257669573654484 0.356530270675517 0.317163566165528
0.260523532266519 0.358641446414499 0.329046599704311
0.257554590936245 0.36354312832003 0.335769517843405
0.262135723660979 0.368235188756742 0.353220193857193
0.269888142164508 0.366446154631306 0.359407853964936
0.273380477106257 0.369949293018757 0.366755040394826
0.27989870948294 0.377647177051337 0.376873426923464
0.276754037017945 0.379169573754641 0.376255387247341
0.288255175756639 0.385646946173053 0.386888809617678
0.289284109675549 0.390679147911342 0.395893243346378
0.288870326312466 0.396334982399701 0.402552689870483
-0.060091413939853 0.0366080308237793 0.0107548678601849
-0.0601838486936859 0.044424727239433 0.0107548678601842
-0.0500239146572067 0.0441152163951062 0.0107548678601845
-0.0420688838185556 0.0499236819934946 0.0107548678601845
-0.0357349174501088 0.0596475672299358 0.0107548678601845
-0.0291101644220484 0.0677240974084563 0.0107548678601845
-0.0236638576416297 0.0760613455354177 0.0107548678601842
-0.0211983213649502 0.0832918343296325 0.0107548678601845
-0.00154062118245427 0.0922946893136578 0.0107548678601845
-0.00231272616707539 0.0962279787770075 0.0107548678601849
0.00105246655927935 0.104857319635354 0.0107548678601849
0.00588746026079451 0.115003533511844 0.0107548678601845
0.0250447484564313 0.123154503392242 0.0107548678601845
0.0313209422520825 0.12984970058517 0.0107548678601849
0.0387311958657498 0.140612264557099 0.0112554664322893
0.0485871111756992 0.147395541102897 0.0120629041155539
0.0519880615436925 0.149368081947914 0.0123141672291024
0.0584781774372939 0.163985956383453 0.0136001969882108
0.0624709870441967 0.162830354217874 0.0136372239500572
0.0746152237287999 0.173358655176336 0.0147933916820906
0.0763625023754269 0.187711180980158 0.0159137167789021
0.0850944388525113 0.194513041925021 0.0171560777360145
0.0917326019746153 0.194009880767862 0.0174486760811376
0.0968802751693948 0.206808543828788 0.01962339692642
0.111573428194903 0.21398411094563 0.0237978997094023
0.112333216947662 0.222360264234679 0.0281398329616457
0.122583236919443 0.221965123711121 0.0300635602887479
0.120492520825467 0.230084721698174 0.0336874359588002
0.130804774187051 0.232138902198573 0.0368477157527267
0.13270778896982 0.241438419572184 0.0418875382193845
0.134831477048993 0.241231788710746 0.0422237818858944
0.145188620791082 0.254881962563024 0.0511866769503153
0.146425720171018 0.256057081388653 0.0520297682696791
0.158184267410328 0.260690380423862 0.0577161153675409
0.158769829229372 0.271309335704572 0.0636654429230879
0.16220488781363 0.27224837640292 0.066393773750768
0.164979322024323 0.27817792724744 0.0725439874286513
0.166134395814546 0.282223271853472 0.0763078365788943
0.179009677925408 0.280253207869247 0.0828619477583964
0.176778967121734 0.287456374878844 0.089118586733808
0.177009567120399 0.296379550897438 0.0994866752369451
0.183215758417889 0.297317172915155 0.105980657875229
0.186142843318728 0.296691610924614 0.10782691546389
0.191839699597919 0.302932513379094 0.119917829577216
0.193110172295099 0.304031395073562 0.122280525498994
0.198925936781181 0.312741197089657 0.137288298305696
0.203423371191756 0.314418571568566 0.143131238841969
0.203337677367381 0.31444060139064 0.143081420999672
0.208238338035668 0.318302997040432 0.155080601697966
0.20637991295582 0.32128341453364 0.158044916119463
0.211369822533262 0.324076415415045 0.170673198107147
0.216793485781352 0.325477033736418 0.181280861997498
0.21277974053999 0.331760423018793 0.187390162262812
0.218914853982914 0.329524197231214 0.192103269381797
0.22764750432005 0.331882386506228 0.209379212450202
0.22895137177484 0.332870004949233 0.213170639967091
0.231770422062042 0.337024017433781 0.225601023145319
0.225879096791495 0.341784736250204 0.226126835658821
0.232076766032418 0.343856947412753 0.241076782211805
0.230006373097982 0.348531202106437 0.247832840170225
0.236589214088629 0.349253419625526 0.260474031259841
0.241120776244444 0.350079810595923 0.269896954182503
0.241754231139504 0.351970361906964 0.275100688461878
0.248750186216482 0.351601291998908 0.286046521355138
0.246498617765822 0.358374227664142 0.298575998492832
0.240703306093655 0.363779026275431 0.301222476209373
0.248717866048287 0.360989441555773 0.310506021018447
0.252577920801587 0.363886913329404 0.326694316187213
0.251601123155152 0.366506226237318 0.331860157165239
0.257377712624661 0.366639522449643 0.342064619083403
0.257331739805519 0.368008129909609 0.344899603591733
0.255760607695274 0.374502671538264 0.355642281269036
0.262432972179502 0.378923755294998 0.367392177310981
0.266521218777531 0.38547529056908 0.375059534199581
0.269457075012002 0.384902050041524 0.376358499093841
0.275212871631381 0.396865012027756 0.387842643043228
0.279503899576917 0.398543103129597 0.399352258270298
0.284938385538081 0.394163304360676 0.398334351636552
-0.0705789633620214 0.041754724222087 0.0107548678601849
-0.0592127512712387 0.053785969881864 0.0107548678601845
-0.0553080999104544 0.0582278711514122 0.0107548678601845
-0.0480943967356388 0.0631828323834979 0.0107548678601845
-0.0434612851006365 0.0732061182903536 0.0107548678601845
-0.0335040416115368 0.0711913249655776 0.0107548678601845
-0.0362785441235963 0.0867993036239765 0.0107548678601845
-0.0145317999702456 0.0929193003209486 0.0107548678601842
-0.0202899669423969 0.0965658580931729 0.0107548678601842
-0.0100355822512937 0.108340261084231 0.0107548678601845
0.00462263191511371 0.122684536456353 0.0107548678601845
0.00782444624083115 0.127874767901093 0.0107548678601849
0.00828387939434196 0.12656362265694 0.0107548678601845
0.0180858418496797 0.137258629148967 0.0107548678601845
0.0247681331912443 0.143576127551711 0.0113238445130312
0.0355654931822852 0.152331338266765 0.0121353859805826
0.0397335350538107 0.1573086140888 0.0125760574110656
0.0485487496446232 0.170577258251441 0.0137843679593798
0.0643222397719683 0.181038512446137 0.0150472633243824
0.0640559830280991 0.184420938248626 0.0152904175319179
0.0722119052864346 0.197488720430212 0.0168486328988863
0.0729618951685378 0.192597911079698 0.0162520731291232
0.0819955958939204 0.203069535451538 0.0181033660928822
0.0884096034562005 0.220083087809458 0.0223067826347085
0.0966146031116032 0.219180650823327 0.0233230698998203
0.0998540715158628 0.221554698000682 0.0251549408482516
0.110052107393843 0.226466566403374 0.0297192773211666
0.113090043486978 0.235664028110466 0.0349429736010684
0.115364568234086 0.246979793155778 0.041066987978885
0.117673577217896 0.245833674869509 0.0409722166659284
0.127754764874607 0.2554025888416 0.0478390194419291
0.139752536962755 0.258518577745997 0.0518785768557717
0.141776818362683 0.262933808986074 0.0545033186152831
0.140987939357837 0.270528921139947 0.0581345647153075
0.153663770889654 0.274746047485577 0.0643770422462002
0.153783916282225 0.276618043920196 0.0660850392152658
0.15808751696716 0.281764479135379 0.0722433387732748
0.159701013325593 0.286454183874231 0.0770053796903838
0.162953677966716 0.291723945212086 0.083671117162844
0.168545349404439 0.294522430071531 0.0904571271968325
0.169557739174313 0.300053253964173 0.0983517162016993
0.175871268829329 0.300124974262961 0.102758818883593
0.182753924932761 0.306071728728758 0.115551276590958
0.180882686706653 0.311860616374203 0.120510843610041
0.186543318240279 0.313724801055358 0.12758354007212
0.189348772412078 0.314565062432069 0.130993526991617
0.194046175989243 0.320192584281743 0.141511830873038
0.192355301982589 0.327720837738818 0.149798756584216
0.200085371994593 0.32601379110494 0.157854984256377
0.204930024549015 0.324374384395347 0.161817883825842
0.206608171069972 0.328251319882159 0.171667077844417
0.208242884414885 0.333789683638202 0.184621141686787
0.209467765905827 0.338812314896463 0.195991958162254
0.215915956043497 0.335469476307297 0.199052834068228
0.210338327958861 0.342819071618211 0.204906964388437
0.214781774443769 0.34471701934091 0.215028678779591
0.222735052810878 0.343586638489312 0.224789877418492
0.223801913139243 0.346188572451407 0.232279388605946
0.224323778405605 0.351564188367297 0.244926377963169
0.221340577143413 0.355120509171789 0.247701046440065
0.227990012620189 0.353983353558165 0.25638292525067
0.230353177119548 0.359256984173297 0.271900186301079
0.234456309754218 0.357391182937955 0.274708602823279
0.2337335272182 0.363783382036975 0.287490318360422
0.234376029642529 0.367489123635441 0.298059099191612
0.241675869562535 0.366505214569209 0.31081616950834
0.238676861017951 0.370086218166189 0.314351945487053
0.241948129940615 0.368765288146025 0.317637466355957
0.245069899069167 0.372117106416013 0.333515886750991
0.241551087089153 0.379066343813011 0.342665546988067
0.245598313348843 0.379152259969258 0.349451366654883
0.251901985191908 0.377412671060017 0.355573533741924
0.259788123552997 0.381485137994254 0.367982454065511
0.25713305589345 0.388793572697 0.372054428153542
0.266091173612977 0.392391179048324 0.379482786509558
0.273908806162435 0.394126193530773 0.384895715800195
0.269725872967169 0.402082913102035 0.388636677282392
0.281830245307184 0.403025905957704 0.402552689870483
-0.0847343314949136 0.0473879394679489 0.0107548678601845
-0.0718384087199626 0.0585568494824244 0.0107548678601849
-0.0619933519221259 0.0599340107650557 0.0107548678601845
-0.0604771325182725 0.0712799314599275 0.0107548678601845
-0.0516280519723118 0.0821306136975056 0.0107548678601849
-0.039171497706003 0.0855962256228638 0.0107548678601849
-0.0360211174265677 0.0951822437537418 0.0107548678601845
-0.0321758559825233 0.10385907137047 0.0107548678601845
-0.0217862947630388 0.102638972197658 0.0107548678601842
-0.0123728363542181 0.111498525672965 0.0107548678601845
-0.00583591008309507 0.127480260278388 0.0107548678601845
0.00628680886650499 0.131565916108862 0.0107548678601845
0.00237767691139955 0.141566518703359 0.0109285193118471
0.0150734341715675 0.140908930444331 0.0110093679460872
0.0240951780448166 0.159478361011108 0.0125849025769762
0.0210399174175591 0.156034220138528 0.0122781736233925
0.0372664188839711 0.166890191460807 0.0133142387067091
0.0384590371881947 0.172576863092359 0.0137802430308123
0.0533111059421259 0.182775036315955 0.0148373780357208
0.060422152196177 0.193739890784289 0.0158710626033531
0.0614911644322658 0.205629678581939 0.0173305904088004
0.0655615193129698 0.20169792306705 0.01703808281036
0.0779091283062591 0.207531361631733 0.0184640454987372
0.0871577762716896 0.223601059427315 0.0235499268043473
0.0905237241709562 0.226261020149519 0.0255753847230225
0.093676145483021 0.227757275440467 0.0269752715047004
0.0974339104538282 0.236762287727584 0.0322517819337122
0.111754529071375 0.241879263954771 0.0377717166845814
0.108808918681896 0.24676600537873 0.0396035545438192
0.114255875609099 0.250630364959684 0.0426613706079892
0.114797245839593 0.257550572067635 0.0462307177300027
0.125304204229552 0.260607393748806 0.049932206482394
0.125335029295402 0.272337976404536 0.0557991515152458
0.13545929234377 0.278055391058057 0.0607506700847802
0.141097037666784 0.27705379216494 0.0618017835352105
0.148623563569914 0.289614959403501 0.0757365290112264
0.146240609775799 0.295221403895522 0.0798420881689778
0.158165515157823 0.291387226303768 0.0808244234007686
0.158945672270508 0.297807936368083 0.0895405713947992
0.157109161425752 0.301552009518187 0.0934988526203439
0.169509540775861 0.30275157601119 0.10190531794592
0.171125081124957 0.308595023005537 0.110546164845885
0.174912130083205 0.309151981083772 0.113366383478457
0.175619730462862 0.317381804768649 0.124674458254577
0.176976502477408 0.320420372647008 0.129451624922215
0.18565093919831 0.322943429302694 0.137566402372268
0.188307466631869 0.329978568242915 0.149379736697203
0.188828990693232 0.326609353852602 0.14426159632884
0.186948246239445 0.33602930795715 0.161566930058732
0.192543437927125 0.336376710295493 0.167485395070587
0.196957691396488 0.336581003622832 0.173430355889906
0.202719265119738 0.337368142485606 0.183362558596157
0.200882552826517 0.34465174243774 0.194565030524073
0.196900536814543 0.350499277364654 0.202856933453437
0.207941278619832 0.345670235666374 0.206836600437172
0.213527192366999 0.347999234389285 0.21945215844529
0.208619604960378 0.352011622501324 0.219922558761801
0.215729345431482 0.35257843971106 0.232707595735686
0.209776168880006 0.360271325012778 0.239549628613544
0.219437279447333 0.35694361377102 0.248495094582296
0.221826227384717 0.361516769103097 0.262521946008984
0.221769407411886 0.36649411878771 0.273324658608481
0.222295073783519 0.368106465890952 0.277738153825285
0.224608880579233 0.36993095743695 0.285620412458831
0.225300649279506 0.374598103540274 0.298460244577211
0.228674590095034 0.373963016320479 0.303858267629828
0.232696998896521 0.37502028526479 0.315306649176857
0.232259455832916 0.378695558397937 0.324533090108889
0.229696042475443 0.382472526738742 0.329533722666518
