ply
format ascii 1.0
element vertex 843
property float x
property float y
property float z
end_header
-0.310036162783805 0.309466139239757 0.298516912619703
-0.312420713165813 0.31153860026275 0.309498475844793
-0.311942659861305 0.31439693658702 0.315814963378888
-0.317768654665435 0.312869293552826 0.32709475198968
-0.317536748987167 0.317868126736472 0.336515673634495
-0.316359718243302 0.3198956680549 0.338906364187258
-0.320342787397737 0.319865778914432 0.345577265224917
-0.323640401435535 0.326572115053027 0.361262991306839
-0.32347109643798 0.329150256409806 0.364132622132434
-0.334466683975298 0.334133077618755 0.3757337943549
-0.339125485447173 0.334869423061798 0.379174446896595
-0.341016557971402 0.3441739238886 0.386110370430148
-0.342208188635664 0.350197494303492 0.39823174846765
0.0155155376655216 -0.0269119551073526 0.0107548678601845
0.000694284564349196 -0.017170709396887 0.0107548678601845
-0.00382196497262268 -0.0110028719247888 0.0107548678601845
-0.0107037321591979 -0.000292520709221698 0.0107548678601845
-0.0226962286726377 0.00766886404240581 0.0107548678601845
-0.0253831275894258 0.00782312419952608 0.0107548678601845
-0.0311039912780103 0.0154214727664331 0.0107548678601845
-0.0411378868321529 0.030018622565247 0.0107548678601845
-0.0518450682741915 0.0318377914315834 0.0107548678601845
-0.0601437041057385 0.0366103642091258 0.0107548678601849
-0.0629711845331554 0.0519598197829722 0.0107548678601842
-0.0722395611271242 0.0554883547483342 0.0107548678601849
-0.0765797118294814 0.0655877905474035 0.0107548678601845
-0.0873494541475133 0.069520661959403 0.0107548678601845
-0.100696747086282 0.0854441885721941 0.0107548678601845
-0.102448458161821 0.0849048669407079 0.0107548678601849
-0.117299223948925 0.0951930069076954 0.011760504334161
-0.121101346774339 0.10142244964711 0.0123081467965184
-0.123979163570834 0.106397841428305 0.0127354035166137
-0.130433142511798 0.121086955345217 0.0138664899421589
-0.142238958200998 0.13244013715819 0.0151757445681626
-0.143682087818169 0.125322221371806 0.0149193077241159
-0.151130027802984 0.133386710003624 0.0157894487770323
-0.159594282786996 0.141899118662887 0.017258502418317
-0.166964711124986 0.152437682303018 0.019079096717154
-0.175612123532577 0.165220541592217 0.0235326649675604
-0.181457254455523 0.163616885213258 0.0255123930918387
-0.184422357977963 0.167344378431405 0.0280115315049
-0.191093232279501 0.177682588396931 0.0342767043979379
-0.202127056272364 0.185737084199258 0.0416618583001588
-0.197403236959244 0.188745725253588 0.0406257007357132
-0.204008837080423 0.186988513783744 0.0428811312658713
-0.208060348803517 0.198115845463414 0.048282335432953
-0.214848831756302 0.198787764027483 0.0514158799930393
-0.221736696093613 0.207115542218531 0.0571123227555194
-0.228471518870913 0.218612695383229 0.0660170392432343
-0.227591858676504 0.220920398370182 0.0666971293277796
-0.241856309292042 0.217851758957363 0.0757866971613425
-0.241045365979012 0.229601375294248 0.0824204928332603
-0.244557568536834 0.226601979601804 0.0837998691553157
-0.247000520631296 0.234061308319898 0.0931044734096146
-0.25500984929806 0.238994799022631 0.106542850962864
-0.255816125799367 0.243447821050409 0.111354491749688
-0.261495173332624 0.240572328716028 0.115310952329531
-0.261841620301799 0.241261679727142 0.1163083315724
-0.261405433684629 0.252832050531181 0.125926680051692
-0.267390744582132 0.255046336050267 0.134681777950069
-0.270695139534015 0.254564072994538 0.138024976379104
-0.274670146765333 0.261011722199452 0.149095499742034
-0.283450062609085 0.25894520321725 0.162815237778596
-0.280172378790586 0.264154387188065 0.164187290957344
-0.283201833365208 0.265806528621261 0.172382242371518
-0.286964272224289 0.268066558973588 0.182864574236901
-0.284077419613034 0.276459692984928 0.189641134917278
-0.289981198172263 0.272318823351291 0.194840473452706
-0.291964553728569 0.279713854743733 0.209444210568633
-0.292459264159317 0.284519652112194 0.217420120432767
-0.298963015505472 0.279338264120471 0.222241014353712
-0.300527641546204 0.287853388588477 0.239915446956953
-0.300545625845193 0.290431744322555 0.244286730071442
-0.306922108111949 0.287574168507841 0.253447358245451
-0.304006602425487 0.294059892758616 0.257960391619494
-0.310724079337258 0.292060304166036 0.269309153669126
-0.307065222060655 0.300784575608587 0.275955570437319
-0.311543608294104 0.30161776325885 0.287161080878952
-0.316709668507478 0.300630865794168 0.298223951526278
-0.319093731985394 0.30161800758393 0.30690333048619
-0.319719328954271 0.303714155260754 0.313075485310427
-0.321205852742335 0.304342110637624 0.318513685643413
-0.323432791195325 0.307035557073091 0.33037626730418
-0.328384877687543 0.310170811349712 0.346859133862284
-0.326104483706031 0.311969436052372 0.34494496204143
-0.331944229587885 0.316118563159496 0.360722493349017
-0.330252121641611 0.323774818664444 0.365613998041211
-0.34139470968208 0.328837237107293 0.377690606204834
-0.343078029394913 0.328231653564152 0.378457004274328
-0.352003571227277 0.337859285983632 0.391140640460468
-0.353073424887171 0.33829284208443 0.396530696469532
-0.355708145421638 0.344221810609839 0.402552689870483
-0.00542684938485459 -0.0286308024651734 0.0107548678601845
-0.00971147087671955 -0.0225262716943326 0.0107548678601845
-0.0130564024477168 -0.0153995928746615 0.0107548678601845
-0.0208760345530588 -0.00978104856389722 0.0107548678601849
-0.0345484001229374 0.00495037886335317 0.0107548678601845
-0.04116796807801 0.0105952872066858 0.0107548678601842
-0.0479607083241991 0.013147733358092 0.0107548678601842
-0.0453947263178964 0.023247050301255 0.0107548678601845
-0.0544648850884179 0.0232825272261649 0.0107548678601845
-0.06774270891528 0.0351699698848212 0.0107548678601845
-0.0706021599325753 0.0410125096805594 0.0107548678601842
-0.0761706492730743 0.044990205273699 0.0107548678601845
-0.0852751694263933 0.0610639207296387 0.0107548678601845
-0.0930389620837655 0.0672156561047606 0.0107548678601845
-0.101286780342712 0.0713556187389689 0.0107548678601845
-0.107317039363284 0.0813208950600576 0.0107548678601845
-0.117940722568088 0.0877792767708589 0.0114384295054223
-0.124106152405436 0.0918833295932048 0.0120328101965153
-0.132150154684536 0.101590962279716 0.0130214429216418
-0.136168262462051 0.106036287635897 0.0134955092592966
-0.144025492461232 0.113790028167288 0.0143765522244877
-0.153566339554314 0.127375155100203 0.0156505612077594
-0.158567190235741 0.128645750176093 0.0160318889200613
-0.165623897810604 0.141214877132713 0.0178741742480767
-0.175162555234332 0.143626140640049 0.0192944499570575
-0.179708651719703 0.157105317938752 0.0227690421216993
-0.187026884649046 0.152511900706509 0.0242461484238165
-0.194944495013142 0.162752227149558 0.0310139656729665
-0.201320609100859 0.160314110124307 0.0329467935722021
-0.207766221349726 0.167570037483665 0.0381006573271546
-0.209040621679072 0.181261152616581 0.0431544241465932
-0.212942600640613 0.185286461260402 0.0461535340989313
-0.219776282040989 0.184950169387209 0.0489745727020948
-0.223796624521985 0.200538572874968 0.0558309624165026
-0.233528344077069 0.196488765498733 0.0586728328539861
-0.238376079796698 0.20224161616355 0.0639889021868078
-0.242487038345156 0.208958061895385 0.0710597034088733
-0.248897300465439 0.210160166444423 0.0766560015336885
-0.246726193438095 0.223079472203164 0.0831911336700733
-0.252177443314188 0.218616537794598 0.0855002468602348
-0.254315861932307 0.22716131096705 0.0954068272163621
-0.25835525274232 0.229649260175977 0.1021841184046
-0.264585563070833 0.226503953657445 0.10653276901037
-0.26920800450791 0.227752193418674 0.112890543447478
-0.273445681469119 0.234792909459054 0.123873971799041
-0.269616963130996 0.246298506860352 0.129570461945679
-0.278692109366933 0.244226157892953 0.1380983593342
-0.280080392018321 0.248624033472533 0.143524888814794
-0.285364749552497 0.249255275773685 0.152287070434199
-0.288926126722982 0.250786038202627 0.161318807224565
-0.284720642680845 0.258794350559814 0.165017550253067
-0.292187218143193 0.25649317792807 0.175889306431197
-0.289138151667627 0.264554738435496 0.181871315357847
-0.29408731586923 0.268191250256431 0.196631039909326
-0.296924225033743 0.269039655100434 0.203282664910637
-0.297247192802603 0.272076530261639 0.208342534204825
-0.306828462680744 0.270296775908743 0.224214501855068
-0.307684005899424 0.269134010223171 0.224134192795596
-0.312307121388864 0.273235737918406 0.241148082634333
-0.312181024693803 0.278720921532619 0.25008766548101
-0.312398237756671 0.280296490685331 0.253210385093638
-0.318801758555132 0.277703970115475 0.262875535943856
-0.317854798054173 0.28676618568163 0.276027578463792
-0.319456612431204 0.288390856402805 0.282264453199458
-0.318706964476543 0.29110701570941 0.285186488339329
-0.321846557141342 0.289236998225793 0.28891897244479
-0.328200700669809 0.293025046498936 0.313847216372375
-0.328805986178256 0.291393265811429 0.312060176291644
-0.331352759519632 0.295401000926724 0.327592641699065
-0.333612437302234 0.300959546081928 0.342945801349804
-0.332485302562117 0.303490419440924 0.344678417616672
-0.337965395748653 0.300840897473425 0.352007665070208
-0.337113470326008 0.309758481772903 0.361113370055758
-0.342051603023259 0.307778773038482 0.365087199953947
-0.347561445654469 0.314951066278 0.374477682686383
-0.347969767020271 0.319791865729797 0.377460618548019
-0.35977839456766 0.325246782883626 0.38887165679088
-0.361151620042715 0.327765133191016 0.396486719785028
-0.363695166200167 0.326824674586208 0.402028330394887
-0.00161890493855331 -0.0372083142977359 0.0107548678601845
-0.00867326008422399 -0.0314345573520262 0.0107548678601845
-0.018470306470168 -0.0209124676704473 0.0107548678601845
-0.0298694810206352 -0.0170445223606118 0.0107548678601845
-0.0343563584403883 -0.0068351235471031 0.0107548678601849
-0.0437494351630001 -0.00347763010155129 0.0107548678601845
-0.0480996071466277 0.0139499086704672 0.0107548678601845
-0.0595316736283574 0.0132758841818108 0.0107548678601845
-0.061135253402635 0.0173487191604694 0.0107548678601845
-0.0665257364925441 0.024384663030691 0.0107548678601845
-0.0770168469966666 0.0295447459259235 0.0107548678601845
-0.092871076905697 0.0457879647575504 0.0107548678601845
-0.0914550145512284 0.0490175436801277 0.0107548678601845
-0.097771697297841 0.0540171702040261 0.0107548678601845
-0.110910522084508 0.0639240256557471 0.0107548678601845
-0.117767121887472 0.0793869559310799 0.0110164254096095
-0.121738015672122 0.0790750354489682 0.0112545424760751
-0.127236545140091 0.0870727406871319 0.0119970179993885
-0.138517470853469 0.0912666114275624 0.0129222258895522
-0.149520126716137 0.099553688518564 0.0140300989189867
-0.156557100758851 0.108157690139404 0.014900432488118
-0.16245888756217 0.120846469108449 0.0158983369821103
-0.173450485039315 0.126697256656535 0.0175036048133851
-0.175459494854388 0.127498915616145 0.0177971081040349
-0.18382163714047 0.141396229048928 0.0203360550859014
-0.192922540673878 0.142807058009516 0.0235806914757669
-0.193576341137073 0.153341197084276 0.0273289551394288
-0.20279148812741 0.15883770633979 0.0330917979119748
-0.203833016347355 0.16509822819273 0.0355995534669388
-0.208550407190466 0.162455464880853 0.036753397846243
-0.218631912316315 0.167525797236103 0.0427476254092451
-0.223867637333029 0.173869689545222 0.047082194442157
-0.225975773937589 0.18299171996207 0.0509895308819054
-0.236983783573616 0.182522891736898 0.0555577838733955
-0.239128895033706 0.190237071307563 0.0590175271405709
-0.245674489892029 0.196128100319407 0.0659788291554654
-0.246016628671064 0.201382395421637 0.069316993455799
-0.251419117830114 0.20916269750046 0.0779965119983619
-0.262169857554954 0.204312039898284 0.0843793540697893
-0.262925098274184 0.211104633735247 0.0911782013720971
-0.26418848450964 0.213534111055883 0.0947415743337853
-0.264694854264103 0.220680251832903 0.101565959997557
-0.274264149243789 0.219461443199881 0.111403059756905
-0.278606162385003 0.225162379484959 0.121334069429854
-0.2818391391004 0.229268767778997 0.12860749310624
-0.284329089851997 0.229404203572953 0.131562785281412
-0.283603609802411 0.239345777640974 0.13942756806452
-0.288614576874479 0.23872533714849 0.144594323505782
-0.288458369059382 0.24480550274378 0.1516752669677
-0.295433231922383 0.240436365957966 0.158583186524168
-0.290783258674756 0.252566830900753 0.167466340055448
-0.303230099216223 0.244506874929627 0.179408705011756
-0.301830249621255 0.248972816225124 0.18327427207222
-0.302312651361068 0.25602510558365 0.194514070026618
-0.30507489146161 0.255310356485861 0.198735885754607
-0.309764673434176 0.25764674734335 0.2110984480864
-0.310288991185867 0.261650798099846 0.217957599919667
-0.312640332474608 0.261278915310298 0.221897537929261
-0.314006911876328 0.265928963495757 0.23259372555329
-0.316703393513039 0.270917041123432 0.246878306453532
-0.317120255847732 0.275300824723896 0.255156260974823
-0.321137081642564 0.277634515158623 0.267872160475972
-0.327452376693414 0.273947858886302 0.275505874625976
-0.32626448726626 0.277133309757804 0.278256814971578
-0.329275375859198 0.279978957333824 0.289630301807936
-0.331582828366514 0.284046770211646 0.304157699723748
-0.331898982606459 0.283045529122669 0.30290857197736
-0.33562947942021 0.284599210527374 0.316508911140076
-0.336561455259311 0.286461537189487 0.323031834782812
-0.341670759976315 0.28885891146346 0.340337283765396
-0.339883168542617 0.295772552848977 0.34781619462895
-0.3432322170328 0.297128163519484 0.356280698416024
-0.346945952373566 0.301346291264158 0.365041182963569
-0.356508580965469 0.298400112522178 0.371575170321611
-0.357654134194918 0.29960352006583 0.373175332812397
-0.35809543806843 0.30641896783728 0.377375268207488
-0.370019147116966 0.313602435180603 0.390434564477998
-0.366823859686237 0.321076086843183 0.400226758881104
-0.365686615720356 0.322642989929411 0.400542572174273
-0.00972122721156385 -0.0446703532450369 0.0107548678601845
-0.0263044416116696 -0.0322510878052958 0.0107548678601842
-0.033893197993761 -0.0287429205226191 0.0107548678601845
-0.0358851831832303 -0.0189293787633778 0.0107548678601845
-0.0393284213419453 -0.0195578627490144 0.0107548678601849
-0.0560875571957283 -0.0085690137205767 0.0107548678601845
-0.0560096106642513 -0.00244974109238892 0.0107548678601845
-0.0581721453371638 0.00191070391800393 0.0107548678601845
-0.067323935837659 0.0178314271866141 0.0107548678601849
-0.0747386961913414 0.0226290897733939 0.0107548678601845
-0.0857931702869742 0.033074927469859 0.0107548678601845
-0.0987938307475356 0.0393798505918334 0.0107548678601842
-0.108644079297883 0.0457998582085279 0.0107548678601842
-0.11201780035602 0.0497180636823884 0.0107548678601845
-0.115482662644021 0.0640637268290675 0.0107548678601845
-0.124722343710543 0.0631270235579754 0.0108255923078668
-0.130584948151954 0.0708842670578637 0.0115000164215698
-0.137706491244133 0.078415503448039 0.0122610362844835
-0.144661036862639 0.0862954515950046 0.01307084759696
-0.15822756868289 0.0982789229492525 0.0145233186446017
-0.164351887638971 0.0968463149343786 0.0148439758014144
-0.17306760323087 0.108223885385529 0.0159572395731854
-0.183200813904495 0.119099602614858 0.0179420956185793
-0.183164162721689 0.119274188557587 0.0179529798446096
-0.190057804212674 0.132754756188475 0.0202768887259612
-0.203064545456163 0.134446751155842 0.0251795898581446
-0.201958911646082 0.139683067337101 0.0264290209566663
-0.203254939611768 0.148082625103915 0.0297501179762905
-0.212937570205733 0.153391020019832 0.0356515915890014
-0.215334146868095 0.156519427511539 0.0377096087552573
-0.220992366583045 0.161573097918283 0.0418007006896218
-0.230230892212488 0.170815046601543 0.0488065489976626
-0.238063118317132 0.169847741551853 0.0518482514068281
-0.244254153203686 0.180287302186479 0.0579409305755187
-0.24644572697544 0.183504572284324 0.0599402516934498
-0.244861101847877 0.188532189348004 0.0609154864177291
-0.253499665898992 0.195839256128401 0.0717818544366431
-0.257563665567264 0.197102428033476 0.0756232460433985
-0.262518015373911 0.198391779896181 0.080159485088535
-0.262361383569058 0.209831664788839 0.0894230576891231
-0.266679210451799 0.209199736356641 0.0937900508969398
-0.277233081814362 0.206903877782828 0.103807310188184
-0.279238994542326 0.210707471778414 0.109417981043535
-0.281575866489133 0.214355245368694 0.115269500534121
-0.285414649659836 0.224281237284958 0.128320886292497
-0.286402721293894 0.22267592963506 0.128043202685978
-0.291031592121849 0.228099354409595 0.138058427018064
-0.292069558977796 0.234513414085415 0.144848463453082
-0.297255145395446 0.233271412971453 0.151572968933049
-0.295798908796357 0.242190387710802 0.161847265054556
-0.29788084078117 0.243874493074693 0.168282017235637
-0.307450482532484 0.238383702581469 0.178496959468439
-0.305775048685937 0.246527980681119 0.187219597846621
-0.313531261356219 0.244763980670506 0.199429768040631
-0.314279673294761 0.248786654144144 0.206743529913364
-0.314272722646228 0.252531831960058 0.212210709493888
-0.318397399087942 0.255547270795679 0.224764612141294
-0.318692370350307 0.257214612251663 0.228211774537432
-0.321809574646085 0.259902383102016 0.239552796047074
-0.325850073015723 0.258399960271261 0.245875459077908
-0.329849507496103 0.259090668955998 0.255792899313338
-0.331495037387944 0.261151586094495 0.262858430836986
-0.333119676267226 0.263219184478381 0.269889445546331
-0.333575555768051 0.267768699646715 0.278531276514195
-0.337112812656038 0.273200215582151 0.296441579997122
-0.335833196680667 0.275401404779011 0.297572711174625
-0.340208607483958 0.275556279907423 0.309989393180543
-0.34103460197844 0.278715378006007 0.318968622731353
-0.341911346656144 0.282027987377016 0.32841350306903
-0.34219388158012 0.285092185651622 0.335304068381766
-0.350349933697257 0.281602175580979 0.346951775858354
-0.350916513951141 0.285804284211521 0.354921562570974
-0.350003801207863 0.293290735382277 0.36145718389421
-0.361355278485581 0.288829863597699 0.369644100838153
-0.362922781754849 0.301824106440084 0.378193829112718
-0.364918382833337 0.301239262455564 0.379166628165793
-0.371440120186644 0.304117965094141 0.385285199153722
-0.374640890646002 0.311212695518 0.401032882502215
-0.38130504335556 0.314363708014816 0.402202062868013
-0.0247748270500921 -0.0468752827716965 0.0107548678601845
-0.026893438540742 -0.0483493339883835 0.0107548678601845
-0.0345631969982865 -0.0292447586886429 0.0107548678601845
-0.0464745871708691 -0.026265251737092 0.0107548678601845
-0.0536312484459648 -0.0250695611871576 0.0107548678601845
-0.0551485125226403 -0.0163332558582234 0.0107548678601845
-0.0646150588283731 -0.0139156313629817 0.0107548678601849
-0.0723620133419988 0.00508379251823105 0.0107548678601845
-0.0852431754469459 0.00504077940966293 0.0107548678601845
-0.0851052057959544 0.0114250410560391 0.0107548678601845
-0.092462879674282 0.0201637201868369 0.0107548678601845
-0.104358247186899 0.0344511951524297 0.0107548678601842
-0.111078706583386 0.0384353991747391 0.0107548678601845
-0.124473769030528 0.0459432558222772 0.0107548678601845
-0.124037187221558 0.0526811528999603 0.0107548678601845
-0.133276101198451 0.0550905266978642 0.0112138594974918
-0.138141557747546 0.0625887258708527 0.0118062115777327
-0.149012812610207 0.0761162508424361 0.0130304425616588
-0.161781032132526 0.0831594389513662 0.0141960473582108
-0.160646033213027 0.0891629712780808 0.0142964962277894
-0.16699330529422 0.0988926535188297 0.0151127276460506
-0.179982418011986 0.101578044217186 0.016152784937938
-0.185312010242513 0.110483856037957 0.0174387944123362
-0.195555009078204 0.111523506883423 0.01871766334267
-0.19874106332772 0.119381967978195 0.0200403178662741
-0.204088746103454 0.1252339439397 0.0227425863373796
-0.210678275932936 0.12835010389719 0.0264390065047931
-0.21739585596528 0.137915331302775 0.0324697556662877
-0.225881941579234 0.141007353783414 0.0371282786696532
-0.223000347440969 0.149636954478224 0.0387328467549804
-0.230586510913832 0.159663204018852 0.0452879958954297
-0.232944981627572 0.163537333362223 0.0475751521601144
-0.239930023987331 0.163166803554332 0.0504498557893145
-0.246427015171912 0.165282870110722 0.0539337510451149
-0.250670737470795 0.17633590155126 0.0593929570227878
-0.259433501786136 0.178708796273008 0.0662785455250613
-0.261925979587398 0.184322912577401 0.0714685700888975
-0.264952539862843 0.190272572139938 0.077262709091411
-0.266982782768351 0.188665449207057 0.0778710213125528
-0.276143713453543 0.198212974156747 0.0949681962026031
-0.27760647765313 0.199526903581328 0.0977834679787744
-0.278290741244392 0.199564502477101 0.0985959441024673
-0.280024225316655 0.208408838907648 0.108303059259987
-0.290117571397879 0.208690868711503 0.12004932578347
-0.29054398465274 0.21453719509588 0.125646261062584
-0.29055931050067 0.220531389130813 0.130904102207537
-0.299434713279778 0.218102060870079 0.138892338342264
-0.300328778789108 0.227965197172679 0.149669791690168
-0.305628520583867 0.226804503950745 0.158078186399349
-0.306557560641194 0.224061281076146 0.155835669243248
-0.311481293238578 0.230501750742906 0.174650012902676
-0.311032949380682 0.23300035966484 0.177451290609986
-0.316480981610348 0.233432773254855 0.188473725198422
-0.316194778859415 0.23695707297737 0.193085139268543
-0.320637554030068 0.240626529478731 0.206927363543282
-0.323504066059682 0.239017948659868 0.21004005939313
-0.326619315737959 0.241327760906512 0.219361016459877
-0.32599133969922 0.248125948435399 0.228923362776786
-0.326357692913924 0.253799776504315 0.239258133591387
-0.336425867999273 0.246863294634012 0.249648936686389
-0.333964065255731 0.25265468530029 0.253988824605153
-0.338936252919802 0.255722818007552 0.270030479861773
-0.33786140025825 0.257534958632578 0.270721616414204
-0.342967104947737 0.255597267776378 0.278645310728353
-0.346173331539745 0.261443514651433 0.296550116217077
-0.346030420818027 0.265695569808416 0.305169492685149
-0.349145465229518 0.262625306502173 0.307266862506594
-0.346946405753791 0.270802374448734 0.318526417320295
-0.354667574126362 0.264652777215871 0.326821470947917
-0.352168097914206 0.270467373366827 0.332242678567396
-0.353934759609284 0.277005371531489 0.347074192322083
-0.355565720670324 0.281938777835232 0.357198147174991
-0.359211444406874 0.280734093291249 0.360879066774651
-0.369170024215269 0.277962947582379 0.369239039115363
-0.366347490353212 0.292133158130568 0.375465523910122
-0.373929484082241 0.29165307080356 0.380207677082312
-0.374137851424424 0.301141280255784 0.385611173442126
-0.383363938723493 0.304925435268468 0.402552689870483
-0.385110247416246 0.300153309222239 0.402467763054408
-0.0312317615182658 -0.0580366917922703 0.0107548678601845
-0.0400120782317025 -0.0435832683202303 0.0107548678601845
-0.0372293897599351 -0.0489070236110784 0.0107548678601845
-0.0487779916477743 -0.0423148570091011 0.0107548678601845
-0.0530913842229064 -0.0336423603850174 0.0107548678601845
-0.0603572951587454 -0.0217095843036547 0.0107548678601845
-0.0683841879104124 -0.017135932037087 0.0107548678601845
-0.0856238842055009 -0.00959271246376786 0.0107548678601845
-0.0833193183288686 -0.00212025767879186 0.0107548678601845
-0.0940327688000181 -0.00110959575980174 0.0107548678601845
-0.101946428362804 0.00849217865380495 0.0107548678601845
-0.109072689885719 0.0196800745741039 0.0107548678601845
-0.119846783720975 0.0258912234712615 0.0107548678601845
-0.127846478078738 0.0356980887550643 0.0107548678601845
-0.131084838365527 0.0478600409732427 0.0108284683771419
-0.141086247812412 0.0466655824316811 0.0115349120323848
-0.144302896862957 0.0543895904654463 0.0120116909183511
-0.155036834979583 0.0591006275714101 0.0129543427134943
-0.16215490248193 0.0732591294959954 0.0139190942566967
-0.167835748011099 0.0841300253846627 0.0146758512760148
-0.181418295693469 0.0899748629134847 0.0158650834698215
-0.182388570880435 0.0856562677181765 0.0158042569563288
-0.196110232832618 0.102239282615955 0.018289088855278
-0.204672757473115 0.104968525011525 0.0198354186788877
-0.202416823042706 0.110322269232718 0.0198287251619795
-0.213071419081618 0.120825711916181 0.0252565883723334
-0.213741606431462 0.127974880553401 0.0276296964234219
-0.224516516808438 0.127412722263719 0.0323376424646678
-0.230772594300823 0.131995481910866 0.0364115171442026
-0.237191775357262 0.137617169296397 0.0408643257597085
-0.237597157520129 0.143047734678365 0.0428259492586114
-0.246234756422901 0.149211807734362 0.0485607738383661
-0.246358559100966 0.163477889671259 0.0533101939111818
-0.250543435982293 0.166570482485815 0.0561236266313425
-0.259992775991506 0.163791703032144 0.0592627669646994
-0.266270125251802 0.169537771202053 0.0661254844274698
-0.271789547360591 0.171469276796572 0.0714690479630688
-0.271304072293135 0.184817724132459 0.0789157103990281
-0.28067314420854 0.182535327428135 0.086422669034434
-0.286046010935762 0.18229489475803 0.0923339685087493
-0.284757891344177 0.187615244887714 0.0955176453803889
-0.287606857054435 0.192515440460125 0.10304753196844
-0.289877524332729 0.195555553622516 0.108292379511101
-0.292237200610152 0.198090870003473 0.113197323277615
-0.299193242124872 0.20424087512026 0.126499182489732
-0.302155247042468 0.206846882675731 0.132152181689812
-0.301343622194947 0.214855668578643 0.13822909089637
-0.308887572412504 0.214537620863636 0.146546127741946
-0.310246301475597 0.219673272057414 0.156449173152814
-0.316708105864329 0.21497257998846 0.161893489372197
-0.315955977413765 0.221388443429676 0.169847674634177
-0.321298509887302 0.221763071933285 0.180584357194242
-0.319756554558524 0.229771975773354 0.189363448441017
-0.326826591779726 0.226847321398774 0.198566626164076
-0.328117199456847 0.228306916869298 0.203163750962042
-0.328394214904765 0.23635137294016 0.215463735280999
-0.33480093962489 0.232354490009835 0.221832917547012
-0.338164414800017 0.231955970843314 0.228409726024353
-0.332939186585352 0.244800822605396 0.238549492052007
-0.340693597553116 0.242845326570995 0.252242757320978
-0.341132476753685 0.248137815121436 0.262095637688572
-0.34439060010141 0.248540077954497 0.269905318146642
-0.347719009203509 0.245562766895771 0.272190857791035
-0.353090353438915 0.246191232976284 0.285007594516465
-0.348760765780922 0.254285383802174 0.289126742771004
-0.352714081067808 0.257228412709434 0.30568498029979
-0.352741472554811 0.257197573449057 0.305695279134362
-0.356352876869113 0.261878750573881 0.325596772652833
-0.359873076948532 0.260469689827614 0.332335195197716
-0.366014743198738 0.258075590897564 0.341874791591874
-0.361611244895238 0.266450247798961 0.346175332130846
-0.364646800862566 0.268362316140334 0.355390370761007
-0.365060737671221 0.274173396747559 0.361981574400842
-0.379296654900707 0.271165054504948 0.373036828771305
-0.381137758212506 0.278160641461196 0.378229903348435
-0.380656724049463 0.283283195741908 0.380399370410437
-0.383877815992375 0.289449588689459 0.386216888684353
-0.391815302965417 0.290475199616428 0.402133952598285
-0.0365978384449903 -0.0566330742566999 0.0107548678601845
-0.0493023584636636 -0.0563812794873679 0.0107548678601845
-0.0539988345772087 -0.0431155082462513 0.0107548678601845
-0.0485964742950907 -0.0482265575725223 0.0107548678601849
-0.0644018429224737 -0.038043309018518 0.0107548678601845
-0.0762873308195058 -0.0317463647967669 0.0107548678601849
-0.0804169021824304 -0.021672321078257 0.0107548678601845
-0.0858026183891842 -0.0100630895073198 0.0107548678601845
-0.0943964303764125 -0.00705703519893836 0.0107548678601845
-0.101961107627983 -0.00199357330221121 0.0107548678601849
-0.106144486044295 0.00767861197110029 0.0107548678601842
-0.112105357730952 0.0163260361600381 0.0107548678601845
-0.126478109925319 0.0238890482019788 0.0107548678601849
-0.133786096884392 0.0374147611166814 0.0107548678601845
-0.134009254014736 0.0337077758945269 0.0107548678601842
-0.145890682938938 0.0460083661647498 0.011871702546851
-0.146622299271526 0.0474546844293747 0.0119705875805946
-0.159868059296338 0.0515683629547153 0.0130815071358593
-0.174170454633271 0.0648164989733433 0.0145521081233874
-0.17521785883356 0.0750646877934319 0.0149453846945874
-0.186565852525909 0.08073570635671 0.0159632158801737
-0.189224161755567 0.0878380129394223 0.016615225248285
-0.202347779126352 0.0887766653249369 0.018375202582076
-0.205786260082235 0.103657338720856 0.0199349968966874
-0.213965712399335 0.109544669022448 0.0233804232694595
-0.214686144010022 0.108883092059777 0.0235918954805413
-0.222333531884047 0.115502566747444 0.0287823425819302
-0.233997976150398 0.120621682881503 0.0356692156617824
-0.237323261191761 0.129321361314621 0.0391308295649643
-0.237719714183918 0.128305674020248 0.0391187101064359
-0.248428102629997 0.141764815928103 0.0472538247423596
-0.24944308479807 0.142180281161237 0.0478468833248059
-0.257112132725961 0.150469920289353 0.0536414816769902
-0.263736425911275 0.149415245561726 0.0564849993673916
-0.270682364717199 0.158959073717793 0.0632977644529659
-0.269432541008129 0.163217383123436 0.0648376683384317
-0.273688302952667 0.165039353473823 0.0691526590818476
-0.282461085295936 0.165147983986984 0.0759116690568174
-0.281349899121227 0.178301078841842 0.0834919591432747
-0.28642475547874 0.177431994634419 0.088514130962113
-0.291495497444872 0.178397857925569 0.0951358044096355
-0.294532035187031 0.18806787183357 0.10704937686277
-0.296904371967458 0.191789272690466 0.113005670779262
-0.303150007918923 0.190340721193321 0.118855157952894
-0.307246440706406 0.199451999542524 0.131487835658765
-0.311123173886685 0.199856446015977 0.136258318411059
-0.313784043129072 0.200730246673908 0.140053854061369
-0.314906387683182 0.20373042817106 0.143955467188421
-0.321573920579054 0.208453882398555 0.161633829488638
-0.32342351419593 0.210964304079841 0.168834675050099
-0.323260558257282 0.213490721670931 0.172220895103395
-0.323619009464575 0.214573382896092 0.174488771250106
-0.328311442186506 0.215827864029223 0.185273196649982
-0.329541490911998 0.218308188939314 0.191248497529702
-0.329741520241992 0.226537739558856 0.20367252005709
-0.335272313850525 0.228423132834647 0.216978974964001
-0.338482222095218 0.22885690116 0.223898823211898
-0.342004098741434 0.230433695269658 0.23425934034398
-0.342870914627196 0.228646101278603 0.233153936926296
-0.34470248692169 0.237670337513979 0.252325917902455
-0.348980458651717 0.235451232315743 0.257964440846901
-0.350643396279144 0.240292754677649 0.269739793223776
-0.353062335429879 0.241940028262186 0.277803781959025
-0.353944645610311 0.243856676156065 0.282955815367993
-0.354264678274908 0.250224324690644 0.295120535474621
-0.359948248923625 0.245588842278803 0.300996000200941
-0.361682573352986 0.247135841843015 0.309067164017644
-0.3612602231647 0.249856176302871 0.313667312588155
-0.367303153982702 0.252599420656802 0.335679768709077
-0.367780891250096 0.253550522397756 0.338247297587225
-0.370595888400279 0.252598364296173 0.342679194338104
-0.372482967831209 0.26044452304614 0.357771825309629
-0.375749110755042 0.262271783663338 0.363731982891085
-0.378504675574354 0.265987792277643 0.369351796282146
-0.387734831790495 0.26548417570732 0.376191649674518
-0.383943659508941 0.279753403644049 0.38076314355845
-0.398829381734057 0.278662518163251 0.394353475444399
-0.404146237980555 0.28004281955012 0.402552689870483
-0.0438284195374863 -0.0720602093786892 0.0107548678601845
-0.0457473115882426 -0.067236786411108 0.0107548678601845
-0.0588042820154378 -0.0551334186712406 0.0107548678601845
-0.0615341328499193 -0.0497836719524169 0.0107548678601849
-0.0709970068738812 -0.0476266197257695 0.0107548678601842
-0.0849297703847593 -0.0309677337130965 0.0107548678601845
-0.0861497599504554 -0.0235380646335142 0.0107548678601845
-0.0970757840047279 -0.0227463786304555 0.0107548678601845
-0.0986940469394575 -0.0190598848613502 0.0107548678601845
-0.112401183107852 -0.0104261021380389 0.0107548678601842
-0.120543443208364 -0.00219806405883749 0.0107548678601845
-0.123129312847492 0.00108626573495457 0.0107548678601842
-0.134396463322169 0.0158818187568442 0.0107548678601845
-0.138242066548119 0.0168670964966037 0.0108155299461557
-0.148142126039276 0.0277664525922628 0.0117194381665333
-0.150877490648701 0.0372969038561629 0.0120376263734845
-0.162681424395702 0.0488892834064457 0.0132081064907992
-0.17020729693219 0.0485889314470888 0.0137581127669559
-0.174816151917672 0.0600708885501372 0.0144540183648053
-0.189651048900701 0.0632805582485783 0.0156552016942975
-0.186718060150444 0.0708311717638144 0.0156696608627637
-0.195259455799771 0.0788073033723432 0.0169141010189532
-0.204385534096621 0.0931768586650494 0.0189325862579928
-0.218971777030618 0.0885801846171359 0.0218830948518505
-0.221629883410216 0.0947829699117389 0.0241430898535742
-0.224289404202624 0.0995647087673614 0.0264613116667453
-0.231720252729076 0.109108304809314 0.0321486937892073
-0.239994096773073 0.117632030690618 0.038046182240614
-0.242448796654931 0.116405434169878 0.0390187115975333
-0.250876855537638 0.121581135186728 0.044300405315608
-0.257771848958113 0.13024347369061 0.0495377083607947
-0.257824703545385 0.133566207875813 0.0502517207454403
-0.265109775707535 0.13652526902249 0.0545036702124319
-0.27333546866812 0.143195672422308 0.0599935760924093
-0.272879648008996 0.149123880407038 0.0610469394404944
-0.27356930666932 0.154812683264793 0.0637541543953102
-0.283169303994683 0.160131623117239 0.0742444143847423
-0.290190109672001 0.16035730515957 0.0805673500701779
-0.294898759857823 0.165337748257649 0.0891936280946179
-0.294826849378667 0.170878926028428 0.0923579601074969
-0.297935625930339 0.170403030140119 0.0960066295835126
-0.305156702048515 0.172503215498114 0.106741639884777
-0.302192187608759 0.181398348973392 0.109946076725303
-0.305903268716622 0.18819887134521 0.120119548366296
-0.311213888895702 0.184172370269066 0.122649985816207
-0.315107487430463 0.195156651017101 0.136689025841696
-0.319042997801603 0.19137789718788 0.137869343542567
-0.321059597952014 0.198273235795748 0.146195125848643
-0.330074731550338 0.195134137527818 0.158354106208399
-0.326744908441138 0.202945569723291 0.163434677656512
-0.328560446377135 0.208526067433334 0.17506311476766
-0.331292836641686 0.209566052184891 0.181795761809547
-0.331742613941615 0.214742980112404 0.190229068796117
-0.335753983365207 0.214603123271101 0.197674294380147
-0.34203200535155 0.214907833551278 0.210092688799362
-0.346993421466468 0.210402923980641 0.212962184020147
-0.346649083814837 0.21723211638306 0.222298883847536
-0.345518605707513 0.226794362903001 0.235840086736051
-0.354617155350061 0.220453832589262 0.24510910306924
-0.353325132535621 0.225559116524952 0.250857556752459
-0.351086465822688 0.230917765499024 0.254958962062072
-0.359307225142663 0.227723024548474 0.267591262030062
-0.363915900048171 0.230445615906548 0.282256441093637
-0.367762180502465 0.228275832483102 0.28703261837197
-0.362679744221316 0.238692719058258 0.293923013373889
-0.367605958646466 0.238736018340474 0.307624914575161
-0.368362206255377 0.238023704149581 0.308204188465579
-0.372298609245411 0.238759165916502 0.320638806474307
-0.368781108888308 0.249062014339912 0.332762363441384
-0.374073872921713 0.244805180742615 0.337359474750503
-0.378925276670336 0.24985447381042 0.355494398853119
-0.378617604608515 0.253701138453486 0.35907068122056
-0.383091390464862 0.251329443500881 0.362562265417532
-0.391639552045912 0.259812546679775 0.375845721966873
-0.391857566833643 0.260366287265263 0.376342961219592
-0.40092345353837 0.263589067678538 0.384012019914065
-0.407879550110537 0.266868109106598 0.394556224586673
-0.403393008272401 0.272715084266341 0.395749735323549
-0.0449396028789271 -0.082871955038644 0.0107548678601845
-0.0602404701729397 -0.0692693784514948 0.0107548678601845
-0.059091314565969 -0.0641209262774645 0.0107548678601845
-0.0731883614602934 -0.0559583216308662 0.0107548678601842
-0.0756195470771963 -0.0507115497060822 0.0107548678601845
-0.0869740393533459 -0.0413319858104634 0.0107548678601849
-0.0982862477653632 -0.0379609405169883 0.0107548678601845
-0.103761712379731 -0.0310068366113656 0.0107548678601845
-0.106244099345536 -0.0245646042817737 0.0107548678601845
-0.112048794984154 -0.0128910982726108 0.0107548678601845
-0.116154163533768 -0.0134513584897749 0.0107548678601845
-0.133031363901591 -0.00477066837310752 0.0107548678601842
-0.132977003923976 0.00868715078724834 0.0107548678601845
-0.141069944453106 0.0100769174721182 0.0109697514497305
-0.154649475058141 0.0269579904157465 0.0122298787930749
-0.162619170313518 0.0261122950302757 0.0128565432823223
-0.166830619629519 0.0356009133556353 0.0132920026350592
-0.175411815013136 0.0449300410827538 0.0140742528351878
-0.184848018706876 0.053397554359021 0.0149940832788213
-0.185730042072819 0.0546467264137965 0.0150980768908008
-0.201526870902742 0.0625757465353078 0.0168547184941981
-0.203278247336055 0.0726068285296894 0.0176240186398694
-0.213490964767889 0.0787987489860384 0.0194824782959375
-0.215497354158782 0.0843257128240911 0.0202324218697275
-0.220896699343943 0.093113277838112 0.0234312671948025
-0.230182016340156 0.0919932153968238 0.0278383998020606
-0.230609527500513 0.0998192703462384 0.0296715064428823
-0.242751219560338 0.101881408426028 0.0361642003515746
-0.247780621378662 0.109078808892038 0.0401663049045439
-0.254580241417365 0.120744397614851 0.0459774520682257
-0.25880407968229 0.116543076972514 0.0472182487814829
-0.270380707677362 0.12266677546281 0.0542691373022704
-0.268699412759525 0.133940090385256 0.0557620660980563
-0.26983864228819 0.132840926477168 0.0561037610630419
-0.284259121756657 0.140874898736108 0.0681238574676863
-0.282156237426682 0.149416527266791 0.0693993913615123
-0.290675630557874 0.148475822066647 0.0766248280658643
-0.290521288970048 0.152832080953139 0.0780913629907176
-0.295060012599711 0.153011602676346 0.0826334726025945
-0.300906694955656 0.160966304254787 0.0947624368992668
-0.307129693783954 0.157897138322533 0.101332284208322
-0.304780325330796 0.169086373900184 0.104364469248595
-0.314506974072027 0.174054669009261 0.12000006542312
-0.317325889197866 0.169612323434077 0.121298768385438
-0.321300766448491 0.178961590847004 0.131710665989543
-0.322942439771568 0.179895965656766 0.134402317834648
-0.323187209828391 0.186354893141155 0.138276719740722
-0.33128892622566 0.186945713280735 0.151037127699008
-0.332277823374938 0.18927460730987 0.15537559971135
-0.335425014877676 0.188585588902179 0.161731084235846
-0.338759452095871 0.195460460838549 0.175460339753881
-0.340330156595902 0.199898876828061 0.184884106251465
-0.343929318448199 0.198297056403803 0.189550965615763
-0.345199709500892 0.200762982523737 0.195435060232056
-0.349381407013029 0.203062251357746 0.20677435823795
-0.354751004856213 0.202616948422609 0.217557659381838
-0.354274010355753 0.211326354322025 0.22902265674537
-0.351914875925576 0.214083539895339 0.228489562678249
-0.359868557806276 0.20849186963594 0.236509991887046
-0.361784170491879 0.213063278874624 0.248384771844345
-0.363005485535298 0.220461494600897 0.263488678201337
-0.366372573126049 0.219949928141995 0.270001613600915
-0.36547034843929 0.221845848701554 0.271211487425747
-0.372063549588142 0.223351122949375 0.288176674699286
-0.374426463124438 0.222774612422634 0.292630927390086
-0.370347419832329 0.231863784317785 0.300630105698228
-0.374754832938571 0.232511245894489 0.314179469575204
-0.377636358343305 0.234078245609611 0.325462511258279
-0.380179896050789 0.234361146657925 0.333089518528909
-0.381613403093296 0.235344311444942 0.337954715742081
-0.383268428683097 0.240621857356439 0.350084135592092
-0.39009756122501 0.24054980147374 0.36094889578748
-0.392966085888071 0.244058013633526 0.367328623004122
-0.392842412045859 0.249950672280284 0.370923389773641
-0.400099827095464 0.260185208633878 0.381480691660077
-0.404990485206068 0.260170872270202 0.385150105422197
-0.413429210824484 0.258783091245043 0.392025174851573
-0.408030479539884 0.267036039937693 0.398966250603217
-0.0573015503688032 -0.0881575140384355 0.0107548678601845
-0.0601038949851751 -0.0790564056376533 0.0107548678601842
-0.0648920826157869 -0.0750650831953572 0.0107548678601845
-0.0798123917016096 -0.0695832519816361 0.0107548678601842
-0.0876284330840998 -0.0642605459380309 0.0107548678601845
-0.0949152866281885 -0.0516516731307186 0.0107548678601845
-0.102375480486282 -0.0439033312260167 0.0107548678601845
-0.10797406468624 -0.0380961543204694 0.0107548678601842
-0.11769259534012 -0.0274145902832336 0.0107548678601845
-0.119718895999633 -0.0215137841706362 0.0107548678601845
-0.134510836668085 -0.0108676866864712 0.0107548678601849
-0.14274726143516 -0.00932463088210214 0.0110956110714538
-0.148156146914557 0.00429507554282372 0.0114741390801318
-0.156975429537736 0.00631511231491862 0.0121986401371743
-0.159807230387994 0.0196848651958958 0.0125648260365792
-0.164282888621361 0.0165035735581003 0.0128883380914256
-0.178745326353548 0.022967931931023 0.0141095116614933
-0.179595879121206 0.0280782552947584 0.0142309903359333
-0.189145623102776 0.044941343738544 0.015169573643898
-0.196643558702129 0.0446259495519045 0.0157641851057266
-0.202189874753117 0.0527826725995324 0.0164622828849125
-0.216081380570538 0.0650044975947018 0.018937207781988
-0.212885109597731 0.0643625342297747 0.0184305148794459
-0.224219716061728 0.0748881040210715 0.0217106700576947
-0.231884406988899 0.0761473383767661 0.0254097646911672
-0.236673089777248 0.0850468821374926 0.0296438481091184
-0.243742621376975 0.0865918867315791 0.0334954893526654
-0.24974009158361 0.0967958560130649 0.0386034172910658
-0.255036367762335 0.100545943347159 0.0420254647836482
-0.259092663774686 0.103237720550199 0.0446090150482364
-0.266790645980995 0.109734282066437 0.049799303292549
-0.266283733613284 0.120027118017635 0.0516760500565417
-0.275245881225071 0.123006613298098 0.0567700903386703
-0.285543352349043 0.127397495674883 0.0643036812225786
-0.282343983124416 0.131040857361199 0.062801453919913
-0.294024061300855 0.130003834651761 0.0728005417871854
-0.296740385619239 0.145968137232966 0.0810917997212957
-0.299914177078918 0.142464423806238 0.0832774668972296
-0.301545950015726 0.154214023596194 0.0918997266226448
-0.306503401497407 0.149581108712758 0.0959310736419437
-0.310993376110807 0.151871201072198 0.103146870006156
-0.316710248253493 0.151291876552812 0.110413543413868
-0.31953813925821 0.158731732620113 0.11825427935405
-0.32368676899695 0.166214267230402 0.127870805099975
-0.327544326525906 0.16318743795143 0.131325490028622
-0.331991118208199 0.174702178591242 0.143553599297375
-0.329953697421748 0.178389293300113 0.142876716787633
-0.339633339074144 0.173263076187693 0.156981958965065
-0.333844841592142 0.184882056886648 0.1548149886821
-0.341021168245968 0.179799378658646 0.166076727859954
-0.346711643799914 0.183575931716558 0.182188182137775
-0.347624667502166 0.188151638664759 0.18842497085123
-0.349703439456568 0.192020034639011 0.19660001418559
-0.351820595571177 0.192546371659554 0.201785980312367
-0.355346108408512 0.195663980289309 0.212483315227078
-0.355462248370246 0.195137301764179 0.212256754225594
-0.358148256319275 0.200266170664179 0.222985673810671
-0.358155425194087 0.207433917036342 0.230981525186385
-0.368040666349881 0.202417203499439 0.250481068116832
-0.365029166480388 0.212419820888802 0.254408789615754
-0.365597938866716 0.212105413447186 0.25512591031768
-0.374834076520625 0.208373419082788 0.274093536746141
-0.372315917921562 0.218399587211579 0.280410154304686
-0.374019423497349 0.219920973836134 0.286696159400965
-0.381003191583474 0.213280900949029 0.295942855617631
-0.381730233801497 0.220830976965018 0.308689290568286
-0.385642994815144 0.217876128547623 0.316994583100362
-0.387450670103796 0.218502513384759 0.323645250803284
-0.388780330583361 0.226085084833715 0.338086697990656
-0.386798851314411 0.228697299293218 0.338135481170093
-0.393447882339213 0.23259378892853 0.357223062278835
-0.392878799129957 0.233859016744029 0.357766489007266
-0.397255899512182 0.236540604841554 0.36568791741853
-0.404145629582828 0.237831775407771 0.372473358161719
-0.407025703766773 0.240490050975974 0.376278430980707
-0.4142597195644 0.244330859106526 0.382876362367891
-0.415172881953392 0.251168409854005 0.387730663820089
-0.0605814584338914 -0.0871609664900434 0.0107548678601845
-0.0702735845545016 -0.0788954955543549 0.0107548678601842
-0.0783893890791145 -0.0710551687521646 0.0107548678601849
-0.0835142039374804 -0.068700203126202 0.0107548678601845
-0.0953460890952513 -0.0616669940263719 0.0107548678601845
-0.0989646170990533 -0.0551520798237203 0.0107548678601845
-0.113227236105139 -0.043732140983603 0.0107548678601845
-0.113383806938721 -0.037198388674584 0.0107548678601842
-0.124578121462747 -0.034599518797784 0.0107548678601845
-0.137456022924479 -0.0278071978492077 0.0108677029382757
-0.136718696372845 -0.022660143472837 0.0107548678601846
-0.149967479643203 -0.016074438706374 0.011742250872498
-0.149590402003173 -0.0137849247845813 0.0116881440789265
-0.161781837101572 -0.00487446460000072 0.0125668021556626
-0.163771308187499 0.00745081493649329 0.0127525006078796
-0.170858940190928 0.0105102886402025 0.0133498238924596
-0.177353094807631 0.0200392353112231 0.0139677409084541
-0.191893850243489 0.0333550647988928 0.0152670909460601
-0.189192585279071 0.0276742439991645 0.0149920378401436
-0.199464046152615 0.0388704447540627 0.0159286799141864
-0.217333283228986 0.0493904668721112 0.0185165192938773
-0.217931621377368 0.0503802887257706 0.0186183658923919
-0.225375681630445 0.0536309282241095 0.020059361222169
-0.237248268923759 0.063694025477119 0.0255124473183174
-0.242377706066103 0.0674707763613047 0.0288566602508574
-0.238521030985204 0.07255780160102 0.0279825848793552
-0.249682735505833 0.0782157954962622 0.0347298059229603
-0.260250870407616 0.09164309265657 0.0427882603328514
-0.262112649138436 0.0915582107844838 0.0437008343007426
-0.26911957424525 0.098432599593537 0.0486240599158754
-0.27520158796756 0.0986663461390977 0.0517109883563229
-0.279258069519314 0.109451496833153 0.0559694734640354
-0.283846925300387 0.110208809571603 0.0584187711489916
-0.291100227663082 0.119592533879458 0.0663691327635061
-0.28813456901963 0.121293578461547 0.064359576939984
-0.300420429781596 0.123254274491356 0.0760006407345861
-0.299477125155695 0.127167916087484 0.0766030274851608
-0.304161488132096 0.137752122024089 0.0863229822271902
-0.306648003626201 0.13483880397235 0.088020973246886
-0.312684335097407 0.145675534724343 0.101985443133593
-0.312794028974292 0.14215968596702 0.100198771581979
-0.321725026408764 0.144535632136029 0.113354028331232
-0.323754269947275 0.150655096946999 0.119409481768916
-0.326005373493933 0.151840278474275 0.123047552138198
-0.329970281581163 0.158930633336875 0.132204787993928
-0.337650653614803 0.157569373045436 0.141646871515575
