ply
format ascii 1.0
element vertex 883
property float x
property float y
property float z
end_header
0.097074351183359 0.426416060831979 0.157271548038163
0.09495295140533 0.433432619267299 0.164288157167066
0.0974498257445907 0.437715988481186 0.168873140436959
0.0922071942191861 0.441308823864472 0.177047624723873
0.0899621915250909 0.445895176059438 0.18748257649662
0.08812056075126 0.448721514602688 0.193913113258419
0.0948526271957651 0.452949251351775 0.203532136658542
0.0945364030504585 0.456481182615549 0.211568050787115
0.0976808813129991 0.46310355820142 0.226635399939991
0.0943009643129778 0.464437641664247 0.229670730853017
0.0900324617454042 0.470607052761581 0.243707486978636
0.0949359820225157 0.4705266614029 0.243524579099973
0.0917229361154329 0.476240710536391 0.256525287419004
0.0901710516940862 0.477659768670445 0.259753954246602
0.0962746814072988 0.48049976462122 0.266215564589931
0.0963630988917871 0.488594307127346 0.284632414644881
0.0880941662001815 0.489759610938062 0.287283735029471
0.0928914119243711 0.495374928051147 0.30005980646333
0.0946682990422388 0.498856995791671 0.307982270198606
0.0910120190265642 -0.0110997400258063 0.0
0.0900953739536585 0.00207272896302431 3.67803984747923e-016
0.0874739612683826 0.0129333129080404 3.67803984747923e-016
0.0926056733228662 0.0201860797003994 0.0
0.0911467396248727 0.0314359085856682 0.0
0.0868927966227171 0.0444703682454906 0.0
0.0923681112577903 0.0477220262380152 0.0
0.0947754771382889 0.0609656662882761 0.0
0.0974555769385725 0.0756304104616205 3.67803984747923e-016
0.0934100972071655 0.0778246429217908 3.67803984747923e-016
0.0880104684538996 0.097792593062061 0.0
0.088681042392558 0.0961284685832118 0.0
0.0889299918211818 0.117063110934721 0.0
0.0984565812814021 0.120921908085547 0.0
0.0920509621317432 0.133680784029977 0.0
0.0901927529221248 0.144900538254521 3.67803984747923e-016
0.0898459842839169 0.148539203836249 0.0
0.09921488824463 0.167721572581637 0.00233028853499272
0.0936344270985493 0.171324614085993 0.00247170947769536
0.0906561269926638 0.183702811566577 0.00642636599722481
0.0997741994258726 0.192288747973743 0.0115651860140023
0.100596323372023 0.199786941486099 0.0145233277164626
0.0946598201927931 0.211699106875221 0.0176713895032066
0.100293355582129 0.217552850189776 0.0210500604688556
0.096969640779353 0.219038830464094 0.0208894178766124
0.101037407901878 0.229288200500432 0.02556357793105
0.0924931608924108 0.23934980872357 0.027466421534452
0.0960650818096218 0.253200163238343 0.0333704276662028
0.0953727120689076 0.259325080855074 0.0354946233393778
0.0978383922665465 0.260210291009858 0.036351239879471
0.0991614645127115 0.282184429560176 0.0447876578203651
0.100842343669137 0.288950720940828 0.0476582001980532
0.0964893397865469 0.298009181893766 0.0500866659438718
0.0970728777845621 0.306490544771601 0.0533584819462333
0.0966858573301786 0.304181876581922 0.0524189990161217
0.101504346530132 0.314355587998434 0.0572259017706169
0.0988039778542015 0.326926912212761 0.0633838089703818
0.0954775007695748 0.328859252417057 0.0633940262075594
0.0949494156392908 0.341709611192773 0.0742587992857239
0.0967937887437989 0.342639507672813 0.0759863122935153
0.095281477798517 0.351431286015258 0.0828441097560756
0.100959561517469 0.35549634145758 0.0892036388427073
0.101516519295342 0.365703644840793 0.0983219676437262
0.0962204008022754 0.370653406026141 0.101508490355493
0.105782494322711 0.377402605208787 0.110586640643747
0.0962254527343142 0.380072913730716 0.110928066114599
0.103278077779697 0.386200383363804 0.117055580017738
0.0971010959378029 0.395592189440565 0.126447453948892
0.103948899725914 0.396216670212377 0.127071939232484
0.102669859965404 0.404623561687893 0.135478891446533
0.100391462058185 0.415033564687689 0.145888969657043
0.104337775329214 0.418281458469831 0.14913688690473
0.102741033573857 0.422235857607963 0.153091314612804
0.10384449005456 0.432932424449133 0.163787958735069
0.107210963190079 0.439571782355357 0.173095476348795
0.10791027422153 0.441828235749909 0.17822940007481
0.101551600309687 0.446028968415898 0.187786983294851
0.104588134994928 0.45028749032318 0.197476049645765
0.0997065130739387 0.45335274402551 0.204450170514667
0.103846933336396 0.456548779174976 0.211721847706246
0.108847255020611 0.457890057674217 0.214773548896739
0.103004306855676 0.463480938777306 0.227494023077055
0.103963318172973 0.468412452382029 0.238714292355202
0.108625304940795 0.470841690903142 0.24424133993784
0.105095126578415 0.47616883969488 0.256361765575684
0.0993416289536267 0.478137527634738 0.260840960115203
0.108363634010426 0.485633983612434 0.277897032843251
0.106762054345326 0.48487973718562 0.276180957680685
0.106436787895489 0.489865846304318 0.287525443663328
0.108970594674288 0.494676038005454 0.298469679144007
0.099908112001688 0.497299680270406 0.304439037653754
0.100391500691265 -0.0117440475514003 0.0
0.096265111865758 -0.00444964489422271 0.0
0.104819384285728 0.00851093582545357 0.0
0.103411553775514 0.0171356341804282 0.0
0.102847218506447 0.0370243081113555 0.0
0.0986151967013007 0.0418637605309376 0.0
0.100846599436145 0.0435339456883328 0.0
0.0979080715827385 0.0568019100694454 0.0
0.100804879396037 0.0701592512954375 -3.67803984747923e-016
0.0976086799946701 0.0816061391381747 -3.67803984747923e-016
0.104229830663251 0.0991201343923796 -3.67803984747923e-016
0.102822075361634 0.103809170344237 0.0
0.104473588615382 0.117423611235391 0.0
0.0992010000845148 0.120634917049264 0.0
0.0996799969262498 0.139880289499541 3.67803984747923e-016
0.108851125243776 0.152619441540235 0.0
0.101651976789063 0.152376485398446 0.0
0.103692445817565 0.169904153387182 0.00409923403682654
0.104063359233721 0.167431156198075 0.00326113955622052
0.10155129118948 0.186887587223704 0.00994188477171413
0.106789049673948 0.194428902114467 0.0138619100179182
0.10990084871654 0.191832920759192 0.0135653171951547
0.102980032624281 0.209131292511906 0.0185009549241133
0.108194336703415 0.210585985967737 0.0201576548978215
0.105557273416356 0.221282461330292 0.0235614442727966
0.106586552138412 0.232428428267271 0.0279173836509447
0.105626645180956 0.237046310655497 0.0294251186962468
0.104494188912436 0.246561219606288 0.0327128207109088
0.109953883460254 0.261621582278584 0.0394701573784523
0.111028625632287 0.264406727703625 0.0407337448645715
0.112513071223323 0.269216006802823 0.0428361042617015
0.110847320933319 0.277235332085842 0.0454546660434183
0.105692278023137 0.288087105195168 0.0483766922362535
0.111072968026949 0.297532760093574 0.0530338968160867
0.111226641821683 0.313252620591416 0.0588993087488649
0.110465903070515 0.316990475617662 0.0606095450205913
0.108169407541315 0.324687006054346 0.0661267279956931
0.112324143416818 0.323997026180207 0.0676065665258752
0.116094868469988 0.334696677123736 0.0787581791493328
0.114606070861112 0.343234899757947 0.085408146093957
0.114023806873936 0.34610728935922 0.0876045923335188
0.107792834939798 0.351985786069283 0.0895800481256961
0.116400736225964 0.358598205921122 0.0996105948096348
0.111895562644629 0.363237166963323 0.101375478879611
0.108093643117592 0.373715308994118 0.1085489081258
0.107934011262659 0.380174713888197 0.114063140769153
0.107148578486761 0.387957420357374 0.120410491752038
0.112299165387329 0.389959013667483 0.124719246986809
0.113497463687885 0.401487600499879 0.135302521665699
0.114855679983427 0.401175692124486 0.1357115121916
0.1180170560896 0.408899350550203 0.143981144397936
0.115208369213967 0.4166067392379 0.149251633438723
0.112104685913193 0.424991992804277 0.155847469721782
0.115857272086104 0.433489199812814 0.164344738121369
0.114962233097421 0.436686467169894 0.167542028578226
0.112966735595335 0.440666675513027 0.175586597137369
0.113623232099145 0.446832732820098 0.189615722658495
0.118961363719926 0.447246534343437 0.190557211396381
0.113634185167731 0.45371641312169 0.205277597044195
0.118127992795028 0.456538696441347 0.211698907287657
0.118539189732415 0.460240713207377 0.220121803038624
0.116802397210882 0.46481287978228 0.230524479431085
0.118206176744471 0.466442180223537 0.234231493372687
0.119196328291822 0.473965874425649 0.251349539003397
0.117173714766382 0.476811840405942 0.257824732466263
0.120957882023632 0.477966409514485 0.260451629061594
0.118839382416983 0.4822310549283 0.270154627725735
0.116927015972051 0.485489199574228 0.277567617571175
0.114946697483334 0.490714060102037 0.289455315094027
0.115261269102639 0.492858688392227 0.294334812312571
0.121538352383557 0.498198895395886 0.306484948231229
0.107433898950361 -0.00871395064311321 0.0
0.112850071933076 0.00338929925372277 0.0
0.112751411227187 0.00691157426579234 3.67803984747923e-016
0.109754566791304 0.0180975187222279 -3.67803984747923e-016
0.11318045495236 0.0344637273139651 3.67803984747923e-016
0.107465900031336 0.0354057765022184 0.0
0.108482581998485 0.047201679556017 3.67803984747923e-016
0.11293321512221 0.0638183838861891 0.0
0.117425425115863 0.0655007160852242 0.0
0.10877551591284 0.0807644505854212 3.67803984747923e-016
0.117057887081555 0.0981318069942208 3.67803984747923e-016
0.112626954744159 0.103150674593898 3.67803984747923e-016
0.116354874708699 0.119569636648937 0.0
0.109324842462876 0.118881493490281 0.0
0.119630230014902 0.133368338307354 0.0
0.119277846068849 0.149857574816903 0.0
0.110814605502569 0.154117700045963 0.0
0.11968126008715 0.165427037247706 0.00586310767621447
0.117769615688184 0.171411012360064 0.00767382593407637
0.113318711276491 0.179468938060367 0.00971009453924689
0.112638135037213 0.185242764439499 0.0117065521910153
0.120988952145036 0.193959760008654 0.0167296429768359
0.116355502024235 0.201538323845243 0.0185489517933602
0.116968790085321 0.210993530821501 0.0221884631115164
0.113596529107765 0.21987663766915 0.0247619551866912
0.118159130164032 0.236769794510297 0.032007139335498
0.124074875430923 0.235524485440154 0.0328123229115081
0.117333831504255 0.246688892811767 0.0355106035380576
0.115175898420817 0.255116836470693 0.0381753420475647
0.11638358565792 0.263617546012669 0.0415880367870474
0.123704201612044 0.274432413598702 0.0471688127674146
0.123063699165823 0.281696939391612 0.0497269444976418
0.121795122288108 0.289011753890443 0.0521691932694652
0.11680682580623 0.298130026080753 0.0544837629512461
0.121960852440541 0.303851629030924 0.0577106894760534
0.122277775736231 0.307126692651678 0.0589937155367995
0.118294139707418 0.320030013241437 0.0671560274340046
0.123373723793464 0.323056999995757 0.0723173041923711
0.126807696731298 0.328790629374154 0.0789998076386023
0.122361011047055 0.336543751702117 0.0834908981383665
0.120339645897388 0.346130897662095 0.0907829801984844
0.127684658515321 0.349947115826672 0.0977604787953768
0.119499616927017 0.359796817733556 0.102198082133078
0.125804340041118 0.358755497356114 0.104448650049686
0.119074040554521 0.371524178066879 0.112141557754426
0.123451973488163 0.379096839639495 0.120888704713765
0.125692311929481 0.380438222928031 0.123170562424469
0.118817269672155 0.39324688496917 0.130825723318915
0.120850769854994 0.396048486351376 0.134268756253819
0.12562227675435 0.40401409713478 0.143552998075357
0.119441377185543 0.410284964131121 0.145893295321713
0.124921910314909 0.42081918919532 0.157756554110826
0.123930449552273 0.420171211131005 0.156699650628802
0.127327431095594 0.429201623934935 0.166218777069093
0.122686992981321 0.437087570174802 0.173779528843547
0.127061544921271 0.438402621248208 0.18134723115923
0.126587310265612 0.441335776970643 0.18658721792563
0.128384080005227 0.446449295491511 0.19870689961233
0.122594747580632 0.450586273087628 0.200272389584295
0.120873340453636 0.457762492801265 0.21448331098204
0.128320278996635 0.45782100280306 0.221041093795157
0.130976019376454 0.45833374954171 0.22507260264896
0.131051778005521 0.467342637793577 0.24290987021681
0.127992664101326 0.471502498222225 0.247626369817381
0.122696296381123 0.473371645913633 0.249997539505479
0.123075517800314 0.479728633518312 0.264461073105796
0.124129777483237 0.482483028592212 0.270727922780093
0.127771573089096 0.48706247064374 0.281147152469047
0.130103031857008 0.490494545542287 0.288955871582706
0.126830371158167 0.494715194336175 0.298558768338493
0.122525460978194 0.497907348343048 0.305821615083988
0.117716013692896 -0.0163687276516046 -3.67803984747923e-016
0.123226085414421 -0.00424955224904757 3.67803984747923e-016
0.12024302358712 0.0100546419822522 0.0
0.124806594753842 0.012300489606135 0.0
0.125280141621298 0.0338315585578203 3.67803984747923e-016
0.11750886651965 0.0391593328117803 0.0
0.119447845295553 0.0476960634536903 0.0
0.123536509282108 0.0639661378312143 0.0
0.123499089404429 0.0675927000266937 0.0
0.11843499905408 0.0887431858923439 0.0
0.122112047860083 0.0979351194157421 0.0
0.120903961665607 0.0996166860415327 -3.67803984747923e-016
0.121544109783124 0.107960971099542 0.0
0.122185072305702 0.133251079400253 0.0
0.126318473858834 0.138897472698502 0.0
0.127063263234891 0.142009827814298 0.0
0.122905490516446 0.156425006146571 0.0032137814874021
0.121765920442197 0.158080010105262 0.00358372246809207
0.127533042261814 0.169231304274395 0.00895654385836109
0.124681110146536 0.176423769322368 0.0110142231098625
0.12441623453147 0.187060575496972 0.01490402598064
0.126794448069107 0.191476942592512 0.017052060719406
0.132131901591801 0.202067780978065 0.0221248975247728
0.12359866899017 0.219329013083741 0.0267013555842131
0.125013893499942 0.217870914053981 0.0264635202938917
0.128027900823165 0.228257223094133 0.0309627598428271
0.132869574542436 0.234511133477978 0.0343202768959088
0.128888368256298 0.245001442130715 0.0373596405465936
0.125706533230865 0.258568667071084 0.0417118586526805
0.128401460774803 0.261320461214204 0.0433101359565194
0.134176403609027 0.269027084102246 0.0474065665681168
0.129315146646693 0.277676790907498 0.0495744992887695
0.131449237652925 0.285881011029715 0.0530756357572114
0.129923316355213 0.294036550977483 0.0557746899861798
0.13234927500569 0.307425287888442 0.0632675546262905
0.135044177251063 0.307957708036117 0.0650761081887841
0.12738648805312 0.319662243326177 0.071383734061819
0.130444249370541 0.32005644802445 0.0732540195159602
0.130256384342946 0.330224040607721 0.0819655434136069
0.132900901340138 0.336702818814106 0.0888986385146305
0.136873630004657 0.33512151470052 0.0895155577705332
0.13143043153299 0.346656144723455 0.0967832936657389
0.134662117046151 0.352621175942967 0.103565053989634
0.132711170289245 0.360892395182336 0.10975271129732
0.130615486766662 0.363938989458145 0.11134330906565
0.133636744795958 0.376494270440202 0.123727219833667
0.130923978531097 0.383658992202245 0.128575702787523
0.135018082753078 0.387187907548873 0.133678922106227
0.140131887370452 0.390979726844741 0.139519678449982
0.132565884545161 0.398066601630088 0.141874107645162
0.130769427762301 0.40853510225343 0.150041925743917
0.131557588644193 0.412231009479506 0.153636781704783
0.136520105629263 0.420399165038674 0.163191939447706
0.138152931216054 0.425823143948408 0.169178332069553
0.138984725473029 0.430477431506144 0.179295381704763
0.132560137413693 0.433304635221735 0.177557424942219
0.138806912063948 0.4352328412416 0.188463143302382
0.140891811960883 0.443332380897891 0.206794250722915
0.13441395984489 0.444386468127177 0.201501957376974
0.136835958253483 0.452070510743242 0.219397857118846
0.135135126436797 0.455536382457387 0.224292117664134
0.136862324836429 0.460721841340017 0.236474405415846
0.133866508178923 0.467426725286102 0.246277618530277
0.13606253933483 0.466114011919504 0.246189277394107
0.133758975188771 0.474552042173933 0.260194989050519
0.134916402903267 0.476975411394624 0.266286688088454
0.140106407514384 0.478474135183296 0.275143964880296
0.143054326385411 0.482640453615487 0.28670684431957
0.142415694611858 0.486515127863268 0.293614976446766
0.143308918109988 0.489379369328894 0.300274807595466
0.140741795976937 0.495694310178868 0.309797364894465
0.133585151518185 -0.00828925978316916 0.0
0.13185919828585 0.00365651499959295 0.0
0.132573320429891 0.00953020410408638 0.0
0.133813629522116 0.0199498303651024 0.0
0.134515446366374 0.034700793414779 -3.67803984747923e-016
0.129454717932649 0.0486171055146444 0.0
0.137158024286804 0.0523268083625778 0.0
0.136112747251321 0.0558388018959846 0.0
0.128301217061789 0.0774529879098028 0.0
0.131996905744993 0.0906320216289539 0.0
0.134644089130644 0.0973466653446368 0.0
0.133321510861595 0.105955628550071 0.0
0.13735601176642 0.109436625717475 -3.67803984747923e-016
0.13059515666043 0.124453133529068 0.0
0.140233045678293 0.134328820463185 -3.67803984747923e-016
0.136875337522174 0.142855369272616 0.00117159607545685
0.13769387841596 0.159610146032823 0.0075634127889873
0.135934947476729 0.156761771864483 0.00612980390786882
0.137692619787447 0.170698657608859 0.0116772806387889
0.140482616517035 0.177084675544436 0.0146443181981713
0.142289336696896 0.187881249075895 0.0190371608998314
0.138769891535123 0.19783404969611 0.0219760095734607
0.138180920078634 0.198885270868339 0.0222398759585466
0.141101416375318 0.214493650181259 0.028656613470397
0.138821745482887 0.215594435847204 0.0285767005798338
0.143210064994176 0.224294946815234 0.0327448584072452
0.145016468327762 0.234093584504412 0.0367673720695648
0.138767720732205 0.243837104560648 0.0390439211562173
0.141310119393912 0.251694114121951 0.0425036977483643
0.145048933654442 0.25885038669453 0.0459597692198625
0.13768500205184 0.263681338326366 0.0461747362449043
0.146089538698426 0.275167303294944 0.0522366969093705
0.137032311499197 0.288074501197554 0.055085444390435
0.147762280531651 0.291983739444366 0.058834371486556
0.137718833749202 0.297884480365981 0.0588722734622368
0.141312927809424 0.302160788976986 0.0631901906737024
0.143865753435389 0.308813092920563 0.0702277185402368
0.139182726135928 0.322476691536141 0.0797192969734479
0.144130485723603 0.32894680838955 0.0877965206841013
0.141858330212237 0.330679585449759 0.0881610745154821
0.144426692588491 0.339150765714664 0.0967815752944318
0.142058272984605 0.345284316248907 0.100909205891837
0.14647650745731 0.346779289966732 0.104413033660264
0.146346464407592 0.361314806177506 0.116936228908613
0.140379348214855 0.365652186266246 0.117708957737772
0.140515962240349 0.368441322424457 0.120192745463009
0.14420177253259 0.3784953874704 0.130742802572249
0.150650432473016 0.377212133132969 0.132855816952832
0.14402078975029 0.391495574290946 0.141910883908769
0.151650248911775 0.391950951401063 0.146120012045275
0.150261941318719 0.405966639246116 0.15756388265373
0.146371922009717 0.408848882461762 0.15811497282538
0.14711933490093 0.418602833584867 0.166935912460374
0.152647517754309 0.417667774422752 0.169598191914811
0.1461993664691 0.426614321688437 0.179890963873282
0.151205590787896 0.428331071954282 0.188968769191975
0.146449406942238 0.432280558372803 0.191340146363622
0.14592112623919 0.440272510401104 0.206486485504988
0.153641709183221 0.439169128066045 0.213095389806187
0.149342744468971 0.443000794340602 0.215754751186571
0.147194156991328 0.451402899683991 0.229865979380779
0.154160565092369 0.449972998074721 0.234973555028126
0.149855267069217 0.456965625138274 0.243854058350013
0.146321546882496 0.4608486289239 0.247485124114316
0.146473986408123 0.466587448719362 0.258966292404906
0.149033536985645 0.472242943684565 0.273021629104734
0.153439860089915 0.473200840222959 0.279921738460953
0.154446774520637 0.478336133345175 0.291185778181976
0.148490100611231 0.482623621925692 0.292857465311907
0.156310878732599 0.484750221096142 0.30594469752093
0.134879313670126 -0.00237705805263091 0.0
0.137355767890439 0.00199840120737115 0.0
0.139824146937777 0.0125845963119218 0.0
0.138347782634216 0.0238297908726197 0.0
0.141229835611241 0.0311569903176395 0.0
0.14599553036229 0.0422025002647364 0.0
0.143099715350983 0.0497527607122508 0.0
0.138514055083927 0.0617767177508024 3.67803984747923e-016
0.139434918471597 0.0742364922705728 0.0
0.138809722764071 0.0832801929191768 0.0
0.140248518327533 0.0865371402682432 0.0
0.145895018808055 0.104989213702183 0.0
0.144872210862896 0.123281691360386 0.0
0.14164120163082 0.12541512736329 0.0
0.147900799552334 0.137754313688827 0.00323187479150846
0.145374653878408 0.147451155023895 0.00469741704547289
0.149349885620904 0.151025832480811 0.00687526352813085
0.146489433891533 0.165784748436455 0.0117384755428577
0.145314119401501 0.168467514203886 0.0124820870274924
0.14416136924265 0.175329054642959 0.0147809704104672
0.145238121577534 0.184385646676488 0.0183718646774804
0.151263625503797 0.195360605688578 0.023734609649676
0.146875625608882 0.202926861104343 0.0256019302289258
0.145345905172489 0.209868329141417 0.0278497171453098
0.154978996283652 0.218211201493475 0.0330086772945699
0.14759008774491 0.223638838048537 0.0334396801783984
0.148129124622922 0.228905897724065 0.0355093701270325
0.154090565396679 0.243945513833311 0.0423664895989552
0.155007556058592 0.252822318637568 0.0458564549893068
0.156393905845392 0.260649657136241 0.0490575826346173
0.149281601226857 0.264519669657313 0.0489699169386332
0.148741245998607 0.277742477867297 0.053760185260527
0.156595438243583 0.276910661609709 0.0551340255204931
0.149030505213387 0.294897844240929 0.0607590671635993
0.15830664396964 0.294218339033167 0.0648086970275575
0.149706641144922 0.304404225715421 0.0693299649073485
0.155529876938084 0.306471149229887 0.0740316250436827
0.151912087583688 0.318526275241359 0.0826628380970124
0.153761585417161 0.324314240047021 0.0886001544675733
0.160804613371048 0.329847729859925 0.0969138712590008
0.157381329281444 0.33485749592743 0.0995408328749419
0.151148888274762 0.339468307999042 0.100417699092874
0.159856105698709 0.345717202038073 0.110183079341107
0.156747831407774 0.354182306185603 0.115959979170016
0.154409175264963 0.362013826417186 0.121572987122262
0.159884284883082 0.369716422689913 0.130981253951428
0.156749700146452 0.374261454393183 0.133350091613523
0.160968173607822 0.375889560379756 0.136869334914456
0.1614291513888 0.386934695890446 0.146665262519045
0.161835089942328 0.392013482228509 0.151266623028865
0.155991522969218 0.397879943755186 0.153425359851174
0.159170863609726 0.403836877680682 0.160173935036666
0.153734888973894 0.411918091818724 0.164454515382044
0.16322468954831 0.414523970936093 0.175436338475549
0.157932744660862 0.42265762689351 0.1854427029591
0.161102766411612 0.42357517149097 0.190856875341832
0.165407561942418 0.425904934013343 0.200344606244262
0.164938468257043 0.42894120321331 0.205793615883054
0.164744833699862 0.436718615864282 0.220897923832039
0.165043263728686 0.438333241444488 0.224418873489142
0.162106458652922 0.443241100539708 0.230748366842409
0.161412962885983 0.447347504967358 0.238050685579118
0.166386744538507 0.450577187947218 0.250072661483704
0.157226430128901 0.458320915449817 0.254910019937981
0.161545599162077 0.462935278862852 0.268915672369011
0.16230003380638 0.46492958976775 0.273703507734211
0.166185067110436 0.466836368028083 0.281880266514793
0.165986197927918 0.46943903930972 0.28678232608466
0.160559987205812 0.479500167627421 0.300433833752905
0.159578781273723 0.480915194446371 0.302105769181353
0.150252071129318 -0.0140999804699058 -3.67803984747923e-016
0.145066121195712 -0.00135538026271984 0.0
0.154288358847485 0.00210026780051582 0.0
0.151392357660802 0.0167217908264803 0.0
0.154307518858377 0.0281198745130913 3.67803984747923e-016
0.156423801875021 0.0433924111635564 0.0
0.155558713674085 0.0473326604062705 -3.67803984747923e-016
0.156031473468413 0.0619205041365295 0.0
0.150922932109956 0.0668278762829162 -3.67803984747923e-016
0.156399710790649 0.0885723070029208 3.67803984747923e-016
0.149579531440093 0.0942944450782524 -3.67803984747923e-016
0.153739849255745 0.0965083842722654 3.67803984747923e-016
0.150521873016814 0.115614631555248 0.0
0.159343182717634 0.127797862755696 0.00534451140649648
0.155030997149592 0.133099237118723 0.00488019495914376
0.15499360877372 0.139659344920067 0.00627158030049152
0.153938878367571 0.145812329424938 0.00719829333407665
0.158059971960933 0.15892014639465 0.0116700771661006
0.154575357784481 0.166594910808075 0.0137711740769368
0.158408290678871 0.173587587713117 0.0171867085274062
0.158067988251284 0.184182718349646 0.0210448912772042
0.156275521379345 0.186998534711793 0.0217056663409581
0.164415994034948 0.200039623072212 0.028288053989671
0.165508360748695 0.201745120311971 0.0291548382194267
0.159554504492218 0.212125552215521 0.0317308682406608
0.157698008274062 0.22465601801515 0.0359823248962442
0.164399329433705 0.228334192694972 0.038782534219028
0.158627628974289 0.239979047761229 0.041866719463209
0.162325912992794 0.248837220384738 0.0459455597611586
0.166107524711137 0.257809425854288 0.0500845591660571
0.168204087776037 0.258770209943875 0.0508901461550499
0.165036137848524 0.268567459136241 0.053846575736592
0.160892282480896 0.282296329766275 0.0580526919286363
0.168813388198304 0.291562112662613 0.0677617309618628
0.160455181106906 0.29520611833929 0.0667384215104952
0.170454224362967 0.298953781494955 0.0749835742057228
0.165350367703182 0.307137118893075 0.0795186567153968
0.161431296655421 0.309227244048956 0.0793692215939604
0.171408936886584 0.317793988802309 0.0917771499384588
0.161925485416439 0.329612564373849 0.0972706505743195
0.163067451923836 0.3366579232855 0.10394314183169
0.163872300185776 0.338960184797032 0.106339400230283
0.164468054133411 0.342719308724578 0.109892799693923
0.168140793395877 0.353856046601379 0.12137395019075
0.171917622568171 0.358030435752768 0.126877531589546
0.166924536488931 0.363901300250134 0.129465325043106
0.172027575887645 0.368457518919706 0.13596269279768
0.16812421768404 0.380941289546473 0.14482234020284
0.167794517629505 0.385117505283113 0.14827422403435
0.168299708689876 0.388490615178175 0.151448041353606
0.172839276824018 0.399513122377446 0.16326368203426
0.169442092675938 0.396969360428568 0.159362099303164
0.173351167309442 0.408266754971265 0.174627113678143
0.172756670590691 0.413555354975136 0.184371448916638
0.175380240197516 0.416310761939987 0.192785290361219
0.168991505252966 0.421268657751683 0.195286429145325
0.166509366951491 0.425350417428513 0.20050541196342
0.173482505657778 0.430061469715976 0.217720759825169
0.173856337063339 0.430828958068873 0.219658290358635
0.175775355071594 0.434564031440519 0.229200958984412
0.17618863915902 0.435392841749925 0.231304199828854
0.166656730261717 0.444437719279252 0.238282610766141
0.168499435471219 0.447575790493749 0.246562134167006
0.168666013948575 0.453894128252237 0.25920126735104
0.168393756886149 0.457805205606953 0.266597919237632
0.170861288779768 0.460863485630143 0.275431030844121
0.177651279150781 0.461821644949294 0.285043339501386
0.177321787065734 0.470356727949273 0.301486005864167
0.171867820541477 0.470970408718762 0.296490718617061
0.162589630876232 -0.0116906611743192 0.0
0.159952572975522 0.00672029812642262 -3.67803984747923e-016
0.156488782717063 0.0107902012209082 -3.67803984747923e-016
0.160657902976102 0.024812563241144 0.0
0.159842096789586 0.0334114420204689 3.67803984747923e-016
0.15960598633192 0.0356105823143758 0.0
0.165621967822122 0.0578652799600081 0.0
0.166745697353175 0.0597472806494838 3.67803984747923e-016
0.165249967348904 0.0709340531424498 3.67803984747923e-016
0.160580923512232 0.0894541645886663 3.67803984747923e-016
0.164602961468316 0.0976531768515471 0.000838661346537994
0.164943428887791 0.103214169609252 0.00215621841547598
0.169473039095093 0.106775901750898 0.00459979395065571
0.162730537991173 0.124911796395241 0.00598308011407081
0.171968716128947 0.127360923660355 0.0099353276704566
0.162556116127121 0.141696876201509 0.00951393968414259
0.162495195711937 0.139225409875106 0.00896191745261338
0.167617631345255 0.160038705015183 0.0153209485929464
0.167618501507624 0.157394846426799 0.0147549237490574
0.165257064093954 0.169973774348116 0.0173129793422713
0.170532661533248 0.178483060746601 0.0216002537565641
0.174561521695891 0.184794662364116 0.0248050609494819
0.167073301715283 0.199119194016807 0.0285157785973101
0.173428198644221 0.203665611175194 0.0315639209252244
0.167175547943157 0.207423429792114 0.0316187769189838
0.17618815362834 0.219405037663322 0.0379948905162472
0.173387471819413 0.229194600963563 0.0410271418653686
0.167890720591233 0.235416586842314 0.0421581936636519
0.175780215922956 0.246551494022122 0.0479795740861904
0.177871638864914 0.255735225341803 0.0518349956453925
0.174880006934603 0.261059810097219 0.0531697153745235
0.17913683364447 0.268253121269384 0.0567504939366329
0.175214259202886 0.274260007876312 0.0581389465200967
0.175668443348973 0.283093151040372 0.0638548944025553
0.172355255435228 0.291874418639794 0.0698031442391153
0.171642767375704 0.299540030725965 0.0760855604007235
0.174871954557248 0.305437801155856 0.0828078215764485
0.177189519389349 0.308297430888044 0.0864431422504495
0.176684906955527 0.314797702413952 0.0918202751551706
0.174591001582408 0.323736419075167 0.0985145265390689
0.181456470194219 0.330050819316085 0.107415756172859
0.178315872546589 0.331255237703083 0.106888510459726
0.182483695765673 0.341158633909395 0.117549091788225
0.174888588709215 0.34726908294838 0.119043353152024
0.183417231470427 0.347309603276575 0.123342797228831
0.182524652069129 0.358961177389982 0.132987136382874
0.181001420396873 0.365209588767517 0.137636837126135
0.175821028632905 0.379161229953522 0.147129185516018
0.174850564895055 0.385068857338307 0.151760142496138
0.185634003293669 0.388054259695441 0.159737353610981
0.184690365751131 0.395278425246539 0.165521887520196
0.176487583998198 0.402248637022189 0.167456891091211
0.177196790146725 0.407816542760167 0.178114832459644
0.178385494524698 0.410700028515138 0.185148724223877
0.183268008652839 0.411481049713901 0.192242038222052
0.1850964181457 0.412140436604843 0.195621307224462
0.177448232623743 0.422359700346848 0.207056665713375
0.18048471643381 0.424342279769366 0.214417465248837
0.18552013672594 0.423438212635122 0.218364434162526
0.186354377870762 0.430335233924294 0.232903342588177
0.183333034310619 0.438049527628685 0.244666453743534
0.185566498858781 0.440753849594995 0.252535850418899
0.17870770891344 0.445807870496416 0.254691654929034
0.183585500032361 0.448303795708913 0.265158637233103
0.189783808278574 0.451481406855568 0.278471043536084
0.180109481415572 0.454880289629063 0.274162588953956
0.188628985518751 0.454837568575188 0.28377027672709
0.179136753531169 0.466170821040095 0.29530283094458
0.189967808849811 0.465145848107008 0.305604734480732
0.168830928966582 -0.00937530651684328 3.67803984747923e-016
0.165939353584053 -0.000156289172569721 0.0
0.166861479961631 0.00857695401029832 -3.67803984747923e-016
0.171935201603968 0.0262165913670741 0.0
0.168378989123684 0.0326274429214736 0.0
0.167571825148051 0.0416007438502144 0.0
0.176910312832417 0.0538820785195241 0.0
0.170306509342175 0.0637080737074346 0.0
0.176013223708202 0.0719223002713311 0.0
0.169580095274184 0.0850678710154029 0.0
0.174403599331207 0.0885992792572135 0.0025355043406592
0.174993527822977 0.0975067214980261 0.00466246969597724
0.172203650970689 0.107046207802603 0.00567082770119595
0.173616499354949 0.116018487676735 0.00811700761114738
0.176208841697213 0.124797787608333 0.0109594729294229
0.176204339800348 0.130415573521188 0.0121612028658877
0.178011925745082 0.141692322723951 0.0152474873365281
0.173814963334934 0.152680541109265 0.0160441151704666
0.180512884601175 0.153827128102889 0.0187748382998205
0.175588644153594 0.168618631003386 0.0201163376123309
0.17785880865908 0.180152505203141 0.0237890154455144
0.177325709694623 0.183526644156389 0.0249267156938029
0.181149473640781 0.190086011412067 0.0281795164502755
0.178065584163941 0.203869340002016 0.0326328960166043
0.182157994367401 0.214020834472554 0.0372760204483018
0.186878861870381 0.221085599390264 0.0409085082389504
0.182798656437237 0.230394135094691 0.0434881953281632
0.179607692840056 0.240059204325246 0.046390652754755
0.179705117447265 0.239453421872176 0.0461867606671028
0.179005783530261 0.256133922583282 0.0522258711209374
0.180034483834766 0.265481398854964 0.0559143979534081
0.187994171177178 0.272355090496739 0.0607183024372525
0.189199001855376 0.278993194501618 0.0670695303638808
0.190920814217992 0.279331414278693 0.0682233518003234
0.180990712174656 0.288273964730071 0.0710027967251012
0.188685779622005 0.296164539759285 0.0816838460429676
0.18313512630547 0.300735888847803 0.0828674323760961
0.186845776546574 0.307054967500481 0.0901952930806921
0.188398992855982 0.311041898753722 0.0944247155405684
0.185080329921548 0.319511590630691 0.100100393406661
0.183611144583381 0.330342379392157 0.108745601407912
0.184893314670396 0.329540083048842 0.108691877048597
0.186328638565577 0.339020692108209 0.117620051789208
0.188941548128075 0.344704362984244 0.123848754936977
0.18770249498611 0.352789750772943 0.130231425703963
0.186500525662687 0.3554705671503 0.13195210855951
0.193080894061291 0.364115092512626 0.142728749185299
0.189410795216539 0.371751433415562 0.147506999498717
0.187034294520213 0.380597708747064 0.153979895081869
0.189459267680504 0.382738708648453 0.157046564122183
0.195532203586861 0.386040621560973 0.162942615136466
0.193201652485944 0.394693174528692 0.170463867408835
0.197353170405983 0.396024975223629 0.177810847598361
0.1886416682074 0.405366122943978 0.186306330455446
0.195173435407264 0.404655791309677 0.192337292987075
0.196374747503439 0.408738692109079 0.201748850875632
0.189564718483772 0.417812772801896 0.211881238885222
0.18895922737247 0.422201787566402 0.219840526997809
0.193871252768909 0.422867855771555 0.226740910281083
0.197535838140865 0.423839318920528 0.232823943665407
0.191868732233454 0.4330839293791 0.244592542672712
0.197927559431 0.43304694404159 0.251412243699652
0.190613892375933 0.441830255020066 0.260398756817294
0.190093729359297 0.446060492613368 0.2681422609275
0.196367103972593 0.446480686374786 0.276106857239055
0.194782965918932 0.449608843104005 0.280468437169714
0.196423613818216 0.45615283878593 0.295229120740182
0.19812804788302 0.459558308599554 0.303878226954474
0.17934798287087 -0.0173410198830532 -3.67803984747923e-016
0.176190743828583 0.00870711543062131 0.0
0.176424426297644 0.0122446645529768 3.67803984747923e-016
0.182688804528371 0.0225624403705426 -3.67803984747923e-016
0.181310834823812 0.0306033091723001 0.0
0.183606862938647 0.0371787363427308 0.0
0.179200674185012 0.0523433032748406 -3.67803984747923e-016
0.182703192509656 0.0616971051867508 0.0
0.180409338413894 0.070510122999219 0.000888871505290531
0.184176751531647 0.0762976400116539 0.00352644238103657
0.180043578606266 0.0843449035998127 0.0037167484027744
0.181360642988918 0.0984662095317826 0.00723037587618978
0.185130822861715 0.106047498176756 0.0102532216935003
0.18872587603723 0.10851083845192 0.0121147619875371
0.190860150941983 0.117578215925736 0.0148489817328792
0.190373157718363 0.127131007394532 0.0167146219333931
0.185192764159579 0.139651693482385 0.0174746440525257
0.185632790177125 0.140558615445874 0.0178321796658734
0.186115264838136 0.157890528505832 0.0217239041467626
0.189859929881472 0.162098434615243 0.0240146623880518
0.191589797184983 0.172806901982878 0.0269503780397852
0.18944301858258 0.180044924729796 0.0277043404915417
0.186593115826411 0.195616201107565 0.031397462771218
0.194274250872543 0.193010775238435 0.0322743061736617
0.1946940032637 0.207585460567428 0.0375736932807745
0.197685640230744 0.218417755365333 0.0422336135875794
0.195070702056531 0.221439580510874 0.0427946398000776
0.189565092484433 0.238738279313596 0.048033553874948
0.191772076161408 0.242529455166881 0.0499129461813467
0.194222183208535 0.252941511291014 0.0543009440765519
0.19916286460846 0.258536997863358 0.0574353767895654
0.200925423151978 0.265026944931758 0.0608375690644257
0.201231753023274 0.27602626982402 0.0705164987095644
0.192978631749083 0.281152251362317 0.0708291705629547
0.196830169660822 0.28491038288433 0.0760096143153113
0.19684696616653 0.294247622870441 0.0841043580802584
0.197542832317628 0.299351550467041 0.0888724565620876
0.196118112052242 0.303300974267009 0.0915804173349478
0.195708881050763 0.309915389657764 0.0971040935012307
0.19357943792325 0.318028928356349 0.103065945638215
0.201058479699803 0.321105477759468 0.109469882732743
0.196046813925931 0.327520195099713 0.112519380052557
0.194927151413729 0.338704336804422 0.121645365565663
0.200328918813397 0.340191935611116 0.125634576443977
0.201697300541334 0.344858352808777 0.130360037286276
0.200122330358807 0.355244126231644 0.138566955110489
0.196743842888252 0.357408082343436 0.138751753675831
0.198996206525779 0.367289550963094 0.148435608309811
0.204524509830795 0.373010571888802 0.156154365186024
0.20700329554434 0.37746034453705 0.161247410993472
0.205689053017275 0.383427806939173 0.165758296356544
0.201064765143921 0.391588656851077 0.17329188429076
0.204265372132688 0.393332127435009 0.180368252572713
0.207515803090277 0.396838733006361 0.190975376450251
0.205443836445375 0.401131436948549 0.197076618156506
0.208051448507898 0.404022980359265 0.205740548960273
0.205794160300096 0.410052044538134 0.215052285689818
0.205682218972047 0.415628111506768 0.225912004285356
0.207702078001427 0.415958740779053 0.228861285084727
0.202919501027038 0.42353419905138 0.238347240241698
0.202567357822969 0.428822125163746 0.24836595120468
0.209948244865188 0.428293353787466 0.255720625913172
0.204301073503567 0.435431243784892 0.263360827553774
0.209423240640625 0.440339064421804 0.278858205067862
0.209104861411056 0.440929690334268 0.279659781327203
0.201086559622943 0.44740296251238 0.283293002701025
0.205351990914162 0.451069807787604 0.295370535958002
0.205902726275038 0.454766639339339 0.303281282267975
0.192091610776736 -0.00573094812114898 0.00114484656505923
0.193850119958318 -0.00365926605892791 0.00189823604712182
0.190741760511498 0.0135801061898055 0.000566536822443664
0.189651594231761 0.0210179392460655 9.94822187743195e-005
0.19003204422651 0.0337762870338693 0.000262476548002618
0.193835865623553 0.0379490413298692 0.00189212913224249
0.191054186268057 0.0573569354969379 0.00202081986497545
0.188739603296099 0.0596600896174112 0.00165541155413507
0.195195162900832 0.0705629179601678 0.00638612132300783
0.195485002126915 0.0712348947259224 0.00663760536730529
0.191054006716495 0.0779023458760039 0.0064218380535435
0.192015356350246 0.0986432957010449 0.0112214965592799
0.195122485096511 0.105423401128548 0.0138267089872342
0.197072053378199 0.108645504571653 0.0152402665113488
0.201777776772622 0.123052494201455 0.0200723750915066
0.201397983018834 0.126050947837065 0.0205737677527982
0.203466191141382 0.12631931326064 0.0213986161024647
0.19431436987737 0.150384170761296 0.023158037643472
0.199978029734046 0.149004764913774 0.0249639224637363
0.196636758647583 0.163700651290076 0.0268722639295225
0.202454273368753 0.171920753970254 0.0307915682904805
0.196424348369854 0.183873453749051 0.0311147214893256
0.206411417776185 0.187954988651864 0.035694510152668
0.197479236987708 0.206023857803696 0.0375909284791789
0.207367301799585 0.21212442453173 0.0419725512105374
0.20887158975942 0.212005021298627 0.0422504867482887
0.201574442451677 0.223805454256394 0.0450656257310943
0.208058523428043 0.227634896630696 0.047875423882323
0.201952495639495 0.236611583408685 0.0498980294731362
0.205050951644406 0.246256770594237 0.0541403827527475
0.20671436649371 0.25801477239519 0.0588592435244712
0.207333106989417 0.264143635012926 0.063276459774515
0.206667262629248 0.272162296327114 0.0698879497635421
0.212553316826766 0.273151496781056 0.0736876770371115
0.212618179070413 0.285409098919178 0.0843355799289799
0.207942967270487 0.290428447519971 0.086344871944483
0.208455179768708 0.29368616568646 0.0894222671177026
0.208784359440008 0.304597769497765 0.0990366525119661
0.208093247010176 0.310345720856196 0.103669001660956
0.207171514817322 0.309838393564603 0.102768770737989
0.214436533272215 0.316511472889643 0.112180404179542
0.208116437757467 0.32628032080209 0.117480465171924
0.213328648748879 0.331625573832765 0.124715747855307
0.209442232988637 0.336738981056071 0.127200898485174
0.21409453636765 0.345067489596299 0.13673981906293
0.214987496709658 0.349700668020125 0.141198781664337
0.209081360642014 0.359482782060321 0.146717312762314
0.211386025476735 0.366071530277239 0.153575718065259
0.207988301762458 0.372898154159802 0.157788916352008
0.209793692475868 0.380293436872566 0.165096167199547
0.216408593470924 0.381733123501703 0.171327852081302
0.211086440221782 0.388246100615125 0.178106470979754
0.218191092984223 0.385875823873776 0.181518402932756
0.213082550582079 0.393525311053671 0.190779403177063
0.215618164434786 0.398519436506165 0.20350434892282
0.217077657936786 0.402539489474134 0.213085781161181
0.220262069610387 0.405057115139025 0.221669118138016
0.211942485909122 0.412875407357324 0.227609821548497
0.211394762264554 0.415172422238909 0.231512756747696
0.220781635617862 0.418184374032352 0.24812608901223
0.216726811836958 0.423875713539519 0.254727481372518
0.216710775049762 0.42644392763307 0.259769638404445
0.221396615295866 0.429924045691251 0.271957506008437
0.223083670699401 0.431105969482238 0.276205574309798
0.21811291495302 0.438667816657674 0.28545063632702
0.222537971417398 0.44248424910647 0.298004506706055
0.221360717559627 0.444398486038076 0.300437058203411
0.219827340085949 0.44960072814873 0.308943154863516
0.202893130225068 -0.022551285238551 0.00577248867685194
0.201756704029566 -0.00249045920021927 0.00528561516387911
0.200032694954608 0.00912351276192313 0.00454700639364559
0.201647383413824 0.0156493982019376 0.00523877946752138
0.199847523230523 0.0302170764376151 0.00446767417817452
0.202996498108312 0.0338095765177915 0.00581677407316078
0.202743130469936 0.0508593996079302 0.00570822501589928
0.201993903693154 0.0546842103663397 0.00550721940427213
0.203713794173166 0.0596730910508744 0.00721402612011648
0.204366546532497 0.0733284978001938 0.0103813744264267
0.207135365627043 0.0749215991284866 0.0117499434408756
0.210229722398978 0.0813992164014378 0.0142856203613903
0.20662964866162 0.0957526951790281 0.0160245910436626
0.20337726199931 0.111681571781786 0.0182300330170004
0.203171854734774 0.118201678014684 0.0195505099718165
0.208527273956932 0.116751538192542 0.0212268770811344
0.213371666948501 0.137277853571069 0.02742127221988
0.21199479555625 0.142649904480578 0.0280611764626164
0.21210717713631 0.147501490372193 0.0291421436652599
0.21429500035885 0.164433992774621 0.0335810397732502
0.207383846426751 0.16147348522184 0.0303826370085304
0.209662258266092 0.173260889792331 0.0337529994001867
0.213558761474807 0.187616037180344 0.0382737601631579
0.217191817864366 0.193345049770051 0.0408489486799822
0.210997540277594 0.210866600285951 0.0423040403600086
0.219179269870527 0.211411399512603 0.0454563859849177
0.218464198983932 0.217834260061206 0.046566932715906
0.211289921671482 0.229830873573104 0.0493823967417131
0.221320019940801 0.237518852118487 0.0543834175069244
0.215274253858145 0.250198262327945 0.0577927423714733
0.218668527991011 0.256499154475555 0.0623238490487932
0.21877406398623 0.254642377116843 0.0607685894481492
0.214893210788213 0.268684187725574 0.0709888013903995
0.218918636119278 0.273468760424849 0.0771451200379164
0.213484156302387 0.28406049693521 0.0836006396574613
0.22019710246069 0.283373943744171 0.086362560186442
0.224590118413055 0.292234929666625 0.0962329783858257
0.222952561980894 0.300896943755987 0.10291577270091
0.225446522592674 0.301811327391847 0.104954647194715
0.2172017710964 0.306994183301179 0.105320758973299
0.217830268996538 0.318471354520917 0.115574603845204
0.22666716103034 0.323743635606732 0.12455904412908
0.218326756955995 0.327009941474577 0.123217536257867
0.219889129136634 0.332570623470826 0.128814454655911
0.218060964241817 0.340250031278887 0.134550975901511
0.217750411265844 0.348992685741501 0.141967113854757
0.224880732692213 0.350256322252597 0.146626649551905
0.226866029023878 0.356450786457766 0.15298390701215
0.220393579725918 0.365457150432673 0.157547455331882
0.227989512823774 0.371399099955354 0.166491365733404
0.230407108588458 0.376045013763429 0.176044857168457
0.226341295842308 0.380754515147485 0.180699137764623
0.229197223411589 0.384522357121296 0.19137221035739
0.231388797659368 0.386961307836551 0.198671065604106
0.22303764208737 0.39454083889268 0.204105398357028
0.22514372764654 0.398612752094914 0.214524584824111
0.228345935187329 0.401191038744432 0.223247692746142
0.229698452875776 0.403197016742308 0.228738901612775
0.226749472649961 0.41189000121202 0.242512743028129
0.231835523586897 0.409968745349454 0.244513044488841
0.226421314804421 0.418259207925522 0.254689291702736
0.222887744066795 0.426758839894878 0.267417116513112
0.224970813321085 0.426485944552053 0.269249122915935
0.227315268966657 0.431512949625655 0.281821391247739
0.227923743361427 0.433656212998592 0.286736676362704
0.232070088758042 0.437363832600886 0.298759078025387
0.234237866211926 0.441255020283752 0.30889234478125
0.213404002092123 -0.0181075982224483 0.0102756100679023
0.205350825986634 -0.00889201193030372 0.00682542724337419
0.209588220513763 0.00680080695689518 0.00864083344171745
0.207590062232796 0.0173424209898845 0.00778477226891162
0.207871473955134 0.0258950409913168 0.00790533611581002
0.212445581448726 0.0267426796016905 0.00986499860241322
0.211912959790952 0.0354098995420493 0.00963681011236236
0.217033698997574 0.0492634834860525 0.0118306633484203
0.21495941058089 0.0641720600817831 0.0123501893636823
0.214916191527956 0.0675347394792654 0.0130544820652569
0.220306416614659 0.0713812939349651 0.0158783814939812
0.214303714296591 0.0868248443959512 0.0169594190794301
0.211442652026063 0.0887898846380152 0.0163188239430588
0.221841962575517 0.100692495221087 0.0227269377990492
0.217894440884669 0.11301617844767 0.0239021882139464
0.221270725351004 0.121043483796007 0.026874430567012
0.219123741480627 0.133571066885688 0.0287614070833818
0.214868421755838 0.139666806404801 0.0284883523886824
0.223992747247085 0.143167347552499 0.0326235835882277
0.216599713802331 0.159412934631806 0.0333605770632197
0.218862335893774 0.167202727320261 0.0358687423850516
0.225605611378926 0.170011654618084 0.0389723873156283
0.218024526165643 0.184535328506215 0.0392707530818603
0.227276291297632 0.184995887009649 0.0428020653892954
0.227223591588449 0.199828220418209 0.0459597843774274
0.21995446058944 0.206922036151359 0.04478232470494
0.226310495012316 0.223574338848251 0.0507077175207131
0.223367392503018 0.231709901998502 0.0526667129276635
0.228497190840723 0.239977407676676 0.0568330481627943
0.226110498691452 0.246957159324277 0.0589114652349523
0.223935334463403 0.252010564424749 0.0610700102150852
