ply
format ascii 1.0
element vertex 856
property float x
property float y
property float z
end_header
-0.383358883981106 0.233899676082343 0.316103271986684
-0.387463159668327 0.231645535864815 0.3280828061654
-0.388467164649869 0.230155722577237 0.327380721538964
-0.395736748627934 0.220368873169308 0.337828037542736
-0.397684622808057 0.220964623071335 0.350721199259275
-0.396417061197132 0.226225818205591 0.356077268525179
-0.40232561183107 0.210708471047099 0.35302855153658
-0.401671192640711 0.220848375284019 0.373858762767519
-0.405416637382593 0.21388726457771 0.378923214031569
-0.408032684162312 0.209699477977406 0.384101346288403
-0.405166840743859 0.216922910465342 0.394525926038444
-0.410104634680354 0.215578764103388 0.408577178700439
-0.417291518129403 0.207745642010158 0.411622865968356
-0.415429012532248 0.205525871495126 0.409746751311844
-0.433100529602999 0.195452387301684 0.414823525934444
-0.452355072277115 0.183509276052385 0.411549073337552
-0.446718434199775 0.184874376571291 0.413771212621534
-0.457623048876813 0.175325871385322 0.410434342115786
-0.0458596753968003 0.47320957055823 0.338008590618663
-0.0554948871767728 0.472903089106284 0.340726412348857
-0.0139509451346047 0.497711723845708 0.401780168366706
-0.0192088717192467 0.496586666459817 0.403542028753219
-0.0248450965839422 0.495358914995893 0.404515329955659
-0.0243701588916961 0.493494041629311 0.407728165807754
-0.0289418451463753 0.485191638961555 0.413300984537953
-0.034124323283992 0.483088069063907 0.413789617977559
-0.0461766828079439 0.474598975724696 0.414996066527803
-0.0515508961721417 0.475182439692957 0.414854997737834
-0.0588547220518625 0.464729617153768 0.413368157434151
-0.0740733585181475 0.459627275447986 0.411838515654091
-0.237019967001537 0.328113852498716 0.219938733017727
-0.24533223847255 0.325884810027454 0.226591693659233
-0.255035887181811 0.312823046281358 0.217586965023186
-0.261584108677154 0.312314326975696 0.224827938052097
-0.27403954973387 0.299348800709769 0.219363216432598
-0.275751255942848 0.30520938018584 0.230866301164212
-0.290323972946227 0.290104121407679 0.224657687427869
-0.295940772994326 0.286823418554638 0.229627424899856
-0.295730784098118 0.283214892635467 0.224850933621377
-0.30649971553496 0.27107619075595 0.227183257435914
-0.309902670044589 0.27060554781557 0.232060619739781
-0.318988153344598 0.270046910207551 0.245941293077133
-0.319043461739869 0.265288379272253 0.240175268643218
-0.323734781044222 0.266356399708773 0.249011553028056
-0.335304837837928 0.253696656546292 0.251987362225018
-0.335881018266772 0.256310013039082 0.256126601470292
-0.35004380313724 0.244192704693681 0.263927076774119
-0.350240247047173 0.244730605120976 0.264903873559404
-0.356448962247574 0.237461317749823 0.265915313227646
-0.363047686988926 0.231104161891192 0.268674359053177
-0.366714885520341 0.234942818315023 0.279277411190075
-0.377092932536364 0.218191199939837 0.275307426795538
-0.380181418952871 0.225494452788325 0.289245252780691
-0.381498202811197 0.218854402158123 0.283828355341401
-0.389702958196245 0.213291591571471 0.294846134615652
-0.393168956441258 0.205166273270266 0.295033570598041
-0.393677361278816 0.21435854226151 0.311103713149279
-0.396853548002799 0.207638518728048 0.313410537162142
-0.398334739734607 0.206832224660049 0.320150230399038
-0.403322735469631 0.199828030164714 0.332409623659789
-0.401539972063013 0.206697408217273 0.338652378324944
-0.40698637044318 0.194553248108199 0.341097030241363
-0.407208029851415 0.198967704656538 0.353141544311785
-0.410676629415354 0.194242519246455 0.362020558533411
-0.413343778503989 0.19151086283178 0.371042309373224
-0.41233531521476 0.198882712691475 0.383056683896541
-0.410934460408679 0.202998644847922 0.397922179765506
-0.414114034595772 0.200455600277873 0.405739944455963
-0.418361404104008 0.187401523155316 0.403574305706907
-0.428150170911848 0.184896422823023 0.412450292176784
-0.44199940873815 0.175305614626723 0.414879917850389
-0.444881293423986 0.171400337977368 0.414991348382272
-0.461608343523368 0.163292475252467 0.411027287701615
-0.0493056967770795 0.462401889568156 0.308757236655008
-0.0441833881362292 0.46943342077961 0.326717026222786
-0.00203597994040707 0.496472630754723 0.387430086706621
0.00194373691040908 0.498243091487989 0.404777516220754
0.000334592103374911 0.497132284042105 0.407215559033935
-0.000916825615402135 0.493678956045239 0.410632027742206
-0.0160621856019263 0.487886028929646 0.41295761681426
-0.0228030214988968 0.484369542993443 0.413861472885354
-0.025627046902335 0.478091691631715 0.414910036470327
-0.030436539074615 0.474099151689704 0.414722881165565
-0.0401540683332496 0.473689318518125 0.414817893216326
-0.0469013449065824 0.463655154632877 0.412125504430098
-0.233168539334833 0.318504654944776 0.202912475312413
-0.230614670145512 0.324865697209274 0.206849697555173
-0.243417497290388 0.306181757888707 0.199053306876897
-0.254480155473456 0.305282790379343 0.205622632870344
-0.26543260917346 0.300540569033699 0.210684503002945
-0.269158415055309 0.288359338956724 0.200723210519172
-0.283572665190841 0.285635474393391 0.209103930989216
-0.286745717209234 0.274343276822585 0.202770134073101
-0.29265102137896 0.274106419999118 0.208706024620775
-0.296836277705549 0.275327306726158 0.216918949595773
-0.303348268639064 0.263712182082646 0.213069726736633
-0.305148076144828 0.273299568901837 0.227751545392478
-0.315681786759103 0.252715201581657 0.219315495282879
-0.322384890958689 0.247518532951288 0.223669724493487
-0.327447508360363 0.250808233558166 0.23583482920798
-0.330027691764836 0.244400344603746 0.232087977692473
-0.339995982655214 0.239257209485429 0.24174359314839
-0.337788681669625 0.249436624171418 0.250728673934739
-0.349846428430998 0.225963166209902 0.241181696902962
-0.358238299104253 0.224338139151318 0.252638162844846
-0.362131087984813 0.21910255377041 0.252438347223813
-0.366162771678895 0.216951037522435 0.25625575715422
-0.372232655983789 0.208142771717675 0.258242569204957
-0.37270125143124 0.219740256748797 0.270171541515159
-0.379136826259597 0.215504392867402 0.276828073667996
-0.383405008288326 0.208800691706253 0.279612911844187
-0.392086128971732 0.193970523339777 0.284352464098934
-0.390592357351261 0.201493314843694 0.287381635638502
-0.395842771002787 0.200822341655051 0.296666471993988
-0.401176096800265 0.192521020722576 0.302017326686907
-0.403394519474058 0.194095387825693 0.318881319694969
-0.405979171678201 0.19057413093107 0.325496971921467
-0.40964202291191 0.180293848791798 0.321999205697407
-0.409523389337801 0.186573349627663 0.336583021739465
-0.413399046056101 0.180039005014916 0.343450955396752
-0.414664142169157 0.180070698374228 0.350960311752194
-0.417251252615977 0.177678275232289 0.360337351427745
-0.421872475298982 0.168276183175778 0.364606880709331
-0.417068883320285 0.186529158031568 0.380804026219974
-0.42157742262132 0.177304261130342 0.388190967702184
-0.420758877349081 0.183199954695097 0.404801319963041
-0.427055842283395 0.168605383768793 0.405271296727862
-0.429744148227687 0.169014377362978 0.408931893863356
-0.439835415198796 0.160862494346053 0.413187311626139
-0.448115458572358 0.152352470056136 0.41453458340546
-0.463482253946247 0.150281413670219 0.41299113394763
-0.462412165145954 0.141792956798371 0.414455027197039
-0.0218438772415999 0.46405991757551 0.303227367832503
0.00372173160120017 0.485936240757382 0.358290458206721
0.00616674518552829 0.492443186545369 0.377582778543052
0.0098316284680515 0.494363067152476 0.384369778584583
0.00414945712858033 0.496196716351602 0.387436669663855
0.0163139895587313 0.495345377570494 0.406793004162489
0.00168746384757631 0.495572492027558 0.408710093914744
-0.000344888982004295 0.493488178251772 0.410801485756733
-0.00312601773467226 0.488264566633864 0.41341299041254
-0.0122783647818724 0.481863525605122 0.414689914718047
-0.020444727793143 0.470459339259991 0.413599515945839
-0.0245463501905891 0.471049056516175 0.413987905800182
-0.0265859091678054 0.466380772248527 0.412158010704582
-0.219231862961175 0.319461140253486 0.194484111106923
-0.232194222959799 0.312668866713401 0.197214160429646
-0.239568692721559 0.301478611165034 0.192426222548034
-0.248724309687369 0.291703471581711 0.190046124458054
-0.251015016784422 0.29749226790474 0.196578066199388
-0.268390881472581 0.283178502088291 0.195729131373426
-0.273819012641689 0.273488514922785 0.191013630363968
-0.283360043304359 0.27015908924841 0.197060647901796
-0.285072090310528 0.272866728396689 0.200340842253894
-0.294774867951244 0.256489763550172 0.197862138281137
-0.301882241748292 0.252306946051086 0.201235893679405
-0.306967533912372 0.253886924010348 0.206784381818269
-0.309169196151708 0.253362148405188 0.209668945116045
-0.316832657100995 0.245375499338274 0.21213036434464
-0.324095692620805 0.240533505221391 0.217818785550687
-0.332491634298218 0.231236205697445 0.219842118985441
-0.331798729553396 0.233836151743674 0.221929960587814
-0.342775934634998 0.222411982476615 0.225475370663999
-0.346568824681161 0.226572499227927 0.236675965406578
-0.354754346380597 0.213127399218799 0.233258614287721
-0.357827917573207 0.211503043952819 0.236188349294924
-0.359944527904327 0.214265431455724 0.242980932494686
-0.365310885055003 0.206394772257991 0.243965982065747
-0.371452369956489 0.208184218637241 0.25681764310622
-0.377260002021549 0.196958046994734 0.258979161295219
-0.378090410892265 0.199606685751896 0.262578290311822
-0.387783013954074 0.186735928092609 0.270722005216095
-0.391402518298614 0.188840008079246 0.279107868012306
-0.393909479763507 0.18603344282904 0.281618270166148
-0.399660702682197 0.181987459026222 0.289227880860494
-0.400192902503701 0.179552765238072 0.288338544658349
-0.407650641202826 0.17271565256536 0.296975870943471
-0.40876266442174 0.176223248704828 0.306927570178457
-0.415000947451333 0.164898922214177 0.316019428133383
-0.415647641942089 0.164993516016384 0.320048840447964
-0.41510029725423 0.174385383682073 0.339687797079076
-0.419772511448418 0.162175942582438 0.337425386468389
-0.420397699356731 0.166129943134116 0.350720073818583
-0.423825428548261 0.158585683433159 0.35249894196954
-0.426339909383607 0.157248417374881 0.364016952719992
-0.427546036853701 0.157204416627466 0.370995681121008
-0.426620729331584 0.165128641671217 0.391334162100395
-0.426985430997805 0.164293797967374 0.399044094066047
-0.432273110144833 0.151482587252172 0.398514078003412
-0.43382105031409 0.151660737201348 0.404797961415858
-0.441189420077547 0.150523046557393 0.411738907037389
-0.456345065019828 0.144009158821423 0.414979335722547
-0.46338600040105 0.134655631360756 0.414656899303312
-0.469581031988532 0.120121049743066 0.41448063067638
0.00358569278952714 0.476219805145791 0.330789716098167
0.00480249654741069 0.48156417888364 0.346340811224782
0.0031728461816427 0.48580194915406 0.357706918085843
0.0208994449368257 0.492036601516901 0.381913728097413
0.0170660980861162 0.492258178020299 0.381113954484838
0.024074498829446 0.495574653019378 0.404286322169998
0.0238849697634537 0.496269765241363 0.40262572121421
0.0185057217382697 0.48908219872428 0.412084840332582
0.0100792040576924 0.483861499077765 0.414503229866268
0.00564491864151574 0.48175201127059 0.414797527995107
-0.000162454504786041 0.472954130395 0.413539206755966
-0.0162824600776659 0.463504878641263 0.40888169956776
-0.205752214685498 0.312711534929531 0.179689227883535
-0.211518294311443 0.31300554133409 0.183773337202078
-0.221983997083678 0.30072082945417 0.180091174601606
-0.233666353107195 0.299873149998943 0.187116475134134
-0.242542800991283 0.288644331038417 0.183292720166695
-0.2485912804411 0.282496390909607 0.181988517288834
-0.257737124408869 0.274407945027073 0.181061857968565
-0.267280443817213 0.26479006028646 0.179576914175857
-0.270647408914956 0.263371234270098 0.181548879612242
-0.280715787031319 0.253494256781404 0.183703689760273
-0.28557629716599 0.25794173672615 0.190864600511755
-0.291385117221446 0.248849408722879 0.189853657029375
-0.30148726532873 0.244002518320896 0.195378506323908
-0.312184986398596 0.231273161097977 0.196183597076115
-0.309155277079999 0.236811782046346 0.197239770594776
-0.318577176244083 0.229569688495147 0.200585014792968
-0.321894856485049 0.227203429913852 0.201885069540745
-0.332037820697767 0.2230407967929 0.209031151069535
-0.339542451821512 0.213268835903477 0.209041319758018
-0.348891956541189 0.20782162554435 0.21733062852178
-0.350120139396341 0.19882384405438 0.209745551999062
-0.354402447374393 0.20001881456381 0.218665890645086
-0.358318197598735 0.201175832439516 0.226872423370415
-0.366366892170187 0.199741729967917 0.240792094460917
-0.3682684182023 0.186616112822657 0.234190867060459
-0.37066925518835 0.194352628348625 0.244657516565951
-0.37752850391676 0.188732756428673 0.253118776249605
-0.383010706964983 0.184458030444253 0.260049144163428
-0.390710467338496 0.172662518766629 0.265303374817181
-0.392504435166073 0.179000754755795 0.273555371921226
-0.395025158898374 0.168450096894531 0.270101904793047
-0.401423929379113 0.168512258992212 0.282098034866646
-0.406121598149349 0.160163053237279 0.284412134707465
-0.410369142414826 0.154513096776322 0.287973442194183
-0.412933257952029 0.159474005733282 0.296598215771369
-0.417832080291566 0.149038695793148 0.297674448067098
-0.416633099657446 0.158977087858081 0.311197645088981
-0.423610479111235 0.14526370622312 0.318817958668462
-0.425083243277957 0.146803177932439 0.331216414274836
-0.424972051831849 0.147563823195636 0.332414164960838
-0.429702588330867 0.138340468054316 0.337760840016442
-0.428940627246789 0.144388527040474 0.348002013120274
-0.43252805339943 0.14385067280732 0.367768720178162
-0.433608138246466 0.142762704353777 0.371466539293163
-0.43733200697548 0.137022116769201 0.379374300980749
-0.435329416222562 0.144104011668556 0.389923307320268
-0.438805428766067 0.135712175043047 0.395896402243144
-0.440686353960892 0.139400111340462 0.40759692316371
-0.447212546908919 0.133249235126757 0.411067136223217
-0.454245992994561 0.125000532786263 0.413045089662393
-0.45909592570014 0.123518954059725 0.414402246442154
0.0137977770956223 0.478184358630719 0.340138054202762
0.010556418413661 0.477914657512626 0.338170540904545
0.015178064477264 0.483888175574068 0.356765426534111
0.0368816648308896 0.494828889110908 0.400922433167119
0.0393442775068866 0.492348431214495 0.406722773928995
0.029648820148664 0.491521330418932 0.409110291944796
0.0318246649910911 0.489093529595301 0.41096087011732
0.0254190632996639 0.480750950806636 0.414622447063489
0.0167799918176162 0.481069368913504 0.414711933622861
0.0108669807008035 0.475245638340666 0.414566634334972
0.00418536549663841 0.471754082189863 0.413308717537104
-0.200146216237703 0.306894740345869 0.17093115057974
-0.207454177376394 0.304533188903197 0.173740787226988
-0.215685772413285 0.303158998973101 0.178018487194889
-0.233341021434715 0.278899240666715 0.16874628564067
-0.228558025425997 0.29242341326606 0.177275528863215
-0.244686651983401 0.277581437964453 0.175141026297897
-0.251944389989166 0.273961034583021 0.17682769828871
-0.257464839662993 0.270787113761737 0.177746979791814
-0.265309589736058 0.257965942610317 0.173338685339695
-0.276681084850371 0.248692377104746 0.177022182916948
-0.280743442533697 0.242708028330387 0.176563788535457
-0.287746368208776 0.235005176837671 0.177509253694806
-0.294692910856245 0.234864275898047 0.183428301273451
-0.298030699681586 0.234570695023937 0.186122361756962
-0.308875425693261 0.222667915777251 0.187603678084159
-0.311123314620939 0.230219645260463 0.194564950903211
-0.321207291727705 0.215507165175689 0.193521689841844
-0.33355053085243 0.203275876638809 0.196081870316129
-0.328853404386082 0.209632407828158 0.196238026735125
-0.341661544109811 0.206366653924396 0.20515520219633
-0.350502790524131 0.195714813604956 0.208055415389372
-0.352763001165319 0.189176152974289 0.207218533918946
-0.358754269731133 0.189180452281873 0.218409006174112
-0.361743098555785 0.191177450099518 0.225534423988919
-0.364339136486494 0.175462302169644 0.21822717963674
-0.37305097155763 0.169961276067014 0.230239585687296
-0.374729891083959 0.171277926604043 0.234392880453167
-0.37697912025293 0.173146378615652 0.240037864820523
-0.382011144775326 0.161298253190421 0.240270094208964
-0.388402683802938 0.159800620751566 0.251046318804377
-0.395639557729291 0.158200249953575 0.263321526410083
-0.396532648753435 0.15539449739037 0.262819070803228
-0.403724866584008 0.146301047733508 0.269215471209373
-0.407723688941795 0.149390304931412 0.279071584830073
-0.41338455051486 0.145527852102104 0.286654418666107
-0.416693244014078 0.143305702522132 0.291113857002659
-0.41964223440533 0.139831093021034 0.293932943982518
-0.421507040229636 0.142784221593477 0.300426930254325
-0.42759382482677 0.1320225803175 0.309998018667561
-0.428969197029899 0.130577875164043 0.314562506421642
-0.431003024964126 0.129559547026384 0.324032875357328
-0.433259268450213 0.126053915065587 0.328757202416279
-0.437222940975079 0.121827742588089 0.341759005708832
-0.437546551425551 0.123908459734028 0.348723457952278
-0.439041513911283 0.126358257830952 0.363467546845768
-0.441234028625872 0.120608274590717 0.362355990648358
-0.444270783535483 0.120256885153632 0.379341344609057
-0.444538745977305 0.121465520844222 0.383856718742821
-0.446965746109817 0.108761796531919 0.38958926332695
-0.446530499852824 0.119608079720068 0.40375895265413
-0.450584239765864 0.107533551493392 0.40790039696582
-0.454388888822973 0.113394312116542 0.411799229703734
-0.46979728743264 0.106069876232739 0.414659138536588
-0.480869298915715 0.095610650380564 0.41085046442875
0.0288376490510398 0.479782567452198 0.35024704487464
0.0437267967638686 0.485917577804333 0.373117007101626
0.0340972491884088 0.487027088390187 0.372669949717411
0.0495944513257715 0.493041807765699 0.401637431672808
0.0441415775716166 0.491908590973304 0.406338573269042
0.0442322199490119 0.488649687204208 0.410139726390292
0.0377644242356275 0.483755184791725 0.413395508017374
0.0312416096677384 0.476801604114287 0.414970235961728
0.0246070415663517 0.472189874660965 0.414382862947774
0.0205141754139669 0.464253518332198 0.410294105428274
-0.197430173478012 0.298134118452632 0.161544431021023
-0.207385720334512 0.28809532584692 0.159467411868507
-0.215142319993663 0.278685621328369 0.156474439934801
-0.223917484369581 0.283475093796148 0.166448161354202
-0.234979166322441 0.267912254203157 0.16032442082924
-0.238331051691374 0.262460552437371 0.157831867775123
-0.237870524090714 0.272232360098837 0.165984058521511
-0.25461594628054 0.247728754003803 0.157283541225824
-0.257150928455644 0.253905034653507 0.163579784249361
-0.266072940740255 0.247177684399543 0.166834222461081
-0.273770655553703 0.243524245361563 0.171070546502899
-0.273136416099656 0.240370202222868 0.1684267700569
-0.289220775508831 0.22686583579431 0.173379569481067
-0.289571696801959 0.230835649217636 0.176319924204837
-0.299327732254655 0.221844137358101 0.178792479496424
-0.305127963269295 0.212867187130711 0.177850731624024
-0.31149913747539 0.212846963746971 0.183351914825929
-0.315967640162732 0.20981818032518 0.185208046068729
-0.32666474522115 0.191188963708092 0.182094121751397
-0.335283912057227 0.190451359017863 0.189835378208804
-0.342706623165751 0.182423616483462 0.193965516144923
-0.344558831857431 0.187984127583461 0.198154051931343
-0.351043613488443 0.176417594542565 0.199861305418985
-0.356887518066179 0.171469469873328 0.203685842167355
-0.359759501143345 0.170071818219682 0.205997157565994
-0.366488835284876 0.172609542193989 0.220034757307462
-0.374602253442646 0.15895759044148 0.224625547856826
-0.379328985108436 0.154884591782754 0.230301291389594
-0.378378799553199 0.158591814701963 0.231394368114311
-0.382524707354988 0.152501474515654 0.23442528673828
-0.389900554088122 0.148895192569377 0.245408544532487
-0.393380392180445 0.149628855981712 0.25247368595851
-0.39559951257066 0.139068085802794 0.248449231228113
-0.403210577639981 0.135280679959842 0.259731610628262
-0.40718841027209 0.128538534376477 0.261944561945138
-0.40952812026107 0.134378778842143 0.270830426610837
-0.416223773096632 0.127577776425015 0.278072683330753
-0.418949840633271 0.11847210464447 0.276120248248188
-0.427221535754328 0.114681826247602 0.288633961946349
-0.431771964311647 0.116981787704221 0.298909587282825
-0.432784627594617 0.114041755516318 0.299820598153852
-0.435202119219116 0.107516852273928 0.309645946180557
-0.43625904504855 0.111098169784322 0.319281803148273
-0.437971739901813 0.101463916162531 0.322083016091865
-0.439676175633951 0.10366172801945 0.334652773952584
-0.442311171688705 0.105901804973623 0.35312430698408
-0.443613964471045 0.101893190166963 0.358010582411174
-0.443657720396552 0.106148254047973 0.361818143610846
-0.447051911433776 0.0999881965744865 0.37810389154806
-0.446443722234493 0.112726961529858 0.392721914819927
-0.447869152902837 0.109724397214204 0.403833977954868
-0.449374824501032 0.106756251837984 0.40606802723866
-0.454662706792804 0.0951815610434164 0.410446534245105
-0.457416534206165 0.0905165931372316 0.411809252013656
-0.475280337557419 0.0766310938965736 0.414483499682201
0.0480777323819446 0.48241402638668 0.364837300791661
0.06635168218448 0.490369725553392 0.394109861923999
0.0593243512516533 0.490004641557488 0.406148411587939
0.0585570023595008 0.487868708744367 0.408944565266625
0.0532068321056194 0.486368166888068 0.410903771790931
0.0538305056180016 0.483159955100121 0.412872967112051
0.0421412484546067 0.479729290580041 0.414493522209784
0.0396680688131588 0.472263913021062 0.414655145386913
0.0329321322770933 0.470031763481511 0.414017718564785
-0.186918225357714 0.293664955405589 0.150694444190729
-0.19539549506817 0.29544570381542 0.157866091933798
-0.208472678862339 0.27732633430029 0.150868155245091
-0.207848636770485 0.279449642744599 0.152291532776325
-0.222736776024836 0.265053087259466 0.149718677861712
-0.231166973846224 0.265795283450153 0.155960135874766
-0.23738412954319 0.257147056078844 0.152603820609813
-0.250236016998051 0.240433410545997 0.148647148507507
-0.257144508806079 0.232298835116128 0.149224139708031
-0.260436475721025 0.237338929278157 0.155420980586325
-0.266340822170944 0.227176785383184 0.15378218605874
-0.272149874209119 0.22654923588001 0.158393455511099
-0.28063915713115 0.217074954440974 0.159448925393212
-0.285883509271081 0.216294856350949 0.163470097379068
-0.294903377376692 0.21310631010883 0.169159586211756
-0.29444298667333 0.208579306551764 0.165754413114548
-0.308303382734554 0.202505689558413 0.173717491259577
-0.31525970025705 0.192539716656813 0.173119527696591
-0.324271055906829 0.186031182173582 0.176889355763691
-0.32860866010588 0.182058492546569 0.179602853735183
-0.328917832307106 0.183802013055468 0.180642428054882
-0.34345560198443 0.169618229393242 0.189374059036981
-0.33848021541231 0.175935549831699 0.186996611253483
-0.348528819509326 0.168816188774548 0.194152810946579
-0.356787906229163 0.164972304420962 0.200872794177237
-0.362298417518808 0.156676862106122 0.202963738490759
-0.366653316962519 0.155966181715667 0.207469295706922
-0.368431457117802 0.146310261321527 0.204817435010153
-0.377944437870233 0.149734934254209 0.223733071924008
-0.383054997209471 0.140531248883644 0.226157252247167
-0.384446927596312 0.134236524767213 0.223887751099054
-0.390076482272201 0.133944323776611 0.23417349180161
-0.392810254724929 0.133633038896815 0.239037346752823
-0.394788654432263 0.129268369883154 0.239355701406424
-0.40194057267546 0.128704614312583 0.252274032649241
-0.406138403277253 0.120844951239317 0.254033444136371
-0.41343693879011 0.116875377587406 0.264591359989317
-0.416227784053011 0.115340288666042 0.26861524850707
-0.421312220559065 0.105781378677666 0.274338825195105
-0.425131732510735 0.110364311237328 0.283201352893596
-0.42771315372574 0.0965201145482801 0.284721830532586
-0.43188530057014 0.0979341312001685 0.293454991474791
-0.434927395675655 0.0981653536967765 0.300152214398884
-0.437337507147448 0.0943515563795467 0.312181252348502
-0.43736686393556 0.0993797914560147 0.316539766625522
-0.439587496198582 0.0916915982937146 0.324158488915914
-0.441231177043112 0.0981255576835341 0.339861221503386
-0.441882046312792 0.0974078142078699 0.343368884052161
-0.443752994425596 0.0989697955477983 0.356460675876994
-0.446010802807571 0.0880711633424586 0.361649109708165
-0.447911273778183 0.0801237683404933 0.367034245315175
-0.44986643233711 0.0867288971912415 0.388681988037489
-0.449442544390381 0.089948645805943 0.398172345470193
-0.451587286251504 0.0878351680879965 0.405509877162736
-0.459286899266786 0.0806695910530339 0.412174810882593
-0.464860749322662 0.0698619502006721 0.413911446915573
-0.468110707919078 0.0709843003874803 0.414651829541009
0.0693495090446152 0.48833581070155 0.389478794351682
0.0760478996704353 0.489825311042417 0.399959395664722
0.0673898300084289 0.490762775670985 0.401235370313562
0.0730051448332881 0.485484478662681 0.409466037493023
0.0645679133727074 0.481828736557663 0.412844642341575
0.0575400927330613 0.477930318857232 0.414468572823073
0.0498047785719278 0.472948123874718 0.414875735627728
0.0428546457648305 0.463350108509093 0.411591922535594
-0.184402621008115 0.281635468600891 0.138611459736948
-0.190762287024669 0.279989382628407 0.141410547866514
-0.200485408320075 0.272175485667166 0.141104933874551
-0.204838421186797 0.265857461709556 0.138527443666859
-0.216837137376743 0.257370840836913 0.139150919900653
-0.225947150582058 0.248076853787765 0.137156998352665
-0.235910673790509 0.240204807289287 0.136960719226064
-0.2393055889623 0.24462294849008 0.143039657422973
-0.249031388627329 0.234229684971679 0.143484174657008
-0.253501036219855 0.236056313923021 0.148566093289416
-0.263398378959424 0.219313474966744 0.146012795625968
-0.267414468711472 0.222202938223742 0.151408031727396
-0.277113072153616 0.211899188451211 0.152959333450892
-0.286401248953613 0.202181232976388 0.15454445173767
-0.286560089740178 0.199052336234897 0.152603832864586
-0.296076898828251 0.197518392052716 0.159822381748769
-0.303148802857531 0.197530296089848 0.165951424520634
-0.307661452078413 0.189651815171124 0.164624766321234
-0.312369654761092 0.181477465812515 0.163270865252315
-0.3183313833332 0.171987064955121 0.165038804109081
-0.328542365440929 0.169266024909327 0.174195025506884
-0.333399482202412 0.166862726623669 0.178087412030713
-0.337028358951918 0.158922295442285 0.178429960508243
-0.345418314259373 0.152463701780823 0.184190182487745
-0.347294815044335 0.157868634856953 0.188338248139896
-0.354136392568518 0.148159794441309 0.191180747046805
-0.361505226101415 0.143176388745747 0.196527624838214
-0.362843726648137 0.142669086508264 0.197664978619272
-0.368670727967476 0.139902244863614 0.202383188832545
-0.376329242321881 0.130737151940463 0.206276150447484
-0.384419831002238 0.122506174631317 0.214764469894016
-0.385682608207699 0.124723846011515 0.218837609072015
-0.39015760015002 0.120967551004402 0.224288243955679
-0.396555925964354 0.117422393735986 0.233493509924067
-0.401368591489346 0.11044479636477 0.237083189007937
-0.401407621893046 0.108645295730314 0.23576426806739
-0.407465792629047 0.112957019128131 0.250411183463424
-0.410449037671512 0.109461024844546 0.253541917864049
-0.414103489834362 0.102427237490445 0.259009151418351
-0.416691476237821 0.090545247302144 0.261060424080178
-0.424974216936161 0.0958866702029765 0.279066450776434
-0.427458248018286 0.0940124628545091 0.283549520337061
-0.426995598849304 0.0912521285954977 0.281894275460943
-0.433949514721904 0.0787644048346758 0.292534190123572
-0.437945377806445 0.079233266742534 0.303465377877991
-0.439379739801666 0.0801586234614498 0.31327632460489
-0.441513406195526 0.078780288991462 0.32558395538247
-0.440648896411702 0.0823659293589481 0.323109755778317
-0.443768066424467 0.0748457872727801 0.33653277006259
-0.445572052722756 0.0681500995818599 0.34234853744508
-0.446844530731724 0.0734549303537402 0.354773853943815
-0.448933078706996 0.0745419601132083 0.368843289048598
-0.45059344955809 0.073765036184345 0.378666210225937
-0.451238158998495 0.0763095987614972 0.394592906399998
-0.452018050141789 0.0727089900834274 0.400861370655418
-0.453185776014737 0.0692457063858691 0.403808935228705
-0.454928279189116 0.0627092506455107 0.405576209168173
-0.469598976991608 0.0557066798767404 0.414594673096997
-0.476568388885461 0.048887588652473 0.414741866899871
0.0876521790311016 0.487943944738849 0.4021888723408
0.0788083048003318 0.489256327155049 0.401255404620025
0.0755989667235178 0.486806714115432 0.407666431268509
0.0724462262890205 0.478154282824141 0.41375132308764
0.0699334411211156 0.478108323428358 0.413880856899924
0.0629996078479976 0.472554657989002 0.41497743983731
0.0538095872106705 0.468623793451495 0.414460821918701
0.0523963746207885 0.463090082547852 0.412226362434178
-0.186075144995853 0.267851287292738 0.127791296559772
-0.191937200399146 0.263705252746308 0.128096040827579
-0.195846927109766 0.268775650339795 0.135081464115383
-0.204816071355538 0.256775695166425 0.130651812454534
-0.220621234161145 0.237898342573156 0.125666791842615
-0.22094638340671 0.240264518172866 0.127073640011713
-0.236747454048103 0.231382996948889 0.130961056846625
-0.241744852344155 0.22453577777449 0.130738904900304
-0.250755383778116 0.224148256600707 0.138280655961862
-0.256132967548901 0.217848176341061 0.138750966921424
-0.260035048048995 0.219373418926099 0.143141453478891
-0.26822071219094 0.199314594319376 0.136904237705674
-0.272874629696651 0.197767854600339 0.139905178053642
-0.283873040657946 0.1984170911511 0.14985613079605
-0.289726447454849 0.193740556563183 0.151816596435361
-0.298878599329838 0.180614388539688 0.15102036088152
-0.30043339189597 0.176876855660709 0.149883782937136
-0.308369311199239 0.180784482751065 0.159348084302157
-0.309854784769686 0.176223687482217 0.158263549891
-0.316132645971004 0.173708726639015 0.163541373179974
-0.323379147003785 0.158468840949978 0.16448274337011
-0.328379913306219 0.153497678955475 0.167447809953703
-0.33309179007066 0.150700155606363 0.171029206398563
-0.342431401718885 0.146033639953487 0.178494860054957
-0.344319023633977 0.14488557774058 0.179918182788108
-0.351575280094976 0.131349460210877 0.181580729328823
-0.358840958498972 0.13393098475328 0.189982077957005
-0.365677078222102 0.127893284938666 0.194351819981356
-0.37197153820193 0.119077819627741 0.197015839503188
-0.373546297557662 0.116022870166388 0.197327660638736
-0.376953242813239 0.120283119687393 0.202540438163726
-0.387348427129198 0.10454492413356 0.206447512973073
-0.388072642725731 0.112069446230147 0.213513002012656
-0.392520966502368 0.109070848325648 0.219499871859721
-0.397627216741579 0.0968471576082123 0.224521988102519
-0.402512878407343 0.0955588836860557 0.233972010555266
-0.405563316819995 0.101791355185455 0.241728627283351
-0.40845065446965 0.08686137820221 0.243575665258288
-0.413567237627892 0.0858014135506968 0.253548636671591
-0.418979870539293 0.0838672492914545 0.263884213616229
-0.421007071848457 0.0805568541635394 0.267073015538041
-0.427279229007288 0.081561958466666 0.27990629830069
-0.429203311271001 0.082580261399589 0.284030402379667
-0.434493591573761 0.0767863203673575 0.293102581424976
-0.437409672138115 0.0783895401369305 0.299387741312592
-0.439695023218721 0.068530949010868 0.305613051519675
-0.441314765675584 0.0673749666159314 0.314865213437347
-0.4419182603758 0.0670653723069554 0.31841296796237
-0.443387291465148 0.071951423733994 0.331729861765877
-0.44572047708461 0.0694361291040549 0.344351679762797
-0.446445304926304 0.0604839727325494 0.341491049643881
-0.449654693993524 0.0598709104765473 0.361215724042936
-0.450801073530011 0.0531597524674312 0.362872785070955
-0.45306020925333 0.0511954330615389 0.375485066717194
-0.45291923943947 0.0635405250881304 0.390231481786116
-0.453910547312842 0.0577728322893322 0.400395562517711
-0.454274026852665 0.0557648135223083 0.401020454944964
-0.460398372343564 0.0548634724092239 0.410718921085644
-0.471746572180136 0.0506532143458634 0.414756645675437
-0.487629189856735 0.0317270550483106 0.411901665163632
0.0910852074309142 0.487946543467777 0.398543066715209
0.0929268339492327 0.48305778499681 0.409253978532053
0.0920980281925461 0.482305496756368 0.410185737950803
0.0799742854786273 0.476402519643797 0.414012841198654
0.0769064580125242 0.475291176965894 0.414478353889097
0.0691921465334501 0.4657443504321 0.414184910055208
0.0613618526133535 0.457592670810998 0.408906152810408
-0.178876105813732 0.263087655396078 0.122179456403134
-0.185552495846884 0.255630122479999 0.120989690701178
-0.19255777684054 0.248860442611657 0.120279091137404
-0.201640726007871 0.247651675064853 0.123214991397436
-0.208519295092054 0.236027197104046 0.119980680331405
-0.216178213706709 0.234255666399329 0.12207290515145
-0.228354524284184 0.225094541311516 0.122552263284222
-0.234636968638222 0.223069667371213 0.12496216192869
-0.243437900773394 0.219323645455889 0.128742617518361
-0.250610013901149 0.210414390355445 0.129033272660941
-0.247123633675014 0.211488621059869 0.126796946881642
-0.257829002772358 0.198673198387498 0.127483627239289
-0.266287726407885 0.190906342142397 0.129646658878787
-0.272802385055664 0.189029977095396 0.134039251171371
-0.275759519866723 0.18149723700909 0.131595835541911
-0.28617711474563 0.176513212095857 0.137302642035881
-0.29853891169762 0.166113216318765 0.142636332934432
-0.303363050852726 0.167461692856275 0.14806188937847
-0.3014605327212 0.164925193016747 0.145085203826589
-0.310016710090724 0.161157939748703 0.152136637687152
-0.319814492513764 0.149057413194679 0.15696032334728
-0.318938668398274 0.148249561814481 0.155740237981516
-0.329489627337494 0.1415633241757 0.163583626666138
-0.333318539992372 0.144062432327434 0.168486434295097
-0.341096703482543 0.139436196103395 0.174395023811215
-0.342817034819017 0.126767677640152 0.170839797930765
-0.345584144430036 0.130131736632974 0.175033474998975
-0.352243153019026 0.127518647214602 0.180654510748608
-0.361117892694601 0.11342534075536 0.183715794835102
-0.364921638764831 0.113240847006528 0.187472800134254
-0.374847846311779 0.0999325279355184 0.192061323566415
-0.382004754138379 0.0970630076540977 0.19939415114752
-0.387062639506561 0.101531097749486 0.205501430263235
-0.387525880628165 0.0961204690745696 0.205232004348964
-0.393090538610072 0.0942150747378555 0.214737048513786
-0.397170629754582 0.0890788015379497 0.221557749849248
-0.402551675503823 0.0910494886338549 0.232860151499025
-0.406801448812514 0.0810269908905404 0.238731851446517
-0.411654537512523 0.0783691505630637 0.247755305932735
-0.409645983244682 0.0817569798746165 0.244624296419291
-0.414716011127793 0.0731264521812774 0.252506828771507
-0.42218267144565 0.0681062859457674 0.266144157714085
-0.42523436318811 0.0704707254179762 0.272882880006603
-0.430322078845296 0.0633133168149156 0.281189471126191
-0.429146148171378 0.0623309662277259 0.278573995555952
-0.432912370436228 0.0581902451616467 0.285028398835927
-0.43646237318715 0.0534249392091541 0.29088477348509
-0.440977091951051 0.0458371399187636 0.297929655823731
-0.4426381241158 0.0575689207800128 0.31506927680488
-0.445388806099675 0.0439246170701539 0.321086113038907
-0.446397060690465 0.0570708793931304 0.338354027549354
-0.447422002400235 0.0419517123011205 0.332266839185033
-0.449243944327622 0.0457210206907691 0.346881754145562
-0.450106985379416 0.0513855981024623 0.357024374920718
-0.453183589313616 0.0432124376689718 0.369637027159657
-0.454731720361755 0.0377598029090954 0.374871495212985
-0.455090953565707 0.0470447185821117 0.393008041655638
-0.456796385449669 0.034090677335529 0.398705490104408
-0.458345095301269 0.0397447653581783 0.406364671865508
-0.461588120861311 0.0354103779594726 0.409532307099587
-0.472373012469496 0.0296811427314481 0.414523396180013
-0.483573179477351 0.0156074772809891 0.414460943527131
0.102538082378458 0.481026690210733 0.410082272659681
0.0986546277347315 0.477373983786636 0.412821337170337
0.100126377289989 0.477443704094428 0.412653531778433
0.0900014913583726 0.471903142449088 0.414660186230731
0.083670602866627 0.465022806435414 0.414496913256653
-0.164214182416636 0.26103266552557 0.115398558888407
-0.163250203858899 0.264994145177274 0.117040487506864
-0.170476345226371 0.258149304289693 0.116377951896797
-0.186493415395012 0.249696871018456 0.118333866828153
-0.190151249833769 0.24212730944681 0.115906588430867
-0.204424695582107 0.229406747988244 0.115005476912821
-0.210039074061326 0.229322214595835 0.117157923151726
-0.218298540277258 0.220438554977444 0.115860426542151
-0.226480580782526 0.208077678538346 0.11494272348523
-0.224398916864916 0.211861948852346 0.115361696415064
-0.237949306506905 0.198350841739426 0.116983830738814
-0.24076211045267 0.195290534927107 0.117220579213681
-0.249475049416884 0.191854928572498 0.120317462530621
-0.258626969526755 0.192262497034544 0.12514095491905
-0.265669948621256 0.183739798173641 0.125397443636646
-0.270551797918991 0.171986854258235 0.123289350146552
-0.276883310886354 0.178614410605203 0.130653867543504
-0.285986259743663 0.17066250580531 0.133251610049054
-0.290026905097293 0.162557956163642 0.13257218608236
-0.296013440986032 0.159393916016217 0.137285366121594
-0.307350484456173 0.147364379373099 0.143690208402906
-0.307662572289994 0.155723871086617 0.147494967358234
-0.315905892266123 0.139461667457616 0.149014263954562
-0.316365240066431 0.133623869000216 0.147039919823945
-0.323679696196612 0.131581397986835 0.153559862047158
-0.331383629547894 0.1281398478495 0.159888250736866
-0.334004751488782 0.122895939637411 0.160340850155263
-0.340457967117561 0.128224763944099 0.169070296690437
-0.349398863356871 0.105833668387669 0.168733839579122
-0.352265080037035 0.111406306049928 0.173949520431184
-0.356488217230169 0.105113611595565 0.175579010646312
-0.365681350320649 0.104189073439016 0.184459339014754
-0.370670741928687 0.0970384846289118 0.187130917935346
-0.378500905247144 0.0929327033565572 0.195015940189341
-0.38058052610689 0.0825174340995932 0.195782226880543
-0.387203921431242 0.0861241655748133 0.203460220008879
-0.391558398943973 0.0781643659754028 0.207432695416976
-0.394008420871654 0.0676555986874547 0.209569778189169
-0.400401219749508 0.0791467483563273 0.225411072788249
-0.402917412666976 0.0770938019735416 0.229911435910817
-0.405991469456624 0.0615197100172943 0.231962700491514
-0.412474120005068 0.0601616325171139 0.244594350359604
-0.413313168009015 0.0622214967132083 0.246819034744309
-0.415722303772101 0.0597388656456839 0.250991524103516
-0.418019362739544 0.0565367630909189 0.254749634173598
-0.425645215413567 0.04848550837581 0.26790633628855
-0.426165148469106 0.0516717529322008 0.269788723688569
-0.431597415282831 0.0454413560636007 0.279030275720884
-0.434666216228995 0.0455803241749859 0.285216191108984
-0.441911362594412 0.031597534792275 0.296045266977133
-0.442565534983103 0.0294742333649063 0.296795958465637
-0.444254447076308 0.0370902310569509 0.3082620335078
-0.446924962953954 0.0333384230333353 0.321984235875604
-0.448917895409989 0.0288180150488336 0.330796691914894
-0.450068699179728 0.0352563714286888 0.343395742357728
-0.450684885980424 0.0334225485898174 0.345758404244707
-0.453438091371506 0.0275926557510601 0.358277110261703
-0.454602792732317 0.0256432448524434 0.364001930891586
-0.456303426422906 0.0312841834174476 0.379405514040641
-0.457809117053234 0.0195625797617753 0.379169173318613
-0.457588722011763 0.0280722836353351 0.392772956269977
-0.4597159196134 0.027086327641541 0.405772167794627
-0.47013427439534 0.0234718597321616 0.413624772879168
-0.474998701866404 0.0177794664361041 0.414639093357186
-0.489562959205092 -0.00560868448300029 0.41286003115519
0.120791629361989 0.477341616441651 0.41098582955763
0.106429230834259 0.479219063875923 0.410994362624074
0.108291480902945 0.474952172152224 0.41322978037158
0.088487528544518 0.459632772622294 0.412957109464407
-0.154666122200571 0.25763303608071 0.109932188544329
-0.153023198356302 0.259469871608711 0.110225826106317
-0.166594602793694 0.251813568475223 0.111631086162622
-0.174953406654118 0.234025737248273 0.10583458555921
-0.184880897558977 0.235349223692684 0.110391265104045
-0.186760962561732 0.238834830268224 0.112902849216177
-0.188641816524831 0.230395348902773 0.109337335936478
-0.205687434618954 0.220277268093046 0.110846601797249
-0.212646498902471 0.206848817671546 0.107411881853652
-0.21639994667008 0.20321591411935 0.107904096032324
-0.222300608357571 0.204950116630006 0.111589429247319
-0.238609538877441 0.191093560245794 0.114482314718124
-0.237374343248937 0.186152191717111 0.111920475866483
-0.250435294151416 0.179773464754152 0.116082324889098
-0.249721076971304 0.18069510815912 0.116078749656715
-0.266589346682124 0.165517767811052 0.118740193933043
-0.269599433692631 0.164818481830168 0.120000771641842
-0.278022557996024 0.15817763948547 0.122036186362947
-0.285777678324536 0.157945763259386 0.126581685857523
-0.288301846809722 0.151809274863372 0.126571212001645
-0.291766931926049 0.14650516665165 0.127623839555998
-0.303636085023976 0.133679633902443 0.134232690681637
-0.304742469008514 0.138355132997677 0.137299960169904
-0.313302019013728 0.127360626735777 0.141337330397628
-0.317337242595654 0.125918797645344 0.144802704068585
-0.320398714801092 0.124675033919197 0.147369267432756
-0.328708881669992 0.115538715114209 0.151931083914188
-0.33467807895658 0.113508328872972 0.15710010113022
-0.341656523198814 0.108651438927023 0.162106302948
-0.344346000727084 0.100576620629746 0.161445863984553
-0.357364780683027 0.0970029302968216 0.173076248953782
-0.359968826039981 0.0949502727377691 0.17525752819609
-0.364704958542655 0.0853055767696461 0.179007036453681
-0.370667286237322 0.0866200344149266 0.185643535522384
-0.374256013208351 0.0853923598163636 0.189350551561181
-0.374549597567756 0.0713495478793259 0.187668341562596
-0.381781187715945 0.0679504018240347 0.19500652968174
-0.387822938041564 0.0643384964474361 0.201027397265732
-0.394885107017555 0.0675439891258415 0.211297036332624
-0.399501809327206 0.0644797450299523 0.219739609107327
-0.402855664623037 0.0570781695415403 0.224507483167138
-0.404470543373505 0.0580898485735075 0.228010258676874
-0.408040868256607 0.0608917632176868 0.235903624733785
-0.411969625228653 0.0518134850277056 0.241381162784136
-0.419344165053809 0.0429607403625758 0.253822847914991
-0.419012031805702 0.0379636431145912 0.251839061416234
-0.423418300849786 0.0337020440011794 0.259544100453821
-0.426523321344483 0.0382315280692918 0.266960832156151
-0.429661529974487 0.0307928845820098 0.271286815298312
-0.433920349829637 0.0294319727229313 0.279461611605855
-0.436420579034013 0.0230546537355355 0.282789195942968
-0.442015175115881 0.0209654980321851 0.293448502684912
-0.44713157143907 0.0153600874346351 0.308364775546633
-0.446531556575295 0.0260131009599192 0.313423997516167
-0.450095109434643 0.0136470161942778 0.325626480329151
-0.45096629372339 0.0198354635686044 0.336255252014522
-0.451079895490374 0.0175350809637925 0.335062134056213
-0.454949273899048 0.00817862989343975 0.351690682645762
-0.455818740224678 0.0145098727203281 0.36242714369967
-0.455961488580103 0.019311811417789 0.36731270638704
-0.459823518350474 0.00744463066868799 0.381811020030047
-0.459295131174622 0.0151108192185612 0.393170945199987
-0.462478950720654 0.00980249641238144 0.406749162345139
-0.4663008724785 -0.000389911115358873 0.409642875793809
-0.474869191959354 0.000740268450755343 0.414223752548826
-0.480103383388121 -0.00338119976429243 0.414989758264952
0.121133161493941 0.470848151116649 0.414059494383892
0.110656343435931 0.464209218714584 0.414796224750744
0.113095632764049 0.465619036230437 0.414985369040925
0.0999746253143432 0.457227953949488 0.412482176634899
-0.144980858580908 0.247601765726702 0.10103246806957
-0.154135459946001 0.252783933935495 0.107253413337003
-0.16538278259885 0.234236373163193 0.102199298132201
-0.166072619861046 0.240682995764011 0.105754466897468
-0.178301057355128 0.223883339015673 0.101974808674837
-0.187898688030685 0.217880939967107 0.102668989571525
-0.197912098905408 0.205662310948486 0.10035777367418
-0.2038237081884 0.200828075935894 0.10056106846738
-0.207390727389361 0.204012889552226 0.103624370683272
-0.214032433977991 0.201797599101032 0.10614289763791
-0.232124927715818 0.182052108767789 0.107641850654451
-0.235218275253323 0.181031189885574 0.10881908464175
-0.243086959150833 0.174429769033457 0.110247703048223
-0.249541099872473 0.17366499321303 0.113237870506734
-0.253175151036346 0.16624658315187 0.112188897552696
-0.263699912444461 0.1554774129009 0.113341321387169
-0.266260907620296 0.150303180091825 0.113120138954095
-0.27221377597876 0.15280047884075 0.117266944796921
-0.275443675634476 0.146843893801643 0.117719532670433
-0.286723196211336 0.134304344040195 0.121331130636227
-0.297657940030226 0.129130814896514 0.12654887792065
-0.298146222581079 0.130095056184681 0.127202511550111
-0.309591172145277 0.11820646327287 0.133774964799168
-0.310430048523577 0.119591867802883 0.135198943461882
-0.313584612499648 0.116432892788798 0.13705971660791
-0.319514264965585 0.110455231998932 0.140540840578242
-0.326057781828225 0.102622514085704 0.143866208708565
-0.33221794722619 0.0928571494291701 0.145998270172099
-0.335887643218114 0.0952537252085719 0.150697784895291
-0.34563997865475 0.0939927182632181 0.160001288613081
-0.346773461364023 0.0842978806581486 0.159467445858853
-0.358994054284753 0.0879979552980876 0.173213091803226
-0.360173384056623 0.0761816400556059 0.172806037642715
-0.364498319970588 0.0735124741146344 0.177104117730211
-0.372293367038944 0.0687129623010833 0.184852364506866
-0.378883122427885 0.0705759839787283 0.192245656246816
-0.380940272862629 0.0604064269639083 0.193022627966147
-0.386433588952206 0.0587864674352036 0.198733930835864
-0.387762442205226 0.0471123863911638 0.198508867724984
-0.397304624406244 0.0474971750926572 0.21085681059656
-0.399616286763152 0.0475319248941483 0.215498080454288
-0.40272481333336 0.0396607561807733 0.219650484486591
-0.409161513113239 0.04065337836889 0.232810184458648
-0.409156964760368 0.0325361058331389 0.230659694102394
-0.416143127405755 0.0352510150196142 0.245374754029698
-0.418390453006339 0.0291616614513383 0.24827153751179
-0.420876629860699 0.033306879449204 0.254346860747818
-0.42717958443317 0.0238211997667514 0.264474334921444
-0.429731609770349 0.0271128032402894 0.270456417460943
-0.433388542843036 0.0096626572210197 0.27318073565879
-0.437635188319177 0.0155726123884649 0.283249227426167
-0.44024570107044 0.0163266412142085 0.288679082225069
-0.446914429524739 0.00644817076963313 0.299598918745959
-0.448102689985321 0.00540592767352524 0.306225216428963
-0.449760900104092 0.000404467492000563 0.312528150231715
