ply
format ascii 1.0
element vertex 848
property float x
property float y
property float z
end_header
-0.083073993466581 0.412522843054702 0.250736374871445
-0.0818478711921358 0.419837129548221 0.26506926500182
-0.0893607930418352 0.421479101360306 0.270341389313354
-0.0885838253522931 0.421869416506973 0.270918533839381
-0.090918110374412 0.430009494915014 0.287845396481677
-0.0992565347097105 0.429837195277685 0.28969986025166
-0.0997060845964261 0.43467503546361 0.29984002216722
-0.0982444121919718 0.436487799526791 0.310055361444817
-0.0998678523433684 0.436982888374147 0.314524092483708
-0.106713784206953 0.43836615739872 0.328927002177876
-0.103855386555131 0.441151864135587 0.344116953151692
-0.101387103605654 0.441558848941167 0.34463410420759
-0.102160664243894 0.443200651925379 0.355626866906101
-0.111701672277577 0.443475699727108 0.365279935815142
-0.114193741569014 0.445440677373814 0.379736507571382
-0.117774231509649 0.444749879178582 0.378353193639131
-0.112834397105914 0.446429578072575 0.389870658826778
-0.115524543847085 0.44945381432781 0.407815602855481
-0.115907710036118 0.453743149032376 0.411598710985023
-0.122137603213111 0.4554987619257 0.413066523781737
-0.129034567846405 0.466526732768872 0.414574175574164
0.179874920013384 0.0972914232525976 0.0566132282747367
0.178982126749862 0.0943746346556877 0.0559401457001722
0.170365690725149 0.107979563414341 0.0557391788478396
0.168906772238306 0.117624861427172 0.0573739095700934
0.158848279882543 0.124836723507145 0.0561291538315655
0.153666099434112 0.126739991929378 0.0551052767186159
0.143403865467439 0.135283224049325 0.0540855178987845
0.145259737383832 0.14342318333849 0.0563143965701137
0.134538630923262 0.147116829415764 0.0549497965977622
0.12873010969175 0.159287927152625 0.0570719836296054
0.116666109033759 0.17177405216398 0.0579603270232035
0.110847767875329 0.178270128606707 0.0585192071380338
0.102568824583452 0.182532652520949 0.0581649961486461
0.105815270963015 0.189959328319591 0.0609750717243059
0.0934063763741179 0.199874731539686 0.0625049799494583
0.0849617768304973 0.204313054957622 0.0628062719191672
0.0823727433132403 0.210720457081331 0.0645154320034052
0.0676038552687376 0.216397265791712 0.0643742570142032
0.0684100047719257 0.220385100210113 0.0657622540683052
0.0643703217848388 0.228352779086438 0.0694978407115911
0.0608125884106802 0.237318344879591 0.0743938936468058
0.0547486215025764 0.241098825415422 0.0762931657862745
0.0540254249205653 0.242544356025809 0.0771531594618689
0.0385491970312725 0.252262353885195 0.0820447358465908
0.0447475660737424 0.259422552621473 0.0871246480585264
0.0303468901235068 0.267214074589654 0.0908794696129987
0.0269167936550804 0.274106525499912 0.094981540007179
0.0271178685474343 0.277403203387004 0.0970979923672573
0.0113112591871558 0.286417733967976 0.10151384202272
0.014578430567026 0.291729309697155 0.105170628416281
0.00917445614033479 0.290780054535489 0.104112958270388
0.00339197049729655 0.299589364984587 0.10923860001272
-0.0020944388349883 0.308990336885861 0.115117109986478
-0.0103978386255227 0.314114815008754 0.119077010174033
-0.0143679563816301 0.322693385896069 0.12487342498155
-0.0135860798342716 0.329016125130342 0.130189994222961
-0.0240217921359006 0.329399308135685 0.132090577176291
-0.0205507931500705 0.33213762849665 0.134558266193114
-0.0333644535622667 0.335410133415012 0.13992279523461
-0.0367361338891522 0.339374605638954 0.144691219669247
-0.036216014391576 0.349511282844558 0.155581762991612
-0.0430647381369487 0.350767845098854 0.157916253392461
-0.0449197239911559 0.359046945604912 0.167135726645757
-0.0549281211653474 0.358414970392695 0.167877384224839
-0.0546835627168173 0.366727803753022 0.176834358904973
-0.0627955541911829 0.37174920204275 0.183421082333445
-0.0573546657137679 0.37698190399483 0.188306363623588
-0.0653474345707376 0.382323121458948 0.195222050161347
-0.0712753774597722 0.381800155590402 0.195500541569283
-0.0788938637913622 0.385373642706906 0.20045081485762
-0.0747122746961665 0.393263689617013 0.209939073548254
-0.0830830746964033 0.394114886491654 0.213852957680721
-0.0851710046496332 0.399429370085677 0.225052911508306
-0.0886259136662387 0.402265997981673 0.231648360679099
-0.0917567987384996 0.406080650264525 0.240118093324711
-0.0887298602755054 0.40933528094084 0.245841192106272
-0.0998610650134344 0.412054492015797 0.254226406302028
-0.101609205140213 0.419586270036855 0.269779730394173
-0.0969945472359026 0.419149705257108 0.267687573656779
-0.102176581677957 0.423113220860695 0.276996701498214
-0.103649111912097 0.430037349015822 0.291259711212044
-0.112771327060592 0.427581348760467 0.288744869816026
-0.113909665676833 0.432989558700139 0.301002946805783
-0.113360238249303 0.4346705028318 0.311144393831034
-0.110807784078723 0.436518340851755 0.320675507158425
-0.112559095803378 0.438381795820118 0.333877202853938
-0.1188836122669 0.437207014641046 0.334501085825055
-0.116718650551776 0.440572409555452 0.35114030482544
-0.124010152325137 0.439300247328902 0.359273596802926
-0.12496599837639 0.442060703089778 0.377816813532593
-0.127961737874724 0.441569257901994 0.382219596457653
-0.122948759390191 0.444092208631685 0.397069882953656
-0.12296083715978 0.446226136845951 0.405763696432052
-0.12248220599629 0.449290908923748 0.409206567922692
-0.134411900638594 0.45533834591941 0.414513369224738
-0.136645131999762 0.464568962218849 0.414452532667872
0.17167233851928 0.0940655164423243 0.0535573029277716
0.165498218834097 0.102786453607116 0.0533038596475783
0.167968085264561 0.103354486557057 0.0541032451493551
0.154126234319357 0.103473983216319 0.0503204904284524
0.147784789354981 0.120308181231692 0.0521295588876642
0.142636191482529 0.122862908398776 0.0512524411927315
0.130519132766462 0.13088918546885 0.0496369680624129
0.128983661046486 0.1421982149097 0.0524240203603151
0.123395028812136 0.142103894744241 0.0512183317604853
0.114162210327762 0.154288674317645 0.0526214256929479
0.110031850914612 0.159733775972767 0.0532475030354737
0.104146614157852 0.176111541200487 0.0565107763116906
0.0898090054809462 0.176675892959563 0.0545954395079515
0.0935102268506005 0.182014684545087 0.0567969727060971
0.0814362614836238 0.186573415872624 0.0566552198177144
0.0739114818398431 0.203766693552794 0.0611648523340207
0.0688002206086016 0.208346301337613 0.0619537439200675
0.0619395872598465 0.209452103994755 0.0613975963011974
0.0549146062891235 0.22211566399579 0.0649246919575414
0.056443722420291 0.221142306587459 0.0646592648495376
0.0474772508021064 0.234325738082186 0.0713698296277043
0.0433186352701891 0.235157461421144 0.0715508512035482
0.0328372269189933 0.243975332422596 0.0762879543033607
0.0383578828644607 0.247681539894189 0.0791112594946494
0.0265863099297115 0.254062379691627 0.0821880862847048
0.0220158551058149 0.266259363382169 0.0895728992846593
0.0138431252860005 0.267343384093873 0.089578032815482
0.0116630070837746 0.275279733291724 0.0944497495739551
0.00550737504294435 0.282356452226166 0.0984406487906824
0.00573433699531826 0.282623210169879 0.0986295720482861
-0.00211499745852993 0.292515472203825 0.104626298882064
-0.0121646430594556 0.292762477121307 0.105626244625562
-0.012617608456346 0.305441944362879 0.113739541275769
-0.0155069407807971 0.30903950007113 0.116273019517261
-0.0292199997382032 0.312634323745544 0.119712295076235
-0.0267488537332736 0.313917027272714 0.120322026848686
-0.032202513503465 0.327690108774203 0.131406755042883
-0.0330190982256186 0.325456419648082 0.129106910901793
-0.0397140226887628 0.336017514991189 0.141483999432173
-0.0445845426198185 0.336206347167176 0.142381843625124
-0.045805327358774 0.344538531768127 0.151568423007759
-0.0533341316297159 0.349533665234464 0.158043687321898
-0.0568003524921582 0.351213669657836 0.160354518434544
-0.0655399727881106 0.354089079457933 0.164709353131578
-0.0682948092945306 0.361820246017567 0.173464282474799
-0.0679005517037639 0.367735764203923 0.179806818347784
-0.0761141626064484 0.366319029704687 0.179444032396812
-0.0783044343944107 0.373005530515643 0.186988573651519
-0.087074379606574 0.378792459977426 0.194497050809203
-0.0827503773127819 0.387734583747051 0.203553779303537
-0.0945216047477531 0.386239816048108 0.203613210743489
-0.0986453866516719 0.391212600555412 0.212142779442734
-0.0981616058289429 0.392809399129615 0.215214816287236
-0.0955006139139039 0.401194905899511 0.231315689007372
-0.102516731571131 0.405587177682414 0.241967797468698
-0.111266331908618 0.405781109773389 0.245957833406625
-0.110198262946086 0.410177440694953 0.253340762287649
-0.108399629035253 0.414066567414705 0.260510712610069
-0.110960528655142 0.415295698051405 0.263649219110841
-0.116302752187405 0.420682267477421 0.277677250863428
-0.118212180907599 0.422174394018579 0.281940234465779
-0.123560505561889 0.424144175595853 0.289754884423617
-0.121875280492195 0.429568491649176 0.298579978808343
-0.121968193560428 0.43062571105272 0.303343138464891
-0.131321316485945 0.429957382690399 0.322177052934414
-0.132312714052389 0.430031449231382 0.325024685130537
-0.128689684780839 0.433400432183274 0.336000495449569
-0.130915069895622 0.434506896727309 0.347916127707989
-0.136067280252994 0.433212672524524 0.352850351036894
-0.134150528831516 0.435773467570881 0.363230309145955
-0.137780970543586 0.436120785954775 0.374105198517349
-0.134384975290516 0.439355172903543 0.387766656377422
-0.139483946068827 0.437243110053022 0.397493444522911
-0.138901194078158 0.441467840704954 0.408176328714591
-0.146973635092792 0.452215886151136 0.414725244534383
-0.157190530865713 0.457533525280753 0.413980071206328
0.171909330806331 0.0771417871556467 0.0513874354722573
0.164306958870784 0.0885589705353436 0.0504669476917002
0.15846265802264 0.0978596031453445 0.0503282919895829
0.145270438043871 0.103014032224887 0.0477871112785075
0.143613141156309 0.105831737656803 0.0479259861732781
0.127120215229322 0.121907262026412 0.0467821651980285
0.120378596889177 0.1275660512965 0.0465821216848791
0.116124165084647 0.130219321645591 0.0464139574744687
0.113301649853858 0.146508205125915 0.0502993085235817
0.114720422211447 0.15000553846953 0.0515609447047466
0.101666000518979 0.156055305683206 0.05046953130113
0.101776587387779 0.157960229659465 0.0510169323366767
0.0815783073991179 0.176120476062664 0.0533252815638881
0.081366832584303 0.17989053973205 0.0545050266048391
0.0798966249951772 0.182920775698926 0.055280719662513
0.0759788326187501 0.192452201066792 0.0578143896087125
0.0697772387327177 0.196726367998942 0.0583607397045237
0.0574758375389081 0.206931146299852 0.0599976189159049
0.0536125344685733 0.207005103121228 0.0596707885085832
0.0480154915014709 0.220869581614211 0.0641840261234514
0.0448153283489399 0.228855113728656 0.0676624964466828
0.0385230065003095 0.235278065735177 0.0712255626330642
0.0293861305453497 0.239275288237106 0.0730052194115865
0.021909918142171 0.243665057402754 0.0751741235605032
0.0235232780871848 0.252254382803669 0.080779780581925
0.0129917721007202 0.256488374302687 0.0825932955489169
0.00581547869048407 0.258519910853527 0.0832854325244292
-0.00146769627756362 0.26905091736869 0.0896278860681741
-0.00396548117958995 0.272249389402327 0.0918743652529598
-0.0102814292691629 0.277530280703598 0.0957672401681508
-0.0113162240734383 0.284923064869247 0.100562331365505
-0.016310365115861 0.289981648421715 0.104202793019258
-0.0243279682543945 0.292564954125372 0.10652030455916
-0.0229942791428585 0.300559534929567 0.111500078507411
-0.0381198236952427 0.308891654083572 0.118074882161539
-0.0353445143651103 0.31010487132318 0.11861485621935
-0.0378362621840358 0.318417123277174 0.124117700527751
-0.0438386205084929 0.322751298809727 0.127721603081847
-0.0549939836690881 0.328201159500827 0.135205177286181
-0.0582952425974622 0.333825082049709 0.141758562675105
-0.0642647358486594 0.337762267116168 0.146867414030695
-0.0653672491321347 0.34512366703162 0.1549870753852
-0.0673027228765412 0.35006788393508 0.160610743466761
-0.0760485321916837 0.349198468789402 0.160915768278552
-0.0748824118749503 0.356172043050785 0.168292861648542
-0.0788967354422391 0.361809532159042 0.174962465990298
-0.0819039587017672 0.367812159365095 0.181883615226736
-0.0831331284178029 0.371222591913036 0.185747642388027
-0.0944909597345281 0.373854096761982 0.190211498308781
-0.0990700865603449 0.38087458714617 0.198457494486699
-0.0956439070537562 0.383686418879759 0.201011081608642
-0.101295657621492 0.384966307554258 0.203200348115461
-0.105462785795329 0.390476624457541 0.212891982374344
-0.112224770890491 0.395633624468641 0.227751316879179
-0.11310555024381 0.395387647373365 0.227973245396324
-0.116044928531222 0.401164797278834 0.241034004646088
-0.123030304444857 0.399550903704484 0.243423222421145
-0.120738554439784 0.408814919502191 0.258948855862429
-0.125040960736878 0.411755268053212 0.267766837206755
-0.127563326873943 0.413619509721373 0.27319871812135
-0.127463034929499 0.416344743664079 0.278209819325726
-0.133969935239926 0.415945603078436 0.282497203966231
-0.132836586567382 0.421513502884026 0.292017245486999
-0.133194740668144 0.426416490920939 0.305933752918639
-0.141421160729394 0.42407346946402 0.312187359313557
-0.14084981032877 0.426763399798383 0.326599914551325
-0.142846685998463 0.428303657308296 0.340507946162603
-0.134723416552849 0.431690879715628 0.340639859925717
-0.147531956445262 0.429287585129429 0.357689670900331
-0.143003655512603 0.43204414317915 0.362864663734874
-0.139218417123455 0.435731808480324 0.375317955039532
-0.148671889694988 0.433437339192747 0.385626792763016
-0.140212845278461 0.437375428608755 0.401484150996759
-0.153814525020936 0.436370388460219 0.409264778785445
-0.152507646190444 0.44789068125826 0.414518240381911
-0.160929011018621 0.452106471257201 0.414697297206623
0.162862317148144 0.0736179703136837 0.0480214481504639
0.153526362851291 0.0819345645614777 0.04613412536265
0.146056641393911 0.0900114390384127 0.0452585992451388
0.139065360487902 0.103349466563488 0.0461508645144177
0.134645995582919 0.102282486697392 0.0447098338182987
0.131548803632501 0.114376770335712 0.0464108374494788
0.114237178688545 0.123551598706909 0.0441812888933425
0.113389399380246 0.13250903258391 0.0464665719366603
0.108624736264558 0.138022626153491 0.0469775925627952
0.0942135262591931 0.149030489600674 0.0469637693200109
0.0866274425134056 0.148486136916288 0.045212618989748
0.0850972942134703 0.158404544878805 0.0481166357034201
0.0733254147274922 0.172679947198313 0.0511278807086757
0.0803700775083874 0.174874886520762 0.0527659014229144
0.069086380728028 0.178240268484551 0.0523467067996902
0.0580318552261627 0.188015535458224 0.0540114456949296
0.0601145257327538 0.189023641736494 0.0546107827464481
0.040072774529361 0.199328581557193 0.0564187879867248
0.0387282272400541 0.204359009928584 0.0580873788743604
0.0392428919484281 0.213670488288131 0.0613119342252226
0.0285052275209398 0.220092731200096 0.0630338780496679
0.0284532406836317 0.230112742716395 0.0670915445511816
0.0226433716493925 0.235981366642669 0.0703420217278894
0.0140438040847046 0.23649545210768 0.0699483850249639
0.00865522820144907 0.24264332914948 0.0734120374950458
0.00718745944781733 0.246746339658412 0.0759021005259959
-0.00167977704748414 0.25824283642013 0.0827622026841351
-0.0126034058324927 0.264365563281886 0.0875775673372608
-0.0139557421273045 0.270261190288841 0.0914457718972582
-0.0168560711626119 0.273005496655621 0.0934367535450989
-0.0190466491263157 0.274998308332783 0.0948896116856545
-0.0248018200962095 0.283125726683287 0.100548367238878
-0.0384022451468631 0.294167081779457 0.108720756136834
-0.0314527123480601 0.293055000838793 0.107429794806328
-0.0420983105824879 0.305018957665778 0.115942018142486
-0.0451569790032489 0.311342414478153 0.120225770423731
-0.0489399875763489 0.313552865270587 0.121950759440992
-0.0548346853191307 0.322925996279357 0.129476469285603
-0.0607494178648135 0.326079081100884 0.133729379169026
-0.0659373968529287 0.326691705957962 0.135130838094531
-0.0701055869081879 0.334130069362871 0.143770318282014
-0.0741176743968065 0.340302647650095 0.151018397883554
-0.0740990263384037 0.34466270492834 0.155731916233526
-0.0866991326332364 0.349340049336148 0.16258561664501
-0.0842927965104118 0.354718489836414 0.168060676883649
-0.0919295598913715 0.355911840371306 0.170439013785385
-0.0945080167555956 0.365003799559152 0.180640763868475
-0.0972616308348313 0.365346079674629 0.181403130169775
-0.0994933213726804 0.371830251817538 0.188734715403011
-0.102893984150664 0.371351216298945 0.189633636605888
-0.114477650907583 0.376474653785282 0.199634186851495
-0.118837087470359 0.381820292081215 0.207072694903004
-0.119154555021186 0.384099307175486 0.211573708225379
-0.123558701810188 0.386163726714907 0.218834808166199
-0.121665288185539 0.393384265819186 0.230852864582467
-0.130206966113498 0.391749614167012 0.234407023368516
-0.126286961899218 0.396957868280202 0.241100217280047
-0.133671148189128 0.401074643171389 0.254498433320609
-0.133278602667682 0.405474063468663 0.262409605550046
-0.139265785746089 0.408688557410352 0.273042551106186
-0.139131946536566 0.412941873992502 0.280881005374341
-0.13742496308104 0.416322736108763 0.28587364844388
-0.142130191559424 0.417823025407755 0.292314248507444
-0.147985475464609 0.419951679010002 0.303946360652418
-0.149850160281827 0.42114705585365 0.315506596712302
-0.146953184667508 0.422911008274431 0.318819921146947
-0.150953793940969 0.422857351582843 0.328239926982601
-0.15709357558932 0.423248382962938 0.345477943375226
-0.154465162435375 0.425569561632013 0.352718410593344
-0.146959284837111 0.429999278135572 0.360477190599732
-0.155419644478582 0.427619764044355 0.367085685942289
-0.155307395904743 0.428753112777039 0.37347077439777
-0.156796295770148 0.430072100010189 0.395635102806553
-0.153778505368738 0.432656608461566 0.40426162691869
-0.163257222195179 0.430064389956421 0.40675251729904
-0.169310138830316 0.439221697081636 0.414111705033598
-0.179245552927538 0.445269283655144 0.41462095170269
0.149821064830834 0.069617218792665 0.0433125448029906
0.141198145012259 0.0820034104038081 0.0422315298391979
0.140227529181237 0.0902886464507345 0.0437134914073978
0.13213746636502 0.0984064501619542 0.043201504065189
0.124261880166902 0.100362663790884 0.0414478306772937
0.11590548307918 0.105534643209367 0.0402407199997944
0.111585228943987 0.120961580382016 0.042908941374759
0.0989162833747926 0.129668574366242 0.0426299203765651
0.102035675041135 0.127626135580484 0.0427265252174197
0.0879270957954296 0.140432786362816 0.0432714439415027
0.0786341250951979 0.150990626407913 0.0448837855260065
0.0805027977343686 0.156087288018155 0.0467645673577022
0.0733757688523133 0.157419186632351 0.0462455027607091
0.0683291030906333 0.170047899679308 0.0496216423081182
0.0586820942851558 0.174669198673774 0.0498219931485712
0.0518497826964226 0.18095135791682 0.0509279430730316
0.0444430294387218 0.194326049628145 0.0548967366943151
0.0450106825559938 0.194238848090637 0.0548924500283584
0.0366100765737181 0.20280506962106 0.0574572672164233
0.0252780002479693 0.207384157812255 0.0585186353709172
0.0236254393502965 0.216461728167537 0.0615646813300374
0.00861877255906195 0.226028712269717 0.06417455595641
0.0154995064467869 0.22653373246833 0.0646596146928818
0.00681746836517567 0.237568105760744 0.070025631419225
-0.00324191876198719 0.238499790875162 0.0703192051352294
-0.006716865815079 0.246092866225911 0.0754464575744052
-0.0081893948148974 0.252070256805976 0.0793768136342951
-0.0196194765728597 0.256398452048405 0.0830917390534071
-0.0147761131098654 0.262597245779335 0.0866335338562577
-0.029221478805862 0.266669007451065 0.0904379640975535
-0.0370535754622651 0.273216086304349 0.0952643748633507
-0.0355196832312867 0.276298381286365 0.0970988189035038
-0.0454340130572008 0.281209773056591 0.101058080050586
-0.0443934601933146 0.28970299060896 0.106380005071983
-0.0468106626407101 0.297519301427349 0.111560743287832
-0.0559372332229181 0.301374669631346 0.114781391397037
-0.0654422444306707 0.304014248811609 0.117259457212014
-0.0752986954760072 0.312543249622214 0.12351785330579
-0.0725908429794841 0.317378300004885 0.126370161581351
-0.0818549375091586 0.323758942656391 0.134225280430809
-0.0804403386514665 0.330345962496355 0.141148862043418
-0.0826690894730775 0.331678295704597 0.142907402655278
-0.0948183338308556 0.336667373662534 0.151301942965828
-0.0888321225825274 0.341185830705739 0.154069134886034
-0.0955696923729846 0.34975453323657 0.164807010801085
-0.103375715649065 0.349687613224203 0.167998664457377
-0.108813059829269 0.355196413779557 0.175821484285246
-0.106483423922269 0.36269502024569 0.182407148431287
-0.111556207029333 0.361171518253965 0.182989462077801
-0.112231981689824 0.370618922015018 0.192794235183216
-0.122709176604087 0.369266681207586 0.195805579180489
-0.125155461737198 0.379293694500876 0.207241789953524
-0.125850282059642 0.384322162590227 0.217168555341809
-0.129198651256952 0.383477278657422 0.218180704955934
-0.126693187468081 0.390651858353877 0.22963956188119
-0.137104236673524 0.390247926410942 0.236937612606929
-0.14175304965362 0.392145513370537 0.24407642963701
-0.141735515106196 0.396921902812943 0.252981541720527
-0.145037992953982 0.40047811405937 0.262176106091935
-0.139591628573946 0.404879620515734 0.26618236383697
-0.147993419084361 0.404460880376973 0.271898729321304
-0.155275795678726 0.407810773004026 0.283786247381559
-0.149773541647261 0.412489809226994 0.288267493186262
-0.153340069075908 0.416397215598793 0.298322049452287
-0.160045033549968 0.416155043960174 0.31098792454939
-0.164567732549851 0.414966567562407 0.315011522773302
-0.157110595494181 0.420472911616505 0.329213920427259
-0.163408497400313 0.419820471849251 0.340706490312235
-0.170189613115937 0.418538590808591 0.349677066057224
-0.163425449723768 0.423051862174977 0.359731631902009
-0.166990555038886 0.422643476869378 0.366007893809916
-0.169445650656544 0.423481747415819 0.376906916243677
-0.171995877464547 0.423522472061974 0.383351982818801
-0.16780491558264 0.42647185015968 0.403561730622518
-0.17430241001694 0.424335299514785 0.404597675751037
-0.177132550268213 0.436726375756599 0.414350323987897
0.140624841387307 0.069229203403642 0.0403148787579257
0.135244609704334 0.0800119752163352 0.0401732899853232
0.1246172630084 0.0810398736236463 0.0374666259536699
0.114886120821359 0.0882266151866581 0.0363066234480417
0.116094167708986 0.0955975444036584 0.0381949418565802
0.107452615916779 0.112979641713852 0.039840679948358
0.0946956885768814 0.117262883550479 0.0383260843370459
0.0947078240042215 0.122655130241718 0.0398120869805371
0.0854926428137381 0.127513766380081 0.0392034360576545
0.0815642941632297 0.132799144698491 0.039828216266757
0.0759550743756172 0.145008883697447 0.0426119141855708
0.0677462957721854 0.150914264506949 0.0434144980836957
0.0560268483266297 0.155711086136248 0.0433960665265724
0.0516190746904488 0.160595449052644 0.0443759452755113
0.0426360158400619 0.175415464913976 0.0483135409162696
0.0419693021551523 0.179348031628567 0.0496353699250031
0.0339033284352789 0.186615837936525 0.0517689415691016
0.0273000541665431 0.185541477085982 0.0511007033910986
0.0221629760332824 0.196187365545567 0.0545282174031935
0.0225991700263451 0.197142690132197 0.0548763982865081
0.0110439845200053 0.20774232357304 0.0579975150662257
0.0128961165687732 0.215948125934265 0.060902478177811
-0.00082256158027613 0.222036898716841 0.062449311118557
-0.00793255979060369 0.23045497926739 0.0656652352051467
-0.00963038358167495 0.233437023067706 0.0676304762681252
-0.0127281674403179 0.237682642275199 0.070594172139729
-0.0258398819538384 0.247139146999379 0.0777162223883524
-0.0240959901648684 0.256170452496089 0.083321872735249
-0.0339224065063932 0.262908478633424 0.0884371120510868
-0.0348038646046483 0.260769106174818 0.0871484931654259
-0.0400862903304382 0.269454946582557 0.0931232590570299
-0.0420297732291801 0.272236735519865 0.095057883953035
-0.0471780718201332 0.280469360771827 0.100732759380221
-0.0539915460642088 0.28457759156284 0.103920504716787
-0.057839381436406 0.290166553640016 0.107802640265439
-0.0690212814015344 0.298633612087089 0.114132721371348
-0.0762503382993259 0.300513273152 0.115935977470684
-0.072408981433662 0.30760157164311 0.120128296584725
-0.0762269209762165 0.311238408240523 0.12276465304837
-0.0875469424591729 0.317358317447602 0.128803245905658
-0.0911351888266169 0.323650787114229 0.136643954769796
-0.0988445418389137 0.326949194407039 0.143187371364361
-0.0973761131389267 0.329656115069731 0.145302759780662
-0.09776245409195 0.339129294400068 0.155012671717917
-0.102280569059625 0.343558951340238 0.161363966182652
-0.113044721973803 0.343996755017082 0.166299416332422
-0.111375664287389 0.347573042245135 0.169207328732141
-0.113969476806882 0.353561353672287 0.176326269653094
-0.119353955727563 0.356596828148963 0.181633997538742
-0.126136331920443 0.35960950995478 0.187502389817182
-0.127519497235714 0.368012126325155 0.196549400272291
-0.137687570024191 0.374416733267514 0.207828118782567
-0.134788881839365 0.371551540405426 0.203152050699218
-0.144691733423717 0.378694530227146 0.221233078242171
-0.140454807588295 0.382167886959441 0.224441680403936
-0.150332720196188 0.383075486845724 0.233776330661584
-0.15428580683683 0.385871211951134 0.242054088362865
-0.14855652417979 0.3925709625195 0.250132904119214
-0.148744690656821 0.397398769146031 0.25929312127425
-0.157797087692545 0.396596561480711 0.264796663245349
-0.156551596940581 0.402914101783769 0.275629730007746
-0.156956085811302 0.404240662730007 0.278419586643895
-0.165624600036848 0.403314932461678 0.283395572929465
-0.173046299672873 0.407325612129242 0.296624697740338
-0.170610731266311 0.408566674414229 0.297058302687807
-0.171227792714628 0.412067669211385 0.314187805486805
-0.169519243185051 0.415193343653065 0.328392983732386
-0.178734893781898 0.412903328862246 0.337365225673255
-0.173268803837249 0.415569829796753 0.339729097338789
-0.180680435629279 0.414610696673919 0.352130085335224
-0.172930592524691 0.420862122102287 0.369997432400242
-0.179735213590044 0.418563287003925 0.373050768317645
-0.174697120079156 0.42265733580374 0.388326993687496
-0.179690319350156 0.420844405823663 0.400433039289673
-0.184297304415257 0.425893995742212 0.410964020119327
-0.183755087673025 0.428105935256458 0.412143468198077
-0.196946377394296 0.436571249804379 0.414760055944524
0.126674738048037 0.0667716219247277 0.0355195884686356
0.115795911821978 0.0739954568825881 0.0335527653946716
0.119672284532081 0.0793942913917019 0.0357588547498755
0.110680029746538 0.0866368776254759 0.0348139134172454
0.0996024317762498 0.095953994351407 0.0337332071517757
0.0941163481705758 0.107275842099841 0.0354562898576821
0.0921312900960292 0.112362568277862 0.0364366413951336
0.0784181661267502 0.116837602567203 0.0347729593589244
0.0837851641716298 0.119292930685989 0.0365813898657373
0.0662194500645885 0.132624908966825 0.0373525594338019
0.0588113575078632 0.137473959090442 0.0379229804077739
0.0587070409240954 0.146633741132606 0.0408436389517462
0.0470703499762821 0.154313136850314 0.0417596738633329
0.0479694138731016 0.158331229940525 0.043166248966181
0.0347085864701985 0.164128860281961 0.0440744277403894
0.0304447387646616 0.169333209176718 0.0456706793301014
0.0312998595199337 0.178175990859375 0.0487495076916366
0.0194043922953717 0.180094163760362 0.0488705604009768
0.0211294402442911 0.186267130425708 0.0510708881258736
0.00565442517401903 0.198201799698936 0.054473568148023
0.00682142147228765 0.206168990173151 0.0572654866923659
-0.00317675294318144 0.207397482808124 0.0575228749505891
-0.00185595907284414 0.220432213846918 0.061944398259359
-0.0162057649504227 0.223914827425198 0.0637912088315117
-0.0239392607510335 0.231802738396498 0.0677893875687622
-0.030358238728348 0.234704983605111 0.0701759857800789
-0.0298192623527747 0.242971238153811 0.0753954179832937
-0.0365802747402576 0.245413243577675 0.0775175766045711
-0.0360091816111938 0.25002027741387 0.0804038263031179
-0.0455500096587483 0.25915551179041 0.0870218572290973
-0.0535601105011084 0.258105062278839 0.0870244686149562
-0.0533102912325069 0.267005222838777 0.0926718687298405
-0.0606022531685832 0.276174127450561 0.0991227828648573
-0.0620546255420916 0.282752428053864 0.103434157268444
-0.0648939762525238 0.289409689005261 0.107912114059109
-0.0704864386850725 0.291544400493406 0.109740583448789
-0.0813581493612275 0.301249455973364 0.116936553975668
-0.0916414511855835 0.303174788602536 0.120607112126787
-0.0878549492467096 0.304461220717362 0.120439757971642
-0.0916783177517336 0.317984447790389 0.131159259618983
-0.102500276053834 0.317197175759477 0.134884013757086
-0.107245147566208 0.318941288209704 0.138623053459318
-0.107503103359424 0.329340637343259 0.149212907564037
-0.106710843829805 0.328034874494393 0.147565969834897
-0.111138909543009 0.335256815856111 0.156694185817818
-0.113944508380916 0.338838795926677 0.161476058114139
-0.121224129679214 0.340906607871221 0.166599662632198
-0.127120362616446 0.347913530141648 0.176124124505275
-0.138323433682301 0.349626316931704 0.182527963382307
-0.141166880883744 0.353402688327143 0.187521576992099
-0.141670737767115 0.354667912365292 0.189007241621335
-0.147490561821494 0.365975469776608 0.202834681073697
-0.147488920116624 0.370642716057343 0.208361841703189
-0.151289995331879 0.373327135793408 0.216314194126613
-0.155940873037644 0.373305417240841 0.219870800640874
-0.15681452007096 0.37943648483395 0.231994697066685
-0.156971998638956 0.383124636312111 0.239003167347661
-0.162484290374475 0.38340486519524 0.243789832103131
-0.168246768230605 0.384727943388815 0.250717251837135
-0.170715675918158 0.389239705086105 0.261051346041196
-0.169116928218893 0.392852486262226 0.2665607515948
-0.167580408613514 0.397190276077798 0.273472053076846
-0.173324933666787 0.401244966779058 0.285486168466368
-0.175497765183216 0.404892710410498 0.293977935807183
-0.18471443492726 0.403924743430094 0.299299019628497
-0.177794801130365 0.408749876628756 0.310676717606076
-0.185988807488024 0.406226044875018 0.315789216404599
-0.184433258283569 0.410375420186039 0.336380786308909
-0.184530096684113 0.409790689834927 0.333181241351724
-0.186785873326139 0.410814368462665 0.344684475767044
-0.186735304237848 0.414487806345058 0.366142265295505
-0.185576273058406 0.415063116638029 0.366701689880228
-0.186964646986186 0.416890098791391 0.380813431259341
-0.190634377290051 0.416055907719959 0.388390483773046
-0.194393736169405 0.416416590008118 0.405350902922164
-0.197049932612896 0.417049400471107 0.407841237512167
-0.200551988570842 0.435245589021898 0.414742966441362
0.12360474255852 0.0658691068835284 0.0344162955680478
0.11641019440535 0.0643185903217046 0.0319056374946602
0.112768813390201 0.0704153203177219 0.0319642374360657
0.0973080491031159 0.086970206876207 0.0312055622694853
0.0896730877019238 0.0961358421663627 0.0314536493844407
0.0872241134774449 0.0945674386684953 0.0305052019303028
0.0775052118159587 0.107470618081386 0.032003321723836
0.0735680946668597 0.116258624904398 0.0335898460122006
0.0641583048189269 0.125969038670525 0.0349467157019539
0.061440731189827 0.123638302798464 0.0338393982527561
0.0605561477971419 0.133730504065062 0.0369552320975527
0.0468532964265159 0.13897985519431 0.0368185772666481
0.0417314305948483 0.149634935694199 0.0395524489110397
0.0330137697753568 0.153979835055792 0.0405085103095206
0.0338342683041383 0.158819857817685 0.0422096340714197
0.0249319867326464 0.167867439963533 0.0449172349946964
0.0125955587602818 0.176913476484155 0.0474688690002446
0.0141771242956075 0.175478952919122 0.0470472681853879
0.00950693511814842 0.189703726429401 0.0517263252795788
-0.00278585115994121 0.185574367395754 0.0500024548320129
-0.0101439373270754 0.200480916403796 0.05546032547435
-0.007155354537296 0.203664842036715 0.0564196818332691
-0.0118921045487251 0.210211576057146 0.0588848247080996
-0.0264341107308687 0.212060267974127 0.0601785968208231
-0.0317668157287796 0.221638621686156 0.0637129762052417
-0.0376655201014751 0.23074329782034 0.0682655556094675
-0.042572463411017 0.23731580314113 0.0728628946078914
-0.0451812555603206 0.242058058846116 0.0761018885262758
-0.0495164208553013 0.24686043560648 0.0795239236823027
-0.0483745254047487 0.252436203632476 0.0829792820902499
-0.0600923200998004 0.258538342244218 0.0878481229203688
-0.0671139554063896 0.266363545382481 0.0934205924955212
-0.0764666290970713 0.267261295912514 0.0955628272668795
-0.0753959453739642 0.275257160722991 0.100045001984287
-0.0778107324893864 0.278000995484984 0.102267030234096
-0.0909631659531549 0.283658744453978 0.108858009198097
-0.084519662980277 0.289868796819386 0.110959557480594
-0.0952871337357456 0.297262497526962 0.117994498986506
-0.104622701538388 0.30022483232544 0.12204751747898
-0.106127705949536 0.310112289786863 0.129257208630319
-0.110237681116387 0.310538627081484 0.131402903628094
-0.114001814128549 0.316912964151162 0.139399566511756
-0.119441686158754 0.320260820329332 0.145045290730201
-0.12186908721526 0.325523492170446 0.151363335376774
-0.121734456438837 0.329104508233349 0.154916655545984
-0.127611037794032 0.334934956841761 0.163247071253702
-0.136023285993408 0.332388382439223 0.164192432169515
-0.136872818372738 0.336488274179946 0.168679659284971
-0.142021848787724 0.346388757885504 0.180808756895695
-0.145200970934758 0.34638393957997 0.182131221109594
-0.15453294725394 0.350452616755356 0.190128505217356
-0.153948528816775 0.361101561701971 0.200618241407433
-0.150610089902262 0.367734287861538 0.205909943507003
-0.156969599129994 0.36731471195785 0.209480360104581
-0.170835177198364 0.367788679047278 0.221089520583427
-0.168167924323422 0.369993931393097 0.223144308190876
-0.171978731111031 0.37304848773894 0.231795321915167
-0.167391291148924 0.383437947245834 0.247646859618463
-0.16954135554328 0.383275342590644 0.249006176490825
-0.173911830450483 0.387629097684931 0.260515976365005
-0.184830491457193 0.386799977173191 0.267412702912085
-0.179834460228013 0.392341968445077 0.273896825823387
-0.186135292187006 0.394633645578416 0.283049236883927
-0.188422599618477 0.398465525173912 0.291973370484586
-0.19410220076579 0.399004206596483 0.297372031889236
-0.188566990020849 0.4039433642026 0.308652685569149
-0.192730123219834 0.403696743626682 0.317334551885697
-0.199736402521205 0.402219707119619 0.325706542584482
-0.19479540520487 0.406648225887487 0.339699760339142
-0.19338579299359 0.409460532941225 0.352791401571864
-0.203559333791966 0.406701942236279 0.361341802059117
-0.205521423571171 0.406478743136086 0.364805165497652
-0.204586052384175 0.408900803230869 0.376758205324985
-0.196553346790851 0.413604190277455 0.398689915885152
-0.203503060555439 0.41331538588274 0.406605692350859
-0.208041856190757 0.416006696722646 0.410933168920418
-0.211638096035916 0.425789059950814 0.414761705028396
0.10738221199165 0.0578905665111025 0.0281603566224509
0.0995105633737933 0.0662225416020568 0.0274317288879296
0.095586980394254 0.0702548770581182 0.0272836385699193
0.0896701741473902 0.0780313150195174 0.0272880336460466
0.0776788139101525 0.0867212728653827 0.0270065337844787
0.0837349151411127 0.0942249285987712 0.029674417813087
0.0684594653257427 0.101976880242155 0.0285824348321771
0.0667442253855342 0.104179696502256 0.0288263623119311
0.0599427352503624 0.113450079899777 0.0303766319911112
0.0533776289921668 0.114137675632016 0.0297257209163752
0.0448780188004494 0.132482517490154 0.0344749170116922
0.0358266569120203 0.134205311219056 0.0338373995041564
0.036162620187038 0.14374872153195 0.0371336040816042
0.0338899647249326 0.144420710482999 0.0372617676363818
0.0235017075670721 0.157786531798105 0.0413867094585986
0.018850344317378 0.164026046550751 0.0433213085920852
0.014747960712219 0.167739722960892 0.0444123792214178
-0.000579775037321318 0.172621130972313 0.0454493167787575
-0.00802779156677496 0.183032425721126 0.0493658017454413
-0.00366841384173135 0.186209042166846 0.0502606006241782
-0.0151417376764325 0.187299771565798 0.0511548933154746
-0.0174375118200546 0.201914950625365 0.056283462578912
-0.022140541605297 0.205256271969192 0.0576450671316724
-0.0310292641080428 0.212421050833412 0.0605106177419994
-0.0426160690654619 0.216157415294183 0.0623196088661562
-0.047721124949635 0.227413676510817 0.0669881142993169
-0.0464802268733783 0.229941399164271 0.0684939282272391
-0.0481061734151078 0.23526573331647 0.0720212283998307
-0.0630156176089059 0.238920518128922 0.0755990054375388
-0.067004053864676 0.243031157736761 0.0788565925494984
-0.0683733375860987 0.254984699986837 0.0862873756429879
-0.0790594163309337 0.261020446841789 0.0924963917171932
-0.074686560229047 0.259194336010804 0.0903376670224739
-0.0857985393027955 0.270251281883281 0.0996313570127796
-0.0938423226241296 0.275962817734657 0.104998412994664
-0.0978181492931936 0.273712768808383 0.104640421961414
-0.102203548137491 0.282163086463261 0.110733557544417
-0.10218828796486 0.291690908220809 0.116384368168231
-0.10891704744783 0.298090781672788 0.121836669626948
-0.112935472080952 0.303174702343056 0.125841707158273
-0.11858305208936 0.30889451042128 0.133229986127466
-0.123521151705311 0.310844308648548 0.137257024396901
-0.118486828167296 0.31548880406436 0.139836612579949
-0.126810632596913 0.316487602618526 0.144318650367046
-0.131423587339494 0.323742433460767 0.15355721105901
-0.14292104503351 0.328235701837216 0.162886581140623
-0.140639788748406 0.331972787043841 0.16570097176682
-0.138409581422582 0.336903105583062 0.169739410453018
-0.151095561978052 0.341432635429105 0.179601553010841
-0.154021347435826 0.341849315458836 0.181243100716643
-0.155415306699395 0.348675263095315 0.188705394726055
-0.159096231642376 0.348596847200543 0.19016318389475
-0.167517029423673 0.359836128800629 0.205007741006511
-0.173678425978523 0.362412437957787 0.213249852015895
-0.17923803773027 0.36292942810553 0.218515206343076
-0.172500316221572 0.371310674383501 0.228953817359288
-0.171595122137087 0.372393300806597 0.230275232173271
-0.182815764068178 0.372394157827421 0.23895529063134
-0.189034963316247 0.37392182809633 0.246617978401912
-0.183776464240774 0.381920077778515 0.257485527342116
-0.186213403150274 0.384271394756118 0.263760823059373
-0.194672046993736 0.386186478809423 0.273878975058387
-0.194608113544642 0.388905751446952 0.278907066065543
-0.195411217146939 0.394528471883203 0.290027194548105
-0.202477831203107 0.396633871027012 0.299561763584594
-0.205809630535731 0.396150067172504 0.304827218483601
-0.20349567458321 0.399056577432198 0.316271624725561
-0.206549251278613 0.399791590139534 0.328020390179587
-0.208769605869605 0.399964541883575 0.334439546093235
-0.208687198533477 0.401985768120548 0.346113386307842
-0.215261909210161 0.401441345571879 0.358914136338105
-0.211194689368567 0.404189751881632 0.365163250762596
-0.211310958260069 0.404775184392126 0.368885503933285
-0.217539322822359 0.404507296380022 0.382468037691689
-0.213148000133398 0.406730459800092 0.396743928862294
-0.220056231748287 0.407414310548192 0.407734828113716
-0.21244359793469 0.416717541430752 0.412437107480422
-0.225355630180643 0.421738374124945 0.414927812272178
0.0993573865471767 0.0536586059891741 0.0265921315635956
0.0949421177659138 0.0619299894640679 0.0266686997400731
0.0818509341061225 0.0685027832793499 0.0259650165977267
0.0783506591714595 0.0747310346774403 0.0260768362795906
0.0764778110292126 0.0787586255357041 0.0262297072305823
0.0607194920136549 0.0892857481037146 0.0260928948144552
0.0583978758017185 0.098676093815235 0.0267582101831126
0.0475439255583143 0.105051553780398 0.0269140391265389
0.050864926161327 0.109659288625643 0.0279575511949984
0.0380035877835927 0.118110974055546 0.0289584913705962
0.0330815553878595 0.12412166012336 0.0302464197722354
0.0271239114472487 0.134570997114437 0.0335692196698377
0.0214102709978139 0.138507294617858 0.0346638984876426
0.0178593404867343 0.141716468775635 0.0356064823683197
0.0083933413439615 0.144169639883548 0.0360214280130861
0.00756257124526302 0.155610447953587 0.0399171443197262
0.00247118192974181 0.166549172355692 0.0434474024821897
0.00113012193969506 0.163917177653499 0.0424818311782476
-0.00954132377201364 0.173874624327547 0.0462858798910911
-0.01718344435952 0.178573613920797 0.0482472755082113
-0.0200354435537673 0.181097454017014 0.049244051334307
-0.0346072860324093 0.197378662348626 0.0555010334421794
-0.0370193281255919 0.195424282183048 0.0549382961910319
-0.0372748938240768 0.204992619917992 0.0582394318113822
-0.042285925720007 0.210203871970677 0.060257854132126
-0.0561302455857796 0.216992653419642 0.0632184369582906
-0.0551137564246331 0.221398865005931 0.0646872723183074
-0.0652424477464558 0.228908934862084 0.0700422996245595
-0.074078986518681 0.232106128188114 0.0741120268858845
-0.07054851607535 0.240951062007931 0.0784934241174253
-0.0764758888473921 0.250550934554763 0.08564785526456
-0.0790961399471333 0.24898699015171 0.0853638157114713
-0.0885816547856169 0.255665360065553 0.0916590839895035
-0.0900713924663194 0.264314355553462 0.0971582988651647
-0.0958653993462952 0.26804391193469 0.100796035788978
-0.108104633051028 0.272897789105809 0.106685444536315
-0.111521444946686 0.283008666066154 0.113525982303599
-0.115881639699655 0.281559812842849 0.11373797215313
-0.123082641736556 0.284285981777534 0.117126097174716
-0.118385640673628 0.297010106802516 0.123522948091067
-0.126466252560041 0.300950398833554 0.128513948020404
-0.133596078936072 0.305525543328665 0.136102308721642
-0.135303466593399 0.305222273230462 0.136509478245685
-0.141160832640107 0.313376327853182 0.147173979192074
-0.139078356082366 0.317725575904863 0.150688399917886
-0.144170830052274 0.324422815032622 0.159565133957393
-0.155766394534505 0.326253956319146 0.166252140352508
-0.150324276302636 0.331143900947762 0.168908873070636
-0.161223851606449 0.336026046859873 0.178380594217342
-0.165520838038112 0.338774418771822 0.182944892564218
-0.16659684014269 0.342978618806342 0.187631812307799
-0.17043121869837 0.348483221986133 0.194781144337848
-0.170917830409394 0.356195794506697 0.202758294756778
-0.176680522611256 0.359483557387786 0.21010285605985
-0.179798618116537 0.359704341874185 0.212926764111445
-0.179483061250568 0.364168349083607 0.221018081586861
-0.186417643139873 0.367024683062621 0.231715009067419
-0.193682694453983 0.364712976560003 0.233017552651412
-0.198213648549746 0.371388724993142 0.248987196034306
-0.195671470970546 0.374544691740492 0.252913935143498
-0.198206435630826 0.375668416610703 0.256972836312736
-0.19940738452265 0.37887992018935 0.263898348141844
-0.203284826741809 0.381139320932656 0.2711161523991
-0.20444966828814 0.389224891108386 0.287114798289556
-0.209979793654033 0.390298245283038 0.293396212917506
-0.217804733690412 0.390995155050254 0.30373227992696
-0.218183368157159 0.392531635383055 0.313680233430583
-0.221340609766123 0.392429232462474 0.320761581179594
-0.215143394459528 0.396609640292441 0.330240260613859
-0.223726101925061 0.395154101253015 0.342574683836001
-0.216749049579025 0.400046899667068 0.354340857126855
-0.223993936241107 0.397906751927698 0.359397813837404
-0.222156884360295 0.401697403631431 0.377196922280308
-0.226761771050482 0.400583424749069 0.381858179767863
-0.222425969254114 0.402887399159013 0.388598891829202
-0.226761410539665 0.403433078676623 0.40614190085319
-0.225861049464944 0.408726074275914 0.410992712119797
-0.241186791305061 0.410915608550789 0.414591786900033
0.0946891393223994 0.0451044661606507 0.025755997657457
0.0821630135259625 0.0580177549283503 0.0252888186676411
0.0783044888430765 0.058150908907412 0.0249603669249668
0.0734703678633929 0.0738530750753821 0.0255989883493575
0.0717611533620399 0.0766661370573984 0.0257302811483869
0.0610486573039321 0.0794916471409195 0.0252585933421585
0.0537530422709957 0.0867546460964226 0.0254041685252052
0.0425159734483508 0.0937184372103383 0.0255479805043155
0.0449161530973512 0.105360787651725 0.0268346946097447
0.0347265169296134 0.109112103032368 0.0267869010465873
0.0351227080018581 0.115404000549284 0.0277089685521281
0.0249651619111138 0.125602237681424 0.0303880759605076
0.0163495622367001 0.131260243462067 0.0319433255571933
0.0105665875915068 0.142069941267224 0.0353979223551659
0.00698465972080296 0.140594812520578 0.0347286527521383
-0.00398708146263192 0.145221404827925 0.03618358680536
-0.00860217934546042 0.159830941037039 0.0414151927641722
-0.0111771120409457 0.159414901054964 0.0413887053646649
-0.0211121230647563 0.171687339800903 0.0460576122986359
-0.0264818229558336 0.178435460960587 0.048620639949792
-0.0365392663109798 0.186343196841999 0.0517945155160409
-0.0351084137636947 0.188376569854206 0.0524288206642803
-0.0484308512210257 0.194425012309659 0.0551112556551538
-0.0465769140461285 0.198562429468589 0.0564497758511033
-0.0548431316015054 0.207851870992018 0.0600176039810205
-0.0591079847059152 0.216200588613155 0.0631838392140915
-0.0677724328086289 0.214667159419492 0.063842356595869
-0.0685373415785263 0.219282554350947 0.0654224856289605
-0.0794410487068101 0.227429676223725 0.0726547908209051
-0.0784743002470265 0.231006981765512 0.0745401935665082
-0.0820789314919486 0.240650073691876 0.081149281822129
-0.0966287957544546 0.238934327435949 0.083707772606659
-0.101046486458432 0.246087102263453 0.089038782001768
-0.0980546457134962 0.253941883158169 0.0929649540271181
-0.10312168916248 0.25800442740788 0.0966216049813885
-0.116707284826367 0.266048130619279 0.104735080631179
-0.114970188150454 0.26770672844974 0.105292398246253
-0.116804764546113 0.281000765810481 0.113633118540549
-0.125969920010843 0.280498769015184 0.115588237073279
-0.13091638525344 0.288816275119031 0.121740477086291
-0.141319629540372 0.295140074150585 0.128858817882305
-0.140577163618014 0.296603652183304 0.130024061481619
-0.148526775877969 0.300925921032269 0.137699803248258
-0.146617331749766 0.307390210724993 0.143418349825712
-0.148928747313723 0.30553360858796 0.142512007573371
-0.156838950636075 0.316639823797081 0.157009259554039
-0.158627707514081 0.318283001630581 0.159412348315898
-0.167802466819061 0.32393742467916 0.168942364933808
-0.170323415837705 0.329304291129081 0.175404491218927
-0.176921741684563 0.326185066050067 0.175015307780135
-0.179959368450929 0.335364588625586 0.185536167712746
-0.18839404160913 0.339820527068413 0.193549162054523
-0.188308057803822 0.341340905046769 0.195045746876824
-0.192567271805123 0.347886765417044 0.203422000960391
-0.191903562506543 0.354442566625681 0.212464167823738
-0.191220841431673 0.356250421051105 0.215311827496013
-0.197211212700488 0.359366286200758 0.225763075114459
-0.200214338812179 0.362249214038455 0.233468926901554
-0.208066087838954 0.366030411934324 0.246602169814819
