ply
format ascii 1.0
element vertex 833
property float x
property float y
property float z
end_header
-0.113165156521378 -0.327677301876995 0.104011080204011
-0.115838684467732 -0.331530380162909 0.110592578197077
-0.122993804674995 -0.335590092491412 0.119911192005465
-0.122317170752045 -0.339678054220952 0.124963174802554
-0.122069735007477 -0.345238464574342 0.13220465396723
-0.126627481331904 -0.34925061035159 0.140032713586927
-0.129065725006526 -0.352487800421274 0.145667755394944
-0.140595562538779 -0.352531634479873 0.155576117601253
-0.133393548381228 -0.360018928876907 0.165578903700705
-0.13545718453664 -0.363499174407522 0.175206171695178
-0.146995664676829 -0.36009724134425 0.178265248547278
-0.144315571649892 -0.366271551318916 0.1895118122764
-0.148871740716511 -0.369273760727227 0.200370306291553
-0.146783033538175 -0.372118969412627 0.204767587941068
-0.150297010930233 -0.374326131221182 0.212901734829633
-0.149766720212585 -0.378448592035115 0.221569115890519
-0.15600002657466 -0.378969530320485 0.229323524762113
-0.159228219885276 -0.382378216565157 0.241424438200273
-0.16715603828069 -0.381705830069137 0.248083018622569
-0.168386155573322 -0.383368960818552 0.253622849789225
-0.162311540282058 -0.389846169024367 0.263722618097519
-0.1647376219098 -0.39169790982429 0.271006491881174
-0.169815740326547 -0.3946036845837 0.283778899015662
-0.171992965574756 -0.393841293840803 0.284134455668634
-0.171397732620212 -0.396515474002738 0.290324392898344
-0.181427060917089 -0.397890484433734 0.307824493188202
-0.176248645196448 -0.403640581013935 0.319423411065952
-0.177350335101586 -0.404636067649691 0.324094414566801
-0.183081297604964 -0.404488076217371 0.331255733901387
-0.186042634506946 -0.408563296369976 0.345019092910875
-0.182651834029591 -0.412882789357622 0.35223675446423
-0.1875812028576 -0.415675788467962 0.360771459209198
-0.188937128329741 -0.419892173032217 0.367187112155317
-0.199531342258278 -0.420770871051114 0.372167091973698
-0.199841293350351 -0.424804761825887 0.375915885892712
-0.212139869119402 -0.430471551962841 0.384359139904708
-0.208553921351382 -0.439712614276587 0.396716642375756
-0.208014190726755 -0.440041026714559 0.398201073109444
0.119383150822782 -0.0929312830094427 0.0117827392631154
0.108197297994682 -0.096961162245982 0.0112662704656691
0.105106251903045 -0.103779837771869 0.0114028985269267
0.0932932237284964 -0.11895145797496 0.0117729144085234
0.093722648889811 -0.114260095999616 0.0114945764922486
0.0878490515543905 -0.130195680023583 0.0122238576203314
0.0821521921993009 -0.135652154774933 0.0122931011977216
0.0695661026968184 -0.146688909600486 0.0126561359554351
0.0678864614209876 -0.151334091138353 0.012949621597219
0.0626295179385921 -0.155132230645326 0.0130700523054111
0.056271641472921 -0.162022878901629 0.0133864016673125
0.0477698554941377 -0.172807421554005 0.0139261177927823
0.0334380648516639 -0.184100657021257 0.0146464943544426
0.0372322553179235 -0.191094351269202 0.0152440400909169
0.0259258093676104 -0.201497430986641 0.0159549312617148
0.0191055855478569 -0.20317956811965 0.0160174702700776
0.0106728504426375 -0.210878535259 0.0169018445524804
0.0069479488434782 -0.222211811317259 0.0184174004252277
-0.00504908539462451 -0.227319744983592 0.0192253232669028
-0.00312223474139034 -0.228137305585771 0.0193309650656859
-0.0162095300493336 -0.23911482779772 0.0231977447929515
-0.0214891718772002 -0.238757360605182 0.0233452506589535
-0.0257459564432601 -0.24686113580581 0.0279708823251894
-0.0260536414572507 -0.258236882357688 0.0340915222297428
-0.0353020823182583 -0.265565936443106 0.0386736619983847
-0.0367869455954449 -0.26900711513454 0.0406234009124645
-0.0433026878753533 -0.272993938983232 0.0432207749759391
-0.0507920597798303 -0.281001514455918 0.0480425320170826
-0.0610323443656426 -0.284512172305261 0.0506475080815572
-0.0649707682455888 -0.293926952170778 0.0559730771599843
-0.0632422704273057 -0.293933634134504 0.0558546564089176
-0.0704997764045832 -0.302964995988214 0.0614317327320031
-0.0756200692870625 -0.311151103204427 0.0698822734113905
-0.0817893314120417 -0.312443187698236 0.0718892617554171
-0.0823922934368704 -0.317833425294246 0.0771059841848187
-0.0921709869979038 -0.318961034592774 0.0810359316500158
-0.0935485505567792 -0.324566550754936 0.0891030506510343
-0.0952780971256506 -0.3312630463076 0.0989383632505379
-0.0959787506320755 -0.336304133047329 0.10601185540417
-0.0963759443280691 -0.339394496363789 0.110330386161738
-0.107503195713692 -0.338505243217056 0.115265763902685
-0.107542544337708 -0.342835003414859 0.121032044888957
-0.113119936829759 -0.347091700212277 0.129744939727066
-0.119033910481794 -0.349553375790922 0.136261204867128
-0.122771291605547 -0.351832858475386 0.141339545356398
-0.123814218897074 -0.359795830370152 0.156271531646382
-0.123424400875136 -0.361914286669568 0.160617624904686
-0.126916972079639 -0.364562808161758 0.169712255109241
-0.131073843219999 -0.366784510426028 0.178470083995297
-0.13108862639238 -0.367853430133181 0.180857547093203
-0.132457988964067 -0.371986977616697 0.191297018389238
-0.135379191279973 -0.376402748903596 0.203790773510583
-0.132460252304675 -0.380612494780224 0.21045470819275
-0.147266392467361 -0.377349402887699 0.216828006776884
-0.139494267411693 -0.383810689151145 0.224234780821565
-0.14704577956691 -0.386659214600899 0.239473507513898
-0.142652145421738 -0.390738592870508 0.245234694599456
-0.14943586227536 -0.387697767711915 0.244645903199998
-0.149000291499051 -0.393892588426762 0.259981361750197
-0.153767164744854 -0.393113618074971 0.263029719947362
-0.154415252232771 -0.397694135672008 0.275393558844196
-0.158960752570441 -0.398979731569716 0.283472322091667
-0.156998140064906 -0.401550649832785 0.287954795080373
-0.167811916330598 -0.402482137591498 0.304452964151477
-0.167766968265592 -0.403767537274828 0.308528631217009
-0.160238447162743 -0.409835998444946 0.318019931007589
-0.1668494218379 -0.411601776503518 0.332511259656509
-0.166648139430311 -0.411736552404986 0.332676637361974
-0.171992052430404 -0.414402717516137 0.345067325315567
-0.172582970210899 -0.416586819110444 0.351081349693401
-0.181539463753718 -0.416009401560917 0.357355019890275
-0.174881031661169 -0.426443073482562 0.368079637654746
-0.187473089264837 -0.435120417952213 0.379840137115675
-0.18897933850581 -0.440848611452317 0.385078312254423
-0.197019461670503 -0.442420082458825 0.389948792176293
-0.198105291058501 -0.444704245813707 0.401011624497572
0.125413573701689 -0.0952961582207524 0.0122833468392869
0.122548875347652 -0.101564795227049 0.0124074861754108
0.120052043882915 -0.106058499963225 0.0124681910007068
0.110319419011245 -0.12109988204973 0.0127436895372144
0.103099262185596 -0.120640539183998 0.0123608461987101
0.0996757477277934 -0.132168069879789 0.0129288084820104
0.087493719400037 -0.138950238226102 0.0127651035749607
0.0846178492085309 -0.152006052392592 0.0135145543462715
0.0732522040243245 -0.153824373153853 0.0132998354192463
0.0645728884201561 -0.160704733894513 0.0135439654614519
0.0615389720318631 -0.171627927291024 0.0142622880609299
0.0596953858994386 -0.179302071762937 0.0147758111152057
0.0482567523025362 -0.184137201922699 0.014804984465872
0.0454827610885578 -0.193799331712963 0.015546367645941
0.0362087989208815 -0.196273028315723 0.015646268664111
0.0226981824678062 -0.210027567056827 0.0170041868080364
0.0247511493265841 -0.214747906447612 0.0177017466267396
0.0185085785380736 -0.224308463259452 0.0189931442082993
0.000221971138698415 -0.231263202814774 0.0198450558063533
-0.0052936056092012 -0.240840093430436 0.0233236436991506
-0.00708631699836259 -0.242282904428417 0.0241992776601529
-0.0108936484287877 -0.25221909719862 0.0297951408862864
-0.0134106665213198 -0.257318688342609 0.0327068637563934
-0.0168017098515246 -0.265299815327559 0.037225167081724
-0.0248923558929564 -0.271733629467779 0.0412456173934339
-0.0339341934321695 -0.2754689150534 0.0438864335692204
-0.0320971834004466 -0.278134694550448 0.0451859857823683
-0.0447577835670103 -0.287607693663965 0.0511584086474272
-0.0416047388678702 -0.290782583534481 0.0526380220061526
-0.0511483963583132 -0.295815505289458 0.0560099649559903
-0.0568974890928726 -0.298953861532314 0.058098334141897
-0.0641278424482936 -0.311144174567992 0.0684326398430339
-0.0692035433721893 -0.30759200236579 0.0656820401048205
-0.0633682916099737 -0.316495468675689 0.0734411350176473
-0.0700421962318141 -0.319600739516718 0.0772408397285858
-0.0748941741689256 -0.326177501602027 0.0855167997580609
-0.0799384708122223 -0.330102044447435 0.0920501677809255
-0.087310449506164 -0.332502056514527 0.0968492078348445
-0.0865728573429885 -0.33967013726411 0.106916964408057
-0.0896152466652954 -0.342469852719224 0.111473531891047
-0.0981036077601362 -0.341901602723395 0.114606249741381
-0.0984807892521011 -0.3526504824971 0.129074978630334
-0.101302538756991 -0.350010246695227 0.127122710483658
-0.0994993923004728 -0.357596360113159 0.136196884980607
-0.11092550682789 -0.36000856390066 0.145676829383206
-0.108858460428829 -0.362470186021851 0.148453131440851
-0.111390974148949 -0.36897726286786 0.165233722215806
-0.116717384611184 -0.369136548634492 0.17048716794128
-0.120805551531887 -0.373092663568567 0.18303359219207
-0.123581856232838 -0.371718333671936 0.182535361196724
-0.127204299037735 -0.377061784546494 0.197734376459571
-0.12415520167154 -0.380304610776032 0.202131238161511
-0.130380274591187 -0.380877924571233 0.209130829280674
-0.128468543459425 -0.385848136135691 0.218410130124068
-0.126311660873236 -0.389933747106866 0.225924382475896
-0.133638140638905 -0.390473521446202 0.235038609794828
-0.137974993414673 -0.390630216189372 0.240018547858476
-0.13855459394047 -0.393119292949852 0.24697731949525
-0.14243458274418 -0.396870413890302 0.260639768058426
-0.142864259917091 -0.399315905004969 0.267329062797613
-0.145261054769729 -0.402878186905519 0.278943525166454
-0.14903261321752 -0.403928760502327 0.285605626475408
-0.147442490353765 -0.407546571528534 0.293601331390283
-0.147114110541245 -0.410636628867685 0.303105475904122
-0.15294294347803 -0.412517012026574 0.316923194531882
-0.162721203131919 -0.410342091255596 0.322956887776964
-0.158997617867311 -0.413942975458749 0.329579861590185
-0.163192637399387 -0.414743425844842 0.336886101520328
-0.159151766481496 -0.422012654054804 0.350740763066701
-0.163847960432062 -0.427221849438356 0.363229358343393
-0.172499164627577 -0.428074175311156 0.368660112858771
-0.172391664186831 -0.43088046169717 0.371147516558961
-0.174544785367028 -0.441583402848208 0.380651529497937
-0.187668670697783 -0.43985254831024 0.383665982699027
-0.181591093723428 -0.448336301216782 0.389238072750002
-0.181114162999607 -0.451377225728077 0.399296442466328
0.137021305901814 -0.10203852776551 0.0133541949866205
0.135021357683866 -0.10695015822261 0.0134670704056916
0.122071834822733 -0.120345288503419 0.013296623958746
0.113832406225025 -0.125596075076859 0.0132026118549185
0.103343975888486 -0.138432826967178 0.0135081874659861
0.0994437250064984 -0.135840858394808 0.013151815055757
0.0920708382745407 -0.146506194292344 0.0134713798024005
0.0814023178421769 -0.15925136613084 0.0139539817436978
0.0894166558115426 -0.157867928599694 0.0140978624426685
0.0763376772666075 -0.17268662639131 0.0147964707244381
0.0713935270559302 -0.171744199682923 0.0145742555667334
0.0635132334752452 -0.185075643605428 0.0153223629500525
0.057091563038264 -0.194263764013066 0.015807474975496
0.0552042356937673 -0.199535184546874 0.0161976043670175
0.0410063386146562 -0.210039210891915 0.0173427142086227
0.0397019104719509 -0.217235207265526 0.018324525582016
0.0226374838238655 -0.223112859779758 0.0188709903117925
0.0258193915584683 -0.225317083640175 0.0193624233604089
0.0163513213771544 -0.234167627992689 0.0210444150255732
0.0112638914959385 -0.246349598584847 0.0266744371666814
0.0102918916185566 -0.248513643872698 0.0277660480213667
0.00283122914450416 -0.257941351835097 0.0322939625132907
-0.00791255333105353 -0.256161078156268 0.0316981545004956
-0.0135608318604723 -0.267940622889049 0.0384122412829205
-0.0162210703777885 -0.268327246560726 0.0388072918730195
-0.0239656039446038 -0.275699081854907 0.0433062172698055
-0.0279087735274275 -0.285274381462435 0.0487181813784719
-0.0276196251554813 -0.285314542099548 0.0487193037916594
-0.0403550069554268 -0.295774664555012 0.055226235204347
-0.0460259276633332 -0.303855174077012 0.0599587422668362
-0.0424209833056254 -0.305870557048756 0.0607848081669337
-0.0528757317914548 -0.314826442649113 0.070531777324096
-0.0516983958114346 -0.316676462800009 0.0721484262372536
-0.0549543021985494 -0.324003095363337 0.079545129144058
-0.0588435805372888 -0.330560792484531 0.0887491293960204
-0.0639926491341626 -0.32680148963374 0.0843617658897583
-0.0678783671905732 -0.336592568190072 0.0990308184181143
-0.0729174946341739 -0.341020167780884 0.106279476968237
-0.0794290732409109 -0.343281232397749 0.110719400720434
-0.0844325247637192 -0.347409648374918 0.117535389897808
-0.078523476806041 -0.34861442295712 0.118143121851239
-0.0919251184580698 -0.357828215167454 0.1337739735485
-0.0927055477853252 -0.360426489412411 0.137619724577027
-0.0987011492015195 -0.361716989824402 0.141225378145817
-0.105020961110336 -0.364819171297879 0.150139703259993
-0.100679872632453 -0.369310880740492 0.156121605842481
-0.0987219804471324 -0.375106524640712 0.168275035621999
-0.110716496470341 -0.372133445752373 0.171622550709654
-0.106414932239803 -0.374355462686392 0.172600262467642
-0.116344774129227 -0.37642674810496 0.18633453298417
-0.12012118653881 -0.379420937085994 0.196457926133857
-0.112190994479076 -0.384016918497331 0.199369822137357
-0.116448552440922 -0.388730331710513 0.213753880450976
-0.121075374699736 -0.389960989618932 0.220743093769445
-0.121845258457464 -0.39267702485296 0.228201939494254
-0.125565183143901 -0.394474195833333 0.236713173718285
-0.122120830111454 -0.399150711677301 0.244999526355363
-0.129708633111218 -0.401248414316172 0.258362141645592
-0.134751839687957 -0.400026623586441 0.260573252526493
-0.139307282227521 -0.401597483714066 0.269389880091824
-0.132267952565336 -0.407697033222924 0.277507807872511
-0.135922201273588 -0.411213245820561 0.290332872482841
-0.138047699347103 -0.413396239669276 0.299901585424043
-0.143180287524721 -0.413427933867355 0.30684358148762
-0.143492195812432 -0.415569549501695 0.314149556660314
-0.143489607448784 -0.420839143762013 0.331100183634751
-0.141423440380534 -0.422370396065276 0.333273232601589
-0.150374585413906 -0.42438621508493 0.347615809832408
-0.156304942967918 -0.427806884216995 0.359473603618429
-0.161315781828029 -0.427874609020598 0.362717479503763
-0.154949028771409 -0.432242089016858 0.36495350329066
-0.16400021343587 -0.43900817808242 0.375337261602657
-0.167647902999793 -0.44246876448677 0.379207728744254
-0.172636644679019 -0.447377686664028 0.384857793800095
-0.170615423992096 -0.454932624800941 0.392117586990593
0.137738952761754 -0.109922636819593 0.0137860313133252
0.137687934561002 -0.122363026786336 0.0143919139921436
0.125236516301581 -0.129037519223834 0.0139806140594686
0.121344325662842 -0.132182551019346 0.0139907249768844
0.122070493120618 -0.133760230825991 0.0141269561304891
0.116968137540995 -0.148072199607142 0.0147903948655547
0.108341321512714 -0.1507517375764 0.0145389728981915
0.0919451627213031 -0.159253693344412 0.0142786677723402
0.0864940674760099 -0.172550617663345 0.0150989817089338
0.0767004400658391 -0.185178875795477 0.0157359418151156
0.078879717761254 -0.180903303427093 0.0154853010237562
0.073404923610852 -0.192785073192498 0.0163003525406561
0.0684503819692153 -0.197912602745427 0.016700905724774
0.0519229429910427 -0.205226811510689 0.0168709480088288
0.0538930678534101 -0.211209576009747 0.0177434379189927
0.0441022358931787 -0.221998540937471 0.019191646081721
0.0393142565576673 -0.226784045422103 0.0199700979856029
0.0235939818336562 -0.241280585488711 0.0248270669702807
0.027247632613115 -0.24466988001825 0.0269020693319551
0.0218948134512116 -0.250889113092511 0.0298585905791585
0.0114249524825921 -0.255962001804156 0.0318393398569342
0.00735319735922027 -0.257377922847147 0.0323110648720303
-0.00107212420114543 -0.271684723792075 0.0395380854999803
0.00356988761488052 -0.271337972097944 0.0395284807150357
-0.00557160244354521 -0.278532966740893 0.0435272484351003
-0.00731260239755263 -0.282567222853498 0.045813035199418
-0.013642210330909 -0.294197614277031 0.0524952463645154
-0.0251156517466299 -0.298127496149755 0.0554120229546353
-0.0292986033919544 -0.308417825206152 0.0614590026273586
-0.0302631702082234 -0.30801028902643 0.0611914256909306
-0.0361916879595023 -0.311080373948079 0.0648639766094648
-0.0403560003550776 -0.321958353798086 0.0757618888592118
-0.0476484930187689 -0.323290681911331 0.0779482989107805
-0.0531327370596729 -0.330243680418155 0.0872271302545672
-0.048252084262175 -0.333450021652467 0.0908774931966596
-0.0496115981478401 -0.336021854038192 0.0947941445904325
-0.0639981920885147 -0.340380834601397 0.103697273141846
-0.0643520862230856 -0.341561786754267 0.105445066945773
-0.0731176636325998 -0.344441702597873 0.111188629270051
-0.0673743084166207 -0.353553213363234 0.123085145724223
-0.0810597778747483 -0.354213281855252 0.126590284746357
-0.0749152447306528 -0.357346621922618 0.129899794796821
-0.0839126549120014 -0.366586930428127 0.14474283316303
-0.0910737870813857 -0.366173530194554 0.145496573081406
-0.0938238163585714 -0.367181748058168 0.147851722707241
-0.0919629352757312 -0.374954257157086 0.165791452582544
-0.0955609536162295 -0.375935895850262 0.169259815529514
-0.096450893086003 -0.379929356195464 0.179056331957244
-0.102445502893731 -0.381621301162787 0.185084854765843
-0.0984916720884081 -0.382580844185855 0.186015717631493
-0.102096264173651 -0.385380331471597 0.193818475040072
-0.104843504035973 -0.389679733018977 0.205186968856797
-0.108159903633304 -0.395155967133818 0.220399344478316
-0.107446957111218 -0.395838589476098 0.221259485684071
-0.112227122011036 -0.399095751091555 0.234410074772527
-0.117680339059346 -0.401538078312695 0.24639695137975
-0.121231725073752 -0.402540230214308 0.252703050791702
-0.113398059017303 -0.407139598335441 0.2561568872533
-0.127815712212786 -0.405021017620873 0.265982264052972
-0.118712174369871 -0.410901405782021 0.271361247617178
-0.126983171912226 -0.41418228308566 0.288462270462344
-0.128556792808223 -0.413440576489757 0.288233066098277
-0.123655114439641 -0.420886634080341 0.304820224395515
-0.131648167293526 -0.41811912430367 0.306568273168452
-0.130960293590924 -0.423273401191132 0.322234628568959
-0.134000211969075 -0.423074775222303 0.325646776742758
-0.138679282669637 -0.425235600895231 0.337724027905507
-0.138990315330715 -0.429983816450568 0.349799899289294
-0.145408301774498 -0.433163164068557 0.360801053194314
-0.149725528221733 -0.430312679921795 0.359127877839662
-0.149069542960995 -0.437723859564387 0.36861041194555
-0.148409096617074 -0.441645577697329 0.37189615483954
-0.160215018718073 -0.446976573417104 0.380254284747124
-0.167604932956501 -0.454464140852227 0.389763745047527
-0.163975931125777 -0.45897693458932 0.401231685843481
-0.167868451831367 -0.460061723468604 0.402552689870483
0.153160098869856 -0.115287088148442 0.0150327513312977
0.138198918968058 -0.12706693523298 0.0146548456738202
0.136306518468697 -0.129545931945781 0.0146554710671497
0.135491197226008 -0.134870799686276 0.0148641737188706
0.121026581190102 -0.14482618254004 0.014781980396002
0.11494498797666 -0.157304912865168 0.0152804888345262
0.111608065004798 -0.158251787038154 0.0151775196646652
0.105581866676627 -0.170310498244847 0.0156519382885123
0.0991243865628603 -0.178360682794429 0.01591949686757
0.0916984605765274 -0.183372460993553 0.0160633514830584
0.0827306708009933 -0.192127112626566 0.0167177858719225
0.074542997693773 -0.199790795765006 0.0172742400009028
0.069433407008099 -0.210277596783251 0.0183644671740121
0.0627798447810836 -0.211865120953644 0.0182122750839502
0.0607943793654966 -0.217494836306973 0.0188795213247483
0.0580146407329298 -0.226091236142939 0.0203015399471363
0.0457695219256569 -0.233562984072465 0.022472386593956
0.0386717902016778 -0.240388901249646 0.0254132472162646
0.0391555032536476 -0.249894400020129 0.0305436086816753
0.0321148874127323 -0.250851174847954 0.0305596177275456
0.0203625591129051 -0.259249937767929 0.0342329598032885
0.0134252977880698 -0.263377725056093 0.0359563509840398
0.0167718980224014 -0.268462471441684 0.038918669769206
0.00763019703807014 -0.278024400374901 0.0433998913225036
0.00352060448321254 -0.286041434164414 0.0474080254431217
-0.00664859287193761 -0.289714131889523 0.0495978668268327
-0.00916244162333251 -0.300583041100257 0.0556024925328385
-0.0188238511463952 -0.300988920801301 0.0565020330809221
-0.0175185520383652 -0.30597126000129 0.059081101240468
-0.0186224315366206 -0.314045883746619 0.0654862817675482
-0.0314147263791741 -0.31952164131413 0.0723151276480492
-0.0283186171645386 -0.317859898960945 0.0703414546377656
-0.0365455857867454 -0.323088094729742 0.0763609384304232
-0.0343039215846026 -0.334112972350397 0.0892068465661179
-0.0407260226418298 -0.337991142725081 0.0959324564869466
-0.0503791495934193 -0.33528372138877 0.0938870571703614
-0.0530690947072068 -0.346155842728563 0.109871167961195
-0.0474335008326462 -0.34954313669925 0.113637661283037
-0.0632513047900523 -0.350016613482531 0.117276831729012
-0.0630382359359639 -0.35543716043868 0.124954745582772
-0.0575745624375489 -0.362403769179986 0.133849745423329
-0.059818612103866 -0.36401291522432 0.136561515160516
-0.0657307975384252 -0.368464097653303 0.144007404913252
-0.0763492325938125 -0.37173890744199 0.153229663957261
-0.0770742042108731 -0.375024328610504 0.161287007950986
-0.0744014811616487 -0.374316313571893 0.158761067855137
-0.0817891041949702 -0.378531667787381 0.171125098297144
-0.0849731889521749 -0.384236600108607 0.185720231452276
-0.0823763799184073 -0.384727802628475 0.186076108359379
-0.0930810279409251 -0.387610714015146 0.196305374365884
-0.090174149986376 -0.389401142530033 0.19966030555297
-0.0959448101809561 -0.39414417649581 0.212774579526913
-0.101639748268487 -0.396675497256717 0.220594097514547
-0.0972628271775299 -0.400512432881258 0.229214570090884
-0.104778609640152 -0.402529206415636 0.237440442310831
-0.109741317893956 -0.403820996534721 0.243833056229152
-0.105342128564067 -0.409402571049164 0.256450763982835
-0.116181194802195 -0.408617607187777 0.262864928589877
-0.114609464475451 -0.412025181892262 0.269893532661973
-0.119239450567115 -0.412182463729603 0.275184562631572
-0.113737818714985 -0.421120342096165 0.292355701079246
-0.113863998698243 -0.421817899785235 0.294768137090973
-0.120162924205652 -0.423983843760158 0.31013107827588
-0.118419639364252 -0.426947445618777 0.317342776882808
-0.121158503860991 -0.426729157130475 0.320290459815571
-0.122343968868066 -0.43183992524053 0.337322945224954
-0.124839032702585 -0.430245693664898 0.335934513172356
-0.130024762077306 -0.432783231049235 0.347536187505652
-0.135381271037854 -0.438389009456618 0.362422804954163
-0.136711539748759 -0.438475549050546 0.363246708754458
-0.139066764889834 -0.444542660720783 0.371020139686485
-0.141758753064362 -0.454279620272111 0.380003970444026
-0.145364932592502 -0.457456599358204 0.383740564641208
-0.149734831546543 -0.463587406065138 0.392125510836466
-0.157541080576368 -0.461231813432656 0.399806695619774
0.155036223300864 -0.118225756310046 0.0152963609190912
0.148948428425774 -0.124929515942319 0.0152361340616648
0.143948012982463 -0.13536857832128 0.0154281923704524
0.134760955740244 -0.147440221243639 0.0156212846998094
0.129089350496626 -0.151587630032349 0.0156082309004344
0.117817766323298 -0.159765860027602 0.0155781907823568
0.118894724991287 -0.170173136074975 0.0164674025871259
0.11137762022945 -0.172036166555403 0.0160458429260915
0.109481880877092 -0.18212913487134 0.0169968056878287
0.0927428265935029 -0.193447789052382 0.0174299667466278
0.0943125648628366 -0.189302607790866 0.0169747503065299
0.0892177762722286 -0.201289646093991 0.0182611802660975
0.0720171127411746 -0.218298653819888 0.0198313989137169
0.0784600756855789 -0.220255273151899 0.0206989839803531
0.0648464253231873 -0.226045009182785 0.0207603709208069
0.0665437668697361 -0.234224351565222 0.024591431998436
0.0545553907621032 -0.244123311452473 0.0285365086684658
0.0499780371166216 -0.245172340541863 0.028775843657893
0.0477473732787421 -0.252622155655944 0.0326124937583757
0.0392920995361015 -0.252807988678873 0.0321153235256855
0.0339451864338471 -0.260773402182559 0.0360084480278686
0.0315666815249761 -0.272182722724879 0.0419574877831133
0.023035951325495 -0.277279606353356 0.0440879719058064
0.0202332190540855 -0.279802802888538 0.0452429166536586
0.013307030448363 -0.290231740036445 0.0503453489339387
0.0102545323117723 -0.297086996358516 0.0538052281342298
0.00242570675801343 -0.307225122962142 0.0586880359007314
-0.00515844197614716 -0.312231115626211 0.0620648120353068
-0.0130533606840231 -0.310397367842234 0.0613071786214246
-0.016035648856766 -0.318972451917043 0.0698602519164315
-0.0187216673900803 -0.321323702006744 0.0724400589925169
-0.0227326722745414 -0.330747699884319 0.0822463067985122
-0.0272102408997572 -0.334349531945551 0.0882139620784352
-0.0271576695406608 -0.332495435415442 0.0855642181242483
-0.0267448343072298 -0.341080812209309 0.097710816628216
-0.0370631775609051 -0.341670651718019 0.100484799059138
-0.0358994624508754 -0.346963622377498 0.107802870494323
-0.0401391138090093 -0.350019144592548 0.112948084604413
-0.0435103613690224 -0.353293760511402 0.118242466313129
-0.0496457195840108 -0.35589962478114 0.123102798773435
-0.0528116803205758 -0.360356552897299 0.130042092974007
-0.0513449011472288 -0.367042747082943 0.139287047288883
-0.0584042158964855 -0.372630516136864 0.149724192429875
-0.0648756834638711 -0.373800683929628 0.154543425739787
-0.0629817218557308 -0.376681620644972 0.160815086517928
-0.0646708726499148 -0.381931002335159 0.173855496941222
-0.0722589910199685 -0.379881730056023 0.171352455197288
-0.0668879375590412 -0.388195557333264 0.189480924646431
-0.0690369374165225 -0.389398602904419 0.193022309375606
-0.0768269247108827 -0.392917271903855 0.203852230657619
-0.084415321543326 -0.395293225898853 0.211895561078862
-0.082848534690415 -0.398722562011557 0.219576831198046
-0.0850357228918261 -0.402995025421442 0.231602953369138
-0.0942124728824685 -0.402439120418916 0.233387644417196
-0.0892166377453609 -0.407946625568063 0.24665794007582
-0.0941035123050382 -0.407211241004495 0.246406162104527
-0.0907855063525238 -0.412573293257774 0.259882874498258
-0.0960744560859478 -0.414485206341198 0.267019636599396
-0.101279366957978 -0.418995901939266 0.281237073089189
-0.0982636240223389 -0.421593543774284 0.287258521980019
-0.108252919683434 -0.420900292775498 0.288960106396845
-0.101317845289487 -0.424848423449208 0.298792526718961
-0.107184593238124 -0.428361075889689 0.313587135453906
-0.11384463718261 -0.430542219489615 0.324145126068596
-0.112338180814972 -0.432742563881565 0.331057347568116
-0.112599754914938 -0.435336930586275 0.338723822266403
-0.118087034008004 -0.438155320425283 0.348594259084691
-0.113707044430863 -0.43893497795186 0.348671691133837
-0.128700009904246 -0.439520091175093 0.359912865412063
-0.125287810340364 -0.448452021337154 0.369400691615092
-0.124336589657579 -0.45606856720591 0.375905738241155
-0.141257034416686 -0.455100543510366 0.380452987183957
-0.136755128544113 -0.4679525396719 0.39073358534288
-0.147831520468355 -0.463408851760429 0.390794567831815
-0.141777385770627 -0.467949885775285 0.400872078699293
0.170908616238851 -0.126246185638131 0.0171805913685088
0.152697924703298 -0.138575082664093 0.0162018837624049
0.155266816610282 -0.144085688445826 0.0169621461506443
0.146571903221897 -0.150679363718392 0.0166624276404266
0.142667826015243 -0.157136263582699 0.0170495528477825
0.132334339085169 -0.164911640366748 0.0170323522399394
0.130814725907055 -0.172783093287599 0.017782334108486
0.119730778751112 -0.18290851388983 0.017963572353301
0.115308971228637 -0.187205749378567 0.0180647116960606
0.106079507868124 -0.195278241153926 0.0183879062846639
0.0953068925028823 -0.203207088322852 0.0188808835676212
0.0985289236632876 -0.212883596416193 0.021082144829945
0.0818139752383536 -0.224678432809161 0.0230654183292766
0.0807757669465588 -0.225773415608691 0.023336140613151
0.0842956973293344 -0.232279641756268 0.0272934437049075
0.0675037304477888 -0.237536367838688 0.0264447608079049
0.0628215022312393 -0.24463883252155 0.0293963468420528
0.0567587491283324 -0.245392319963317 0.0293723874792063
0.0482681835771837 -0.257578557808127 0.035306549120724
0.0540413241062714 -0.260274376403044 0.0371593562806274
0.040540428032356 -0.273321236569486 0.0432012807099989
0.0339963348690756 -0.274302274665814 0.0432653443519078
0.0288959859836134 -0.280685219050968 0.0463274569692721
0.0267365943916848 -0.288283381801322 0.0502486718891483
0.0168411738804677 -0.291526399641758 0.0512889114407614
0.0167103093184081 -0.302359557336302 0.0570876968070125
0.0151467249896004 -0.308232641219423 0.0601260926790734
0.0083621577912768 -0.308239186723406 0.0596507244195346
0.00528111030647785 -0.320728003600369 0.0701842356347403
-0.00651194710991661 -0.325675436383768 0.0750574663487562
-0.0142352715296156 -0.327527962661371 0.0777941198997802
-0.00538788861826802 -0.333964602842747 0.0835753221178048
-0.0113763766404599 -0.336819840018278 0.0887631847048713
-0.0218989030592417 -0.337567879145335 0.0918006879218553
-0.0221986934900983 -0.345753923712959 0.103512292191845
-0.0212667989864602 -0.347271243204259 0.105497991235396
-0.0326953316966503 -0.349783829770118 0.111217712410339
-0.029473593351945 -0.355593906129969 0.118886272587144
-0.0359763848881725 -0.358069620543734 0.123630170706818
-0.0434478549084724 -0.360884497438983 0.129038550840835
-0.0448821288475564 -0.364078545234043 0.133855135232446
-0.0471497333892371 -0.372263972982299 0.145934725531292
-0.0437494726519111 -0.373763203374846 0.147825609540722
-0.0471823213139598 -0.377560766147965 0.157953114080572
-0.0504846333088032 -0.38272506727934 0.171296899130748
-0.0559100218793954 -0.384646125393262 0.177577454394065
-0.0547918657799179 -0.387463707940901 0.183941542531149
-0.0558813707220822 -0.39119554771546 0.193177174777255
-0.0675282561221451 -0.392898524238861 0.200890030572416
-0.0643752942021514 -0.393626872160763 0.201636580248495
-0.0673307163295121 -0.39658420237362 0.209611830498297
-0.06673484423296 -0.399547247827168 0.216486458790006
-0.0750129963962259 -0.403113135952481 0.228315591334813
-0.0790024214545064 -0.406008297050881 0.237674641882101
-0.0727824297887085 -0.412495367267891 0.253184298773639
-0.0765523665914554 -0.41191968609389 0.252967150226242
-0.0880387490578865 -0.41364459823575 0.261824765037626
-0.0832331779592481 -0.418262963621805 0.272730681805601
-0.0892704576135528 -0.417545194480504 0.272941521151798
-0.088812236284282 -0.424523145532174 0.291985068654272
-0.0860294113799758 -0.425428677441407 0.293846610164113
-0.0902276773990328 -0.429732036520797 0.310612832931392
-0.0905250079655745 -0.431242173079556 0.315961928253812
-0.0966545093781303 -0.431875901061311 0.320936106788292
-0.101365321250003 -0.435831943857937 0.336109121570204
-0.104726586858636 -0.434516767873397 0.333723188389777
-0.107797009974323 -0.441390286570677 0.353128347847234
-0.106774382288518 -0.444497535869852 0.358747839289517
-0.112262554904973 -0.445766333190811 0.36211387687401
-0.117530699002128 -0.453721712749478 0.372246992686689
-0.123926974425234 -0.453957103418812 0.373851215142956
-0.12873122238107 -0.457286063223326 0.378253809144113
-0.132830638236471 -0.467201091721768 0.387918579953864
-0.128025813764916 -0.474164816257892 0.401776007630648
-0.136290961731698 -0.47023181805179 0.400925089173558
0.177978328445981 -0.135106291647027 0.0187365089232468
0.169316641802352 -0.142636892212654 0.018409239622401
0.155427611202406 -0.149590221128842 0.0174525482998723
0.149718134085104 -0.159054541508084 0.0178691883492
0.149267884998526 -0.16796234926758 0.018864024942564
0.139453062803687 -0.165437597146169 0.0177021321353609
0.131394211640143 -0.176385661266961 0.0182350048107602
0.132761820887361 -0.183076666343909 0.0192311300196112
0.124422403480627 -0.195692522020425 0.0201631156811955
0.121381898604094 -0.202951691791928 0.021311667552837
0.101979301566749 -0.215984725671876 0.0229266030195552
0.107386446200828 -0.217518634481334 0.0246972839618631
0.100550885352187 -0.218630105667649 0.0238380213526196
0.098134623970661 -0.223060535104996 0.0255514304739385
0.0822717314115175 -0.23080224428796 0.0261365007192933
0.0844640185673037 -0.240461948062719 0.0314161333035238
0.0700960881726337 -0.247895502437924 0.0321566176402726
0.0674593240731533 -0.252726481873697 0.0340597622233357
0.0565537686867535 -0.260521000220492 0.0374689164218168
0.0575829015696384 -0.269584907256633 0.0424010231858477
0.0495761540869518 -0.272734913864386 0.0435247051516846
0.0476622589345538 -0.283501381929991 0.0491618836684637
0.0418011662687848 -0.283563312825125 0.0487813913224965
0.0409484443450306 -0.291775043379884 0.053123789824761
0.0317482150180615 -0.300485575404596 0.0571444175735917
0.0274505178333499 -0.301326975083121 0.0572921745053401
0.0213023626493943 -0.307256607964162 0.0600372938084218
0.022943740244059 -0.316637920345876 0.0685010779572895
0.00861245353645751 -0.323323633848859 0.073078153970747
0.016150795043158 -0.325627598381074 0.0762221453624203
-8.27122581205092e-013 -0.327966603691016 0.0764250230486334
-8.49420078599326e-013 -0.336799011142733 0.0866010408432423
-0.00127246641179897 -0.344200147685561 0.0973774085700253
-0.0105696147494477 -0.346361405656831 0.102197377694775
-0.013854919167838 -0.343485045309175 0.0987178002879358
-0.0110718369006442 -0.351928731872691 0.110218358380341
-0.0241479827473381 -0.355149636654064 0.117255436297143
-0.0219180473839655 -0.357448847868988 0.120111087995557
-0.0216038616807341 -0.360825654041697 0.124860139867174
-0.0325884740975078 -0.367909176211726 0.13700481312543
-0.0340865823819921 -0.372455739385482 0.143759094188675
-0.034255709766599 -0.375213360682626 0.148302920022706
-0.0404857385581358 -0.38054002912145 0.16295225296489
-0.0402686140441777 -0.380733026193837 0.163344083030693
-0.0466017229420474 -0.385256226729313 0.176110917816604
-0.0434342113822875 -0.385723936182358 0.176231743807503
-0.0460825872165882 -0.38899354029592 0.184854873398363
-0.0524576729958905 -0.392296252353622 0.194726186983149
-0.0507967311619931 -0.397830343523952 0.207394008276998
-0.0545230871412403 -0.396117035501242 0.204479988921524
-0.053431115887007 -0.402559030236243 0.219490061915716
-0.058504320222067 -0.404493998127027 0.226146977583421
-0.0651149946724046 -0.407671962417436 0.237224119036315
-0.0665611371582263 -0.407824392972097 0.238162160940597
-0.0622607108329295 -0.412240866409125 0.248697619721124
-0.0754963171090539 -0.414574148648423 0.259850026886267
-0.0723049100482343 -0.418921026179835 0.270594561346404
-0.0681988402439463 -0.422913011499405 0.280038523838876
-0.0761386498481145 -0.423318602525056 0.284008529303496
-0.0760953885377797 -0.423975130946702 0.28578937839048
-0.0809738382029122 -0.426697384080107 0.295928987977198
-0.0851146516807975 -0.429760155313437 0.308385803650297
-0.0867582982701067 -0.432119420537699 0.31727859160796
-0.0809580396374423 -0.437352676995483 0.332710602522246
-0.0893641037809601 -0.435716819064696 0.33088354405795
-0.087404687536423 -0.44017615276866 0.342768597776281
-0.0934638802373634 -0.443675681236012 0.35418695887281
-0.0969316014469109 -0.444718136834734 0.356930334368146
-0.0986106683264515 -0.450379060147571 0.366018288639743
-0.105614763924279 -0.456093630270634 0.373023263314982
-0.10523728608667 -0.458229056023232 0.375039176819158
-0.108820024363651 -0.472666864214225 0.388273582460291
-0.121934925019481 -0.474192697776603 0.395643172768447
-0.118120069044484 -0.474915252863296 0.398944627444564
0.181214807724004 -0.141649435013633 0.0199743815444442
0.169064776718225 -0.14634417238365 0.01869924060404
0.168381338208445 -0.157708934952244 0.0198978381057166
0.159487803521418 -0.157362885617102 0.0185737460876642
0.156208870335995 -0.171119234040413 0.0201357302465163
0.150012567094374 -0.17222908496372 0.0195893321640385
0.143431907643126 -0.181403691176923 0.0202077413364234
0.135510450446352 -0.190841728952056 0.0208680947610065
0.135533497321474 -0.195138519335468 0.0223765031566633
0.122948257371077 -0.204883372429259 0.0224072199878603
0.122075536782645 -0.218149002253432 0.0280519733123691
0.111640508701964 -0.224276850657776 0.0289540051508306
0.110115644107578 -0.22330500857913 0.0281529202089374
0.102371478884488 -0.235027843326221 0.0324070384580264
0.0926075813101728 -0.240324755195919 0.0330328204416355
0.0886986572474747 -0.25078313457106 0.0374488848832676
0.0847246336047151 -0.251604992146239 0.0370370984392527
0.0790999361261677 -0.263584830499922 0.041858217475083
0.0760725916567469 -0.263758353901382 0.0413184308240683
0.0696040777906468 -0.27040362886495 0.0436884624972625
0.0577133457015601 -0.28289168119041 0.0495444419223912
0.0533623245420582 -0.28916323372466 0.0525997236671769
0.0533740482994356 -0.295990181771574 0.0562607089102383
0.0453964367225539 -0.299492209467382 0.0575751777970494
0.0467688695703324 -0.297682095843687 0.0567015855809
0.0439531691159675 -0.306584461981049 0.0615505133193774
0.037675646763037 -0.314299446285414 0.0681205437474272
0.025860498971799 -0.318220604356626 0.0703768278109956
0.0196984324735808 -0.325797369707481 0.0768295273137118
0.0210611690755673 -0.328746326967619 0.0798132472728628
0.0217491671439584 -0.336927891562602 0.0908613965156036
0.0147534388054701 -0.339863066073997 0.0937292001124339
0.00305631942010035 -0.343679395051117 0.0969703344090783
-0.00363432278784212 -0.346525357224341 0.101130802610455
0.000920756082007821 -0.354411673218215 0.11185079900964
-0.0079369292987792 -0.352322482997528 0.110191352476918
-0.00797956160364716 -0.356948283885188 0.116785626215195
-0.00776004158735425 -0.366020661909751 0.129661860824607
-0.0145149710116967 -0.364690679648527 0.129034415773217
-0.0139981032736739 -0.375215529680509 0.143922963629886
-0.0230366806869931 -0.374324249434573 0.144348215794025
-0.0212024852089993 -0.381465495727084 0.159107591446049
-0.0307196836216641 -0.382645818419613 0.164906644803258
-0.0298569725637188 -0.383820391212325 0.167435227946131
-0.0316325286437747 -0.388694131056384 0.179607511704633
-0.0383222837657696 -0.388536816006759 0.181331551444057
-0.0304749045850541 -0.392747196333442 0.188903642824537
-0.0405771784552813 -0.398077307122999 0.204776122779507
-0.0331984516014014 -0.399649825185482 0.206208652665963
-0.0442937029695623 -0.399506658499369 0.209348665362459
-0.0464811076477455 -0.404269834163516 0.221386670718994
-0.0467205443236443 -0.408873462074717 0.233885399488192
-0.0485311730095225 -0.412860656172748 0.245447657627228
-0.0537421466435863 -0.411714180497196 0.244187778968375
-0.0594222565259859 -0.415678614720087 0.257081685184688
-0.0539776680363373 -0.42181348751116 0.271906965729207
-0.0559755125868039 -0.422395003872401 0.27421784129444
-0.0618121679251895 -0.423636999299622 0.279718836677893
-0.0638370048800123 -0.42694395282263 0.289496944268293
-0.0664713408487183 -0.431364065862314 0.305449244617821
-0.0696977813655226 -0.431918965425436 0.308831678606149
-0.0672307711675831 -0.434365266629394 0.316156480895114
-0.0711744124516093 -0.43458263456245 0.318699544500401
-0.0701688428509069 -0.439381072298306 0.334626527838027
-0.0770613297983452 -0.441544815009067 0.342787020690558
-0.0821191272099103 -0.443239633188091 0.349059705511767
-0.0877009074450974 -0.445509196961903 0.356213316425639
-0.0830555766042593 -0.449453919309027 0.361847502607005
-0.094902094819627 -0.455483535847717 0.371070450263465
-0.0903610142253741 -0.461103815590416 0.375924767715893
-0.0979657160179584 -0.466732024779486 0.381254695519601
-0.102536481691605 -0.473029931372802 0.38781644625374
-0.108209465548755 -0.475999688796494 0.396901177545204
-0.112352818138813 -0.480050650124354 0.402552689870483
0.195821421266101 -0.140044382194645 0.0239148953434021
0.185990480115406 -0.157682874600385 0.0255037695576165
0.185818921773618 -0.15962552290859 0.0260696766102725
0.17395767206039 -0.165471293337794 0.0230027459363336
0.162977642904547 -0.172358165706263 0.0217745626952573
0.167575040963941 -0.180080629531216 0.0262248026498568
0.153269462332765 -0.18907387388485 0.0253737197754613
0.150695410504005 -0.194163966559427 0.0267100777955198
0.13622222643409 -0.204313043300726 0.0262996883146257
0.130106449133002 -0.21117528957165 0.0272304103505873
0.132001359769638 -0.217512288825884 0.0305728636779463
0.118530923409031 -0.226204105599367 0.0313427582390857
0.120509094921242 -0.234538766954492 0.0359160942814906
0.11149188317013 -0.239289228660371 0.0364233904128529
0.115341604501476 -0.241305179787665 0.0382272149899847
0.097089994861002 -0.24883633817141 0.0382127737014318
0.0920836183738558 -0.259412713457998 0.0424606818399958
0.0866814676701188 -0.266424304906164 0.0448457325119696
0.0763326378288231 -0.272597075610292 0.0457880452627048
0.0819493864404937 -0.272336612935328 0.0468202484106034
0.0674711160675511 -0.278576013507046 0.0479194027028097
0.0751373582018587 -0.289787152509432 0.0544711825938409
0.0593923777316218 -0.29168455915116 0.0543771128959076
0.055711320522652 -0.302468191600146 0.0598987615896096
0.046770960519427 -0.306004669275502 0.0613513451764846
0.0497100719196618 -0.313391297879244 0.0687654916424062
0.0407853922897698 -0.319575600556204 0.0735432227822778
0.0457279862139691 -0.320480824391933 0.0750272105912023
0.0319788194968089 -0.328702948260069 0.0811427526589097
0.0319487541673976 -0.332133273396193 0.0859466493420241
0.0273546668195669 -0.334307647315213 0.0881813985905851
0.0237709376535238 -0.339906028934133 0.0954806900047897
0.0162041979231874 -0.346297993855767 0.103163286539842
0.0147607753533503 -0.3510494678205 0.109657936321255
0.0140265270036786 -0.353883312487163 0.113555171517379
0.00903010703773405 -0.35894534546935 0.119825994863893
-0.000646033046531475 -0.363880305019759 0.125280877755004
0.00616836108185897 -0.370192615231075 0.13530358995014
0.00227635788206306 -0.37428415433173 0.14039963156373
-0.0096061276622737 -0.375856104794521 0.144011753492765
-0.0133572093699908 -0.380095394988536 0.153380832419424
-0.0044409049581673 -0.38283290251765 0.157107362342788
-0.0180937740323993 -0.384935084471976 0.16640100321003
-0.0163989111093864 -0.387091728155371 0.171008983395684
-0.0181233647981901 -0.389802395887904 0.17801015816444
-0.0255688481364861 -0.394735496587517 0.192102889964193
-0.0274118817598847 -0.395283124592243 0.193986271900393
-0.0298194872497522 -0.398641534079565 0.202745500847309
-0.0344502434783106 -0.403102877169869 0.214830791087202
-0.0350257197572509 -0.406527213311039 0.223252557012248
-0.0362533031311859 -0.406657019828412 0.224049960855407
-0.0386620868592449 -0.410548527591912 0.235565872940256
-0.0413729134803483 -0.4130026823869 0.243257618250054
-0.0427080149614579 -0.416604915128065 0.253595219654571
-0.0462975863387495 -0.419228864427556 0.262068122288108
-0.0500534519723448 -0.420193226685384 0.266059866141665
-0.0547378219339636 -0.423430462682152 0.276605266939728
-0.0435945589930575 -0.42833686808484 0.286016273984252
-0.0529734444206029 -0.4283547769854 0.289443886232987
-0.0507570005093018 -0.432102264417658 0.300855057668015
-0.0566222900836485 -0.433950261404335 0.309901562305041
-0.0578783039811498 -0.43684827207164 0.320478242062452
-0.0615729727047294 -0.438793849196895 0.32887500462229
-0.0612219256557194 -0.439861222337179 0.332400682764825
-0.0725665196263594 -0.443258433378456 0.345767974751145
-0.0731415855184444 -0.448680454851258 0.358333834832657
-0.0763195494929274 -0.44844533526931 0.358643620245593
-0.0771066942630243 -0.458287034115465 0.371515718790605
-0.0735710229285184 -0.460584544637121 0.373286425165246
-0.0878468945894271 -0.466740463560611 0.380214343314752
-0.0911899193179519 -0.472176673431751 0.385504985695089
-0.0887166047041154 -0.474475974673478 0.3874487316994
-0.100919412304967 -0.478391988420311 0.402013672110748
0.196313115258284 -0.151022779435012 0.0277398601628249
0.202216617305349 -0.153003206991427 0.0309244888403772
0.193557048615438 -0.158517087152063 0.0290245497678374
0.175015965248836 -0.172710253840661 0.0257424723307929
0.171323812707395 -0.177698808342774 0.0264370411724668
0.173397291841416 -0.178814546597231 0.0275982849772268
0.160707314019729 -0.191338634362788 0.0287938286750473
0.156559264844924 -0.196416360118262 0.0296067308061587
0.154237563072272 -0.209068692764536 0.0342704664594124
0.149455366615677 -0.216126941615958 0.0357242829793803
0.145473566604114 -0.214423911845207 0.0336828754181115
0.138965114957631 -0.229377975183465 0.0379558328935026
0.128429759037334 -0.23776750523843 0.0391682645275733
0.12259701940492 -0.239085900241762 0.0386199042280603
0.11346233542974 -0.247448301824015 0.0409074056671369
0.116686616614795 -0.258572852551551 0.0471324324410042
0.109453010437232 -0.258620282884676 0.0456592065420032
0.101360663091249 -0.263102687153654 0.0462239733077187
0.0958673816200552 -0.280500257189371 0.0537789710708815
0.0876075068198459 -0.279824299616119 0.0517319666512987
0.0845425990339557 -0.285239482808995 0.0538031251368296
0.0819199119394828 -0.295073448325037 0.0581734079598491
0.0738295673985961 -0.3022597853124 0.0611772349190389
0.0627923665958014 -0.305785451441704 0.0631539964185052
0.0580039444291627 -0.307530934896469 0.0642175148185405
0.0553253895736487 -0.313066249102458 0.0691605612483937
0.0563947423483284 -0.323839521324734 0.0795699875607275
0.045885241399759 -0.325563963279918 0.0798950681870497
0.0440802731766903 -0.331973579079634 0.0879933121472274
0.0460496698306147 -0.331267601167655 0.0873572914720956
0.0360667552238139 -0.33789461624004 0.0949216468960323
0.0393168202977752 -0.341257609759823 0.10031914641051
0.0329312146382768 -0.351134331228047 0.113184791924157
0.0230361056580011 -0.354241618295039 0.115754166640136
0.0198206873441523 -0.356965279684197 0.119029429117998
0.0122524014320546 -0.363033885280197 0.126251332127479
0.0147501575363027 -0.364023908643762 0.128129142966778
0.00554935687682641 -0.369011923861037 0.133506472905328
0.00788941913461495 -0.375633217174393 0.143372608026825
-0.000474866664886548 -0.377365734104753 0.14444954227036
0.0069464271002535 -0.381680759565581 0.155147677541345
0.00471937203971955 -0.385477659993106 0.163497770415791
-0.000968330058361407 -0.390602531879588 0.174534549315596
-0.00258755359817812 -0.39068064127656 0.17522874349954
-0.00154592454929644 -0.395910668425759 0.187366227124137
-0.0150678996909114 -0.396495324976229 0.193002203256851
