ply
format ascii 1.0
element vertex 859
property float x
property float y
property float z
end_header
-0.268735863055863 0.33124438513634 0.263980326560902
-0.275233303680896 0.322217159058993 0.257499932969629
-0.278537569483732 0.32641217332682 0.268291811269467
-0.282397417869669 0.32847728619441 0.276352093932122
-0.283414272675438 0.332470669237474 0.284006329416399
-0.288175316244302 0.332075964939008 0.289231245389852
-0.292544437095177 0.334305418082224 0.29818162597604
-0.299707149612055 0.330376630327058 0.30355977485002
-0.299591611860124 0.334902891230097 0.325946769002478
-0.301479019519392 0.33291038140558 0.323201111851308
-0.301517879151302 0.335453668822064 0.336182007680266
-0.315243178259221 0.326255752483732 0.342911194173132
-0.315332844701004 0.326131984390214 0.342633906699226
-0.307476489036649 0.335249955460356 0.35822031862036
-0.318393725509575 0.329673539905098 0.372349263627194
-0.318105834059401 0.330285671576221 0.374322928657789
-0.314299580519451 0.335291578251252 0.393122523498417
-0.318515112358664 0.335067320568624 0.406596835451677
-0.321233001234454 0.334135920796925 0.407765914181398
-0.334539856572277 0.330870410626884 0.412780139415814
-0.354146138596842 0.340290564274394 0.411567548192083
-0.353675894587032 0.332164037100686 0.414001385078712
0.417426466166561 0.264349884344731 0.408121345509869
0.410259653790183 0.265176178768655 0.412344115172483
0.405017059554991 0.267663717142388 0.413492898247832
0.404122321068485 0.265088050786201 0.414282760492168
0.390963720919175 0.272216721839529 0.414929145483984
0.374229674993021 0.275589452032196 0.411389479665733
0.0750148760837413 0.301146139587985 0.116235448498739
0.0668180330517339 0.307016306911018 0.119286767962944
0.0428094007687939 0.301300413434721 0.113633369284602
0.0404087323482361 0.309853157702346 0.118879164117973
0.0312055298070321 0.311276372977974 0.119013922283474
0.0136472214917541 0.304461307745606 0.113201322046005
-0.00088981280110022 0.311018117709977 0.116307561565116
-0.0084877228701862 0.314590741631972 0.119219961460864
-0.0144383395767122 0.310927633684364 0.117385937662297
-0.0228260058875766 0.309577620782374 0.117229420438695
-0.0338226190780504 0.311727743839855 0.119520827144634
-0.0442464590887359 0.310750062491044 0.119772168073038
-0.0460055914371051 0.318613434524718 0.124927701480216
-0.061606023100265 0.311111267293907 0.121457760525614
-0.0654264614339063 0.317482042900046 0.125835521408917
-0.0800675669255229 0.319844120976134 0.129736176249957
-0.0858174596232403 0.323859830579721 0.134898693472318
-0.0876564589871382 0.32394819859711 0.135491323787407
-0.100062539824623 0.318813645355823 0.135495571036703
-0.11103002082323 0.317930703854885 0.139184651368581
-0.114937200686303 0.326174259925218 0.149125140755371
-0.125891081232816 0.323788773932874 0.15129403415337
-0.137632082484356 0.320520664459306 0.152901908283299
-0.136843673111171 0.327422605596852 0.159529636323961
-0.146263710882636 0.323832381869941 0.159843801798598
-0.148783467340913 0.324752174162215 0.16182294594369
-0.158341247835977 0.32606295380106 0.167134648502028
-0.165119631528659 0.324723084662941 0.16861416549267
-0.17318093999946 0.324193307239067 0.171445860780825
-0.182888617190694 0.330663431217591 0.182020572877595
-0.183782772289881 0.331197983506669 0.1829327018388
-0.196930136870598 0.327637281331532 0.186748995244582
-0.203036023470897 0.331520996234001 0.194165890129569
-0.20810955861303 0.331544177105186 0.197555620479336
-0.219146891397905 0.331805942535993 0.205112806823659
-0.217231176940306 0.329978324161903 0.202258547755775
-0.225043116340622 0.335005636697724 0.216253431321995
-0.228861254296197 0.337956782375019 0.225683092800052
-0.233670247803182 0.334308933190481 0.225750792018722
-0.234822502703989 0.337779686135286 0.2327336140463
-0.24237000531661 0.339927002660293 0.245462848758811
-0.247200681974672 0.339750917741895 0.251123980901563
-0.260306948623195 0.333057257517907 0.256516550573483
-0.260445296078032 0.333477802409181 0.257361084986145
-0.263363469709236 0.337931227481165 0.268092276184411
-0.275219392696572 0.334829189715945 0.277705412427208
-0.276637203535344 0.335573379345204 0.280643091807886
-0.279757617878959 0.340299126620466 0.292059763428668
-0.280111109530781 0.343910698640724 0.29828561329541
-0.292304141422336 0.336900578540417 0.307814691877484
-0.295558227077719 0.334946700959019 0.310554391949395
-0.298017479061553 0.335476982471475 0.322749435815303
-0.297416613272616 0.337049242693053 0.328355256324183
-0.300847859644272 0.336008446316479 0.336387097651228
-0.304163133162652 0.33678645254673 0.353145564946507
-0.30425900347782 0.337685593981897 0.358052704029267
-0.306390126098936 0.338965761787383 0.372760599912266
-0.305700034777181 0.339765038376762 0.374121449014052
-0.305871396708937 0.341758751148706 0.391220994982728
-0.307201189154495 0.341308708266443 0.401810356736112
-0.312654736456191 0.336866034965597 0.400508691726611
-0.320837759711694 0.338121855178958 0.410682328543077
-0.331736399887709 0.348631149436685 0.414778940763025
-0.345990006171573 0.34349831783462 0.413723194565626
0.411624160328306 0.27779884394251 0.399224351566072
0.407009646422387 0.281007951810756 0.405313097495188
0.406174116979439 0.276053665547724 0.410087650553161
0.393455286935352 0.279725654155421 0.414127382126918
0.392776624424375 0.280060205238151 0.414243463889634
0.37927052907823 0.283299372870503 0.414650287180578
0.0706532044014146 0.313917751666761 0.124003737476789
0.0709367852524436 0.31440263106123 0.124336325555647
0.0478765429172726 0.314372098450802 0.122383347142731
0.0439981626725914 0.316431778519284 0.12336992841533
0.0349572789595995 0.313244636910944 0.120582045985135
0.0189520631806713 0.314772836883111 0.120213338363688
0.0128735552366886 0.321550845147419 0.124020460936848
-0.00253323370104047 0.321680729869524 0.123236176881722
-0.00757027162076732 0.325637682220661 0.126178626889292
-0.013018463872274 0.317354554621585 0.121360071710131
-0.0266839078098965 0.325225725797889 0.127955208783308
-0.028447954440113 0.322571511095481 0.12597637116501
-0.0368694668331045 0.32733353448513 0.131685656573596
-0.0504709206943339 0.321843664447047 0.127684311747676
-0.0633391358855419 0.323047075385964 0.130818518197589
-0.0669531087327511 0.32750127084769 0.136151168808243
-0.0759065809970214 0.329706171799043 0.139811183159004
-0.0854695688973963 0.331520827357903 0.143135876391811
-0.0947186692875387 0.333978776931811 0.148550327015684
-0.101598751157549 0.329624995927619 0.1470343938851
-0.108302097028746 0.334490578226234 0.154737444390421
-0.115393201790464 0.335321057635907 0.158535156173606
-0.123410258235601 0.328432649107116 0.154939113663175
-0.131240440044728 0.330239256366284 0.160029299127387
-0.130073737253026 0.338285880216715 0.167652882529195
-0.144809616285063 0.334033674652557 0.169519221344445
-0.155037370981177 0.336568790798258 0.1763447313653
-0.154500679961292 0.337978091593702 0.177541178983693
-0.171974071010843 0.339598365059499 0.186469700231266
-0.173447868889711 0.33810164802495 0.185576393451887
-0.183927638808762 0.335764863611346 0.187596429454751
-0.188495985370595 0.336823186095216 0.190570517307092
-0.197355380311269 0.339074339636081 0.196930853844862
-0.200587723702403 0.339187653696757 0.199175743944778
-0.212632692900674 0.339741193143669 0.208577303771957
-0.212628956075393 0.345547025430677 0.217881991689709
-0.218579045947926 0.347234370606729 0.227908298027304
-0.221767733233967 0.343622609694184 0.226040301925891
-0.229968605282224 0.342300713232555 0.23401075249052
-0.232328686407652 0.34912051809104 0.247849629380422
-0.236770956526813 0.342024608604698 0.241937379646864
-0.248528798044009 0.341642382757196 0.255790887047078
-0.248450956428351 0.345426243163736 0.261762295099844
-0.253582263600142 0.345351498724362 0.267955804177906
-0.256125800457135 0.350751257945822 0.279743444198534
-0.260391974250938 0.349423556068141 0.282863489285287
-0.264896850089965 0.350761153267173 0.290550862725885
-0.269774365955702 0.346856192466083 0.290290606894153
-0.273560651624357 0.350946209519994 0.306115820091445
-0.277989070782493 0.347495971016802 0.305852515106539
-0.274214255983332 0.354768345517261 0.327927998500556
-0.281840307862703 0.348367151011694 0.325155764664649
-0.285522867334918 0.348930411823107 0.342252654742841
-0.286162683693477 0.350661960369701 0.353464787807284
-0.280708064816344 0.355696253570339 0.357746930251937
-0.293194880056313 0.348010368329945 0.367309846706807
-0.291555491396353 0.351135459106322 0.376729280584587
-0.290332490077928 0.353682173570365 0.393892597411178
-0.289698512724132 0.355923585943829 0.404583737734511
-0.289392489322636 0.356374552751314 0.404930315471396
-0.302949052885889 0.350316289356092 0.409627382550738
-0.318986114735692 0.356842952713132 0.41491638044284
-0.323511366912994 0.353627241481704 0.414893940364444
0.408335914538285 0.281758049088232 0.397379366267711
0.403463036409652 0.284875509159002 0.406241373410433
0.397046264972795 0.28773160451457 0.410232245560411
0.394619079376262 0.287729449728107 0.411495496899903
0.387131545449039 0.285020447117754 0.414546878942264
0.376558113176168 0.286014729876881 0.41459530122352
0.374447584702909 0.284490822695731 0.413999409237625
0.36205809888092 0.291597693763278 0.411446548149585
0.0681293312238986 0.325625343951625 0.134289522255587
0.0579964337376608 0.32333105493012 0.130364862257474
0.0405096416998783 0.328379271861488 0.133335187576526
0.0244296303228993 0.32887229654328 0.131578599222137
0.0227304423022537 0.326145627867583 0.128387250570223
0.0139222416279748 0.330255688294123 0.131578672544734
0.00792558339046403 0.331519600845373 0.132091860723132
-0.0107991941483562 0.334754386891738 0.136000072519617
-0.0141080693255161 0.333938669018259 0.135588931188125
-0.0200580560008289 0.332799771725321 0.135204322860207
-0.0371087186742942 0.337735776053343 0.142971593419707
-0.0405467581296707 0.337131185296093 0.142807217148343
-0.0500233405152975 0.339006825652106 0.146185571617847
-0.0622940054657453 0.333402866278023 0.141871307332229
-0.0626146485003696 0.334740765486548 0.143364143541284
-0.079820223202845 0.334250987269936 0.145284529915493
-0.0946591301389453 0.336147399904696 0.150711359474391
-0.0927162991228014 0.344927510687831 0.158750227577642
-0.104552494547245 0.336969558583195 0.155670660631428
-0.107380506642645 0.342110996074884 0.162033765413602
-0.114859022239361 0.343363471168557 0.166418581624683
-0.12591385493343 0.341200073193759 0.168853480137259
-0.129304427539945 0.340493351332794 0.169556734903435
-0.132792338575274 0.34149451731939 0.172022116607605
-0.141275476184813 0.349938289134688 0.18407493214447
-0.151034833185482 0.348252271201724 0.186450135526069
-0.157769120904383 0.348045575422474 0.189053438243583
-0.165040074439307 0.35254924538163 0.196628677537523
-0.172760520891624 0.3497424578049 0.197022917951775
-0.182826847765153 0.353560056614525 0.205073724461377
-0.191134424122256 0.347026713655524 0.201956870230007
-0.202900384827187 0.347592503959035 0.20919213871452
-0.197054337040782 0.356227964004064 0.219781735354044
-0.208064419898124 0.350613584757401 0.220389875237528
-0.209364029566694 0.352348987376045 0.224771472035741
-0.220549277978899 0.348653084316367 0.23260721134006
-0.214558426701324 0.357797882219022 0.23989941139574
-0.2277205668534 0.350012562626119 0.243610318729617
-0.228468789573844 0.352686943990136 0.248819104011999
-0.238278541161945 0.353581819735113 0.262323510518996
-0.240432386189963 0.356508668430926 0.269666533233754
-0.250044388722757 0.35399027864668 0.277454681334651
-0.253746557530873 0.352619334977327 0.279811461546838
-0.25741274520977 0.356479552016533 0.290511807964599
-0.257783861324782 0.359667316569393 0.296079793752957
-0.269109680085691 0.353973158308909 0.30415639661538
-0.264299476057772 0.359929220482479 0.315583267674189
-0.26829149243289 0.356465977111345 0.31356502304836
-0.266320909607361 0.360899483843824 0.328303135689895
-0.267947978758129 0.361930639868222 0.339803597237929
-0.277496018966197 0.355671648859536 0.345188848623397
-0.277181935165647 0.358527208366824 0.358378848224474
-0.279451691898433 0.357899169316276 0.363996810953556
-0.282516899783293 0.357441915545531 0.373555579927086
-0.275087241012717 0.365380264616562 0.391766977677009
-0.277818202174369 0.365314852585799 0.40502497747618
-0.280175640330388 0.361895540554351 0.401050600909739
-0.281599173251911 0.366808304925386 0.409722314024917
-0.295956618094143 0.36428027419209 0.41362270724423
-0.315748772985509 0.369672912802579 0.413065709287007
0.390720815024874 0.29945577387732 0.386819726814419
0.399163103458584 0.293284703843914 0.402141975306436
0.392870058947268 0.296328276865277 0.408137378748066
0.386268008980297 0.2980548580967 0.411713673344357
0.388744804892904 0.299764765798997 0.409425624857096
0.385063294350262 0.294718753870014 0.413271081534175
0.373421432681617 0.293708761666725 0.414837258785899
0.363752451144051 0.297897780043326 0.413887272244952
0.0606867820168303 0.329266417447245 0.137168128087261
0.0707491401220823 0.335398141138241 0.145233607939667
0.042464107992292 0.334692877795605 0.140442797001062
0.0504540325366259 0.334061877067596 0.140898067080594
0.0380489072639778 0.340450595103033 0.146042038919816
0.0235310358940922 0.341991363799291 0.145641228537687
0.00851554725996836 0.339258255591884 0.140546600125332
-0.00826505039728339 0.335737224027831 0.136702308929279
-0.00315945914241483 0.339408787809159 0.13994669103756
-0.0196299337504265 0.340497198171622 0.143469485506705
-0.0281816472779395 0.338800311657824 0.142851813217183
-0.0313981757330284 0.346517267263979 0.15165711836458
-0.0504372517456107 0.34233789092559 0.149847651737835
-0.0474334586683563 0.350174825723248 0.157896927710538
-0.0675064303683445 0.344428458629725 0.154539715549897
-0.0670676564652792 0.346862759408159 0.157110359046638
-0.0695845242803899 0.349241254325066 0.160041538219863
-0.0872229243619358 0.349383714034818 0.162707438563799
-0.0941153489218662 0.350889735950705 0.165344047134627
-0.103675694391625 0.348343626643666 0.166769220962233
-0.106509641327588 0.35681964332692 0.176495934573292
-0.113753487972453 0.354237845219744 0.176917969923405
-0.124901396712612 0.352483593344352 0.179804132727766
-0.126193692379196 0.355258046691017 0.183140226452193
-0.133080892722444 0.357881599985586 0.188660157077647
-0.150770858785296 0.353246781478546 0.191374202451096
-0.151490609089775 0.359074301880976 0.197548629024614
-0.151650495200191 0.359843914171415 0.198391123727052
-0.15955534726893 0.358533344217452 0.200370486993417
-0.177869782216511 0.354820968601148 0.204275043363872
-0.175366879023812 0.361490278894319 0.212833869921291
-0.186121449670628 0.36055797438466 0.219411013461271
-0.181780547100833 0.364469286639397 0.223356965034419
-0.193735164667796 0.363921839132775 0.23158089018752
-0.198207252460575 0.365200323297582 0.237427006833848
-0.204158252274714 0.367430066184471 0.246193198601771
-0.2131988841054 0.362377813530372 0.245570314778016
-0.215131088608579 0.366629202279588 0.254764456130862
-0.222740106268339 0.366449034794869 0.263837402841116
-0.228879493833773 0.364123796916241 0.267662689940658
-0.229712753535238 0.369926057561611 0.277991458325517
-0.243476640448691 0.362336800910294 0.28275710558618
-0.241335361439903 0.369039060957365 0.290869211603047
-0.244296240524377 0.369102901836713 0.294614524753608
-0.247863027948492 0.370883385928047 0.307219106794316
-0.253047449999448 0.368695466648685 0.316250512364236
-0.253447909596148 0.370671307451862 0.327768500502073
-0.253195233501213 0.37173686881438 0.33216596411374
-0.253416049541365 0.374147412307473 0.34518154893978
-0.263455920353144 0.365973702783861 0.342811254328351
-0.259951792706924 0.370791016012725 0.353549196041098
-0.263708658989033 0.370035298278133 0.364279699835382
-0.261533386889573 0.373966537613716 0.375691595510564
-0.270524437065051 0.368881427226464 0.390050189336891
-0.264505886297135 0.373499623659207 0.398452619209151
-0.274040264461922 0.366403079499644 0.400040117475021
-0.286201831153871 0.366626600932119 0.411664727221056
-0.286427808311944 0.37137494861734 0.413562998595519
-0.305507179001799 0.375868161571142 0.413523321805197
0.382584024957901 0.306560726278501 0.380749919336868
0.381913020845948 0.305586792539407 0.377543554324275
0.389797431324111 0.30576808720071 0.396799548157599
0.388982019888202 0.305424964263665 0.404177533742971
0.385157566622794 0.309118685210708 0.405765195195627
0.372881783902432 0.307129111594074 0.414002508796471
0.369827297432714 0.302486128461944 0.414888097421642
0.357399036811702 0.307442815330744 0.414154331343007
0.356762226392445 0.313049177452116 0.414678226156017
0.0752749398227197 0.342470404183128 0.153528011341768
0.0651140380233817 0.344502188796321 0.154278777984005
0.0500328551858898 0.341299913820943 0.148667307426687
0.0428557517694071 0.340507905189642 0.146788550955913
0.0391402019888713 0.347758796963219 0.154102559574039
0.0170939953028725 0.350080136621056 0.1534739986414
0.0195071764744748 0.3523589172832 0.156282553645838
0.00724218223210194 0.354258951555827 0.156591174659201
-0.00598272916107505 0.350813460207513 0.152684912681913
-0.0174920388096482 0.352904486410033 0.156585716595237
-0.0245277631799916 0.349340121858015 0.153732150979335
-0.0268785127178962 0.355275759967495 0.160487354187097
-0.0464183063895549 0.351870341994228 0.159586365510701
-0.0507646197071486 0.355841951597467 0.164501303369951
-0.0535920880284019 0.356828802265735 0.165971404100668
-0.0635177355570271 0.354987696814827 0.165393389235128
-0.0851848008452554 0.355832943197937 0.169393181829874
-0.0835161049189967 0.36062619040675 0.174340295920825
-0.0909114387803039 0.362772741891686 0.177715307535085
-0.101128184180099 0.360520276060386 0.177979212150556
-0.105101604994362 0.366366141421706 0.185530575459372
-0.113125890879691 0.364447907444335 0.186947301166937
-0.11988873439277 0.359789944540207 0.185075815678345
-0.124827761899887 0.367907858782964 0.195320471334305
-0.136053022889711 0.367621234769272 0.199718243542501
-0.144391570760258 0.369676652183297 0.20527146913566
-0.145055543933766 0.371346183341173 0.207793322347652
-0.159559282348489 0.367897253673194 0.212571062824115
-0.168394305211892 0.368074229712482 0.219734852323984
-0.167976355997992 0.372682304759832 0.22801598526901
-0.169368059240988 0.37396640336094 0.231490102435767
-0.181939878352605 0.366431419568461 0.227143974292517
-0.183184507829634 0.37539421897288 0.244842330181451
-0.196752035810207 0.367589549651061 0.240762751901633
-0.20216907144534 0.368683705548345 0.246995540607711
-0.211216685557249 0.369543575558742 0.255598884175445
-0.205370299304843 0.376844667624673 0.264709977664736
-0.217430379692972 0.372298749004851 0.266684173059754
-0.221522705447184 0.374514658834258 0.275272280075484
-0.229351372458891 0.372070055440054 0.280984594616259
-0.224905715654743 0.380938299074148 0.289734503428142
-0.231867846698179 0.377815060492112 0.293292517758705
-0.233204296369895 0.381759765702735 0.305344140034216
-0.246681044351898 0.373061327330423 0.313630959988118
-0.241968852392102 0.377585975955228 0.318215992559963
-0.24749362175357 0.375216188723492 0.327647401808977
-0.242932827689263 0.381372934650628 0.341052165258919
-0.243681456075342 0.383064719335587 0.35248491175757
-0.244781935644365 0.383496862906375 0.358925004706251
-0.248886632757677 0.381600046632252 0.3652453198955
-0.255140593209842 0.377416539713152 0.368349537411168
-0.253352229989619 0.382058125158606 0.390565147450844
-0.262461496414505 0.3750683391901 0.391990015118502
-0.256695518319643 0.38054950757216 0.403464271565546
-0.264403246976725 0.381309854603339 0.410623351257007
-0.279175256353246 0.382894268095987 0.414690438576499
-0.289615158003291 0.384423799514721 0.414475362591095
0.358112102561043 0.318192206098339 0.345603908952017
0.368293532623115 0.318745360339173 0.369580225616692
0.385026131701938 0.312221005565909 0.397708621557749
0.383740956828746 0.313445696464146 0.401900190871562
0.382496060945969 0.311544752622356 0.407010410885892
0.377730020976537 0.313995071358064 0.409508273797469
0.367965892669377 0.31202588524752 0.414321209691609
0.365153151518394 0.314138257855833 0.41451500846165
0.352156766628763 0.320250770614268 0.414758715263018
0.0830258619687641 0.353393095867892 0.166446610203438
0.0699666971453726 0.352527370901496 0.163650478648042
0.0544935540919112 0.348877108973125 0.157498613595506
0.0644797528047982 0.35428606435263 0.164771446030751
0.0406999633742376 0.35326843411273 0.160284326263449
0.0256200749918357 0.354495619555924 0.159464285764186
0.0171912860745253 0.353543157103939 0.157233723193834
0.0152659863895504 0.360730396725933 0.164733822175552
0.00858725228973639 0.36388071815405 0.16719036421584
-0.00591314577743718 0.363441191223654 0.166334130579486
-0.00841229798696175 0.361941977738418 0.165068358731411
-0.0265326605401735 0.36316251429346 0.168969024167464
-0.0374027605738722 0.362375543355827 0.169665737640941
-0.0378706565189274 0.364843825830996 0.172402253120264
-0.0477754688446065 0.368885938936221 0.17818501375546
-0.0614118528606244 0.364104074309074 0.174954476386206
-0.0587316363601536 0.370255604006905 0.181226767406355
-0.0800322685304215 0.367357828335232 0.181125636824977
-0.08492861365633 0.367279242237345 0.181737898455235
-0.0842466866998754 0.375605383201689 0.190646983990217
-0.0974797214818332 0.37688785690616 0.193918663131176
-0.115950680883542 0.370866858462918 0.194596746487135
-0.112467102601828 0.3728338629314 0.195124978435354
-0.122276694493945 0.375338957469657 0.201745639911447
-0.128185305783708 0.374452559728076 0.203319098882298
-0.140738906764604 0.372453084284599 0.206544978554921
-0.140918459809038 0.374295719509895 0.210101046125569
-0.147132599466403 0.37362361109472 0.213652301945127
-0.151807556214774 0.381134194689528 0.231292161386743
-0.153504547475725 0.381071097961584 0.232486860151889
-0.162963545036861 0.377238807730652 0.232646985182395
-0.165612155727135 0.385084781551235 0.249345848511879
-0.174672917240752 0.383737897271635 0.25383881694501
-0.190401975507659 0.377214971265922 0.253824370565485
-0.193747264231427 0.379480217674996 0.260641502959414
-0.19121946538297 0.382216381173739 0.263795488941792
-0.1923484472356 0.385403047119014 0.27061896094237
-0.202642711831478 0.384831165971889 0.277513084373184
-0.2020945237437 0.38684908404993 0.280857036447835
-0.221720008317559 0.381306145949583 0.286404754565044
-0.222991885298972 0.383818951163915 0.291998746149641
-0.222460699224125 0.389779885966164 0.307922771201899
-0.226128123264339 0.388249229175415 0.310690278561219
-0.235479149930677 0.382412772857426 0.317444501179946
-0.228834333259064 0.389690806300577 0.328438643714817
-0.234728408852719 0.386866357268155 0.337005957451332
-0.234863447503179 0.387495634304972 0.340703296976694
-0.237689401002144 0.388597395002145 0.357200875659409
-0.238603966019635 0.388393839639338 0.359714289065413
-0.241248104299312 0.388494521430578 0.370457774733352
-0.246279383333989 0.387049658799165 0.382644956857816
-0.246703134661384 0.387160155449606 0.397796358694847
-0.248614879270841 0.38604693671184 0.400717502654838
-0.25434250174695 0.392329161258724 0.412304843844246
-0.259031984504805 0.396048615206918 0.414489142671557
-0.268541241164987 0.388616453165438 0.414477298813996
-0.284587419764372 0.393126898781153 0.413191422216013
0.350931379171324 0.326243158356766 0.343336440768929
0.361889915656425 0.324784585908763 0.365579856117474
0.360009281803933 0.32911770582435 0.36884489944527
0.377022383434767 0.32242906338555 0.396846812135959
0.372068818263662 0.327625580771691 0.393519101635294
0.373013604818511 0.32041862913658 0.40932429697285
0.364026444985377 0.321772730453649 0.413347451861285
0.35705094992015 0.325402126552153 0.414467715419996
0.352960911438252 0.323842703150396 0.414929972831106
0.34370783920313 0.331991143502501 0.414807661662783
0.0789467565766179 0.359032490329762 0.171965726834385
0.0653217343772976 0.358681637181335 0.169645939118162
0.0719806372267963 0.359294929012245 0.171257587121987
0.0617640250035509 0.363753570096551 0.174625495265607
0.0475578466612622 0.367958801034778 0.177151159363632
0.0300123546239888 0.364385327630425 0.1707872408308
0.0193803083243268 0.365034863709002 0.16997576738091
0.0160988116798763 0.368381033136464 0.173127938961685
-0.00451858207697796 0.369139508765186 0.172299276419505
-0.00531079053889827 0.374449799796339 0.178156111238347
-0.00886510516323345 0.3728915539371 0.176976746342526
-0.0247381258351761 0.3679525236771 0.173894715844702
-0.0309695310188887 0.370921725431565 0.17799381955393
-0.0432615681496677 0.375696405600903 0.184908935086554
-0.0490537253380879 0.375152292611509 0.185145215510246
-0.0481232122737023 0.378968847148433 0.189140984833417
-0.0666074301615734 0.37757976614716 0.190270701820777
-0.0796488479948462 0.379054989199289 0.193723586204533
-0.0795123016896365 0.383238379700163 0.198229218797066
-0.0889389283952747 0.379802908936296 0.195855552245051
-0.102205708376111 0.381137268947456 0.199210248010316
-0.103635662088949 0.383681910325572 0.202372173728941
-0.115349945277718 0.379232317778597 0.202778002055589
-0.115607792413924 0.388546087747955 0.217133725744288
-0.130960184711812 0.381637130736825 0.216107138792352
-0.125086762569035 0.390109395204845 0.227384183773969
-0.134328944630098 0.389237891758027 0.2329051205026
-0.138090049803881 0.389652906380471 0.236589030566596
-0.148268545305831 0.387743839028691 0.240896763955711
-0.156673115249874 0.386230708596344 0.244571787871048
-0.160165608791574 0.386141276455851 0.247106019720496
-0.165209123947912 0.392330948387977 0.262564474373133
-0.163473470317948 0.391699215115614 0.260042457096096
-0.173314709501077 0.395992944842578 0.275671465903293
-0.18250162067196 0.391773984413804 0.274899142536823
-0.195012019092948 0.388649738547154 0.278741423525222
-0.198555568082161 0.390652137802811 0.285221098530663
-0.198921616488831 0.394599411765648 0.292874728746038
-0.197398264179431 0.399874535065437 0.30623932862203
-0.213263446405978 0.393771363452239 0.308991113897034
-0.205583000881239 0.397684756996187 0.313291781009562
-0.221313385121798 0.391964127405878 0.317962915657085
-0.220629057347346 0.394022993981694 0.328393151312213
-0.208029445400839 0.401281601048067 0.340375919304695
-0.224157308372004 0.39682564684982 0.353444054250312
-0.220582130319015 0.399306011663884 0.359315821397155
-0.23072293165642 0.394970825021657 0.362386311947367
-0.231380312590557 0.396846403977157 0.374393048004596
-0.235090490539063 0.395443852728453 0.381679650245504
-0.226305363724709 0.401280501355497 0.396672557590227
-0.238619982614901 0.396766754100004 0.407107774497992
-0.23780644214033 0.404773251392006 0.412180251735535
-0.242955357313763 0.397179591365919 0.410323785611282
-0.261054168215378 0.403246367599661 0.41474581586905
0.34494512803994 0.332927053449022 0.341397881812686
0.347774397286448 0.33463750887001 0.350760976230122
0.3572825929872 0.335935887096596 0.374508052925835
0.358658631940105 0.337025280923628 0.379508548678393
0.367286164187519 0.33324824286146 0.392460583204058
0.366135177352307 0.33682860167876 0.400202327241732
0.362937311536683 0.330538473118213 0.410900883233473
0.3571586490464 0.335760075920641 0.411803943795655
0.353307122473485 0.333301915432176 0.413862634503169
0.345953632756069 0.335793954446156 0.414740821334101
0.342422723702129 0.33440359834269 0.41485715443967
0.325960127733694 0.340218390041282 0.413336766880304
0.0792733143706938 0.371488339421425 0.185485436674434
0.0754165622333222 0.37438205583239 0.188066280668472
0.048771459350601 0.369687285625622 0.179193646598575
0.0463322337199677 0.370721071739035 0.179964510209323
0.0342435994786478 0.371970530402118 0.17959453314214
0.0244549301860434 0.374648093427299 0.181096831429316
0.00182897079557574 0.375925435281301 0.179256442056237
0.00608919580281807 0.375360373075873 0.179251906646047
-0.00714287195580178 0.379615177053495 0.18400427976627
-0.011335546484368 0.379159138476779 0.18410805315542
-0.0201511501892701 0.387474376768036 0.194357845993041
-0.0342114838658662 0.380928423051152 0.189279506682229
-0.0380515090170769 0.38637913771663 0.195722260343207
-0.0452197599368511 0.386623634495176 0.197007525158974
-0.050583209882347 0.390267567786116 0.201712868904576
-0.0632675840919797 0.38756773814112 0.200598849592911
-0.0709685482814024 0.390927804700522 0.205330016060079
-0.0733588979802191 0.393659908431192 0.210375988293684
-0.0923812188911911 0.392306723712907 0.212682662190008
-0.0917643468171369 0.392444169099283 0.212795340994039
-0.105570040365937 0.389932961754001 0.211959787296826
-0.1082056821096 0.393452107844384 0.220569386429827
-0.105986719963745 0.398751314294756 0.22918551315266
-0.115594017976898 0.39641762220046 0.231821130129789
-0.12299116357606 0.397471002833163 0.239509271614123
-0.141363294337602 0.392681310535249 0.244775441359
-0.134611900871631 0.396743671711755 0.247139075252623
-0.141001805857918 0.398635235846925 0.255613270967777
-0.147956657521626 0.399622678940364 0.262836204685804
-0.153871808350543 0.397283343002546 0.263043094625598
-0.156827282569051 0.404878777279962 0.279511479618542
-0.157571907999233 0.40516776972676 0.28062701915406
-0.173358728770116 0.399973473574764 0.283138121604769
-0.173887214740422 0.402274327212566 0.287843122194373
-0.187621099953397 0.399249519667739 0.29281736836921
-0.19174582766172 0.400127134315737 0.297646303606305
-0.182832107644658 0.406083835779592 0.307272131457237
-0.192892543007201 0.403201860205316 0.314822431097506
-0.199833364649376 0.401448137121221 0.321409646368751
-0.197321875614172 0.405010910615971 0.336228807398745
-0.200568011626145 0.4060087391373 0.349990153677605
-0.20743662729187 0.402819911912376 0.347970658364467
-0.202732529853541 0.408408619249151 0.3693562749351
-0.205722995456014 0.406779086263207 0.367060144659787
-0.212424931877354 0.406140047436927 0.37961463536596
-0.204580394392924 0.410279278294862 0.394244576777069
-0.21894132013916 0.404330788082538 0.390496462903557
-0.208025329123845 0.410305770569448 0.404483702134909
-0.231272811870993 0.407333533034904 0.411496625715799
-0.240287863077247 0.404982558917374 0.413068683542009
-0.254829232602802 0.411673622139047 0.414370950481458
-0.262653117375387 0.407324430850282 0.41391584584499
0.344315967841342 0.340743364773218 0.353534263442511
0.348564807596812 0.345788837462405 0.371891673580322
0.347160605127111 0.345907776295892 0.368923564910572
0.351962982582833 0.34788272705349 0.383206002679173
0.362004791972367 0.339507716508644 0.405499747499438
0.354435586143622 0.342640284993293 0.410501167950926
0.34981210177163 0.345469553808467 0.411751045452002
0.341504657525332 0.342294657541961 0.414677602801801
0.337493383806011 0.343816602604502 0.414813659099549
0.322425970003906 0.345653004083857 0.41408581508491
0.311114180521246 0.349045852832069 0.412447098865034
0.313517516265421 0.349582181917519 0.413286213432676
0.0594955489351094 0.380406068003303 0.192315076795966
0.0605275624371809 0.378375008694385 0.190265090919908
0.0480899286217671 0.38192803296801 0.192337128474482
0.0387943391635658 0.380576793544564 0.189551780849571
0.0167170945281863 0.38231559778825 0.188288684748842
0.0120732909759646 0.384121824451979 0.189581135591299
0.00250139473089729 0.386224025547482 0.190491947749542
-0.00889879531011919 0.394182419970412 0.200011385368513
-0.00889725163952327 0.391331506563108 0.196927397910168
-0.0126932248774931 0.395492318172357 0.201968619792165
-0.0370620519480773 0.39329677082567 0.203064001267761
-0.0370495740126083 0.392495324722461 0.202195318477058
-0.0342226923912909 0.398865779363744 0.210483174856833
-0.0440744337819097 0.398567562231044 0.212484545969908
-0.0601224340719254 0.396932841858512 0.213442439100398
-0.074516908053054 0.394280546721271 0.211925110343902
-0.0753884810112324 0.401434489184184 0.226490085855027
-0.0908841004688027 0.397931599505605 0.22355882567715
-0.0923247662410757 0.401539207549564 0.231167795488591
-0.0972990185186615 0.401120126992612 0.231640275210082
-0.110217345961686 0.40112408988723 0.236450726871717
-0.115304953102437 0.400517423733148 0.239252877430251
-0.118127665301252 0.404362965885701 0.248616624116654
-0.122756606177904 0.404290114454759 0.252060786431333
-0.129466227895278 0.404397997986685 0.25745169990105
-0.128569660177424 0.410292640697474 0.267764984548268
-0.133406671852119 0.410361848214357 0.2716353348934
-0.144190550472869 0.405145656345765 0.27023609282157
-0.143802259184544 0.411780363719584 0.282324376862896
-0.156719386251262 0.408327787050617 0.285868163789216
-0.163415800932891 0.406270824488359 0.287206571365036
-0.159017829098486 0.414153143900695 0.298523213958506
-0.169108768498304 0.41118333425261 0.303835970710896
-0.178407991457621 0.407969491772826 0.307584244279185
-0.174326971703928 0.411568312900629 0.318795825330769
-0.169140897330693 0.416373602881069 0.334406132734704
-0.185088362674947 0.410377373203395 0.337986415146917
-0.184125308921181 0.411327215952623 0.341223055294346
-0.178705752024379 0.41751239332373 0.364371810247343
-0.195475333056298 0.41042875366801 0.36356430367609
-0.185586204893538 0.417267186815415 0.37967440985701
-0.197957337512626 0.411419160130914 0.375422580674421
-0.189054101734209 0.416710479287476 0.396240809627067
-0.200904746331123 0.411856404775458 0.399253973305186
-0.199364141158987 0.414111654681857 0.404891325854821
-0.211259379243782 0.417486048642067 0.412602087379278
-0.22215783357617 0.419429495811139 0.4145578367023
-0.243511113547922 0.416230088783809 0.414787571333912
0.328019686509956 0.352737078719127 0.350500203678355
0.295239608832081 0.365012961315173 0.321389299612744
0.35464889369998 0.348965470340976 0.391156140953548
0.354617615264936 0.351375097799865 0.401996488124577
0.350142301248933 0.354048094923357 0.405173437147531
0.347915475769527 0.350937969201234 0.410169568077285
0.345093500592167 0.350971731575683 0.411307118292358
0.337149222377396 0.355971893093643 0.411865520783465
0.323045768661591 0.354825664775739 0.414820390403752
0.319364967352067 0.357444486180657 0.414838364086989
0.312027449605254 0.36179704565067 0.414950086315519
0.298950670469318 0.356226788982753 0.411350139833843
0.0681762410293187 0.391138461954466 0.205160239306499
0.0665148948982972 0.394371935614905 0.209997264770046
0.0506856504212066 0.396402795033627 0.20989086283192
0.0399681396858515 0.392315395728244 0.202416313176147
0.0208635637640266 0.395426418036696 0.203060838210891
0.0129254160311307 0.394817595872069 0.201271853452625
-0.000999226916341183 0.396456471027053 0.201346232348573
-0.00912910616669507 0.400785990958506 0.207711078239138
-0.0060142599921827 0.402678486687596 0.210681544263864
-0.024230747188025 0.398409735911802 0.206933431998694
-0.0254039262986647 0.406524459185489 0.22350318264777
-0.0314530941330699 0.405853166110054 0.223753847622106
-0.0469186205976083 0.404111050567686 0.224342883148734
-0.0496531672072054 0.404348455709052 0.225539981751588
-0.0576434814198922 0.406513428045253 0.231986031529664
-0.0527306072832296 0.411585444519028 0.240853283889387
-0.0602436279796441 0.41073464540217 0.241130426727998
-0.0817432738237964 0.408798940094858 0.242923377955759
-0.0747968587240526 0.41302191676947 0.249552868597139
-0.0883950957251734 0.410111544892472 0.247308355149834
-0.097020678012876 0.41194446064372 0.253256617693475
-0.101969066832704 0.41546874248986 0.261623973273496
-0.103582136916763 0.415334056534916 0.261779625740468
-0.111853047889824 0.419816457640671 0.27294335573384
-0.118576228752184 0.41938012557224 0.277004227689885
-0.126086537165679 0.416463259037651 0.277366482059174
-0.129899444530074 0.41839451303037 0.28392164335589
-0.147252151073145 0.413898421183112 0.288947575851966
-0.140872670565973 0.422006893341703 0.299153928434076
-0.14543783561161 0.419851900041041 0.298660901867773
-0.147456163560501 0.422523655874977 0.317768256594111
-0.156790040220446 0.418068338296367 0.314307394780744
-0.160210512396631 0.418043367521566 0.322484198678484
-0.149442521526265 0.4257174768399 0.341365108644532
-0.16643087984375 0.41775129357341 0.335905183546924
-0.165887371534077 0.419781583651513 0.346510212233832
-0.1564117235207 0.426680673508638 0.363982844495974
-0.17439519024573 0.419974895036105 0.368349124723151
-0.169704640346916 0.424725288618707 0.385477114387238
-0.163055102989212 0.427479617175775 0.396301938530524
-0.182724820453515 0.419332153434013 0.389591219897071
-0.171507865138809 0.425596847631993 0.404791887061271
-0.187309457837966 0.420679623523661 0.40743360364247
-0.187891276014731 0.428273956671729 0.413070130419895
-0.196988086934212 0.42740106671458 0.413997638349895
-0.228337764111436 0.432834430706239 0.412114109151569
-0.227262879860842 0.433463585766431 0.412004954463598
-0.244170419955251 0.4281158017934 0.41102242125537
0.259660050567809 0.373478939853838 0.283714471741728
0.28364667845589 0.369043340838118 0.310390749256356
0.288422280101591 0.36884469159739 0.318225750907193
0.335215340262594 0.360987814876285 0.381634400315464
0.34381505695377 0.36050559988092 0.396308358978752
0.33621296755793 0.366065258137737 0.402938201950646
0.335976386317033 0.365436810510904 0.404341531205168
0.329560528487454 0.365485435751645 0.409768624612405
0.325795094469732 0.368980267754886 0.409244518676102
0.321966858637847 0.362641463173572 0.413687489273388
0.309393228447103 0.368861475495599 0.414509120768054
0.292456617143456 0.368846490305512 0.414140064105345
0.284921392968581 0.369188611449477 0.412469688728572
0.279483587007673 0.368951736388717 0.410172477310108
0.0700699552891109 0.401064932338576 0.224346515643439
0.0609904740844713 0.403004779740727 0.225838364792492
0.0477025919880492 0.404593314130691 0.225516057058175
0.0361118404459765 0.405758273611074 0.224792702461113
0.0112656230099734 0.404264132980729 0.215244193322981
0.0235186966459529 0.406675413550628 0.22330833174505
-0.00279872418582726 0.406930190788515 0.218352823132591
-0.00938053719914575 0.410815454572115 0.227874418656727
-0.0136810634499467 0.410897867794209 0.229174058000733
-0.0189456507582406 0.412060577299289 0.232892716116976
-0.0295574055701988 0.412077491433977 0.23572604167405
-0.0321767615136538 0.412034979204794 0.236331854753954
-0.0352981631819719 0.414097922645375 0.24128901625821
-0.0409667135330308 0.417245233309902 0.249090980169093
-0.0432682530888423 0.420568497646545 0.256357285573846
-0.0496614896323449 0.420626778851473 0.258160636505826
-0.0709004586783071 0.417752783351979 0.258004676600235
-0.06331292243326 0.423523670090371 0.267566734272857
-0.08189753824691 0.420598168924612 0.266607336029614
-0.0867397766360813 0.422501166554921 0.271697963740328
-0.0940051407789822 0.420389014934238 0.269382278876279
-0.103656427953824 0.423749672896143 0.278662413059727
-0.114963726597416 0.421864801621406 0.278849676266082
-0.114083654959933 0.426772219870013 0.287469738112948
-0.125861031388751 0.424445961031001 0.292097702296932
-0.123279857638788 0.430832998520425 0.307752770135918
-0.1339660594853 0.42435103830079 0.298189186184269
-0.128539141343866 0.430991601411745 0.321482671045271
-0.131135331275458 0.431512727094827 0.330861863429737
-0.133756026280738 0.43236891658033 0.342269132352899
-0.14265400530064 0.428906262395662 0.343579276089103
-0.146458778060346 0.428081978522818 0.347995417594173
-0.138688996749844 0.433497034208084 0.360900710967855
-0.15589961814661 0.425920657565227 0.358271699144565
-0.149988236954263 0.430930134651011 0.373316584009817
-0.159181170888881 0.42884702315393 0.383449069367589
-0.154793885699909 0.430901525418715 0.392381565967441
-0.162357110683131 0.427768735055386 0.393952283807155
-0.159289352133189 0.430139114293711 0.403823148696176
-0.161973798467607 0.437563078979305 0.412401654303457
-0.178272973141645 0.434518792332055 0.413794419822742
-0.192342380540633 0.432448286032269 0.414625939759212
-0.214349192696232 0.442457017975337 0.40952637857913
0.295409490062172 0.375113756321915 0.344518476422169
0.282443786141805 0.382431069131916 0.338569267641312
0.317429621403649 0.373199547223342 0.378388699820067
0.331735214445515 0.370116278637912 0.398031118057368
0.325541090083202 0.373402074323865 0.404408908608328
0.319735195401339 0.373136253836706 0.40967205021902
0.309192244387653 0.381464274957184 0.40946593487639
0.30531931093757 0.378915573797287 0.412619913360603
0.299689331398752 0.374740094636506 0.41464617644435
0.285564808359475 0.378129236056106 0.414702491490709
0.286336656356741 0.379525839662449 0.414876395758529
0.264915212827672 0.3873216549472 0.413408804619095
0.0699881622744362 0.409286434974849 0.240799162673365
0.0765460312494108 0.41349787348485 0.250968029664529
0.0471420783155682 0.411473060946126 0.239153808593321
0.0351451182327888 0.409645755011383 0.232327400956955
0.0286756472247377 0.413021270822618 0.23738457203994
0.027012432158448 0.415284242689434 0.241480344552098
0.00762670210628835 0.414286509590819 0.234367038866317
0.000196017354487878 0.416274975681304 0.236391270615324
-0.00639944711558 0.419090782658436 0.2436700721633
-0.0171782418804793 0.420400131993003 0.249137241788781
-0.0086912744831518 0.425186482623693 0.25648921435226
-0.0183152989376164 0.426566841967435 0.261794039557459
-0.039306109137071 0.420187607702137 0.254548826305588
-0.0452077915756967 0.424020480868346 0.263786019866884
-0.0546264202887353 0.422253444911129 0.262729918596249
-0.0552566270262859 0.426065943548995 0.270535644542137
-0.0549489116636266 0.42744634630519 0.273220514973606
-0.0757308479337691 0.425863681715995 0.275531552911757
-0.0740195944555617 0.430887897300724 0.28514762524204
-0.0817674619259972 0.434497011652047 0.294423484186532
-0.0782339859774676 0.436001186126244 0.296505396554633
-0.107017799804911 0.430466717652955 0.293008755327485
-0.0956456736886363 0.435375435249403 0.300885534693147
-0.108458613737795 0.434807574772679 0.307940212236181
-0.097774897082712 0.438648719887242 0.323289134267717
-0.104935929885201 0.438458373786317 0.328032759085262
-0.124273190346216 0.432517090103898 0.320063744936891
-0.124901241791082 0.434280622629034 0.331952533372702
-0.126962510707485 0.436365593437959 0.349217363346231
-0.117300423547447 0.441229627604605 0.355766591772689
-0.132097682442342 0.43568924855417 0.357740064114318
-0.133788999910216 0.436640451302859 0.367443938837694
-0.135117396107488 0.438286746557702 0.380348222245803
-0.125118379916746 0.443193522384382 0.390551196376598
-0.137599040307357 0.438850292057551 0.403312936891243
-0.141632107680969 0.441400453445762 0.409248593427557
-0.143650374403934 0.441345660255858 0.410036014037144
-0.148789444580677 0.443718292320482 0.412813573319116
-0.160245624749503 0.442496784771455 0.413958070303341
-0.184664612426243 0.440818588487878 0.414845582231941
-0.187305801669141 0.441556620480658 0.414659034094574
0.251799806854299 0.39457992318335 0.312876615168382
0.250910249172622 0.395275498157389 0.312905988765623
0.310754368517078 0.380946265237042 0.384322071746208
0.301735304551273 0.387727503263438 0.384007086482226
0.309267947279058 0.387389585191617 0.39966568826895
0.30481405686218 0.388640339058595 0.405477033649268
0.297750080992681 0.383242769888327 0.41313201678467
0.292795207546622 0.389964048398556 0.411886862793844
0.284855134838528 0.388574723628276 0.414387240455716
0.273506773941652 0.389213837655632 0.41486269257438
0.274461868993883 0.390959291587776 0.414920605190484
0.257520213338669 0.39229286392806 0.413215357121399
0.0825130799219601 0.417095846594024 0.25975177506961
0.0841576525961782 0.42073818534521 0.267484129819549
0.0682027132434013 0.421003931685321 0.263807640210802
0.0498144265158816 0.418366887718444 0.253672618354196
0.0414496237785019 0.422050891756438 0.258847939476775
0.0443113235808431 0.427417617818877 0.270356700907379
0.0267007253175922 0.427650497598384 0.266177582418972
0.0257703444064353 0.428118196637456 0.266869317414658
0.0103086601024927 0.432357180290798 0.271284512940155
-0.00533784577559057 0.431087385082665 0.267428775541846
-0.00224163776796656 0.433723927195399 0.271895076509032
-0.0192442784830056 0.429373525691055 0.267663134072094
-0.0357479560940974 0.430219987708324 0.273713023585091
-0.0349214836633359 0.434668724839139 0.282409363355789
-0.0312049861956379 0.437410780641784 0.286923456958003
-0.0469394183145722 0.43734325666364 0.290938973100137
-0.0457424383141078 0.440864018668732 0.297678097142181
-0.0583123321970956 0.438662892103563 0.296583485537753
-0.0616341165149283 0.441247298938725 0.309674965436021
-0.0754504600366319 0.438130042821559 0.301489864451955
-0.0835230554295967 0.437816471244315 0.306213214172202
-0.0820168841206437 0.44023981060424 0.320240976610808
-0.0802365372130301 0.441250081459775 0.325132516952385
-0.0859269130864462 0.441609323718335 0.332120363093542
-0.081408497103986 0.444997619889997 0.349731509430355
-0.0961829853736528 0.442523059752173 0.346393529908612
-0.0958754403878942 0.443440846028047 0.351924429040477
-0.0943852265377906 0.446009846146773 0.366883750915333
-0.110272885481772 0.442757409588322 0.359565599895696
-0.09901968314586 0.448248319668872 0.388410888348633
-0.124468699743795 0.442554219616374 0.379505997508269
-0.103965480223132 0.449484368006924 0.405551310950775
-0.114080242944419 0.451047298127488 0.409333561353571
-0.123981704104196 0.443721057796754 0.399266226286204
-0.130354890086376 0.453526967978413 0.413525264458306
-0.140403028200103 0.446730788507162 0.41253981854488
-0.154887998814081 0.453575781700708 0.41480247812298
-0.167509603590014 0.452573402623053 0.414199786908768
0.255310487674038 0.399445286287764 0.329965423132131
0.268352427415388 0.397707848028692 0.348661089347421
0.266716893291741 0.402471427915922 0.356592828431957
0.2822702126577 0.402373295952066 0.383350821457397
0.297344844936978 0.39558178360478 0.403536687982379
0.2906209236005 0.400264289404497 0.404301431976577
0.283314462128405 0.400004049312704 0.410477644256671
0.278599821450414 0.398205044921947 0.413058353211708
0.260479920782647 0.399740820453404 0.414909133781506
0.25425411219004 0.402099140454872 0.414697626577341
0.245982242307342 0.402866172829068 0.413688515798067
0.237532856290469 0.403635040521325 0.411493196162581
0.229087958697369 0.409491272231139 0.412240102585518
0.0663663111537121 0.425868176427257 0.273070148586506
0.0684286309561822 0.431856997050311 0.285614581019393
0.0507834771399672 0.42867822252108 0.274590083061429
0.0505135997610387 0.432758515984848 0.282694968932335
0.0318545283246002 0.431419364562054 0.275089226258428
0.0217866486208343 0.435368801928618 0.280347141884826
0.00650185032288915 0.436863258073101 0.279309524114459
0.00185760657720085 0.442339343833225 0.289057315418769
-0.00895132555438629 0.437810843788277 0.281854477372679
-0.019463870701665 0.43973544124219 0.288484241534589
