ply
format ascii 1.0
element vertex 856
property float x
property float y
property float z
end_header
0.0528017335404464 -0.458974346305124 0.314251919663072
0.0495930069917968 -0.464158541404318 0.320471937428621
0.0415432522961085 -0.480023405163016 0.320471937428621
0.0308953489730281 -0.487265144321357 0.320471937428621
0.290888907722013 -0.172125088625764 0.0771140899099891
0.290269087871203 -0.174942539938559 0.0776117405911146
0.280472087963294 -0.190345346394455 0.0786125694814007
0.276668467728767 -0.193349828077754 0.0777807736805351
0.268234354489098 -0.207192756870915 0.0790839433111207
0.26000085724984 -0.212550427254181 0.0771564949526282
0.259803959075362 -0.218865872933778 0.079443895782406
0.244878370157461 -0.226697480785808 0.0757794574142819
0.249276297881639 -0.235244126119137 0.0808379233447064
0.242208307121933 -0.236262259581016 0.0772862829044562
0.242453722229499 -0.246756216758147 0.0828963775552075
0.230492518581753 -0.249904371440115 0.0787754206747756
0.224498022558471 -0.26030031687229 0.0827366011150211
0.217773586022359 -0.26753306695354 0.0841532455130191
0.215229189434951 -0.276985162826312 0.0892786167328704
0.208414672984932 -0.280891955118425 0.0883750335450512
0.199815204975609 -0.287817604555181 0.0885985393130987
0.199131639139357 -0.295114523674112 0.0932268595364036
0.194586502844201 -0.299191432365556 0.0936295944630788
0.177966884619007 -0.312984896940646 0.0948735168302068
0.178803066915836 -0.317200665792534 0.0985042707660796
0.181083552973627 -0.322162844160132 0.103205167808452
0.171020151716627 -0.329262854105592 0.105538282114533
0.165728335772435 -0.331010787339025 0.105184919154319
0.165121921718106 -0.340699568268881 0.112695799373421
0.157740027644006 -0.345055217058994 0.113728783020018
0.150942408779657 -0.353734072247568 0.118394983119698
0.1403223581179 -0.359095380281555 0.11916085736328
0.142490467244415 -0.366972121721436 0.132928486073586
0.139436050354384 -0.368243873261017 0.132940978066032
0.131812237941129 -0.373231589613746 0.136419849145951
0.134542703872866 -0.375746847683046 0.143352105149268
0.13074515710676 -0.380379416062805 0.149168963238566
0.129042123571819 -0.386059072846901 0.158107169891908
0.127446448927727 -0.38668662646166 0.158055783989668
0.122998166624833 -0.396568260145895 0.170425231028248
0.113444781386598 -0.401742209180095 0.172297485540406
0.105572194616937 -0.407271118003606 0.177280389125187
0.104108558036804 -0.411543551831658 0.184016808275445
0.0996527773602867 -0.413490066814562 0.186262258422041
0.0998572602749798 -0.41668496707114 0.191582088504739
0.091343116403236 -0.419538737959125 0.194443369116808
0.0935020784984603 -0.42410517504964 0.202452733993179
0.09040926546715 -0.43109411682397 0.213320461567091
0.0852699475054105 -0.433894430432962 0.216827103865643
0.0744891916911513 -0.438399461517643 0.221922201643409
0.085288311101691 -0.445085109312024 0.235309003523056
0.0811949843381005 -0.448929233463236 0.240766553285245
0.068318055671619 -0.45277552690067 0.24431827949914
0.064131882609218 -0.455413642871537 0.247764300571366
0.0701558349169747 -0.456689635252435 0.258844616612018
0.0648456411649915 -0.457388735603058 0.27187493901434
0.0725603822852248 -0.456373070549385 0.28597338728745
0.0653558477775571 -0.457321565620493 0.282290011216789
0.0684640591426292 -0.456912361784133 0.302532177229598
0.0731020120593457 -0.456301763628644 0.312909914927827
0.0598272289134971 -0.46554357509409 0.320471937428621
0.0512729555658543 -0.475836780665723 0.320471937428621
0.0509936348320889 -0.483752997516876 0.320471937428622
0.042822607985587 -0.490317677412866 0.320471937428621
0.299331837383274 -0.178450331130844 0.0852637691061778
0.301203414496778 -0.182100180228437 0.0884567964390125
0.300605085375778 -0.186854149743863 0.0905408661348559
0.291656272447836 -0.19394441682351 0.0881432893815279
0.281716054823034 -0.19956662418981 0.084298329678063
0.272313276023823 -0.214000091068726 0.0854412696007279
0.276819046901746 -0.218712514925411 0.0909917413166677
0.269225215822881 -0.220056060279652 0.086506600725476
0.252218657673583 -0.237660779893049 0.0841160478615649
0.248173730326858 -0.23851443243564 0.081799361517286
0.240075717923853 -0.250209988690342 0.0840096954047976
0.23892103616752 -0.258530288452776 0.0890903509058907
0.239446363818472 -0.262683596883084 0.0922042406113451
0.234855317961638 -0.268537140130311 0.0937970688747366
0.222852177711037 -0.279094014732479 0.0947173071605869
0.218431102463808 -0.286989716342264 0.0977948973352841
0.208917699117496 -0.292871765496371 0.0968259310623944
0.206779769636795 -0.298477810108376 0.099536026479234
0.210317314168233 -0.302705654289104 0.104280455904385
0.195043023732099 -0.310128842922249 0.101343719182106
0.191141328623512 -0.321318148010024 0.106944550005289
0.187653713188035 -0.321516160344366 0.105250973950262
0.182290258258017 -0.330866650195911 0.110529854709648
0.175982475235339 -0.332648952202669 0.109868929933859
0.175115015016948 -0.345095146570077 0.119488234702596
0.168813060722894 -0.347391177125258 0.119238080572492
0.15813464186791 -0.354629868831712 0.121783230905205
0.167949726971012 -0.356698565534537 0.133445640671406
0.153703038438367 -0.364536197677042 0.137127237709711
0.15733756866947 -0.366976152487914 0.144628280183777
0.15172584711342 -0.372868947895281 0.151412413736318
0.151095944467088 -0.373948640708805 0.152969075048564
0.139456605899108 -0.384050788502868 0.161654609270717
0.138775094863379 -0.384953332183549 0.162608968109507
0.134515366581596 -0.391611727824413 0.170139114276375
0.121368208828239 -0.397117870020905 0.170232066242353
0.127730714524851 -0.403108963476551 0.183505376958616
0.122066225576447 -0.404311033565375 0.181744781553304
0.121049916114288 -0.408575204606898 0.187658168989507
0.112511586069142 -0.416935589067889 0.195080199350131
0.105239868732529 -0.420299929356032 0.198721156003068
0.106334265555632 -0.425364048039102 0.207320868085814
0.107948665115022 -0.428361886517669 0.212621804111878
0.106419393061845 -0.432629957503802 0.219336751358722
0.098900068211595 -0.435641430945456 0.222674685147944
0.0996978695490874 -0.443569862108413 0.235939439039389
0.0943653714593544 -0.441914338544505 0.232046665166969
0.0843296523488612 -0.450652427019671 0.244293292170781
0.0874725539550227 -0.454409845678539 0.257057819206281
0.0848483747698854 -0.454755325462162 0.262296151171423
0.07873211639146 -0.455560546246292 0.27514177073687
0.0867322026385266 -0.454507314789672 0.286108754040993
0.0854065238480788 -0.45468184373353 0.293216128875639
0.0848173523514224 -0.454759409641504 0.306124644011929
0.0816339632631712 -0.456540770264862 0.320471937428621
0.0771684653156069 -0.46476304333227 0.320471937428622
0.0681182552495212 -0.471931305122151 0.320471937428621
0.0618771478412033 -0.470441864378301 0.320471937428621
0.0605779212669359 -0.488053368059339 0.320471937428621
0.313184899478274 -0.176365915131918 0.0945049266456089
0.315665896396148 -0.175911352431486 0.0963295732080106
0.313901562203323 -0.183563456471977 0.0979021658888737
0.296283314358224 -0.19289904818944 0.0907572625456774
0.291109695422867 -0.203619283217101 0.0928432366221164
0.289671058356814 -0.213864234274211 0.097232493292157
0.274689060237438 -0.219569856613997 0.0899856774814502
0.280064224015979 -0.22620645415626 0.0971393335400675
0.27192971685635 -0.231947389954729 0.0945906738188368
0.266834887433362 -0.240913171538516 0.0958104610584416
0.248386006020152 -0.25486738391269 0.0915505023726823
0.253296743054421 -0.25353045751517 0.0932120166862403
0.251395514094411 -0.2613176668014 0.0975368652430658
0.239891816374275 -0.268184850767478 0.0961974421514441
0.230338561151656 -0.277246617244355 0.0973806253926727
0.236145240155094 -0.287602311842331 0.107502813768251
0.222508003027198 -0.294408922835078 0.105003170189078
0.214528460683463 -0.30009571483584 0.104705117450004
0.215109631760013 -0.304308796043695 0.107889140611406
0.21688396835738 -0.310121139267035 0.112791807925374
0.209259260817729 -0.316898675675917 0.113425254601792
0.199348522365263 -0.326030072549856 0.11446856030445
0.197502263660415 -0.330000563971822 0.116213855429019
0.18171800141314 -0.342995399378 0.119993835705793
0.183656106883421 -0.342587513794129 0.120308118792533
0.182504696855802 -0.348593880878172 0.129499095929931
0.169065122184226 -0.353195835285237 0.127664628810091
0.165951447430593 -0.360505641468283 0.139110000656814
0.175448133536304 -0.362475158614644 0.150333110279577
0.162065961798237 -0.368173535432757 0.150628365695896
0.168661907200979 -0.371126187266522 0.160381568549636
0.168063829759613 -0.373467820779292 0.163603374882121
0.162320632028984 -0.380316183939531 0.170480350438689
0.152425265969867 -0.382945622574659 0.168219508105594
0.148968391270599 -0.393461164047338 0.182196183099487
0.137922382693489 -0.393511147127091 0.175233087098796
0.138688753005175 -0.40390769265207 0.191718287601569
0.137014323678149 -0.408921538979933 0.198365729137602
0.136001779913337 -0.407025448943884 0.194802958917291
0.121844689640402 -0.41615005951835 0.199819844619608
0.126349590003161 -0.419958464996895 0.208550820899905
0.115806926114532 -0.427709843928851 0.213758366555035
0.112828540902956 -0.431420351984313 0.218732705568081
0.115266839237581 -0.433807472417376 0.223204333226073
0.10460429170398 -0.438431171948093 0.228521071311008
0.105385618100804 -0.44081859315512 0.232632998126394
0.0991756893272649 -0.445912551552261 0.23969414519517
0.101999134731434 -0.450395157599906 0.24770953666511
0.0920892737892847 -0.453257225714092 0.250281112433911
0.100508408783985 -0.4526936426345 0.271143048509704
0.0999481209274885 -0.452767405938669 0.285345941131316
0.0985251302704233 -0.452954746234288 0.298793930326713
0.0975603672877238 -0.453081759705165 0.296303894380956
0.101058965481134 -0.45262116046191 0.31737656219694
0.0956013580042484 -0.455790602718846 0.320471937428621
0.0838197838985053 -0.472453935982942 0.320471937428621
0.0801809342548837 -0.470647274418826 0.320471937428622
0.0775987413809209 -0.487223661368609 0.320471937428622
0.467205325545676 0.00441514443268539 0.320471937428621
0.323336618661886 -0.175769532501245 0.102387541753363
0.327105997522002 -0.182526093877941 0.107614693676557
0.305148745042939 -0.19978329969401 0.100426068143958
0.298022846737127 -0.205718266250384 0.098668450301397
0.298391621090778 -0.211124202642776 0.101755337618734
0.293738949011395 -0.217119066886643 0.101719355378349
0.289165667674182 -0.22906166502745 0.10485661071685
0.275701016716696 -0.234471543967098 0.0984916764751627
0.282354480756879 -0.243156265032979 0.107592966974005
0.274568863665558 -0.251472194918525 0.106633064289493
0.268187833474898 -0.256029903746023 0.104662264573377
0.261120751497018 -0.262810523042854 0.103656994421871
0.251303586368191 -0.275053761854475 0.106876030925994
0.247424182337663 -0.279103144444186 0.10760906310938
0.243750093398457 -0.287780383781009 0.111612481607175
0.236539634990832 -0.296057578385547 0.113488039875103
0.234158139638939 -0.296707921266611 0.112683638087993
0.226937299818024 -0.306492810403717 0.115584124531551
0.220090951334018 -0.313645975278969 0.116882449261073
0.215719084855949 -0.321634679604215 0.120049403331508
0.215776521591211 -0.3269231907824 0.127074447337069
0.19901978370694 -0.337211746627192 0.122879747977038
0.202825734218365 -0.341841774052112 0.135206566377865
0.19750050235669 -0.343828087842289 0.132247608962858
0.193041497845531 -0.350007652614841 0.140484715904527
0.190743593816801 -0.351287602829221 0.14110855104949
0.19094619373862 -0.356464358457757 0.151110143458845
0.185845819923987 -0.363345769686661 0.159362039663831
0.180807230266771 -0.367373708730914 0.162348407787309
0.181522879278057 -0.373161894171887 0.171710574778318
0.174003258971008 -0.378308618126899 0.174837127788176
0.167733006661355 -0.379333631421582 0.172418027951176
0.162636731102601 -0.39018876466895 0.185872372965513
0.159156559383663 -0.39283470752205 0.187725550122028
0.153440167842446 -0.392481280005813 0.183538490840464
0.151101458092091 -0.401776623844457 0.196350339660668
0.144873253026133 -0.40936420020521 0.204055602304873
0.13755102763437 -0.412897621725142 0.204825635279949
0.146068616588801 -0.415378711400858 0.214071746726051
0.13106775016914 -0.421690162752411 0.214222364427452
0.135152202860794 -0.425095870637732 0.222065759519228
0.133756865787662 -0.427558081223973 0.224964972055211
0.122211353355443 -0.438354056074003 0.234217970745535
0.121013490581664 -0.440328823988612 0.236493031117247
0.122652766958871 -0.446618950196943 0.247216174776871
0.112311173324722 -0.451139779025349 0.254203299981733
0.111037915478352 -0.451002475259059 0.250677208899435
0.121758172338206 -0.449566114648275 0.270726124917583
0.117002004293919 -0.450522219341382 0.287639150004926
0.113033682121549 -0.451044658926765 0.286805160614782
0.11707043449601 -0.450513210333329 0.310175171670551
0.111138138614539 -0.451294211992484 0.305856605622218
0.109564885785167 -0.451501334680657 0.31984836274864
0.107730910632388 -0.46410557664234 0.320471937428621
0.0940291150883538 -0.475016563211687 0.320471937428621
0.0913317792115657 -0.48605081691504 0.320471937428621
0.472496900370076 -0.00159726562566243 0.320471937428621
0.465532413011934 -0.019686796676549 0.320471937428621
0.335432177674801 -0.187272774726371 0.11580580305463
0.325991155528369 -0.199318723760908 0.114426338756325
0.316695062802169 -0.209450712905095 0.113386501536174
0.306453431350681 -0.213411230615215 0.108464165733897
0.310870119599689 -0.216529180999877 0.113117618477178
0.30299519789638 -0.22455958851213 0.111946956774669
0.288428440983874 -0.2346209872851 0.107268082112244
0.289159722086081 -0.241443452488374 0.111345535071197
0.288068828572353 -0.249970775342027 0.115071721639748
0.269169226563792 -0.266107049793303 0.110617395270151
0.26640530176351 -0.266852887937508 0.109190792392494
0.259772277969453 -0.274053691844895 0.110633541167844
0.250587742102232 -0.283911359392788 0.112554006238142
0.258345150587501 -0.282421418487337 0.115603738616866
0.251196245857507 -0.295320002704134 0.120669875264291
0.244270140256049 -0.29851850739781 0.11922372472538
0.235802308136578 -0.307958526390506 0.121234603173088
0.240259557492034 -0.309244680589902 0.128883339515399
0.226643036957698 -0.322464960420294 0.133408825956762
0.223319002747796 -0.32699663302391 0.136643084250518
0.225345400761 -0.32966488616283 0.143537807132155
0.220045660283371 -0.334626537907028 0.144999010276972
0.205138828201441 -0.340932909816981 0.136620452844833
0.215986398406693 -0.344014517127545 0.155240613695872
0.202679071207795 -0.352489593119742 0.152792993563851
0.204155665062341 -0.355640145695484 0.159175188450914
0.191053674606533 -0.36071531253175 0.15863380182447
0.196724084128071 -0.367413010389473 0.172553240844552
0.199249438244329 -0.369390331096841 0.177205163910505
0.178606255008437 -0.376750772414439 0.175373778753709
0.186849896934371 -0.378054186793788 0.182633250438809
0.173144680772568 -0.388585195129892 0.190102101474517
0.17439275498537 -0.387863375234416 0.189786905693798
0.170707236488365 -0.396852437040896 0.201269122323413
0.171654269112988 -0.401145268128285 0.208477913645015
0.163026762771984 -0.406630143432061 0.211418673116238
0.162118138698883 -0.411542358901054 0.218397813301023
0.156044202575485 -0.414482276153228 0.219050221897179
0.149602140166691 -0.41870311878291 0.221438921682786
0.144951420442004 -0.426030487054459 0.22974919804176
0.147409414749649 -0.427447945094457 0.233496751140565
0.136250341425904 -0.437273909550797 0.241503523008212
0.136023607353052 -0.437386692584999 0.24153255247996
0.134629135746185 -0.442809361745963 0.248987460774899
0.133380090320208 -0.444752158396445 0.26878250073832
0.133960460780679 -0.444511761070385 0.270555836609081
0.130590075617432 -0.445907820374263 0.287205677311694
0.12480724056535 -0.448303149182759 0.291218216365887
0.13733215018001 -0.443115161534209 0.31178831156452
0.127262231115019 -0.44728625875873 0.311442129458002
0.126945232348852 -0.453252646308481 0.320471937428621
0.118331558057526 -0.454118080739565 0.320471937428621
0.114441774369935 -0.474633390490845 0.320471937428621
0.103333768739778 -0.474862801581628 0.320471937428621
0.483904402079445 -0.00631949671383907 0.320471937428621
0.470790503202322 -0.0200252440598366 0.320471937428621
0.468463731551643 -0.0262535466230477 0.320471937428622
0.336088431116769 -0.195786714512301 0.119474729530683
0.341407876826063 -0.198500760568765 0.12908014135504
0.323453870999132 -0.211023318496985 0.118830204314566
0.319127919910724 -0.219401688044086 0.120267412178937
0.315115009223345 -0.227831495135304 0.122898143169917
0.313369747764155 -0.229428633700749 0.122049627085569
0.304765597197644 -0.241658186454186 0.123322913952472
0.302579666383216 -0.244793510773769 0.123681902551971
0.282132175395599 -0.25791518179192 0.115180591519822
0.28026015488325 -0.26294815249329 0.116540516634721
0.274588544691764 -0.276895150260018 0.12034504429873
0.272110286843561 -0.280907377764946 0.122520492566699
0.275321860131162 -0.285630513723493 0.134254722107845
0.26729317043807 -0.291960102259816 0.134530562521403
0.263559193708924 -0.297733751205914 0.139278917900462
0.244048771605416 -0.306875580167338 0.129762437299317
0.249968873856563 -0.307101084718572 0.137546918708109
0.2475730389149 -0.316063775109 0.14917803119681
0.244884293659683 -0.319538950295514 0.151483304243761
0.22944948930483 -0.330020052867744 0.149258989384063
0.228178568553082 -0.336587566114949 0.157915349865574
0.228323626142655 -0.335402676221295 0.156496847100812
0.228252420078591 -0.343071771048306 0.166557666522712
0.219825436102115 -0.348395125439988 0.165047579648533
0.211304458267477 -0.356973564200629 0.167743070582023
0.215097983383425 -0.362844149143667 0.179345825909515
0.198418159332005 -0.365760924910218 0.171090932903646
0.196429715244361 -0.371581593369016 0.178779668275748
0.191841787073874 -0.380024741747428 0.188846771957439
0.201306681597227 -0.379118253187201 0.193484297161058
0.197227938069155 -0.385593007917752 0.200847229935074
0.189807581177594 -0.392032863901217 0.206026739651249
0.178939082522445 -0.393550058412816 0.201434318867354
0.182477543528469 -0.399602833430364 0.213002675350364
0.175064958321605 -0.402835495317206 0.213252351569505
0.175183879894688 -0.412107085050277 0.227593984243418
0.16943619474899 -0.41416255698353 0.227093461742653
0.166731380959456 -0.420745064769535 0.235497842923725
0.16408330329969 -0.425455077910276 0.241057248242554
0.156576432740432 -0.429651062541672 0.242729060941395
0.15993136321286 -0.433754260602505 0.253036168448842
0.161804541760284 -0.432978364610714 0.267091116324055
0.154032180478361 -0.43619778220104 0.272439485684494
0.153478479649796 -0.436427132603396 0.282665547432946
0.155673638072252 -0.435517868174933 0.293488963813153
0.146668058517088 -0.439248101520932 0.294089387673516
0.147894520230201 -0.438740084424217 0.308861174706195
0.14973833081237 -0.437976353042447 0.316510747842893
0.144965355976765 -0.444371851909521 0.320471937428622
0.141427598602756 -0.456745894506621 0.320471937428621
0.135063202013967 -0.462095280147069 0.320471937428621
0.480361549336742 -0.0189911814793659 0.320471937428621
0.474348237596269 -0.0255900942272444 0.320471937428621
0.467877667526375 -0.0337156409779815 0.320471937428621
0.468956561927999 -0.042992065087309 0.320471937428622
0.460441223978819 -0.0472580499470349 0.320471937428621
0.343513372600343 -0.200105460078924 0.134527831550375
0.330988024182307 -0.217743584999514 0.13617489399059
0.335640347500927 -0.212400004718886 0.137076169258646
0.314289688460664 -0.232768997243744 0.127736111903534
0.308623833215546 -0.243092519237359 0.131418698007208
0.299869976794567 -0.251458585317557 0.127607648099835
0.306325844370643 -0.252983323716053 0.14005757178287
0.308387724730435 -0.254981961247519 0.145927555786575
0.298837456960553 -0.265900526527491 0.144013893883617
0.288750347885778 -0.276254510200342 0.140516515015685
0.282811844736526 -0.280991382257447 0.136755381496611
0.284130533808783 -0.284130525340855 0.142840785644744
0.276082068900466 -0.295557707992106 0.151414169222342
0.272652154887546 -0.296467155336469 0.148602154426612
0.258798734731019 -0.308273182980089 0.150521964539027
0.267569389929036 -0.30576485310804 0.157126451655286
0.259310197027306 -0.315869292363178 0.162103625991513
0.254414530742342 -0.322421968807467 0.165798052747431
0.246389352334966 -0.330915662307116 0.168884239237937
0.239890380030888 -0.337392572998812 0.170853041920956
0.23551607464528 -0.338047644913551 0.167283672478005
0.226385187039004 -0.347669386492913 0.170739298470369
0.231331945054484 -0.349718048212593 0.17846143640013
0.219783132248828 -0.359097498449684 0.179145507612566
0.228137571739544 -0.358813995015991 0.187241092938855
0.222403917654141 -0.365774700935843 0.19062504403376
0.206231235894995 -0.377790746373694 0.194580301957429
0.215439611029911 -0.377052891283385 0.19931380834701
0.211132283544114 -0.384651625647205 0.208260481056247
0.199010913335711 -0.392937338047042 0.213284021040794
0.191446415557136 -0.39652498341898 0.213983077613359
0.19571542694576 -0.399788345895354 0.221725076915401
0.19225439188027 -0.406130395306836 0.229277508053195
0.194426021668261 -0.40764782800076 0.232996378315063
0.177864763665782 -0.417018970892292 0.236860334657334
0.181733031721596 -0.420336239523172 0.24442986971677
0.175266654493613 -0.423425646360274 0.245062175929053
0.168876224489501 -0.429053200426325 0.249648235814235
0.173290144286537 -0.428220872071796 0.270193173707473
0.171008932052127 -0.429165781157765 0.275661520681446
0.157959526927553 -0.434571021969083 0.276082809165432
0.167511182973837 -0.430614596324835 0.287788714531453
0.179223505453588 -0.42576319330236 0.308821494331884
0.175376363692949 -0.432309734197477 0.320471937428621
0.162660969946289 -0.442188056783533 0.320471937428621
0.158262532723337 -0.453886264439516 0.320471937428621
0.154638412540778 -0.449338679717341 0.320471937428621
0.145328637286352 -0.46180030064213 0.320471937428622
0.142211293125887 -0.472227421157936 0.320471937428621
0.489072895903083 -0.0280521774469033 0.320471937428621
0.485296714709039 -0.0313588640047145 0.320471937428621
0.474409856917509 -0.0429558666316538 0.320471937428621
0.468874558290701 -0.0518556142927965 0.320471937428622
0.468840106438289 -0.0620750347925703 0.320471937428621
0.464857649089813 -0.0574233402148449 0.320471937428621
0.344712735064303 -0.209353399655103 0.148071130539155
0.349075482440889 -0.214091734671072 0.160133393398707
0.350996516515005 -0.215727730757879 0.164330274173188
0.340108416232308 -0.221353092414119 0.155586576585071
0.336384814983379 -0.23280858440247 0.16234161492169
0.327193863128243 -0.243764287347121 0.161305275773585
0.330233700384029 -0.244657917110914 0.166227757240214
0.312857145066929 -0.255555351072835 0.153942623551126
0.311376884178128 -0.264123828408921 0.161048215556442
0.307862644742555 -0.273989261930873 0.166407023240202
0.30150508969371 -0.28254839983745 0.166684626891815
0.290380789257661 -0.291016868574772 0.160767655825907
0.287263245910253 -0.296288565492629 0.164572306604909
0.283330773715519 -0.303937378240487 0.170691572031388
0.270131768805718 -0.313747051554095 0.170271035858319
0.273080091934969 -0.313258548528978 0.172614753041598
0.268550032532755 -0.317921480170749 0.174182971764047
0.260877825579793 -0.325751524981498 0.176750154475035
0.259091786631389 -0.332365067517439 0.183677706876752
0.248699653948287 -0.338707770525683 0.181522092011327
0.258860784864074 -0.340541623496742 0.194247014595834
0.252850032572337 -0.343308449619451 0.191808744698019
0.24119317813816 -0.353429552561275 0.193363207542003
0.234479223023043 -0.363677548493291 0.200096704013973
0.220718996715105 -0.371607675133638 0.196623766874042
0.23063750663489 -0.37199977852412 0.20719775440885
0.227493282702671 -0.381713967299518 0.216845125011994
0.211897334476415 -0.387266318521033 0.2127712021907
0.213390016868541 -0.389731722815387 0.217515963387021
0.214177545065376 -0.392850090644192 0.222815995411995
0.202574337063391 -0.404030763438027 0.232624142706496
0.205675663720187 -0.403559607698861 0.233875776094573
0.198866042952384 -0.409560604153563 0.238769272711048
0.196806550466725 -0.414230082492912 0.244641434358995
0.188116029662494 -0.417967650824603 0.24485351825178
0.18859559198746 -0.421881147788677 0.263121637242717
0.189864802556496 -0.421355423535318 0.265912213226747
0.201014666611162 -0.416736998430604 0.292636687848839
0.198761422029639 -0.417670322934951 0.294568562409741
0.190801121615965 -0.420967587465831 0.305728351724159
0.191390892531501 -0.420723296343626 0.320349256026315
0.187023640555636 -0.422532271418574 0.319005217362927
0.179433368475195 -0.436791798911019 0.320471937428621
0.17180995446188 -0.443601506947187 0.320471937428621
0.163379294074594 -0.457146882823229 0.320471937428621
0.151642144675897 -0.462862095243695 0.320471937428621
0.146730563335865 -0.475163170167854 0.320471937428622
0.494487187765819 -0.0370186702694293 0.320471937428622
0.492013679378939 -0.0370283174331023 0.320471937428621
0.481353049920134 -0.045497478867643 0.320471937428621
0.484820570666679 -0.0508784654286833 0.320471937428621
0.474752782833042 -0.0540440710371433 0.320471937428621
0.471459691532172 -0.0665651152139386 0.320471937428621
0.465955555353973 -0.0698711716719749 0.320471937428621
0.463458122557482 -0.0821186257517522 0.320471937428621
0.360154826440078 -0.21456861023118 0.175255776963882
0.350396414759426 -0.220565561245888 0.168442220561175
0.347890758442952 -0.226515991976285 0.17116441107198
0.349393391441759 -0.231519054803988 0.17822217750881
0.338864309446689 -0.242898155726482 0.175847058659556
0.34327648880107 -0.243891153667284 0.182683531303153
0.331260902271369 -0.256910889666701 0.180007688084174
0.307198380923271 -0.272374302941655 0.163892014834009
0.309239159318569 -0.276950026590544 0.171227562322121
0.311331833593086 -0.28320013653675 0.180329260006175
0.305241350027868 -0.294135334542337 0.183368714774182
0.283163171753793 -0.304148749248429 0.170800928320396
0.291444441759413 -0.305020447635355 0.180348674152363
0.288618382683521 -0.311288463990443 0.185765262777476
0.28003356449475 -0.318423639261741 0.18648907563115
0.284126805718113 -0.320374673440458 0.193216879925293
0.274052355646863 -0.328486817273811 0.193721273015862
0.262757931879386 -0.334168073957223 0.189776912790837
0.262570267309593 -0.341527837092345 0.199310947037628
0.256649203149696 -0.349651631696955 0.204041656235607
0.247038389667204 -0.353260262848599 0.199065713079762
0.246990189465557 -0.359734849177844 0.207571578387021
0.253696532861413 -0.362869865933575 0.218513054794983
0.232020225666984 -0.375876579078184 0.213721962179048
0.237263541121317 -0.377087804530133 0.220638278986274
0.227527243971751 -0.387913248974925 0.225070535777334
0.223169452948419 -0.393395158320835 0.229385523841494
0.226233914331946 -0.394000800075849 0.232270488759333
0.226662313044728 -0.401137956959553 0.24352519187467
0.211308764947349 -0.408278282767082 0.244726390716943
0.213684079068751 -0.411489155742187 0.25531636558395
0.203757645273309 -0.415600819419555 0.252808984531577
0.205926831176674 -0.414702313161203 0.259321452860431
0.202199203227824 -0.416246347278175 0.27190907187036
0.206979649519812 -0.41426622150638 0.283326819891603
0.212247393955461 -0.412084250226054 0.30075414380048
0.203806836962362 -0.415580443553935 0.302199478417297
0.203505180185683 -0.415705393887283 0.313065634218839
0.207232200249237 -0.419017074188547 0.320471937428621
0.193313491388879 -0.43793308486742 0.320471937428621
0.186346400785946 -0.436617333279433 0.320471937428621
0.17987814825971 -0.45710454022528 0.320471937428621
0.178563402369178 -0.460627804024248 0.320471937428622
0.171148215477237 -0.460682365654796 0.320471937428621
0.486963985876971 -0.0542234673704494 0.302477105978229
0.480995094039112 -0.0695109682923192 0.290405239527489
0.491440762212734 -0.0477397432094741 0.320471937428621
0.491115536027296 -0.0615474948522226 0.320471937428621
0.479069204088099 -0.0685971126596004 0.320471937428621
0.479409180532268 -0.0701396944145211 0.320471937428621
0.474826778639401 -0.0774410316932271 0.320471937428621
0.463601666443706 -0.0917805535533332 0.320471937428621
0.459767599734281 -0.0997619877852356 0.320471937428621
0.36614113174814 -0.213017648304261 0.181592907908928
0.365004856890934 -0.221711824212739 0.188906186852116
0.355164414146487 -0.230317052097922 0.18462865341292
0.351877778008521 -0.237255036346427 0.187320185792676
0.349710740621543 -0.242802303275389 0.190081037545871
0.338420769317369 -0.25456685339562 0.187091360568506
0.328907942236107 -0.269071067889893 0.18922740296873
0.324656147689067 -0.272886144102803 0.187477522914656
0.314823673835326 -0.281804436195166 0.183527919631466
0.317136604251191 -0.28503619081269 0.18986046900934
0.308179677827309 -0.29743447852461 0.190595911330965
0.314618902736903 -0.294279969437426 0.195905714512972
0.298017024832805 -0.3081395785748 0.19113354768343
0.295066412298241 -0.318824225734606 0.202259457780357
0.296239228924964 -0.318332873694683 0.20279930827277
0.287075185165693 -0.330126194575145 0.209090580351379
0.280141944978884 -0.331914489218762 0.204424130628884
0.279130718436361 -0.338968671324738 0.212719436498084
0.277263685679156 -0.3395764855845 0.211629632049518
0.263412827082275 -0.352975436851417 0.215290648775849
0.254477442816911 -0.360791756722641 0.216559021083377
0.258392768918112 -0.366644427146345 0.228261594614902
0.254449729155874 -0.369574485280609 0.228135355967231
0.244696690327145 -0.375497737077186 0.226073476269458
0.252101733652628 -0.377203905927073 0.235835425250197
0.249106214757598 -0.385022939317048 0.24312953237496
0.241147053140621 -0.393526642828306 0.246295876192772
0.238733297061011 -0.397886711713996 0.249609548976113
0.219292163124048 -0.406329287503736 0.246815641977399
0.229566422130745 -0.404910473566372 0.260198348827079
0.228797405848988 -0.405229010553387 0.27320432194124
0.223774672086351 -0.407309495085748 0.272956571318842
0.226540136183631 -0.406164002302119 0.286538284452505
0.228961973484449 -0.405160844403978 0.298126383905976
0.226817799387426 -0.406048990432487 0.312087540045136
0.229970362660684 -0.410311124349963 0.320471937428621
0.216490103676565 -0.419509177656093 0.320471937428621
0.215218903270464 -0.422771380606486 0.320471937428621
0.207039479725537 -0.436077634445679 0.320471937428621
0.199050504972783 -0.449013263453467 0.320471937428622
0.469029677597356 -0.0896142297309501 0.261970522754039
0.458494509711405 -0.119579147926318 0.241861563239632
0.482123130071765 -0.0805692036159154 0.298289529358748
0.479221664262593 -0.0865363160276006 0.291833263893376
0.48480915350215 -0.0842154537924099 0.307950250237838
0.480117044403366 -0.0793800773421775 0.320471937428621
0.480188665093767 -0.091005150136297 0.320471937428622
0.469770356095623 -0.0942169023429922 0.320471937428621
0.468747863476015 -0.104945682325523 0.320471937428621
0.457661944758771 -0.107745122127551 0.320471937428621
0.45868057663079 -0.114006315938803 0.320471937428621
0.370432018850037 -0.228590905608681 0.203051356778244
0.447173573977286 -0.13230005120886 0.320471937428621
0.365255536324682 -0.237619892793471 0.205365844489251
0.358027698131519 -0.247974362068108 0.206313763278733
0.346444899602191 -0.256621167672793 0.199776245831847
0.347699959093401 -0.26272348872018 0.207621384699098
0.340018456421234 -0.275179067214147 0.210100101758598
0.341738791792713 -0.274131003259772 0.211310561752059
0.333686269859758 -0.284960219922315 0.211650167409083
0.322337580501523 -0.295304039812414 0.207142496160602
0.31318616138494 -0.304392106401438 0.204264882390541
0.311700915525625 -0.310869355740243 0.208869436100688
0.302373575325353 -0.317613999714144 0.208068800022265
0.294335353216649 -0.326048602713768 0.211063687097868
0.301513145750029 -0.326167646826058 0.218498203050886
0.296049089062087 -0.335368535693609 0.225115392324727
0.284537811062777 -0.344181618848693 0.225089189527646
0.27878211703485 -0.349783908353911 0.226655948644999
0.271289658795245 -0.356292283016549 0.227659075445078
0.286541388216823 -0.354807478056119 0.241160243745552
0.269529932912909 -0.36240328574598 0.233949310265466
0.269355386096568 -0.372164361331386 0.246669447055167
0.258029629974334 -0.381742288629464 0.247841908443972
0.252746760918249 -0.38693304683581 0.24934429495899
0.258942132879253 -0.383569045943731 0.263758948463208
0.272426690221408 -0.373221980854894 0.291009474507147
0.267819840347341 -0.376756941201902 0.290046286017284
0.267261511909118 -0.377185361693926 0.300770099948334
0.246354678097223 -0.39322774000596 0.290496428877389
0.267578991098081 -0.376941751336596 0.319781440912948
0.24884441578699 -0.391317297024668 0.315356933361837
0.244481168114618 -0.394665334822217 0.315154882378988
0.244895783106607 -0.402348087805705 0.320471937428621
0.234819185254982 -0.42054085771318 0.320471937428621
0.223443031586773 -0.424485188757423 0.320471937428621
0.212891376217962 -0.433092837308503 0.320471937428621
0.211625829121576 -0.44680505174746 0.320471937428621
0.470124992485802 -0.107486617915176 0.272492324424695
0.478942130740671 -0.102007456108908 0.297195319292592
0.484877072562634 -0.0935057857335895 0.311889570350475
0.479223524024827 -0.0976505525001045 0.320471937428621
0.479997830212805 -0.105672404271556 0.320471937428621
0.473132540675253 -0.10702402912089 0.320471937428621
0.469893915717484 -0.1201849039662 0.320471937428621
0.455731904575926 -0.129827743044145 0.320471937428621
0.460045332629398 -0.131546626840033 0.320471937428621
0.444447436962997 -0.139084873950148 0.320471937428622
0.446577619897042 -0.148069170663654 0.320471937428622
0.434773999937206 -0.159080050362689 0.320471937428621
0.364820685268999 -0.251940825689273 0.219310603256144
0.362921796189922 -0.255334408922722 0.220242235381222
0.367663478016414 -0.256420417525487 0.227608371765656
0.35345942041546 -0.271363542956077 0.223990981999884
0.353389364700744 -0.27728513969971 0.229902046441794
0.339367116456852 -0.292168887908877 0.22646467775489
0.328557808427705 -0.303412384362752 0.223581819224807
0.325891468714004 -0.304995127746025 0.221663510032291
0.333813866057689 -0.308083595880083 0.235262457527332
0.308916343665513 -0.32689465054354 0.226964530992203
0.308374014346052 -0.330921420855918 0.231735174834858
0.298216168542012 -0.334326690296179 0.225935923890193
0.306208210653069 -0.334920548416589 0.234823330758409
0.297558071261825 -0.342504376859025 0.236073713417408
0.297910025859536 -0.350727651024757 0.247295780861453
0.288467279837037 -0.356326652464095 0.245120067312104
0.289055577959053 -0.360462186120032 0.252889090625086
0.295196419186602 -0.355750152771854 0.275456769515111
0.279847451912332 -0.3675278299624 0.266601992486443
0.287130827373062 -0.361939099235361 0.287643231860279
0.28555396751123 -0.363149066400938 0.294546798045847
0.284690582704974 -0.36381156488423 0.305590813183609
0.293466377495336 -0.357077660492851 0.317194935633723
0.283681503641853 -0.370815282194829 0.320471937428621
0.279339329918291 -0.376641335465588 0.320471937428621
0.265545545835636 -0.38866902804083 0.320471937428622
0.263223216754672 -0.399139113191514 0.320471937428621
0.256416431780027 -0.403563023783472 0.320471937428622
0.248140448882743 -0.41055969160984 0.320471937428621
0.242001916294586 -0.416755477634406 0.320471937428621
0.232510764583227 -0.43115978105512 0.320471937428621
0.227320691956722 -0.440849845774191 0.320471937428621
0.474892330165429 -0.116497990879898 0.290659093370394
0.484949404461427 -0.109924429700357 0.320471937428621
0.47414395936967 -0.117371621809805 0.320471937428622
0.470809192516065 -0.124798252337565 0.320471937428621
0.461853614544439 -0.135313822155533 0.320471937428621
0.465851180587324 -0.14036331402837 0.320471937428621
0.457368579084262 -0.146459514493707 0.320471937428621
0.454927925389174 -0.152060459731686 0.320471937428621
0.440068186656856 -0.170239216629604 0.320471937428621
0.443733844184944 -0.167834266884319 0.320471937428621
0.435850208138584 -0.173905542067804 0.320471937428621
0.425285943262111 -0.183588474304834 0.320471937428622
0.361523361020093 -0.269396707357712 0.232651613643858
0.419158271870584 -0.203305461490045 0.320471937428621
0.358080363313137 -0.281870218007298 0.240748757866827
0.344058600660996 -0.292806803929996 0.233310189158496
0.352214826783071 -0.298571989217291 0.249931886892394
0.332518749671437 -0.311866564877704 0.237386621544947
0.327271891234133 -0.315749838170301 0.234391126506662
0.334896174545221 -0.321040468492668 0.249828850610894
0.322275581977412 -0.332113627841078 0.24740455669163
0.308892349183883 -0.338789319267667 0.242656376935606
0.324582822716536 -0.333201171567962 0.267442855292045
0.302568400739945 -0.350093432196557 0.254610451271653
0.321722315810489 -0.335396115783996 0.285841796468461
0.302944279042171 -0.349805010622164 0.268698140604181
0.327732518171434 -0.330784325166935 0.302851697890885
0.315673432153176 -0.340037587604606 0.308138657929647
0.305232355509514 -0.348049307744041 0.306526268375465
0.304453522549881 -0.348646927311534 0.307441961262863
0.298907091945011 -0.355979953245404 0.320471937428621
0.293182612462902 -0.366319759732102 0.320471937428621
0.299627195393497 -0.369896118057202 0.320471937428621
0.289022805138695 -0.383232864151249 0.320471937428621
0.27326152934245 -0.393709935129494 0.320471937428621
0.271732680007503 -0.407133324427104 0.320471937428621
0.26088262116401 -0.415022089329524 0.320471937428621
0.256097532476817 -0.417393330964541 0.320471937428621
0.254502135604535 -0.425848061349531 0.320471937428621
0.480559164666963 -0.134209429632152 0.320471937428621
0.475112653255438 -0.137817441369094 0.320471937428621
0.470658598786816 -0.145470110678027 0.320471937428621
0.462335209574502 -0.149143409145017 0.320471937428621
0.454007068107074 -0.165195494340524 0.320471937428621
0.448924221998991 -0.166304157976509 0.320471937428621
0.445746384180858 -0.17571413915345 0.320471937428622
0.43289449398237 -0.185537022804995 0.320471937428621
0.435415903094883 -0.197800683064621 0.320471937428621
0.428174567677398 -0.205879751887418 0.320471937428621
0.424517527041798 -0.203955194651155 0.320471937428621
0.411158565979598 -0.214482196501936 0.320471937428621
0.410792878055659 -0.227569002220355 0.320471937428622
0.404865642137551 -0.232643467625512 0.320471937428622
0.350694868613473 -0.299422757066227 0.248786151827052
0.361471190145256 -0.287740618755582 0.281875910636893
0.35779238058249 -0.292534936867555 0.284349127258495
0.379013730048426 -0.270513775636912 0.320471937428621
0.373366901501781 -0.274248278506913 0.320471937428621
0.367635656478506 -0.280696969756652 0.320471937428621
0.360710229199381 -0.295996785671938 0.320471937428621
0.355034779670878 -0.303834168182133 0.320471937428621
0.340933588737331 -0.317569081163676 0.320471937428621
0.347044385909168 -0.315658341931958 0.320471937428621
0.334838470780447 -0.334433632471512 0.320471937428621
0.331137504099009 -0.339091922938022 0.320471937428621
0.317807550640668 -0.353075789162643 0.320471937428621
0.307045063866191 -0.361022751088565 0.320471937428622
0.305408648491618 -0.362896127164096 0.320471937428621
0.297621082414685 -0.382027942521912 0.320471937428622
0.292475824190778 -0.388953058692808 0.320471937428621
0.281654805395737 -0.400595841595684 0.320471937428621
0.280433634560787 -0.408156815164008 0.320471937428621
0.468741939218713 -0.155596872258517 0.320471937428621
0.463157584031871 -0.167617779861042 0.320471937428621
0.45269368190026 -0.178713995144363 0.320471937428621
0.455138957689055 -0.185543561361512 0.320471937428622
0.449900379252776 -0.183895010473196 0.320471937428621
0.437184281126487 -0.200466354730468 0.320471937428621
0.43368324799627 -0.204519598897421 0.320471937428621
0.430727990926593 -0.216734824736559 0.320471937428622
0.424780951813414 -0.231148493961481 0.320471937428621
0.419284781182123 -0.233812151355428 0.320471937428621
0.408221953103138 -0.245729819102277 0.320471937428621
0.410320072248703 -0.252151796570503 0.320471937428621
0.402604935119771 -0.256777492050571 0.320471937428621
0.396800569955555 -0.264840325770108 0.320471937428621
0.390148153200907 -0.275231388381553 0.320471937428621
0.378215574112544 -0.284521586709572 0.320471937428622
0.372648874856478 -0.294840014969926 0.320471937428621
0.368734318070175 -0.299201794277876 0.320471937428621
0.361951035241002 -0.318126942175942 0.320471937428621
0.353508590384098 -0.312497574850838 0.320471937428621
0.34375553645687 -0.328222325956032 0.320471937428622
0.3424629679727 -0.34067633354569 0.320471937428621
0.3300706592086 -0.350988305951757 0.320471937428622
0.331021521082041 -0.356695044502697 0.320471937428621
0.318921727000065 -0.371642342698287 0.320471937428621
0.315509617325923 -0.379626673095997 0.320471937428621
0.311059874403353 -0.380998524464266 0.320471937428621
0.293413503427892 -0.392900441403052 0.320471937428621
0.455746002378756 -0.187553109161048 0.320471937428621
0.451287822775363 -0.204168874291036 0.320471937428621
0.447471221968599 -0.202601656752286 0.320471937428621
0.44013057595049 -0.212613218453802 0.320471937428621
0.435838440813362 -0.221239375335759 0.320471937428621
0.428873485890125 -0.228999774917695 0.320471937428622
0.423864559499627 -0.24575105110423 0.320471937428621
0.413648494179554 -0.250449510455434 0.320471937428621
0.418318122818978 -0.24867931642992 0.320471937428621
0.409033752466606 -0.260578889008531 0.320471937428622
0.397439493101216 -0.279837706076118 0.320471937428621
0.393374582452095 -0.286066330717601 0.320471937428621
0.387648752814624 -0.288683961703639 0.320471937428622
0.381942436403801 -0.294098339550702 0.320471937428621
0.369927205940923 -0.305811470039544 0.320471937428622
0.368576008630212 -0.314462838177191 0.320471937428621
0.357262527097594 -0.325922627836947 0.320471937428622
0.354797345324302 -0.336965590016576 0.320471937428621
0.342047347284847 -0.349092712609795 0.320471937428621
0.338418719963723 -0.359314472678978 0.320471937428621
0.328699523889285 -0.364088909178709 0.320471937428621
0.440622653629805 -0.230506646143804 0.320471937428621
0.43269269213329 -0.241757725774051 0.320471937428622
0.416101566803564 -0.25745069841383 0.320471937428621
0.415938031103633 -0.271283443291328 0.320471937428621
0.398830812973948 -0.28968411603685 0.320471937428622
0.391426484463209 -0.29307131103198 0.320471937428622
0.383301002078521 -0.308571594472983 0.320471937428621
0.375523998566671 -0.321976241473101 0.320471937428621
0.371186596745155 -0.330573349820098 0.320471937428621
0.360289368715341 -0.337068921095704 0.320471937428621
0.353411648683484 -0.350696964349921 0.320471937428621
-0.471500051026542 0.150880241912324 0.320471937428621
-0.478185707708494 0.12969592534301 0.320471937428621
-0.483369102068964 0.112372315612592 0.320471937428621
-0.480936875326972 0.116055395842537 0.320471937428621
-0.479495925042812 0.101713431766441 0.320471937428621
-0.483996995735237 0.0930731661138576 0.320471937428621
-0.484695512706342 0.0759612666455542 0.320471937428621
-0.485355854090725 0.0598885934478162 0.320471937428621
-0.48949075513301 0.0634907704464343 0.320471937428622
-0.492482460249901 0.048453698856206 0.320471937428622
-0.492507951205072 0.0341538537059376 0.320471937428621
-0.493737714454527 0.026114158309425 0.320471937428621
-0.456000098603025 0.188175648898572 0.320471937428621
-0.464934852826757 0.172863463331239 0.320471937428621
-0.461683037375934 0.15928232684086 0.320471937428621
-0.469520090729739 0.149561293720009 0.320471937428621
-0.464538796252978 0.140676020216792 0.320471937428621
-0.468721708848915 0.122457340205654 0.320471937428621
-0.474070188945144 0.119673840576216 0.320471937428621
-0.473804397382203 0.104335590344279 0.320471937428621
-0.47196379801785 0.0992455815820951 0.320471937428621
-0.478945911596586 0.0799242645848439 0.320471937428621
-0.47916715833088 0.0759277258710199 0.320471937428621
-0.479739209123731 0.0684120653605946 0.320471937428621
-0.485986426206642 0.0485520565064375 0.320471937428621
-0.47905534182055 0.0512704631129126 0.320471937428621
-0.486838935874273 0.0320046400818579 0.320471937428621
-0.482438217449146 0.0181621046675086 0.320471937428621
-0.489335124290921 0.0130770827839123 0.320471937428621
-0.487708724090979 0.000205685567083032 0.320471937428621
-0.497281184662162 -0.017964031956938 0.320471937428621
-0.495301900008571 -0.0212483188164775 0.320471937428621
-0.493233847271149 -0.0480660604653354 0.320471937428621
-0.437817064459082 0.232808274918877 0.320471937428621
-0.445009286871328 0.220051168722308 0.320471937428621
-0.446942940422932 0.20770524899924 0.320471937428622
-0.450131745540312 0.194885569722552 0.320471937428621
-0.453245365894137 0.189962631050923 0.320471937428621
-0.446623867520462 0.180137671602456 0.320471937428622
-0.453169664782681 0.17207501262756 0.320471937428622
-0.450624842172147 0.161482419379873 0.320471937428622
-0.456151747457752 0.151944747308159 0.320471937428621
-0.461616255322586 0.139349789704533 0.320471937428621
-0.458964761194145 0.11960236892514 0.320471937428621
-0.465192457426302 0.115376542474795 0.320471937428621
-0.459751974262246 0.106149002883119 0.320471937428621
-0.462328364184408 0.102483761683787 0.320471937428621
-0.462028708570778 0.0905293011246267 0.320471937428621
-0.46537161217886 0.077931139298478 0.320471937428621
-0.473543859416119 0.0583271369482372 0.320471937428621
-0.47359713874861 0.0612699901180318 0.320471937428621
-0.469395659287415 0.0509755848278142 0.320471937428621
-0.476042610734223 0.0281329319238796 0.320471937428621
-0.475148110850872 0.0174618890356759 0.320471937428621
-0.477370419251623 0.00354144850988648 0.320471937428621
-0.484706167525563 -0.00124777986228322 0.320471937428621
-0.479391065569006 -0.00749509217140738 0.320471937428622
-0.479216593767748 -0.025862303200353 0.320471937428621
-0.48199664545454 -0.0286457800747118 0.320471937428622
-0.490649271119095 -0.0405601422800852 0.320471937428621
-0.485352299990987 -0.0476940010731717 0.320471937428621
-0.430250235798247 0.252001109801305 0.320471937428621
-0.430355097542898 0.228959409096678 0.320471937428621
-0.429913620571112 0.229910492915586 0.320471937428622
-0.432112601710127 0.219094528290959 0.320471937428622
-0.439690294461117 0.205201901474365 0.320471937428621
-0.436115349453697 0.199281352302701 0.320471937428621
-0.436885748804191 0.188129424248833 0.320471937428621
-0.446229621384371 0.176956007996846 0.320471937428621
-0.442592974695013 0.1713524196058 0.320471937428621
-0.443417389755146 0.158495702438561 0.320471937428621
-0.44369042629606 0.147090600959403 0.320471937428621
-0.447719993545992 0.142228452489613 0.320471937428621
-0.44780819487751 0.133334207832446 0.320471937428621
-0.454144206525783 0.0894902901333475 0.29337632639896
-0.453688033481964 0.092955268806039 0.299616982023112
