ply
format ascii 1.0
element vertex 859
property float x
property float y
property float z
end_header
-0.0855083831890717 0.478434069249144 0.311425090069647
-0.104076638141638 0.474549116423386 0.311425090069647
-0.107365407195813 0.472417426877354 0.310111691561091
-0.125300236230008 0.48167841061567 0.311425090069648
0.254984878097955 0.428175216896716 0.311425090069647
0.248377364788768 0.426348045241566 0.311425090069647
0.239715020143238 0.434789936457286 0.311425090069647
0.222221094855448 0.431865211463075 0.311425090069647
0.214562435628908 0.434230234602255 0.311455822647992
0.187312905348433 0.436013915356549 0.298285766193028
0.198314404894004 0.438569812729247 0.308142915508674
0.189253990471819 0.443557736576142 0.309854370901883
0.168092974977377 0.445377462107766 0.300229226599451
0.133502477398779 0.446519914860546 0.281956644161291
0.121527632921962 0.448994312451562 0.278511850216104
0.124451194745576 0.455256070619499 0.288867713539531
0.106267211005442 0.45243337348887 0.280177045948383
0.0999406615963939 0.454740920466949 0.282370083732693
0.0887452657713093 0.457247931450437 0.283906489887007
0.0727572770010041 0.456133125701995 0.279118310297755
0.0678351336607312 0.457231485007643 0.279788051390394
0.0553796809635249 0.46148566294836 0.28367608145902
0.053315602839643 0.466312454049702 0.290450202923613
0.0426881194112614 0.464120318948341 0.285109383883909
0.0425399363763934 0.468425933012609 0.291483539641584
0.0165633599715692 0.46638228545599 0.28335835843133
0.00188807699524166 0.471904395853769 0.288697397188077
-0.00825930565870796 0.471256709738604 0.28898159790789
-0.00546731344775781 0.474053195785511 0.292593798321549
-0.014284122104359 0.47679633849922 0.298399547135049
-0.0313167369214109 0.473081917542655 0.296210385312933
-0.042209485397308 0.47205300964153 0.296812910607891
-0.0462767119110224 0.477109411121653 0.305128944889255
-0.054341357195166 0.475210547085826 0.303883987563919
-0.0600468698563098 0.477465878101398 0.308355120346531
-0.0650276193463584 0.476949881858766 0.30856292500967
-0.0771063120289257 0.478294151080903 0.311425090069647
-0.0911898935428573 0.486178608453492 0.311425090069647
-0.100170276701761 0.484518028648467 0.311425090069647
0.202868188334007 0.446190842688817 0.311425090069647
0.198399855895602 0.45283932107923 0.311425090069647
0.186946255369359 0.453160330125083 0.311425090069647
0.180395109402125 0.45203577896328 0.311425090069647
0.176076600539471 0.456521596638639 0.311425090069647
0.14840788468558 0.45819295669643 0.306689449444742
0.133312778508784 0.462014899042171 0.303321000340767
0.116985527358174 0.457417165067715 0.289687309305687
0.115960447555281 0.46556481048261 0.301603521428937
0.105917980280494 0.466457876015302 0.300965451758015
0.089699092981139 0.464753523740802 0.295255310399383
0.0779561128294283 0.466782078817201 0.295972961432369
0.0665576850124397 0.466195089837634 0.292868320550788
0.0537386549973287 0.467861015430208 0.29283600183933
0.0563882502740416 0.470131544114486 0.296731420207864
0.0341190613368247 0.472447828303597 0.295816053639322
0.0377225814715555 0.476089757269278 0.301937741919754
0.0182355185856015 0.477612223504778 0.300386545734372
0.0148119290272957 0.4816399431969 0.30570613655893
0.00597801381342908 0.48071033846685 0.302594072836962
-0.0075684338987482 0.480503247829954 0.302597481631928
-0.0196077121695209 0.480467245662462 0.304901102110634
-0.0203769842813176 0.484195199760096 0.310595808750239
-0.0331846147116295 0.488563410641402 0.311425090069647
-0.0469133687456018 0.486759196279759 0.311425090069647
-0.0618053069642774 0.486597288175476 0.311425090069647
0.192040007336749 0.454044678638687 0.311425090069647
0.177965091220776 0.458737128476145 0.311425090069647
0.167499143414669 0.464933796705023 0.311425090069647
0.155559013218018 0.461856915878274 0.311425090069647
0.157061837343628 0.469372714529606 0.311425090069647
0.142209765180886 0.470716189103699 0.311425090069647
0.125806818752313 0.468726892962145 0.308314001384073
0.121380576818573 0.470983579602024 0.310723340877676
0.110134634484503 0.470107204556058 0.307218189527548
0.0884820761430649 0.472894874538221 0.307124582157885
0.0930123523237411 0.475812620458282 0.311425090069647
0.0763781027342218 0.474497981414172 0.307138841929794
0.0653150633261348 0.48100865963554 0.311425090069647
0.0447132293969982 0.479067686812537 0.307735115316838
0.0372838669162537 0.478912298377425 0.306049437125724
0.0405736231807622 0.480775512672866 0.309464447521811
0.0240461913119211 0.490356840222264 0.311425090069647
0.0134863696899538 0.492292271646557 0.311425090069647
0.00225388404908354 0.49172583935786 0.311425090069648
-0.00847128523877147 0.488151917332177 0.311425090069648
-0.0190038693880399 0.487901454231149 0.311425090069647
-0.0287033017987747 0.489693351419527 0.311425090069647
0.152992518471629 0.470073923375772 0.311425090069647
0.129122483213449 0.480065427922149 0.311425090069647
0.123106344122556 0.477859558845128 0.311425090069647
0.107173243208864 0.484191812930586 0.311425090069647
0.0977835535561452 0.485737530626636 0.311425090069648
0.0807999187969695 0.48086365069894 0.311425090069648
0.0773057953460287 0.487791710066007 0.311425090069647
0.0630583820914673 0.489369730167308 0.311425090069647
0.0607345810400458 0.48680388126856 0.311425090069647
0.0426215699380229 0.488034224309187 0.311425090069647
0.0307080535553438 0.490662978360015 0.311425090069647
0.01181981371262 0.494567437945619 0.311425090069647
0.00256550333260655 0.497139484246025 0.311425090069647
-0.235628596017385 0.43366375869883 0.311425090069647
-0.248326395372891 0.428976852774314 0.311425090069647
-0.254271752867188 0.421015821498568 0.311425090069647
-0.270865782150135 0.409815094960216 0.311425090069647
-0.283276959632796 0.40646273909758 0.311425090069647
-0.284170013607858 0.403664372166724 0.311425090069647
-0.293943331199183 0.398605764665825 0.311425090069647
-0.33387109686036 0.363401901626083 0.311425090069647
-0.356214439416945 0.349531279948406 0.311425090069647
-0.198369891239696 0.452752189551567 0.311425090069647
-0.200321337480187 0.451767642145356 0.311425090069647
-0.206420795623979 0.44456251304285 0.311425090069647
-0.213657827455541 0.441043095118957 0.311425090069647
-0.22182244042362 0.43308057192266 0.311425090069647
-0.22858663477724 0.429270316907629 0.311425090069648
-0.240283936363717 0.429281409873791 0.311425090069647
-0.253075417999262 0.416927569074145 0.311425090069647
-0.260590924175479 0.408185271951104 0.310236227965261
-0.264328165784439 0.411170476833985 0.311425090069647
-0.280280795168449 0.401091778600185 0.311425090069647
-0.287190067355687 0.386052556736095 0.308186431266135
-0.294097264606069 0.380171286026155 0.307494795524685
-0.299512346952509 0.377193082019847 0.308895383281103
-0.313655121109412 0.36768422265666 0.310493918382743
-0.312826989355685 0.368719874876683 0.310970173600235
-0.331415728553681 0.359782138518462 0.311425090069647
-0.342277256293275 0.354487832533964 0.311425090069647
-0.340712728453782 0.34617319902828 0.309602596278528
-0.349357749420288 0.347366855352023 0.311425090069647
-0.366384259444481 0.331915709431495 0.311425090069647
-0.14999835939527 0.469354419196643 0.311425090069647
-0.158360794436466 0.468715244158329 0.311425090069647
-0.182018213159133 0.460522711502376 0.311425090069647
-0.19114201057966 0.453816778464357 0.311425090069647
-0.195129078361206 0.446002209959678 0.311425090069647
-0.211319230375332 0.4314660748091 0.305763515284307
-0.203710292318013 0.437441790815685 0.30967705605154
-0.218700499963935 0.429895034906219 0.307823372239828
-0.232204740975308 0.416184023434685 0.296574161889538
-0.244374843436448 0.410721507191942 0.298446837289967
-0.252410598087455 0.403247885132038 0.296890788978783
-0.258981330395296 0.39932560804259 0.298223174117124
-0.273154221077973 0.387894793588787 0.297562025651119
-0.277731393938146 0.389425633692729 0.30356338075276
-0.286996984607156 0.383682851131993 0.305190098486485
-0.29668176234652 0.368419853272997 0.295870251689416
-0.302311309381174 0.364110660469353 0.295882759578552
-0.311740292747044 0.365651999621849 0.306327001508144
-0.32081433921962 0.3540432369975 0.300798119847436
-0.322975124055059 0.357673015207069 0.307090768544357
-0.341495332752877 0.332924841639999 0.296924347367414
-0.344187589530943 0.335924462691076 0.302867294125422
-0.349331654732565 0.334083101273175 0.30730746137887
-0.362939882475656 0.320748344042426 0.311325131981095
-0.36373741521425 0.319044985447443 0.310718811355735
-0.373762705079594 0.308375343738716 0.311425090069647
-0.379360654554061 0.310503676070597 0.311425090069647
-0.394266968802467 0.297776888165981 0.311425090069648
-0.132915128561602 0.474454734756346 0.311425090069647
-0.140512721450485 0.471616110898306 0.311425090069648
-0.151207038441963 0.471244270297416 0.311425090069647
-0.153976978692732 0.461092460336666 0.311425090069647
-0.160134708372775 0.455692460800888 0.309955705685246
-0.174438350095341 0.451597418733095 0.311425090069647
-0.189282169623407 0.438982111561644 0.303529556994547
-0.191265269647559 0.434830088508059 0.298913952603912
-0.210641827995903 0.422189509504982 0.292519026058109
-0.229005323074074 0.411490720734234 0.288233546096277
-0.236201986057605 0.408425345215792 0.28825135512398
-0.244127208641205 0.394236081477794 0.278602560187566
-0.251832735277396 0.391013716350955 0.281804090091511
-0.258871473385235 0.383646171696851 0.279463859253313
-0.263859875182597 0.385286038613047 0.285970470006656
-0.275964490582796 0.375697437299896 0.285612981138831
-0.283708833289714 0.369900624733477 0.28578628591941
-0.289264166951739 0.367243095299807 0.287696555427796
-0.301226202802689 0.35381803359827 0.282643368168717
-0.308716521390604 0.351461628812697 0.286678901328113
-0.314170122628873 0.349693875940528 0.289555135483775
-0.327484654592262 0.342705493509191 0.293396810922997
-0.331872543855306 0.339042444726547 0.29304443954911
-0.338021846340294 0.332172782077689 0.292104057014817
-0.34815139097267 0.325799270280595 0.298338596895301
-0.356636295367741 0.306321001144538 0.290649459330299
-0.359869858586261 0.306665771769066 0.294812321188084
-0.368488845773328 0.300653281987428 0.299578916793209
-0.374410584472677 0.308021832152573 0.311425090069647
-0.384061383893317 0.290079838177678 0.308455647349917
-0.393008910518272 0.290559893533144 0.311425090069647
-0.400817168441693 0.282988163770663 0.311425090069647
-0.408790193266848 0.274508574596748 0.311425090069647
-0.414848487513853 0.269607340628425 0.311425090069647
-0.107262136330141 0.481599533842833 0.311425090069647
-0.117004202360318 0.478617055093765 0.311425090069647
-0.123723058028625 0.477020297585787 0.311425090069647
-0.130099323798741 0.470251097224349 0.311425090069647
-0.149303358526882 0.449448853183601 0.295085726551021
-0.149923420161512 0.453337943646325 0.300831234140841
-0.16370438245932 0.447055739634117 0.300035853512061
-0.189310814353251 0.426167460312137 0.285787208781316
-0.199535592556734 0.413429185768874 0.274003541913391
-0.206467194131898 0.409937961594607 0.273144249700227
-0.221013428392545 0.402542547935998 0.271245447012039
-0.233281072739995 0.396952730711885 0.2719313905183
-0.246181755642293 0.381927089906419 0.265830584271937
-0.250672991204207 0.381029288587225 0.268863310226715
-0.25154697782959 0.382570118898485 0.271495018558609
-0.26396644357155 0.374079696049892 0.272731898136385
-0.277482680441568 0.361489843746105 0.270091841575631
-0.284742908655808 0.351016772301756 0.264258192609351
-0.29495187476212 0.346897655754981 0.268678557495571
-0.300093547462995 0.343261659941902 0.269046691391504
-0.303496539874842 0.343581688779152 0.27253495109735
-0.314307320595194 0.333874476303768 0.270854856413987
-0.324080023095125 0.329023917138391 0.274006411948494
-0.334019633727723 0.317421158041974 0.273870974305438
-0.342025681196874 0.311938922932299 0.278392351139418
-0.344004619534542 0.303870355805138 0.273379598468473
-0.345611798263045 0.306945468039474 0.278100203964731
-0.356220549024278 0.302025591295934 0.286232388948427
-0.362524873748126 0.294527242065991 0.286887665876705
-0.368455645034631 0.296722353282031 0.295949910253747
-0.37299101789717 0.292338486701763 0.29734404674271
-0.38380204265286 0.276446593235634 0.295697932981413
-0.388233267357404 0.275734533357616 0.300321011479487
-0.395587390806364 0.274010869715352 0.307498689171214
-0.406048360089586 0.27355362470789 0.311425090069647
-0.413852164797739 0.264585513992775 0.311425090069647
-0.414103852868949 0.261578233242726 0.311425090069647
-0.427281771216587 0.25261458777504 0.311425090069647
-0.0884949272176173 0.48492596664434 0.311425090069647
-0.09641702585144 0.486170004939503 0.311425090069647
-0.108320676025156 0.465893406933867 0.300596413892647
-0.110861388479247 0.476218555182207 0.311425090069647
-0.134944566686761 0.453531128206059 0.292500714441027
-0.138990834947028 0.454237291592174 0.295801989028752
-0.156667679735653 0.438824984777181 0.284590270261661
-0.177184531999757 0.414220118846677 0.262269561380228
-0.187987051516113 0.409377780058225 0.261759872706088
-0.186587654542873 0.414459961331517 0.267999568539007
-0.223353769589958 0.385748528600548 0.249533014885079
-0.225446041932445 0.388353979949184 0.254544122232321
-0.224589734648463 0.386786297686559 0.251896603024166
-0.240084992127395 0.3701500878739 0.246248386715777
-0.242593203485015 0.371531731253094 0.250182937296222
-0.256064087977347 0.359853593197763 0.248586434884697
-0.26157383535549 0.363946467763746 0.258488260978264
-0.273906915816744 0.350033956452448 0.253193810525785
-0.27178920962242 0.359067244044001 0.262009927079025
-0.283010606093368 0.35122120506881 0.262919635262182
-0.29307192748492 0.336886312549233 0.255048099549555
-0.302271359170069 0.329807429263962 0.255024404767781
-0.312764101663182 0.321922075054709 0.255221961987338
-0.320314675290727 0.313373503184023 0.253865578240432
-0.325420683819243 0.317797767276741 0.263981863620006
-0.337677179698219 0.30328040229644 0.265311043762509
-0.335509713843267 0.308732500179186 0.267710234695812
-0.342295012762813 0.305720504698771 0.273034564030618
-0.350020459499722 0.298304423953548 0.275456141623414
-0.357283977203951 0.28562890851921 0.272525398338939
-0.369006513800075 0.28319882512398 0.284256557126337
-0.370794520680801 0.277950214133545 0.281591611082995
-0.375398381466287 0.272345660064662 0.281952589065703
-0.38445160038373 0.276340019199041 0.296373608930443
-0.388978164850584 0.264264577002391 0.290733761318859
-0.393451164980178 0.26890930673943 0.300298064177881
-0.406776002132833 0.251254033330096 0.300033246068417
-0.408454509121202 0.247613259725388 0.298706175943854
-0.415101278943727 0.24724610095454 0.306280763358104
-0.430207306709388 0.240878336642029 0.311425090069648
-0.425532452639032 0.233755564477151 0.310419607185096
-0.0718733708615423 0.485430079275486 0.311425090069647
-0.0861599604463724 0.473390078550723 0.3074063879885
-0.10022372045102 0.467293566066507 0.301093387588888
-0.102750448242999 0.466912934363057 0.301022030805391
-0.135081440550603 0.43954433092518 0.273196109881268
-0.153633354195161 0.427158501551542 0.266680853489706
-0.159615303154099 0.421774475482028 0.26265335539727
-0.176955240046727 0.404780357971696 0.249056139236535
-0.175428481514785 0.414128150989517 0.261134093408416
-0.192929616906955 0.398682857435499 0.24977579936938
-0.200124715855146 0.400366616390509 0.256239352766255
-0.220101058910053 0.374673992656009 0.23338379755694
-0.234354572630036 0.363246951724669 0.232800759989014
-0.23353225854097 0.363621652400144 0.232495775387828
-0.244198854694582 0.357869307871668 0.235390431244269
-0.246960626250582 0.357727241418133 0.237743257899626
-0.254749308777874 0.356141639705353 0.242968518534931
-0.265907060443872 0.344315245081905 0.239083367290835
-0.275737283723483 0.341015328836605 0.244132759083755
-0.285038297596482 0.329063551853983 0.238402933541222
-0.298980655882612 0.318703091254351 0.238805029436734
-0.302702466534923 0.313171963567324 0.235621363654417
-0.305446836336517 0.313893955674025 0.238986555651908
-0.318109882022537 0.305628039837149 0.24416909908141
-0.32640074197859 0.295449604761675 0.244741113219015
-0.327856338113379 0.300787943997591 0.251347978835175
-0.337984172397771 0.29329166601521 0.256555238229131
-0.337066428856618 0.292605220939878 0.254836273945782
-0.343811641695075 0.29025049967083 0.260713084423335
-0.353732583472599 0.281932373731319 0.264923671519969
-0.356412868413863 0.284211984589472 0.270194899781985
-0.366825136734616 0.267576469873314 0.267395221994045
-0.372674036121326 0.265229502957935 0.272212473392392
-0.375988322320815 0.266248336102501 0.277086912914472
-0.38807791342881 0.247409136005141 0.274271021587922
-0.392645734094462 0.250320283209679 0.282365156460776
-0.399548652928389 0.248795180811586 0.289187201759887
-0.401023688756413 0.245126381624404 0.287592403507803
-0.407530706061088 0.237437803408136 0.288315184585827
-0.416229847668502 0.225841343405203 0.292984915761668
-0.424160661666707 0.223853470666294 0.302834501911064
-0.426544573871263 0.230872958848868 0.310167536197435
-0.429383226981541 0.221779044556779 0.308881260957765
-0.450653232239625 0.205847956370488 0.311425090069647
-0.453290798390559 0.200177855279527 0.311425090069647
-0.0543561691436111 0.492286887635625 0.311425090069648
-0.0626503754600773 0.486236362345988 0.311425090069647
-0.0707596056366716 0.485394803657163 0.311425090069647
-0.0754738860624512 0.474832882504534 0.307459859938793
-0.106653579115962 0.452891998393308 0.280934744642981
-0.122026277596969 0.442661143509963 0.270021457058127
-0.138294755759497 0.429945755808163 0.261738742983559
-0.153408632303921 0.411001938551502 0.244161780665507
-0.155527483925532 0.413802605696831 0.249259273361773
-0.179693993858918 0.40058063123701 0.244808190441939
-0.191399730889822 0.389091613075402 0.235605874787722
-0.202674205456934 0.382392804854302 0.232794369014367
-0.214776716738445 0.364943125325006 0.216941892182088
-0.220764680238912 0.369965177646804 0.228386146985106
-0.227538810930603 0.362291862796519 0.225440416253984
-0.243197358712266 0.34967648715286 0.224726220530747
-0.252629581448882 0.33858839702075 0.220144020602912
-0.251280410653928 0.341021128039695 0.221807058811109
-0.259135778351454 0.338258031211817 0.225691957961593
-0.271174903368944 0.32890918331038 0.225559980820366
-0.274414879547167 0.324780212218125 0.223604940100672
-0.292765479880084 0.308629281575939 0.221141554462736
-0.295662893312226 0.309066161538242 0.224307205040905
-0.302990228541006 0.302420229847526 0.223247071201075
-0.316262210739604 0.293617344362487 0.231002842594482
-0.316033454828856 0.298194095370692 0.234909840421586
-0.319446775020015 0.295723084291638 0.236715409530922
-0.329806629308951 0.288751556005327 0.242677950755585
-0.334942781527935 0.28124095546725 0.241931880159938
-0.347131461718219 0.266113574998481 0.242623326747002
-0.352605774485623 0.266468329857242 0.249461864838882
-0.358292770818586 0.257486704769876 0.248028060759844
-0.362837838911484 0.255620414062997 0.251732639493373
-0.372899013102807 0.248044099626521 0.256787486716829
-0.372256802957015 0.254669041204883 0.262072750723844
-0.377826466935402 0.252546028338421 0.266762205486585
-0.388691211785398 0.235927819436254 0.264516791015548
-0.393576452043872 0.2426825218034 0.276498376929655
-0.403052412784748 0.229347895673108 0.27673622137799
-0.404452025802532 0.232869837695961 0.280697515401685
-0.414424470054126 0.222963447931276 0.288831004245177
-0.41468331974847 0.220462095449145 0.287753883916954
-0.418958936932323 0.216644135246256 0.291487511551865
-0.427302245126144 0.213956181630735 0.301506876088982
-0.428615517401866 0.214116913664835 0.303419098382966
-0.434631485407133 0.202389714572462 0.305024435744382
-0.454647883898387 0.19668448369026 0.311425090069647
-0.45887708403533 0.182109282099738 0.311425090069647
-0.0401992293071405 0.493481629038111 0.311425090069648
-0.0393440178960052 0.487045950599911 0.311425090069647
-0.0623690560191834 0.475881769269609 0.306453944681029
-0.0606474887969836 0.480015189601843 0.311425090069647
-0.0883453835027964 0.460415332137807 0.288538651925346
-0.127964412697565 0.427753181099604 0.252770353927776
-0.134187495708275 0.421558736372226 0.247758179029076
-0.153173768689925 0.409296886827889 0.241664069460616
-0.162524520390104 0.401061346806244 0.235618665796581
-0.180235108721434 0.381945079814366 0.219293297176611
-0.202540604519058 0.360921492034689 0.202962319040874
-0.208756712904878 0.35784221939872 0.202994481823978
-0.212833781690767 0.359333865407813 0.208492528670144
-0.218894043754658 0.355062615615045 0.20894349392595
-0.228672510415015 0.348948413336953 0.210596539731649
-0.237644184645543 0.336299796923364 0.20373672044674
-0.241944456437214 0.343143924679087 0.215808197272849
-0.25725354805922 0.324760894219123 0.207911216081674
-0.263005066804352 0.321220088561277 0.208949505243098
-0.267146404341911 0.325635274526173 0.217985338879041
-0.277306101705779 0.314276732858987 0.213745581248579
-0.280009950886038 0.311209089469105 0.212563992189499
-0.294136681424543 0.299496028852959 0.211524811546982
-0.297522416847604 0.30340393383145 0.219266993450904
-0.307125697279648 0.291180776356066 0.217905184454176
-0.309572152523264 0.287564352963616 0.217514231004836
-0.318945901324688 0.284814784878288 0.226158526893656
-0.327686282663403 0.273640403691416 0.226356044599977
-0.331505674439399 0.273893771217564 0.231132596000951
-0.335587978819963 0.269403902358976 0.231890772251936
-0.346010515482781 0.261397781404653 0.236983177216112
-0.34881542630942 0.260304219274654 0.23932252760896
-0.358363964010089 0.24964415841052 0.240951423201089
-0.361880974521788 0.242514976505685 0.238626814810957
-0.369755047787793 0.236872454591144 0.242844773746018
-0.379500994450562 0.238068065938466 0.255534505863333
-0.3848112580436 0.225162784024478 0.250069522112798
-0.392108431028183 0.220719334128364 0.256616828931916
-0.393154510639889 0.231281382691962 0.26558539338956
-0.401954421933734 0.223135430074185 0.271648492978516
-0.403986419187188 0.22387969933629 0.274891703261134
-0.410987495346173 0.209743985933012 0.276479674728248
-0.414121994824616 0.214666480849719 0.283649160473238
-0.419656196493712 0.207412087904969 0.287154359961806
-0.424628905198479 0.207478986789041 0.294084037293885
-0.431153724574886 0.199645784064044 0.298629802548859
-0.433412390559572 0.194552261660333 0.298836095505484
-0.440282979656644 0.185192389709017 0.302984688582863
-0.447746005052408 0.18008905217565 0.310397649117821
-0.456478162765618 0.17589004102724 0.311425090069647
-0.0294788881941109 0.488703438157057 0.311425090069647
-0.0397548433895173 0.477839427074357 0.304937688740391
-0.081678068362764 0.444621191939748 0.263744734330232
-0.114695840181873 0.420744432230017 0.235441000174756
-0.12464235633608 0.416511483525516 0.235284448582318
-0.13889244673122 0.403730355654876 0.225752025175064
-0.153225458740846 0.392869566434971 0.218928443222241
-0.158897662961518 0.393809916471521 0.223487586320852
-0.179281115961549 0.375284703763205 0.209515603672161
-0.202963769787396 0.354363760894372 0.194117396176516
-0.198007186693923 0.360766480173915 0.200145204772174
-0.212850439320359 0.347687112860035 0.194647754397748
-0.219407954187913 0.336775456802768 0.187650499408313
-0.226502184030833 0.337533114611489 0.195030175183671
-0.230999287654586 0.336657002224455 0.198094069993179
-0.248820096060683 0.313662273288977 0.187002583665178
-0.25196300283669 0.319874880197775 0.19726569296
-0.25355067178837 0.325090735724933 0.204922484997147
-0.26797264587984 0.306611099542133 0.196100475693237
-0.275558183676939 0.306425387251885 0.202806146738277
-0.287910246337904 0.290445077184656 0.195068287157229
-0.294846952460664 0.291724647199625 0.203789741016971
-0.299466301733801 0.282257893016055 0.200642413073397
-0.303987459905194 0.281783535866566 0.205589571475011
-0.30944209731716 0.272192960978726 0.203323195580697
-0.313568899163141 0.276310555871765 0.211994163051289
-0.321197758097535 0.266853267511472 0.212436885563468
-0.329392087946819 0.263072737692359 0.218736222896895
-0.332474060235275 0.258147113007595 0.217906066928705
-0.341419776609171 0.25436473419685 0.225097888383676
-0.342291454753831 0.252811258600163 0.224716667499009
-0.355686501699577 0.244592342546794 0.23315213673333
-0.362804113887627 0.229389474970734 0.227739929753812
-0.366066455481896 0.227138755398212 0.22956698726039
-0.374332959131431 0.226506863825098 0.238827367859179
-0.381463921743607 0.218172927882851 0.240403761316103
-0.385502160825042 0.215699315215154 0.244580115089166
-0.389148214386275 0.219696935002054 0.251927620770672
-0.395035422112623 0.215024984099012 0.257404409542571
-0.400828199986035 0.205128977565227 0.25975159629243
-0.407155465211198 0.197102687714312 0.263912750325919
-0.408910702535146 0.199427866381113 0.267679903112973
-0.417328606946284 0.191929063388687 0.275041095999446
-0.423931829200825 0.184102999386962 0.279699611282703
-0.421409829241988 0.190620645784368 0.27994586800971
-0.432437851375089 0.180563782349711 0.289455821381988
-0.436622826563856 0.179728019438993 0.294775691834466
-0.443573160652677 0.181226161367438 0.305267570090654
-0.447759552840959 0.170749205762186 0.30505511717975
-0.449907742980439 0.168292171360681 0.306621720995151
-0.462794376091794 0.163686989007523 0.311425090069647
-0.476050115012702 0.14378246720494 0.311425090069647
-0.0343522592157518 0.475017910171542 0.299683852978002
-0.0648494738525098 0.450732711974672 0.269538728488187
-0.106323742211189 0.416567986610845 0.226850283870823
-0.118096950744008 0.404144102593484 0.214388265994213
-0.135163372857306 0.395092411962991 0.21164081392077
-0.14973372510113 0.381040047058651 0.200530524054173
-0.156049492121927 0.375706438501048 0.196764515485282
-0.183108503488729 0.352109191573224 0.179595548314317
-0.188416002359206 0.361445072449482 0.195580030031166
-0.192793217529868 0.355464824132473 0.189805118090601
-0.205759587343432 0.342992069184181 0.182585555749625
-0.215420930755019 0.328516322976548 0.174181163171148
-0.231915458027337 0.319662316572301 0.178706477827173
-0.233363694677916 0.322089559472337 0.182917415640259
-0.241640464232068 0.312614264745311 0.179199397649405
-0.252018380278669 0.298838978715732 0.172282906375847
-0.255909097077824 0.303496062028358 0.181377752756759
-0.272262273395341 0.291299078810604 0.181795751166663
-0.268341089066968 0.292890367834472 0.180108834197624
-0.28272568989967 0.277797602022983 0.1766477029196
-0.286002567656377 0.279894203858918 0.182461781285173
-0.290097107387006 0.275085867511034 0.182943711884109
-0.297973694176307 0.272152983885945 0.1896389469031
-0.304882143605373 0.266357567260046 0.19256816988895
-0.314735653722997 0.252086047582652 0.19126221656766
-0.321779683433183 0.246634594478249 0.194666871744175
-0.324518709652136 0.251544563960567 0.20240989520177
-0.333381196799536 0.24343055306463 0.205547275572283
-0.339956173886987 0.234019188599019 0.204777782102773
-0.341251249346756 0.235272124514113 0.207463069352871
-0.346952221254487 0.237494529962686 0.216276769086795
-0.359206753648705 0.220465878715094 0.215310451298421
-0.3606795971342 0.221040618447909 0.217587998318421
-0.371762964654036 0.213789091542415 0.224443555458338
-0.374317364017927 0.215522889363747 0.228978734945518
-0.375979453531994 0.207592941455493 0.226730101144379
-0.386990915339718 0.205250596068317 0.240645432266335
-0.391421772220056 0.205842829988692 0.2471257564053
-0.396704823963617 0.194228443898673 0.247780161767299
-0.40306119957856 0.191373267360782 0.254950006628405
-0.409419141122271 0.18790120295896 0.261767912436089
-0.410013566040522 0.180646840822189 0.258427491656292
-0.415243420083088 0.182838345855918 0.266933103320742
-0.423620408761663 0.178341775817035 0.275960951612539
-0.425383714825234 0.177547457115507 0.277948616274428
-0.431091407390095 0.170830169525114 0.28200255477533
-0.435488389546795 0.159207552036729 0.281424302774134
-0.438625724203417 0.166781924283754 0.290119961842226
-0.444514100363403 0.158024306565245 0.293253094351345
-0.453731708264342 0.159335874580887 0.306779906293941
-0.458086224518256 0.14388146269688 0.303943257877976
-0.470528362995736 0.14136579782356 0.311425090069647
-0.0793016449851941 0.424678647457477 0.233621556213867
-0.0783861706295217 0.430951087886789 0.242770484389159
-0.128038208989401 0.384576889877306 0.192978177230117
-0.139987080245199 0.377007078903074 0.189346739691595
-0.138326015858837 0.386521289283609 0.20157822331834
-0.155031985593104 0.370274539790376 0.188652811086731
-0.162405026831136 0.367959113479586 0.189676359712274
-0.185217669272605 0.344729413552566 0.170579223715074
-0.200298327944589 0.337894867432407 0.171532826582022
-0.200040219683692 0.33262831443768 0.165029780936128
-0.204379798591128 0.331542605095301 0.167700406621565
-0.220242739013928 0.321263807784991 0.169953448771194
-0.228334992713852 0.315763294341346 0.170797050589846
-0.231808283760154 0.31130530620157 0.168663519348406
-0.242110394060469 0.305826010933659 0.171550284625884
-0.248381095539908 0.302505846528235 0.173325231134111
-0.255636929697847 0.2920998773363 0.167567423463983
-0.274053210719188 0.273876484853854 0.162746655093155
-0.275469056131432 0.279577380552483 0.170774826927629
-0.287114117037259 0.264888915145111 0.170082596906348
-0.288327442804933 0.269912635265533 0.176113861541487
-0.298266659840958 0.255644807498435 0.17491327326408
-0.304281496354579 0.257114821905933 0.183413441330219
-0.30905301016974 0.245564618006386 0.178544708018627
-0.317990212127229 0.237612228194289 0.181918584278305
-0.324112485605418 0.235407575440247 0.187191112107923
-0.330076880785207 0.232433109901633 0.191572811528242
-0.33473924027482 0.232977455927938 0.197618224537599
-0.336741795792102 0.23297294875477 0.199997210010963
-0.345057692194015 0.217427710243862 0.19569836387765
-0.352626442860916 0.220406275152145 0.207425257457718
-0.359879177718248 0.212011000989383 0.208390150951322
-0.363091239669814 0.20772948051889 0.208947742503683
-0.372733097572051 0.19975064958268 0.217729565647177
-0.378686736361142 0.19452558340677 0.22298091379119
-0.382180977923583 0.198032182035532 0.229836176981746
-0.385395537048434 0.197442302873509 0.233952369580387
-0.389168912930118 0.18542356805072 0.23228253065672
-0.392486827315415 0.183853913166326 0.235979539065339
-0.400647275440454 0.176873676669389 0.243281614271553
-0.407349252141654 0.179343195825011 0.253986909024108
-0.410407057971992 0.169805797962816 0.252749769131068
-0.411523338294173 0.173522135835478 0.256430003343788
-0.423216230230008 0.158922064583931 0.264253430577889
-0.428961020380156 0.153346617064078 0.269014224544528
-0.42920612009274 0.158035299579103 0.272045310133529
-0.435189933236211 0.158821280783991 0.280788966845858
-0.44629969610074 0.140607567170134 0.285729960965448
-0.446158418462938 0.148171298543263 0.289875947713533
-0.454879559482699 0.138943341732777 0.296664793967053
-0.46082157708422 0.129076626122136 0.29923561373878
-0.463033323865403 0.127289586864228 0.301274889636646
-0.474353766102531 0.122989632707089 0.311425090069647
-0.475580241185 0.118167727230459 0.311425090069647
-0.0905444461582338 0.412346546453317 0.217482878998597
-0.11513577918092 0.388368066972662 0.190825744426466
-0.129877764961926 0.376922724764972 0.183426838891886
-0.140123768958788 0.370326823267761 0.180167575270604
-0.145867578582412 0.365193649751105 0.176351015519733
-0.168500995256909 0.342270203936932 0.157575412284932
-0.191508954871017 0.329203788739954 0.153164235146397
-0.19237533118517 0.327991495009659 0.152512693950476
-0.204277588376738 0.312092401876666 0.144460748628036
-0.212917310370218 0.308970599715729 0.148635004630359
-0.210786002405229 0.321599190708936 0.161717219778171
-0.224616420069749 0.304469571377155 0.153961595937853
-0.230758569093866 0.30307972637116 0.157916293796522
-0.243699996238022 0.282534846443989 0.145284632644899
-0.248755948058973 0.290167695761475 0.158984755081133
-0.251940673202388 0.281570796092864 0.151662293222729
-0.267295566077263 0.265185945711525 0.146769157628685
-0.275070669738844 0.260218958934468 0.151486199367822
-0.281393905468491 0.260430617676505 0.159204314166564
-0.282148965446604 0.26215930241021 0.161681393083392
-0.294011104028244 0.25231078449717 0.166804597225963
-0.301308954632905 0.244221076500534 0.168102205156752
-0.302720626455912 0.239694450066623 0.165648683626275
-0.309564268370369 0.232878870677704 0.16756923011268
-0.321156450204349 0.228520318514445 0.177384296716586
-0.317247946958132 0.232806166655794 0.17664664911626
-0.331172775067311 0.214863504830238 0.176833411776639
-0.33767767326318 0.211701109759114 0.181686719630679
-0.347227781817249 0.207200515698141 0.188941953305031
-0.347316055372493 0.210087771855035 0.191683476760878
-0.351485174602511 0.202354679464904 0.189778562577242
-0.356399309474321 0.197338177360104 0.193709067153442
-0.364221884209178 0.203030129442519 0.207817065826688
-0.369111854232487 0.191440825162326 0.20794112854438
-0.371683949616307 0.190113743650021 0.210743809803311
-0.37917483182009 0.181854536244252 0.216383826168122
-0.38590151988643 0.177315872043297 0.22310049291508
-0.390771646164229 0.16647562078625 0.223627031060166
-0.393703611036704 0.169192556707346 0.229249794109451
-0.401714788341358 0.171015153874255 0.241398054833561
-0.404676080658115 0.162193432249054 0.24043798080906
-0.411165055851506 0.166588490201643 0.251953401655392
-0.415538938091217 0.152647904842994 0.250012565492378
-0.424759777731839 0.145885214635394 0.258909028766189
-0.423593770558705 0.147947745746954 0.258477098250856
-0.428100811178879 0.141097141781423 0.260790623163663
-0.43997494155481 0.135187279668478 0.273853612717424
-0.440933209443211 0.1381866525686 0.276903314325101
-0.446043616733205 0.12993978581253 0.279251506457431
-0.455006212190575 0.117908084587909 0.28628244586756
-0.458049760339054 0.126287984675748 0.293793626280174
-0.465106015031968 0.115227254314956 0.300777664458265
-0.46909640962023 0.120551108519662 0.307754402398257
-0.471994652752652 0.108459923901249 0.309697250357727
-0.473236282310423 0.10705785872825 0.311269251882487
-0.481167519946631 0.0965249983217762 0.311425090069647
-0.111693291759409 0.381602508722101 0.1794738288824
-0.131402607736114 0.35981142401689 0.160588966188155
-0.135305487880868 0.359571655607664 0.162497041854271
-0.160562071472271 0.341348398132141 0.151740814106152
-0.157501731158965 0.345095556617209 0.155176986347347
-0.181564729038459 0.322199413846053 0.137259835760033
-0.193174728727342 0.311802309068733 0.13397704042141
-0.206419882988699 0.302257051529307 0.134712606045521
-0.212434922471142 0.294009941250236 0.130390883360359
-0.214010367267203 0.304105505237857 0.143843512515975
-0.224881635967784 0.290572296162823 0.137665601183124
-0.232625813214656 0.283385341280428 0.13618444380037
-0.240362595686889 0.279041608708256 0.138080053812765
-0.250436741383507 0.263551949738146 0.128846021782373
-0.257514374761814 0.258889322065587 0.129760240238602
-0.265460238293822 0.254512192074687 0.134838408212128
-0.269691925678852 0.257740903761798 0.142822515905854
-0.274589119939689 0.256953996506976 0.147931765865777
-0.281567367381867 0.246142378274037 0.146363545494151
-0.285825245101672 0.246636893619443 0.151882110563994
-0.295285097932739 0.238263759643594 0.15549375782065
-0.301462818431357 0.229648406406662 0.154978388488202
-0.309729994996953 0.218654226728901 0.154777327905723
-0.315652155866065 0.222328601067244 0.165180103125986
-0.321622906234298 0.216862170867461 0.167293847459015
-0.322316880226971 0.215452043199456 0.16683205033537
-0.333641834881374 0.204562810513294 0.170365668964691
-0.337522208564393 0.198865386413524 0.169780872044225
-0.340973235221234 0.202258042291676 0.176985674393462
-0.350523043310586 0.189819078748075 0.181249472401334
-0.350680665754782 0.194061494294098 0.183903161840426
-0.359908590391979 0.188973122454961 0.193770544489395
-0.363896152530099 0.18178637432026 0.195171210889837
-0.367690170512207 0.1721677037983 0.194907675454112
-0.371646309840341 0.180383854318568 0.205106446706538
-0.379839309383075 0.173700598902916 0.212624106904895
-0.387659860241955 0.161321548879725 0.216356091183679
-0.387765633646905 0.160854730727461 0.216234708650356
-0.394957011303585 0.164540123952493 0.228316166985161
-0.399322662226988 0.160469597885562 0.232029585956255
-0.403663917651043 0.154635015285817 0.234696584360254
-0.408388207710369 0.146449237214885 0.236544754224298
-0.417791661713285 0.142901514946525 0.247539760454505
-0.422765838745812 0.136071271042969 0.250512339210309
-0.424688201079396 0.127331466106492 0.248159518204472
-0.428413655316012 0.131770135196591 0.255870232266046
-0.439076088447227 0.121067649033172 0.26450294166131
-0.444589182710707 0.119566273206026 0.271281266605359
-0.44749229289984 0.112745710098875 0.274097253235893
-0.449878131449495 0.119062781965619 0.278882209296198
-0.455188602425719 0.113111829261368 0.285614635242623
-0.461060725446879 0.106441446200128 0.2930414749822
-0.465407855627964 0.111396971557049 0.300476623584774
-0.465146878405192 0.105098149198492 0.298855264848195
-0.473570424969795 0.0984080818122861 0.310072644249797
-0.487527936748213 0.0824111923136362 0.311425090069647
-0.122522160994474 0.364353090614461 0.161785295647594
-0.143915917022622 0.3371345301569 0.136345843262901
-0.163923341468147 0.32379590903382 0.129345689480996
-0.173685604256697 0.311974219189033 0.11856674789741
-0.17958126608336 0.315980896904943 0.127503537355895
-0.190269327702924 0.304894145451028 0.12310307428013
-0.196597213412119 0.307289944125115 0.13173240572166
-0.194648182790506 0.302489489165842 0.124239978256781
-0.218795851322616 0.278137716641376 0.11731089194959
-0.221580984274796 0.277061551314225 0.118573445188012
-0.230078504330373 0.272941791933418 0.121430251567168
-0.232825539521085 0.275862817765273 0.127414793570688
-0.245446710059618 0.256389734894333 0.115766163277746
-0.25572017248436 0.247349613430865 0.116706985179337
-0.258441901670426 0.246885274718962 0.119521917344335
-0.267119958115315 0.250612554562942 0.133252601252223
-0.273547481365184 0.238864167147615 0.130173599145093
-0.280323206249441 0.234941301305855 0.134654780976364
-0.287479253500885 0.23224474220763 0.140708350206624
-0.293351218084514 0.226790065545441 0.142715269141883
-0.296329898813263 0.217779532588049 0.138032091221696
-0.303696548953182 0.213837940539725 0.143199392152727
-0.306449493458386 0.214649694383187 0.147216725375612
-0.318465779888177 0.206541463319087 0.154112499347097
-0.321508731828343 0.204217029376947 0.15561116488383
-0.322061684826116 0.202687849637036 0.154872837080023
-0.335332550904216 0.193686071026446 0.162445662561545
-0.337286766213825 0.192429455904919 0.164404806292039
-0.342805046313718 0.186815791997973 0.168829761092391
-0.346863260384761 0.182465549476943 0.171956563861216
-0.354358276735499 0.17763726888832 0.17957174768253
-0.359335646067347 0.177909825800439 0.186625936681661
-0.361685087973945 0.167617773841 0.18397394196228
-0.369367684772079 0.162703677629119 0.191799818061777
-0.377312931557619 0.158599965223571 0.200454860267454
-0.379609016489474 0.156793764960632 0.202600014703386
-0.38362369768153 0.1550992146388 0.207190922877522
-0.391647149086544 0.146439195323537 0.21333890780344
-0.395967443702264 0.151370361061333 0.222156668603414
-0.398353716948035 0.146786635135935 0.222832438164307
-0.409238145289386 0.131050607713885 0.228883413537305
-0.412064191056423 0.132646507348967 0.233715888825558
-0.415326348685958 0.128513091655083 0.235863965266497
-0.423871657156069 0.124405985652218 0.245348636524897
-0.426112018493773 0.114272365411701 0.242636419639012
-0.427534222365224 0.114342587073195 0.244728914930524
-0.43505976565735 0.115185191523011 0.256085629695134
-0.438150645316456 0.105383144784686 0.258763149072778
-0.443238793330989 0.11128194564621 0.267484998399832
-0.449137922186516 0.101930989922733 0.274427172919118
-0.457502896092837 0.0952855712750122 0.285566186723849
-0.457523013383783 0.100033770096885 0.286525750969131
-0.462113496864228 0.0888779217710187 0.291168372251554
-0.466024197954937 0.0933486885217557 0.2978595672431
-0.474220023628445 0.0831325628077347 0.308047923133134
-0.475943531679719 0.0815769811113942 0.310306501701327
-0.484239696659518 0.0709864035505581 0.311425090069647
-0.13302456813365 0.339283952773035 0.133072646441671
-0.146655227211356 0.330240471646944 0.128364356870983
-0.172929920666785 0.308150571832261 0.112834082213762
-0.170354876759594 0.311853392989281 0.116487383271701
-0.179239506397508 0.302910174940687 0.110670295163609
-0.194575945148297 0.284970504438052 0.103325897442879
-0.203504531240456 0.275384373652801 0.100071182367191
-0.208065689297736 0.275896166945145 0.104845217389548
-0.212696518381 0.275349044209897 0.108422730110545
-0.229393378150256 0.260774315430473 0.106324971788687
-0.231099947380784 0.262531536636444 0.109974458043987
-0.240570550617238 0.25289180509147 0.107150895152611
-0.24632522399937 0.252384812278933 0.111802393277993
-0.254917666750065 0.237799189254543 0.107031084468154
-0.259575459146499 0.244439621755455 0.118637655970031
-0.261789289232488 0.238171237081974 0.115548253993258
-0.271625585260146 0.230747873468594 0.120475155295713
-0.282791148754283 0.222407058899846 0.126146161643223
-0.279722137506561 0.221914371799445 0.122044052801126
-0.28893337695636 0.216077019363969 0.127675371664332
-0.30026713936645 0.202702926201387 0.128950440965478
-0.302212129479103 0.205374165807762 0.13370425902954
-0.311604994359299 0.194865310822255 0.135285971753619
-0.316554592074417 0.195348237847447 0.141617122593143
-0.323034236823846 0.186121512063405 0.141032457606507
-0.329228990706521 0.183760280940168 0.148261861041958
-0.331537767732076 0.187465876033742 0.153588513574568
-0.339459576407475 0.169419154173765 0.154207436721606
-0.346680101754699 0.165859086551101 0.162170211749083
-0.345596010734399 0.163608013662282 0.159375685042136
-0.355960896884469 0.156303523790943 0.169546583414965
-0.355809894645484 0.16058841051712 0.171796954337526
-0.362765726063327 0.151999929101414 0.176506475434892
-0.370980815811198 0.150773126112442 0.187186889580612
-0.374115627247967 0.154151338572554 0.193470350676925
-0.379251716328083 0.147442303595098 0.196736887244787
-0.382041086621014 0.142549681267852 0.197793962169954
-0.38671215782999 0.136041163071424 0.200531169672739
-0.393233690421278 0.13207396931228 0.207291566408373
-0.402050483635385 0.128373939857351 0.217386138640224
-0.404353061767732 0.123029071886634 0.217509007222091
-0.407768978299255 0.120015391726042 0.220512922072593
-0.41404117806423 0.120319431304309 0.229379583916696
-0.41944493404502 0.106441319661042 0.231151806401138
-0.421999986258615 0.109463160394544 0.235543240529361
-0.426982321999448 0.100685199805229 0.241234176624422
-0.431064508249619 0.105495344820009 0.248246845364984
-0.434940403458021 0.10157285478175 0.253242968413302
-0.442614358685478 0.0953628879764582 0.263439578646954
-0.44506129989191 0.0908100289555912 0.266187188547191
-0.453021854601531 0.089127768762972 0.277696496612102
-0.456396685107461 0.0769508934481528 0.280331332404797
-0.458901161024653 0.0838720144505751 0.285410988428109
-0.466951483411161 0.0808663339443287 0.296794684524602
-0.469601399248002 0.0735901774877698 0.299310959189457
-0.471450565840736 0.066091448178383 0.300592808388878
-0.478270302067179 0.062547016017394 0.310040935194993
-0.490357378919539 0.0588973605960773 0.311425090069647
-0.148410310596429 0.313271882925848 0.105856421149279
-0.156946509205289 0.306626407310808 0.101546985466954
-0.17612510639867 0.287859375026781 0.0899155016942847
-0.181207820535034 0.291483103641941 0.0988690879773484
-0.196768360475788 0.275168619377016 0.0936633468930079
-0.197903799892572 0.269742296481976 0.0882426773844612
-0.209738370380164 0.256826432078247 0.0836790561958878
-0.211692330078952 0.262294263604515 0.0919701827518482
-0.221691614603651 0.259966185798695 0.0983304684007708
-0.227874031390493 0.252658706887718 0.0952797745129025
-0.240886229252403 0.233634403627061 0.0865302114812153
-0.244366676830803 0.243852437783628 0.100002566161481
-0.247051584627064 0.236407146759165 0.0963990780091311
-0.257673258244208 0.232571498987278 0.105536696746415
-0.260827900370947 0.221766819313346 0.0994246071919969
-0.267933351253059 0.225001561302558 0.110834086213136
-0.277216801518773 0.21071395139926 0.108835051896957
-0.285320130114435 0.200195553272187 0.108873463498147
-0.288108295273701 0.201892923112719 0.113741403646244
-0.290414063167516 0.196940933651587 0.111963466365795
-0.296704335363913 0.202201934810726 0.124253120928804
-0.308018437536365 0.189700164986511 0.126301349160181
-0.314055110033121 0.18692954828273 0.130955203718756
-0.314336292908459 0.186319779172235 0.130733013906223
-0.322824517086782 0.180215869757946 0.137351836745892
-0.328753660762961 0.162839186938781 0.135593905540965
-0.336634929077575 0.163082480642639 0.146655575974615
-0.337060652409668 0.161472012501231 0.146321102370063
-0.342929564284506 0.165340475446373 0.156674948725714
-0.349165197965978 0.1506256536731 0.156869732467283
-0.35338081862044 0.149979498550516 0.162340911636289
-0.35883215066453 0.152214791369913 0.171178587079677
-0.364126009467571 0.144354527863463 0.174002929846967
-0.371140329706084 0.13414829567462 0.177864876252917
-0.37087362277586 0.141079839377319 0.181474149045503
-0.376346687252185 0.125546600424142 0.180142357622668
-0.386587588380646 0.124684508270411 0.193839533466645
-0.383830260770978 0.128863259643144 0.192417084029621
-0.39369122309138 0.112799024290195 0.196861320832866
-0.401775349122772 0.109068339642651 0.205922951891842
-0.40540528554651 0.106980799058105 0.210378124649344
-0.407701355349589 0.108529698687646 0.214096022516934
-0.409007541186703 0.108890411087762 0.216109162995352
-0.419414998233198 0.0960251448247098 0.229067911382604
-0.420023658065417 0.101819107961276 0.231107486296192
-0.427648256397585 0.0958284456299904 0.241273632036424
-0.428112421747774 0.0823843746799378 0.239331718479764
-0.437798200735032 0.0887565522301436 0.254983696295412
-0.438612702459783 0.0839673847080204 0.255257328918938
-0.441341151435104 0.0842255403933234 0.259365533110996
-0.450971994695716 0.0748476236730529 0.271852112562461
-0.454690093336796 0.0714527872622006 0.276716874645253
-0.455776312556555 0.0699646711659717 0.278040907149453
-0.459722931442495 0.062255891984467 0.282400893281012
-0.468799318957418 0.0584012649605749 0.295144305241487
-0.468411717053574 0.0576741365587845 0.294425512415439
-0.478390350188024 0.0501411195271929 0.307790525188872
-0.480821630936858 0.0428593031954399 0.309980544759012
-0.492242018146393 0.0411413417461204 0.311425090069648
-0.16281050180215 0.285807728532233 0.0760621378622711
