ply
format ascii 1.0
element vertex 846
property float x
property float y
property float z
end_header
-0.0853197493257462 0.204737465437734 0.046556544201477
-0.0914936386237061 0.20255897550076 0.0465930107961779
-0.0736893526443136 0.212621301830794 0.0468517248776851
-0.0664699155608153 0.220020963560751 0.0472761788501576
-0.0645261331190058 0.231547452811121 0.0483082580553178
-0.055271043670595 0.23874285755322 0.0488604583760323
-0.0509726072209694 0.249122579779907 0.0498742647997858
-0.0394704117259303 0.253174779854805 0.050136440584834
-0.0301425304605306 0.264611601182515 0.0511910479348991
-0.0230738832594938 0.266326267098912 0.0512720444930179
-0.029520047834256 0.27805147572712 0.0543207356897445
-0.0231063844816698 0.284945948744997 0.0567606815399232
-0.0105547855602132 0.289487855809448 0.0579259717156638
-0.00134470672282843 0.296404486292214 0.0602263800676699
-0.00420274526447614 0.30517569288516 0.0639154677676735
0.00256845687386137 0.306120154555379 0.06420958924293
0.0124956379625419 0.320579005903492 0.0705677791028443
0.0125342754731037 0.316966649529126 0.0691130022593806
0.0225415012743275 0.327614068393411 0.0739383282937642
0.0302665234362743 0.338972260732174 0.080020563868368
0.0376764591163626 0.344152767569961 0.0852781251223777
0.0345185616592624 0.345257931136207 0.0858669221756579
0.0452455055763288 0.350813630790418 0.0918178729833328
0.0486043142198347 0.359146909830928 0.0993125563252819
0.0493635644419888 0.360741126983452 0.100759463848016
0.0531312714102283 0.366547882497358 0.10614234841219
0.0597228547981249 0.369708133968985 0.109582499428486
0.0678923806441148 0.374220560022615 0.114354893629679
0.0702458045940068 0.377909683671995 0.11777019863046
0.0702899102268021 0.38784379656818 0.133203496175033
0.0796247711617568 0.389068800195613 0.138210161720243
0.0790416331753165 0.390878394014604 0.141745531933813
0.0785056490789322 0.394946960304291 0.149902409794771
0.0890139419353118 0.396799783495093 0.15639076983347
0.0832460355929023 0.40155138810873 0.162982715118238
0.0842396979088128 0.410817624691003 0.178499013285061
0.0935968558165111 0.411355761292948 0.181421663945868
0.101528505681513 0.411872768488076 0.183999544898423
0.0968496038514316 0.415072537869827 0.18826585040324
0.107362472473235 0.419304429476952 0.197538814500239
0.112047746189702 0.427739783349871 0.212485662877963
0.117369712780155 0.429054826063171 0.216823859751062
0.108030820583947 0.433940147803957 0.221850415437727
0.110181643618273 0.437980162535418 0.228988788986074
0.121251579845843 0.442677467029019 0.240258543531472
0.125328908300905 0.446626511447893 0.248933409093182
0.125146705407654 0.448162536432472 0.257369353171397
0.131408421372152 0.445568848865568 0.261570333936062
0.125645627479074 0.447955876152633 0.266669159073626
0.129020252603553 0.446558060717064 0.282684064843333
0.130268727506606 0.446040925501733 0.300019408692221
0.12876531846204 0.44666365789154 0.304071864446706
0.131005913436593 0.452338085509891 0.320471937428621
0.136599645986589 0.460680867341325 0.320471937428621
0.142952721452801 0.462672221319165 0.320471937428621
-0.18748245029465 0.106802204885746 0.0457520961910557
-0.179793443382847 0.116405967868597 0.0456917212436595
-0.169439277834278 0.126321524633357 0.0454647521726402
-0.162107599169699 0.130247454898335 0.0451077104955678
-0.164783569341037 0.135967973477786 0.0456917692165557
-0.147312026767108 0.143843801066448 0.04474707105703
-0.153094598163117 0.151041153851978 0.0456816087344698
-0.139247640384143 0.159807170707501 0.0454884312388307
-0.138153701063292 0.168594779551579 0.0461454589732604
-0.123091294924291 0.178610191146724 0.0460179601496439
-0.127011186904142 0.183629944258371 0.0466815507597036
-0.11054253989249 0.191611467952967 0.0462987132633831
-0.104622176071129 0.199690183169409 0.0468403346265982
-0.098242630076189 0.208475642979033 0.0474316806558959
-0.0883237276706489 0.213556124803296 0.0475252432121876
-0.087411091495081 0.223028112276372 0.0484006637354292
-0.0762730937986341 0.227941282660069 0.0484295102341243
-0.0696039151176202 0.241573155678348 0.0494758423238594
-0.0610695759033237 0.243851134648971 0.049467024810078
-0.0555735527178174 0.255674872349978 0.05061371626388
-0.0459849322500996 0.266556219473986 0.0516073948337485
-0.0424660620041262 0.266811888779785 0.0515859490610983
-0.0440202216386725 0.274445186703323 0.0536362291753816
-0.0276663053907937 0.283965262830608 0.056607285693329
-0.019905686835739 0.289633924150028 0.0584813581005095
-0.0224785912821602 0.292583458937455 0.0598074831053619
-0.0123875653914363 0.296852067251196 0.0609931966563823
-0.0121434749434504 0.309235065459221 0.0659741798619614
0.000324336142249834 0.318232217955656 0.0689751171473489
0.00679839159744859 0.323834460708068 0.0715781818744411
0.0102026714744405 0.332254364015486 0.0751545945776413
0.0158459232474414 0.333887823533308 0.0761129767102228
0.0211622659256473 0.33789945750272 0.0780806763271774
0.0203106403694781 0.349152455286889 0.0875955306123227
0.0304434649023575 0.350617484232812 0.0899860476999845
0.0310676797946577 0.354019762649729 0.0929619446897831
0.0419793810308373 0.356156533257484 0.0960137369859161
0.0417680009810273 0.366956462950785 0.105213636714986
0.0434113461486017 0.373680912124499 0.111141418199577
0.0484061332748677 0.375683450783532 0.113413285991123
0.0516200877750456 0.384558185421707 0.121485307062254
0.0643188861993476 0.38409379784018 0.12394877385232
0.0664311318577688 0.388333064429459 0.133165241932334
0.0576618552024706 0.393959187467157 0.142288424247083
0.0715424718551825 0.394545277774902 0.147212555433386
0.0719703231042352 0.398579432334352 0.15555811368058
0.0676852859920436 0.401730404524982 0.159895663608663
0.079115029089837 0.405336383753123 0.168334441930476
0.0743013981172819 0.410805097933635 0.176317912650546
0.08746852426929 0.413208343780513 0.18314843018385
0.0886721116722456 0.415983588787086 0.187992519071503
0.0842435732783414 0.420564011080576 0.194592965981884
0.0925074591354895 0.427136480267539 0.207241771816386
0.09582451582662 0.430330559284711 0.21323686626025
0.0946731319457428 0.436392924803782 0.222996676541763
0.103867531376886 0.437020371548879 0.226031414071716
0.105302907462988 0.442406478047852 0.23523691142046
0.103417563099452 0.44550146753747 0.239937477363441
0.110510476751596 0.44848129336052 0.246399606440878
0.114629400992187 0.450268644021848 0.250246241077104
0.114359783989574 0.45087007592289 0.270406288285075
0.114654921928759 0.450831220280537 0.279863259565922
0.113886552934941 0.450932377965994 0.293874267164201
0.116382810666672 0.450603739438833 0.301539486410343
0.115057294527688 0.450778246929027 0.304441720554009
0.11625954043222 0.464783399473953 0.320471937428622
0.131896811931031 0.468073018365 0.320471937428622
0.135816856258463 0.472754062369928 0.320471937428621
-0.193071271852542 0.109088101883936 0.0463812456382972
-0.191122771512447 0.114472412068618 0.0465056000100893
-0.183775618186165 0.13131026508185 0.0469662837065855
-0.179652058787277 0.130481925259024 0.0465728732688881
-0.158706999562687 0.151007490768162 0.0461434154585932
-0.158527879910813 0.147042624158942 0.0458771168715867
-0.157943423195239 0.153184794519379 0.0462184019929693
-0.152317819852964 0.163184099774409 0.0465966235894315
-0.146780893344732 0.171310641021634 0.0469171858805961
-0.137961776025024 0.179610057971073 0.0470438490166184
-0.127789302685837 0.191582207365589 0.0473882703589769
-0.126319002141039 0.193570820855188 0.0474593952276166
-0.119671965582046 0.199121697324284 0.0474966290964203
-0.107714942485129 0.213021794057314 0.0482470084474854
-0.0984429791340914 0.220359464308878 0.0485836527910619
-0.0912511174372468 0.227488444428342 0.0489831494218126
-0.0779217549603382 0.235001159626209 0.0491748602353687
-0.0834663246481284 0.245526295316175 0.0504091344879743
-0.0749387285661907 0.257366963712824 0.0512089359444917
-0.0647859280572136 0.26284321834467 0.0514795249391427
-0.0539173727606695 0.270178256041109 0.0524408985829608
-0.0603697430108125 0.275363880382423 0.0548747938593111
-0.0450300133634265 0.277710479856662 0.055006704275358
-0.0464550674547898 0.283473656721245 0.0574065996466932
-0.0312115823337557 0.293377741342647 0.0605914804938926
-0.0300137090875672 0.294989774918197 0.0611779978900767
-0.0275938508578626 0.309869019321801 0.0670501723502797
-0.0194880737760751 0.317560892382152 0.0697218605061365
-0.0129904732292893 0.32299411044343 0.071568039838717
-0.0109176322990221 0.327685813598824 0.0733501023929623
-0.00117839437522763 0.337288422740612 0.0767056445999548
0.00536200607028392 0.341506008116779 0.0793843025214905
0.00723691062339575 0.349288864332752 0.0862420512430646
0.0155992021643112 0.350219210562908 0.0879768486531678
0.0211869929520514 0.355058807920623 0.0927383789052164
0.0262727866362572 0.36473642450093 0.101575370212302
0.0305381718275438 0.368789938946043 0.105516859142619
0.0357484268587768 0.377119491863125 0.113216532460079
0.0371752098186619 0.382395595179915 0.117883006185168
0.0355968615384946 0.384786858282589 0.119747795766812
0.0390770119856629 0.387310917025003 0.123732434709449
0.0523034811680823 0.390408666093761 0.133605242525084
0.0535592221114968 0.392551829360334 0.138315101223533
0.0536840819345523 0.399237501550442 0.151989002878952
0.0591301601104655 0.398008921033228 0.150945235758084
0.0669791016086614 0.403336522260086 0.162394152529947
0.064076982417462 0.405557195528436 0.165430029078494
0.0640500937223062 0.411018902447651 0.174442485502108
0.0648331065679809 0.416245265985854 0.183242404664215
0.0714247655432267 0.418116991990023 0.187765889094754
0.0694325244372978 0.422857468051491 0.195160224181868
0.0743860649349261 0.426179946206736 0.201723073288255
0.0841208179428164 0.43232355294605 0.21398348825275
0.0788258130099891 0.437509860275915 0.221396009867305
0.0921598954614637 0.439215959659415 0.227111701402233
0.0948403583874447 0.438465187261286 0.226454722342304
0.098411827061228 0.444388830068562 0.237012142902688
0.0974906189227022 0.449718956474901 0.245612925472888
0.104463093959066 0.451618327598364 0.250264840082328
0.100759893170695 0.452660535309941 0.273430509161165
0.102063872201339 0.452488863233523 0.273502528831062
0.101194339729695 0.452603339341966 0.284060776510619
0.0969159328350522 0.453166602230481 0.304604936654541
0.0983087233102879 0.452983237906915 0.314783585234087
0.0983924161806754 0.456526290991356 0.320471937428621
0.116113593230641 0.46883842492789 0.320471937428621
0.127254828213409 0.474425103362448 0.320471937428621
-0.199590751329583 0.121215282478283 0.0476332956738185
-0.191381485513017 0.131320194229877 0.0475956427993148
-0.181719432384235 0.139540580970207 0.0473183615092552
-0.17931189983573 0.145888146458186 0.0475219726344603
-0.169834720193156 0.15227683802804 0.0471437890644323
-0.166876173566553 0.153436131762389 0.0469727587138457
-0.163094126401126 0.167561786736737 0.0476420417112784
-0.154244349970728 0.175484439590331 0.0477356154157774
-0.14840386590287 0.185221110387275 0.0481700223144301
-0.146927428050396 0.180300854602834 0.0476696450719714
-0.132290582727625 0.194712282980028 0.047932530706428
-0.12050582876985 0.211002975079248 0.0485626906155632
-0.1210223572971 0.212477016250919 0.0487251835959666
-0.11629856149252 0.21225569926941 0.0485155229171535
-0.10456649329405 0.225681537354532 0.0493401444729282
-0.100592051256492 0.228467267826152 0.0494498336317803
-0.0919057152343985 0.23801867332094 0.0500229320546132
-0.0874808380246814 0.245499547892155 0.0505666337025121
-0.078601037372571 0.253457749082666 0.050978649827582
-0.0765689449688677 0.269911200383557 0.0539714232156789
-0.0748066452659874 0.266180177618069 0.0522949527081603
-0.0684574007822439 0.27776960109097 0.0562744052332557
-0.0609599115582954 0.283250312964944 0.0580866500895436
-0.0531120121900562 0.289127498995135 0.0600401843853803
-0.0383612173348466 0.300392578181955 0.0638001001169373
-0.0405610633270519 0.306132209192325 0.0662316366148921
-0.0280864779059134 0.313748648222066 0.0686409446595162
-0.0301993195361114 0.323428308431308 0.0726568372661417
-0.0238974296991422 0.326099358318874 0.0733994520836382
-0.00813559608108264 0.333880264685011 0.0757005544593597
-0.0113111147750321 0.337014516096407 0.0771331691954718
-0.00665131186654744 0.345974274494796 0.0833453854945214
-0.00455140086238541 0.3517594303526 0.0880500816951081
0.00443659881704397 0.355977037196286 0.0916392166757613
0.00196339026142778 0.363188350766413 0.097519948510199
0.0116906805368229 0.367138946087521 0.101987663218131
0.0206502899326891 0.375527518408553 0.110159310550592
0.0226002877018354 0.376953850002876 0.111596720463541
0.019735095097203 0.383557707388333 0.116914581320869
0.0336820362524903 0.385237358320899 0.119917246335375
0.0366124487767106 0.392470025078507 0.133596256537701
0.0403921863292305 0.393916510666048 0.137562678417724
0.0362249363964345 0.399192503631708 0.147207627524457
0.036145959639883 0.401262799872951 0.151410311717279
0.0456824284781525 0.402319407454107 0.156085172439661
0.0526527711266461 0.407049305864338 0.165410354453763
0.0502257322212561 0.410677192454558 0.170873078226573
0.0548539168590107 0.414696928660129 0.178516504223608
0.0602742262924414 0.422314626911653 0.192273034162998
0.0629927073718179 0.420542502356304 0.189937875802358
0.0597015891345158 0.426989951327577 0.199868389323794
0.0669811247815374 0.427326045094842 0.202005789814736
0.0683866420578266 0.433403889838753 0.212346985832168
0.0718723358238548 0.43823251075319 0.221077674056827
0.0739142755987739 0.439801232269366 0.224111810062308
0.0757291844885821 0.445872946882003 0.234531878827948
0.0806905470895765 0.44642458491652 0.236521252072258
0.0837592372218868 0.454830131134584 0.251067464769244
0.0893530869968992 0.454162269659292 0.265648435426433
0.0908940168139239 0.453959402423634 0.268865879895484
0.0813053303936606 0.455221776794082 0.282636541743047
0.0908501116601843 0.453965182646115 0.285101358822232
0.0896020849489783 0.454129488460781 0.299972368257818
0.091320777479627 0.456359732126754 0.320471937428622
0.0910239330660082 0.462258220742195 0.320471937428621
0.0955488748475445 0.469543767369342 0.320471937428621
0.110692365180239 0.480161557921417 0.320471937428621
-0.202406678179558 0.133244931071898 0.0486291124897913
-0.198297820185052 0.129512683692294 0.0480527221746524
-0.197960449425225 0.132708142813789 0.0482275221481506
-0.188256417198998 0.145388090168824 0.04822964109086
-0.182788900309165 0.161106992258909 0.0487747273568455
-0.171854754908981 0.168039125681238 0.0483105761493125
-0.171382785784845 0.177371506999786 0.0489787001842713
-0.165140973744334 0.178603051521702 0.0486845854484686
-0.155373139018224 0.184543427604699 0.0485560642522293
-0.155150012839675 0.192458303550651 0.0491961844084144
-0.147391111633928 0.20174813647108 0.0494719686289365
-0.137295737439223 0.210424480001665 0.0495488368116626
-0.137244130868923 0.210739087855674 0.0495715700564678
-0.114662818436676 0.227096201289261 0.0498789047555052
-0.112151936975294 0.238536171631786 0.0508800428994772
-0.103344816261087 0.245952281726974 0.0512427732279971
-0.104122828166594 0.24239853678488 0.050931698056966
-0.0981140331090843 0.25274460611047 0.05168805776553
-0.0925856809489688 0.263661258832715 0.0541158863261115
-0.0820995221704866 0.271355405580893 0.0553750783884223
-0.0721385474241072 0.283270629813048 0.0586883641883914
-0.0742801120954997 0.28056621121313 0.0577114030375021
-0.0654123869463027 0.28732441512915 0.0599660964813681
-0.0589024494200106 0.298233059869286 0.0640198072272152
-0.051655778141423 0.305218231243046 0.0664521029707629
-0.0576234786820869 0.31256558747796 0.0697320705969566
-0.0406346671547496 0.323657159615095 0.0733031869581229
-0.0417645052130651 0.322183147541871 0.0727687200216395
-0.0333079125104682 0.335448629005789 0.0776695640812866
-0.0213155149267838 0.33722475357702 0.0777491313590038
-0.0252888488718114 0.344020037645227 0.0837719330929813
-0.0182400555968333 0.34716621339102 0.0856663707706958
-0.00770784068716151 0.354224417993873 0.0905102041125795
0.000629502963207989 0.361220415995176 0.0956892570722656
-0.00551976917277647 0.368939493308193 0.102831574558969
0.00301340751568114 0.373894885945811 0.106781913307276
0.0105074306915673 0.374928711652956 0.108507461190845
0.0141499590641566 0.382331220710396 0.115239122339564
0.0220101525376872 0.386409254522744 0.119605743773402
0.0149182012056093 0.390855872241866 0.124475872640553
0.0181596771693633 0.396114292113534 0.136074970212444
0.0263459079934547 0.396080961133525 0.138205808547336
0.0248214559019938 0.40310106472135 0.152119020741521
0.0335879340868052 0.404450721177357 0.156975234288266
0.0313256282924008 0.407340079187935 0.161254319151161
0.0312251474818425 0.412406270923341 0.169597708223813
0.0423458944742943 0.413656064967973 0.174078812818338
0.0362842107420435 0.41860986269567 0.180940754636106
0.0521346758996408 0.423265794126526 0.19207419025207
0.042916207468164 0.426977428323646 0.196198856247707
0.0478952681088457 0.431818983327231 0.205275533526386
0.0536912779734598 0.434766963250852 0.211403154326442
0.061165008865524 0.438098312465208 0.218528497556124
0.0592240594421379 0.441724788406085 0.224094559632647
0.070499396986801 0.441915718590636 0.226860886924137
0.0725887396229465 0.452931067230392 0.245503479041005
0.0710046830940482 0.450517165157691 0.2411733275586
0.072651069072781 0.456361131780553 0.256490293946015
0.0787451199070651 0.455558834860179 0.263739579922536
0.0729980926360867 0.456315445266983 0.284473466541757
0.0684682566247594 0.456911809422864 0.295493195159897
0.0773201948058365 0.45574642978703 0.301614600593549
0.0740377208467427 0.456178575632249 0.303320138931968
0.0790266307900489 0.457191339262378 0.320471937428621
0.079713087336949 0.464892149277686 0.320471937428621
0.0943114384956834 0.482863432207224 0.320471937428621
-0.208627967219693 0.13854440558258 0.0494795335886068
-0.207349368417363 0.135912684495239 0.0492069095205086
-0.205878445228118 0.142528300879472 0.0495049467548653
-0.201173570976215 0.149836109838341 0.0495795594096583
-0.186503029331159 0.162044181981908 0.0491411971167566
-0.188161351905205 0.164902521933061 0.0494595850218047
-0.176518369847866 0.176013319392601 0.0492018918222104
-0.171899342374021 0.184293378213646 0.0495836530319956
-0.169465510027798 0.189556305258478 0.0498643279107985
-0.155856728155639 0.205680541194815 0.0503340107574804
-0.150968012037533 0.207516961961813 0.050175724355628
-0.140287113430357 0.217906376703253 0.0503570614995766
-0.138987336082353 0.223228848893202 0.0507145918275646
-0.134694095245339 0.233063060104092 0.0512552035780162
-0.12542178448953 0.237574182365988 0.0513165576774374
-0.120573326825009 0.250646111384588 0.0535813822611485
-0.108324645887423 0.252339384845954 0.0523110440960094
-0.100515709522813 0.261270535447521 0.0544518583422518
-0.102232006878964 0.269493574361042 0.0578092978078195
-0.0945471348712427 0.272532416718487 0.0577550553730387
-0.0844160177184578 0.288623812517029 0.0622252573909468
-0.0818752826179871 0.292537339526982 0.0633004855397199
-0.0765784078107028 0.294803424028768 0.0635751589073539
-0.0738543714955136 0.303522435348376 0.0669468210698139
-0.0655463494120813 0.306976026745634 0.0678985133350762
-0.055574401522171 0.310286249193604 0.068704041517403
-0.0549320693224759 0.322840480830602 0.073732937183418
-0.0415695416795558 0.334893850840298 0.0778844718627395
-0.0386144863563053 0.332003823601271 0.0765620556869169
-0.0309262765378773 0.33798362989548 0.0792504056439881
-0.0287735145034002 0.350710767895137 0.0898779507697323
-0.0288825523314055 0.350350405397019 0.0895824435773126
-0.0209852389494542 0.360234089995115 0.0971356368416297
-0.0113992290446893 0.363284268506554 0.0986628094781119
-0.0126004681293476 0.368128614147731 0.10293518147887
-0.00544531785487287 0.377323259460282 0.109983348671618
-0.00673677811737237 0.383540095965082 0.115438039077392
0.00105789489265043 0.383564399958998 0.114820276746851
0.00911722958828288 0.386430408871731 0.118174160760553
0.000539392358191628 0.395558293276629 0.130207748848527
0.0119068143236334 0.396825991828123 0.135847473037704
0.0154694071755285 0.400833816075974 0.144981310381852
0.0172657449001481 0.404796500651509 0.153548631625342
0.0160710977881506 0.409744072849123 0.161907688801603
0.0209326248446856 0.41170009715787 0.166194264403863
0.0299382936911861 0.418550013756656 0.179462438855728
0.0274377463080302 0.419364969371179 0.180264506998639
0.0326196687448389 0.423408811422798 0.18806810940326
0.0310665376320096 0.425965456818126 0.191951985854764
0.0336562057716779 0.432171990330319 0.202763085313286
0.0449052469300538 0.434565960743969 0.209161328454946
0.0421353604043612 0.437524961523351 0.213445067198566
0.0539792601316856 0.443563685638779 0.225990793766385
0.0506406210648337 0.443508559765925 0.225174007517316
0.0526285934847433 0.451406980976503 0.238647932229136
0.0591407904845302 0.455138170435484 0.246224465583371
0.0598376963733663 0.458048044104702 0.253420133365403
0.0603603411502323 0.4579792366224 0.256064141549053
0.0555925627636709 0.458606926482656 0.271494901533322
0.0606655388702611 0.457939056584927 0.286522653320148
0.0614764112219764 0.457832303226891 0.298060233757865
0.0633654359751369 0.457583608428771 0.301673091047153
0.0594565373642495 0.458098224634452 0.320211262522128
0.0729038985704928 0.468760425476644 0.320471937428621
0.0837315363712758 0.475164615887629 0.320471937428621
-0.220218376982509 0.137435328840909 0.0503672911241307
-0.222579552982117 0.140260632306303 0.0507416840002046
-0.206466888862755 0.155037185003615 0.0503470294805741
-0.204012811147881 0.158653226285096 0.0503735321523251
-0.200634087609336 0.164554413579931 0.0504685472036489
-0.185163718733826 0.181951479086866 0.0502932065908352
-0.187710906807792 0.180146051911841 0.0503892482037385
-0.173137310813128 0.195385101766541 0.0505790606058034
-0.169894962257087 0.195166784355091 0.0503553511718405
-0.1672195746907 0.205421458515631 0.051033340553648
-0.161040876062155 0.206865103832492 0.0507607621483999
-0.152582176742212 0.218457778196149 0.051182519537543
-0.145635028126744 0.229233203424981 0.0516325978925934
-0.139738427552036 0.239517926100181 0.0525162478193522
-0.123753150350344 0.247643647785283 0.0529480210890376
-0.122769680886546 0.248598531144776 0.0531537816419319
-0.118790126124078 0.26276410289151 0.05785782436919
-0.117039174817357 0.266130784084333 0.0588504852833078
-0.110744596742694 0.274103537894608 0.0608668590157988
-0.107826127206746 0.280003970159949 0.0626299797749466
-0.0892896162189823 0.290021868196177 0.0635093011682484
-0.0891626873786028 0.288948211173037 0.0630860553556157
-0.0861818270214439 0.302752445701775 0.0678097661408467
-0.0865821642505151 0.305889412378256 0.0690509775091866
-0.0707308944279706 0.316948495579287 0.0721955823921483
-0.0732351822656594 0.321336779680473 0.0740982978881221
-0.0594338291823943 0.332179153601954 0.0777381505218267
-0.0576303191120047 0.335462927938901 0.0801001434826045
-0.0491545381655939 0.337709719616297 0.0810660161292019
-0.0417109314458743 0.341826324391816 0.0837448556318868
-0.0463324704970322 0.351326162771101 0.0923778160723003
-0.0341151187562725 0.362960611782089 0.10094051250799
-0.0307458678293918 0.360323086616386 0.0983091066444619
-0.0264311298425016 0.371830549222632 0.107651901955911
-0.0188048383914642 0.3769398650272 0.11115802445568
-0.0228599787835166 0.377620698689979 0.112195440142155
-0.0120006053212314 0.384647275750153 0.11697547707519
-0.0128917386435186 0.389467078067377 0.121192020311415
-0.00678972399420041 0.391627423572787 0.123866689727074
-0.00325532411227009 0.400245134413649 0.140499524177069
0.00324060677692709 0.401017598440454 0.142071584710889
0.00814293937420086 0.401934778703401 0.145259629386225
0.00491910165397873 0.406133546371106 0.152960185067209
0.00792893774488064 0.409932418902696 0.160448716918541
0.0120219142772041 0.416611907539661 0.17236754747822
0.0153693842790005 0.417353749588813 0.17432015050921
0.0179073273632554 0.423788726073442 0.185497207978563
0.0205706316295371 0.426337117013468 0.190284035804774
0.0257639799450763 0.430902951585216 0.198952029464659
0.0218889548787913 0.433981278636473 0.203192560002132
0.0317608785790392 0.437137509936595 0.210550076891993
0.029271229821458 0.441509493869216 0.217227834497555
0.0310532967050917 0.450175608414931 0.231924604413704
0.0414432126002845 0.453742063683113 0.240072080599675
0.0477699338483887 0.45230669278168 0.239077335401796
0.0445701678394634 0.460058052136726 0.252152991862614
0.0420148058226179 0.460394471889745 0.258866797745732
0.0434829098602775 0.460201192348724 0.267964080361599
0.0441053699175443 0.460119243936973 0.278975259492684
0.0492243288770991 0.459445320282503 0.290208056913891
0.0496988162225262 0.459382852845597 0.299013076813338
0.0467550798671416 0.459770403044395 0.305791157296067
0.0500921118424845 0.459331074500901 0.31344694409585
0.0555938435758592 0.477450969485017 0.320471937428621
0.0672164478438138 0.480903338961156 0.320471937428621
-0.228398259937963 0.145992027381723 0.0515862229315247
-0.229160514777256 0.148781283946483 0.0518261565781967
-0.218572275207773 0.152981987975007 0.0512173443904617
-0.206377738192638 0.168026665350578 0.0511635840075598
-0.206385531228673 0.171917367724602 0.0514110158542491
-0.198436840036142 0.185572507672031 0.0516200943812256
-0.186771285223507 0.19287384917905 0.0512362755404657
-0.183658125544119 0.190020823061022 0.0508029657529365
-0.180969110948677 0.201912419368192 0.0516154048415163
-0.166183758422073 0.216643924874206 0.0518953294141379
-0.159820596387702 0.221516086529331 0.0518944643835156
-0.161407414731851 0.228239915593577 0.0542424981328939
-0.154651021713297 0.232572050748558 0.0539674735560751
-0.143285596860099 0.247508415237794 0.0559732504863522
-0.143186733736252 0.249522866055318 0.0566793581170739
-0.141784569393461 0.258274761080856 0.0597501122677802
-0.125288576067027 0.266639793058707 0.0603259111296292
-0.125187295789607 0.273206181062461 0.062777838184365
-0.111199733812908 0.282937391777591 0.0642575292860167
-0.11261064927909 0.281590603957586 0.0639710264621306
-0.111241182566224 0.296483623549543 0.0693547463781114
-0.0957052293705154 0.299114786105461 0.0679251624749139
-0.091149531252377 0.303637159474828 0.0689155414752874
-0.0922060393826269 0.310312858921104 0.0715887747682986
-0.0760719739103207 0.321850325308199 0.0744560229831345
-0.0726560908744299 0.328131595018177 0.076807834580439
-0.0773221735176739 0.328160099202563 0.0770670718757614
-0.0719324397351607 0.340012629990188 0.0855939080509463
-0.0578072509749883 0.347620887570001 0.0905035278660956
-0.0573775789940883 0.352405113807406 0.0945411791269393
-0.0535322734106437 0.356843326740685 0.0978992722717093
-0.0477483909958261 0.358967358631602 0.0990629728652931
-0.0512940264424319 0.366920475295278 0.106253985421088
-0.0394814478271083 0.373622688240235 0.110649823413284
-0.0352102957139007 0.374561629329416 0.110971486521759
-0.0249544085823559 0.380661464800998 0.115027895528206
-0.01901267073425 0.389790251489582 0.12340153493378
-0.0230559463502258 0.391882376590831 0.128756002426057
-0.0216603066835514 0.398696959708746 0.142284503090853
-0.0121362887742725 0.401194810456381 0.144822538749339
-0.0155751898629366 0.403513666460678 0.150477254794264
-0.00450898338116203 0.407278175618709 0.155185339668817
-0.00311814110095931 0.412206480772668 0.163157831660903
0.00178029946867664 0.41278624222664 0.163824305059086
0.0035514555268405 0.420249846751074 0.176533133770443
-0.00218043324410583 0.424577184655326 0.183380340061269
0.000660709222684048 0.427018091911272 0.187080375931444
0.0067171587986437 0.432515117594646 0.197473564078756
0.0120034014845244 0.435501483713667 0.203553753003498
0.0197067036619976 0.436372808376959 0.206667039603155
0.0141287318677027 0.442968181604445 0.216344680890665
0.0282925891378081 0.448130027583644 0.227946836482377
0.0242837117654486 0.451544076674546 0.232712609811738
0.0303807996538897 0.451724329536797 0.23433564382183
0.0298491439344152 0.457922230063534 0.244453966114478
0.0440321433190973 0.460128884400438 0.252514756676888
0.0326630328677003 0.461625656014359 0.262867648749913
0.0350454022781817 0.46131201116741 0.280817890596116
0.0359617704198405 0.461191369026743 0.284559583733744
0.0346898112861672 0.461358825604237 0.298904555277196
0.0310936798915645 0.461832265229473 0.312172727138016
0.0332170742507134 0.461552715090918 0.313157690969236
0.0491936960733316 0.47714306392603 0.320471937428621
0.0467487424285178 0.487446087171283 0.320471937428621
-0.239489742494085 0.148991004563981 0.0547983321052966
-0.236648564891691 0.155429502080723 0.0554757881027052
-0.230760926788036 0.162315873575357 0.0552810183050677
-0.221437230270099 0.169157664707761 0.0539663500524019
-0.212854843550478 0.176263611712836 0.0529563236545507
-0.207074003338606 0.183306552339946 0.0528347894729185
-0.205361616610937 0.192585930790558 0.0545799965739698
-0.194927056761306 0.201587883524753 0.0539418896767197
-0.180594558570045 0.216642332423034 0.0552510492586226
-0.186499703753214 0.219701905784084 0.0577006797908977
-0.170047735372458 0.229601122982736 0.0568213453639899
-0.167345104150161 0.235802334029796 0.0581533120796064
-0.165051657692662 0.240713790386063 0.0591703835803853
-0.158779326825033 0.248432613535244 0.060108152121627
-0.158169568026801 0.255409556436587 0.0622087069860359
-0.141962352171337 0.26759837392123 0.0632816631003529
-0.132770286945182 0.27042678449468 0.0629137228854263
-0.12881055901442 0.278134325066194 0.065193880393391
-0.130725647665428 0.285977214267224 0.0684394017379944
-0.121451755268473 0.288031277373235 0.0677677189719537
-0.120204793472235 0.297000865161803 0.0709444430149239
-0.108986239375885 0.308365256198821 0.0734689297975051
-0.105024193196516 0.314742970444525 0.0752489687602556
-0.0966403184015667 0.318954987248498 0.0755268034285418
-0.0900416726812068 0.327085486959569 0.0775551266697261
-0.0851547163642067 0.332542518981252 0.0807007508117543
-0.0854910760519867 0.337609969312662 0.0850664200785075
-0.0824118952555659 0.340341585067052 0.0870531372707514
-0.0746608627090796 0.349736131849635 0.0942050304569685
-0.071207456983393 0.352172488874626 0.0958975053136313
-0.0646006321192662 0.360703534577507 0.102440578500341
-0.0630888185422711 0.364808378852296 0.105776330948324
-0.0556898247917423 0.372486617641273 0.111501995809477
-0.048559829764663 0.374285590873501 0.112236726689858
-0.0425186671469937 0.379486453424118 0.115999262765427
-0.0377416028154076 0.384066828635108 0.119374004649335
-0.0404394619553917 0.389148357073311 0.127847206857099
-0.0322969542899156 0.39466616146755 0.136917744467424
-0.0382427668448069 0.394804179688962 0.138796394567789
-0.0195303077193542 0.401209978957917 0.146839537996044
-0.030438375995171 0.406003264840963 0.158854113539058
-0.02396674675705 0.406189424432226 0.157754675938727
-0.0194180911892843 0.414365425603365 0.17026598563576
-0.0108479655389861 0.418624936680918 0.175436237221451
-0.0100884748752449 0.421923436835601 0.180717578711339
-0.0103697979046683 0.423220574824146 0.182920551421415
-0.00562586415897183 0.430642248576104 0.194143875054685
-0.00325294911555078 0.432677951582067 0.196989370851359
0.00313114050713896 0.437669551035003 0.205204960432316
0.00106992404622394 0.443100156712776 0.213723834772072
0.0077135581847007 0.447588309826007 0.222578829152025
0.00771204383312792 0.446664064115992 0.221052397100664
0.0149691096260331 0.45577222166166 0.237669234082163
0.0134165906860202 0.459098115776306 0.242823417390994
0.0272297084624601 0.461157224793723 0.249226128077166
0.0231145942317633 0.462882731664089 0.259178411239394
0.0157400546717358 0.463853608103927 0.271585592159323
0.0238895258355608 0.462780709994737 0.277042737199636
0.0202597889503187 0.463258573866239 0.283990648309513
0.0259525196615119 0.462509111736318 0.302616465202937
0.0251868502539293 0.462609914014544 0.311665926474425
0.0259598691576955 0.46715729034774 0.320471937428622
0.033019622519628 0.480097476739802 0.320471937428621
0.0513778560343006 0.493242259903555 0.320491109509114
-0.246833351838714 0.150001028614517 0.0574183153155734
-0.245897746138629 0.156768653805758 0.0587922238785821
-0.233629572734962 0.167367729803489 0.0574577375586539
-0.227348800695309 0.178476001094385 0.0581815508588443
-0.226810768543385 0.183606696996733 0.0592784150698047
-0.207943677362242 0.192861406408114 0.0554814749389237
-0.202961242800466 0.20376452796198 0.0566337939556238
-0.197995318572187 0.20824543186748 0.0568501456467844
-0.192610333183572 0.211716956431055 0.0566369874947572
-0.193438304016596 0.219563838111723 0.0593743018389022
-0.183665849270069 0.221869262565055 0.0576983768137682
-0.177875926325633 0.239174508633817 0.0618492611066604
-0.173458914022062 0.239578188209274 0.0608857662348277
-0.16984504566495 0.250910661255219 0.063648009533903
-0.161121306547226 0.254191346586368 0.0625465027481975
-0.159483413274408 0.268385271188769 0.0667214752912977
-0.143624539512874 0.277439592426608 0.0672388023445733
-0.140079984374411 0.279761941134557 0.0675597960938471
-0.137352386242237 0.285680208383909 0.0693593312136629
-0.132003451443185 0.297416760184576 0.0729373683941485
-0.121922350799594 0.303468178525871 0.0736422651436126
-0.117812445373979 0.311848910377612 0.0761520351951752
-0.111016713524832 0.316631472776187 0.0768915018140443
-0.109527198751629 0.325077437242413 0.081936146713041
-0.103208686607134 0.32666484317739 0.0811165776686984
-0.0921855977799871 0.336086043845184 0.0849806425743074
-0.0969204620337717 0.341363824444196 0.0907417977201152
-0.0957949093278153 0.344685062828198 0.0930139554827031
-0.0810137186144513 0.351918540959686 0.0967832145941765
-0.0805787099999504 0.358907418715026 0.102703145753287
-0.0762393094761304 0.360821273258442 0.103849758814815
-0.066060826551375 0.365110057493165 0.106368144872294
-0.0602759952715881 0.373999882070113 0.113310055759848
-0.0580888471134717 0.380222354673925 0.118378433051245
-0.0570525935001061 0.384617488297309 0.123065483673711
-0.0562629165125925 0.388245829858881 0.130256055610475
-0.0479196437334602 0.395352112975245 0.142513542217301
-0.0410959442153789 0.396026066593035 0.142055705476362
-0.0499963903041869 0.399060954866521 0.150638282505098
-0.0437351188033121 0.404893922189508 0.159912866363016
-0.0371484268682148 0.407847007677225 0.16335712921024
-0.030894073416099 0.412533471236946 0.169735768778118
-0.0331382430433009 0.415986547299306 0.175925288642995
-0.0261309033619677 0.421815939370956 0.184027430963608
-0.0227351303559787 0.425163066450377 0.188815981739362
-0.028634025423884 0.42784997941321 0.194534897825682
-0.018712530816008 0.433235818632364 0.201271163628993
-0.0191859295952548 0.436559918729512 0.206862784586398
-0.00849055460908653 0.442113404780114 0.213707638308814
-0.00498808473512289 0.445723443119724 0.218907110757339
-0.00351713060255053 0.448792353028409 0.223654695690689
0.00105860084288244 0.455413549758263 0.234053092566724
-0.00189516050234442 0.460817434809976 0.243157770282973
0.00534652667857637 0.464659683579313 0.250252313925105
0.0135805998972202 0.464137905685683 0.253471496106904
0.00736806490543944 0.464955801339519 0.267838059397026
0.00257793799906475 0.465586433437886 0.285090659312431
0.00980111004222669 0.464635484907403 0.280403851546427
0.00434124307877012 0.465354289946867 0.307503193101308
0.00926400904404111 0.464706195587128 0.308929186725515
0.0153902683298383 0.466722166566672 0.320471937428621
0.0111137778995165 0.473261100672491 0.320471937428621
0.0261760918472004 0.483745903062421 0.320471937428621
-0.254453308317132 0.152748850953751 0.0605578033358898
-0.251782658287848 0.16268338876182 0.0621560013583395
-0.243772862648492 0.173310076403809 0.0622025843768457
-0.241961507818241 0.176890713851 0.0625046965234842
-0.230017879564752 0.19336628383591 0.0627301179723833
-0.224517899687324 0.192207795484049 0.0606683335132631
-0.224173234600267 0.204624460098221 0.0636317953315194
-0.215098303942033 0.206181632344544 0.0610887976632
-0.20338594786384 0.216591700606428 0.0608784515814021
-0.200018120625639 0.222752488816227 0.0620326534741545
-0.194446005268606 0.229786817868933 0.0629229187858177
-0.19266109604857 0.245869454915129 0.0676709975575679
-0.179724028269993 0.241300085807116 0.0629928497311151
-0.182352099428181 0.249591532438193 0.0663193825080128
-0.164701209271715 0.267263961179836 0.0676516767243276
-0.172913406177026 0.269309149064815 0.0703452384528577
-0.161524599507147 0.278986279791582 0.0706480047006178
-0.15569050981315 0.279902766730691 0.0700427200193831
-0.144008502680151 0.293078496631994 0.0731757770601387
-0.139585034337004 0.298007182615105 0.0743394345219751
-0.140500793584161 0.309664881476476 0.0798805762579994
-0.136959822185331 0.313329719711452 0.0816299427814936
-0.123075949577954 0.32089294925821 0.0830722884770691
-0.118421746019918 0.327748403679654 0.0869939189849593
-0.121346753371771 0.330477858658163 0.0901303771365484
-0.111093972212563 0.339213922588806 0.0937031105239553
-0.109735810931804 0.346781066620033 0.0992776790091068
-0.0977504013662595 0.346348389375279 0.0949823375302431
-0.0950741891423809 0.35286522815188 0.099286527778028
-0.0864875252988574 0.3581487078752 0.102719543098376
-0.0889381909508723 0.365123694999285 0.10895206946526
-0.0814505396063154 0.373079139733727 0.114904513272552
-0.0799580363926735 0.378498392406537 0.119365005820126
-0.0675293697673891 0.383240694000468 0.123070583502623
-0.0697767225527281 0.387970148197602 0.133323441281766
-0.0699904521226529 0.389823787851361 0.137162716049858
-0.0633221793107091 0.395554699100761 0.147064025562287
-0.0599225165379013 0.39500048649607 0.145020141940908
-0.0600190452037458 0.402407144051124 0.159346577929496
-0.051921512959956 0.403443037813237 0.159296767047217
-0.0466331409047899 0.412774330204704 0.173554877260911
-0.0516372287410963 0.410575323377818 0.171011708405759
-0.0492535254211725 0.418333692579677 0.183304053210134
-0.039008561543617 0.421545179610983 0.186379739414277
-0.0325453687624245 0.427981195852087 0.195601820174984
-0.0272834139804543 0.433866405416072 0.20417554458317
-0.0375861004725149 0.434279906745816 0.207097941322012
-0.0289481886365852 0.438657386207005 0.212448245251668
-0.0250963077957001 0.445059306076621 0.222181681252566
-0.0171580890651801 0.447164886835135 0.223932756082187
-0.0190899509759099 0.452181490514334 0.232636062636105
-0.0178498084703861 0.455032072243926 0.237073321352121
-0.0101636867069269 0.45936992600466 0.242565098775633
-0.00382443619058465 0.465127726937609 0.250694261916783
-0.0128113077232292 0.464239186349788 0.271851070048853
-0.00520970882044087 0.465239955946237 0.28019271969524
-0.00682339767782692 0.46502750975337 0.28528760572034
-0.00833615951846941 0.464828350855861 0.291626623186618
-0.0113865218877817 0.464426762985152 0.309841928574476
-0.0096684446241708 0.468855043027448 0.320471937428621
0.000627070903520664 0.468004581420093 0.320471937428621
0.00391633651042274 0.475947576979757 0.320471937428621
-0.269305781883192 0.158395917327536 0.0667492437758943
-0.260159380059939 0.168309534765756 0.066252454951252
-0.25776509616585 0.175250894152457 0.0671986508567022
-0.256189998797126 0.179162321932221 0.0676589185551041
-0.238621889000462 0.18795459411671 0.0641666645257675
-0.235636034248772 0.203914692707293 0.067155227821153
-0.23222845772127 0.202129486081461 0.0656134964284539
-0.22434470437652 0.215356818506735 0.0663447422642812
-0.221194330840028 0.226533673464425 0.0684966706317504
-0.20860647407438 0.228159735420668 0.0659043399046825
-0.199812635016713 0.235910190708163 0.0662279254052301
-0.196464528006319 0.242804748141263 0.067623807076957
-0.194699728848525 0.249251648722898 0.0692672925441211
-0.185566235238256 0.257526446693427 0.069675982691359
-0.178821280323109 0.266905379910701 0.0710324555560508
-0.170727368809708 0.268611373539836 0.0695787377223671
-0.167072187951 0.280794000367966 0.072605106264047
-0.162477831681919 0.289087122315433 0.0745508059777636
-0.154779784722536 0.297777733154903 0.0766184852796876
-0.152995007566274 0.302842865790113 0.0785700215022111
-0.151464696710745 0.310523465092514 0.0841781337979448
-0.143770742174628 0.315041022340815 0.0852371008680963
-0.138972342383326 0.318025472447552 0.0860304707580754
-0.139179591152177 0.326452895726843 0.0928057279606235
-0.123552519087648 0.335416520846112 0.0947879273026724
-0.116127163826287 0.340164298897813 0.0961186587489625
-0.112001689810209 0.343433991449543 0.0973608682582487
-0.112396984833595 0.349777168212802 0.102539374167062
-0.11048628018295 0.359698862407333 0.109805657558921
-0.103705549937244 0.360032148673992 0.107835630991436
-0.0937266215167158 0.368304131183563 0.112206717070014
-0.0895327349213302 0.378885456380197 0.120772134106248
-0.0924499428346973 0.37763686152119 0.120033777245652
-0.0870525565538657 0.386083276902155 0.1341141063494
-0.0840145261638793 0.389521280720863 0.140312430628484
-0.0787776031868562 0.39048076187644 0.140863350211851
-0.0840527583417036 0.395604879938566 0.152734691545397
-0.0713964059593192 0.400022718872603 0.157882689611734
-0.069618066430879 0.404939642299107 0.165614870791906
-0.0626124019494494 0.408416759436628 0.169833330589941
-0.0663756837429352 0.412512224900904 0.17741378483804
-0.0524991571180517 0.416514001902629 0.181004947980461
-0.0620367195494014 0.419432386713785 0.187897051770196
-0.0492517381508262 0.423582850331297 0.191971007716362
-0.0406037337824154 0.430208405373884 0.20103111172776
-0.0408423175834764 0.434181849763476 0.207643877008534
-0.043506862331629 0.436651037986671 0.212300196082534
-0.0407383424804999 0.43921393736246 0.215930194124142
-0.034717492213678 0.442515084231677 0.220072175872459
-0.0281122645111898 0.447834552236524 0.227419750305061
-0.0290594278389069 0.451156439936806 0.233110706524091
-0.0290310716396915 0.455716459948499 0.240633989859356
-0.0236471803049363 0.462812616496599 0.252310139584373
-0.0255765326037631 0.462558612418484 0.260189000681163
-0.0222907361404027 0.462991195779261 0.270946901832285
-0.0215815761061687 0.463084558479707 0.286397537808892
-0.0131025599148657 0.464200842266916 0.292532385561728
-0.0282384721054377 0.462208161394308 0.311928197035123
-0.0229336501934243 0.4629065545287 0.315459360406291
-0.0214065185682541 0.47305462412101 0.320471937428621
0.00122870987230235 0.485007070664477 0.320471937428621
0.000816437495422161 0.492647858592315 0.320471937428621
-0.28191170155237 0.159497688333386 0.0713903323429031
-0.271025042803603 0.174414397004417 0.0712706636574416
-0.263861799651909 0.178902500337843 0.0700703664299631
-0.252190942955731 0.185735697621942 0.0679961120542844
-0.254226160072203 0.191723490965063 0.0701356357666909
-0.238737033253237 0.201345241056487 0.0675196959844189
-0.244965471197306 0.210700630439628 0.0718463292050793
-0.228758552353795 0.219253199811868 0.06873399192878
-0.2231074376685 0.224938207583758 0.0684555288688546
-0.215925622285655 0.238845405944826 0.0711651516878244
-0.217646915244654 0.24469538198529 0.0734792493568161
-0.212118903556869 0.243279057241386 0.0716533038552148
-0.203742714774487 0.258949881494163 0.0746363129073975
-0.198126373338471 0.26347277448177 0.0747051547542774
-0.195980438264212 0.266959895798631 0.0752991031253375
-0.187626487115054 0.281972599158052 0.0782122668953108
-0.17800125487426 0.290285647751641 0.0788460248946716
-0.172050647289431 0.291660771761281 0.077344746016079
-0.170884880514006 0.299919103442859 0.0821405609197075
-0.164193056285212 0.300830060943194 0.0806595800496255
-0.160124346465085 0.310033460538957 0.086642823448346
-0.152044230225574 0.320784899221825 0.0925357064645017
-0.142115837392547 0.326284053154438 0.0936392902946202
-0.136631153688957 0.333974242163484 0.0979514733961661
-0.139733552418593 0.338635574005758 0.102683886658582
-0.13628148976324 0.344604363198 0.106296153907821
-0.130836545173118 0.349297060752153 0.108235893158859
-0.122421186699677 0.355213632703625 0.110170450356469
-0.127252590350884 0.360338273354806 0.115841553834715
-0.115125996160179 0.368958393039082 0.118704309897726
-0.101120061509139 0.377304232161205 0.120729255072122
-0.100965016603693 0.379446638940256 0.124310705298967
-0.105751035324121 0.381530198572999 0.131673894573799
-0.0932097563304394 0.387297155061193 0.138244546151177
-0.086159037624262 0.389302568592299 0.140442226899189
-0.090788910832317 0.392739441856964 0.148697862568185
-0.0858785239273068 0.400165683627677 0.161266916989381
-0.0905349303563314 0.399894970884059 0.161832142970937
-0.0795299267761751 0.405222253388731 0.168236184270733
-0.0779456284428605 0.412086884297783 0.179226576714315
-0.0776328388486552 0.416186394225711 0.185927640636059
-0.0639118935608242 0.418197273257855 0.186265278911524
-0.0660067236824768 0.42475934184999 0.197555864137213
-0.0637365201833355 0.427257783602527 0.201187756052157
-0.0606242230400463 0.432181691769722 0.208641490683266
-0.0564140071919168 0.434848622545082 0.212129863904883
-0.0533977878091488 0.437641991366218 0.216086564526612
-0.0488821973895761 0.44616695220049 0.229181259815122
-0.0434363371968608 0.450433486375332 0.235042269946608
-0.0480357101621609 0.448711209265599 0.233198293063854
-0.0358992441395753 0.455175477117647 0.241233749555757
-0.0386764334648384 0.459158887476644 0.248414820121399
-0.0288222000375251 0.462131312145288 0.258409153252403
-0.0365794496290985 0.46111005074455 0.266267993930202
-0.0419997234583666 0.460396458075149 0.289867739485917
-0.0417321192865732 0.460431688836788 0.293668914402535
-0.0376099301904431 0.460974385389312 0.304461876339372
-0.0284168783922087 0.462184673758364 0.307302288097887
-0.0354391540986272 0.4660894842966 0.320471937428621
-0.0258006011339648 0.474989877571021 0.320471937428621
-0.0160858523036115 0.492763920163499 0.320471937428621
-0.288345308946617 0.171263703720286 0.0760799373070161
-0.280112307062803 0.173843724742852 0.0740619246248096
-0.276387221053282 0.180353626993783 0.074471813952211
-0.261913633561092 0.190968186224119 0.0724294468646583
-0.264316307816051 0.203365905462796 0.076274818217932
-0.251165630890936 0.205678358775533 0.0726035533154823
-0.251115273169079 0.214813805765148 0.0748494768678091
-0.234468455055743 0.227017426131681 0.0724992738968788
-0.228848509778592 0.236854190079867 0.073722605003775
-0.230597965180174 0.235616704670503 0.0737564636739878
-0.221508095188271 0.241818298858664 0.0735069072877285
-0.210624466508859 0.258548832012019 0.0762109902480771
-0.206959530085823 0.262946806026782 0.0767227379021109
-0.207864112925588 0.267193783228334 0.0787248654162517
-0.198151388913052 0.273697914827017 0.0780765125381334
-0.197902620977939 0.279049233565368 0.0816031990125791
-0.195393865545562 0.285572899282474 0.0847459445612851
