ply
format ascii 1.0
element vertex 866
property float x
property float y
property float z
end_header
0.299342904733394 0.12050420844476 0.125428215893539
0.301555429899246 0.106777370817366 0.123366875157643
0.310102122105986 0.107716057194932 0.129910115313977
0.315771658920574 0.101087736199797 0.132857394159682
0.320293038903128 0.0978780849715657 0.136074708744981
0.324974625275366 0.0926394122421729 0.138606365032536
0.333552646755583 0.0867889996679163 0.145521543003972
0.334547318405546 0.0889018029037142 0.14689833128202
0.342338118036939 0.0773104808287097 0.15367479265932
0.346358200258605 0.0720166005491361 0.157269345779154
0.347752433508682 0.0746831374727509 0.159157185389069
0.355769917842187 0.0711594491574018 0.167327721718504
0.366778027961178 0.0645960240545876 0.178300274157592
0.368311262816885 0.0540192568767062 0.178452549452624
0.36796029055763 0.0586856040266665 0.178737424247167
0.3787540418513 0.050900251377655 0.189304100475777
0.380494063023777 0.0394409753005455 0.189554377676768
0.387225420201955 0.0375757060610549 0.196569907741994
0.392840854973314 0.0395360616466561 0.20292316010386
0.398202919499622 0.0352366722325309 0.209422430943805
0.400178509639429 0.0265071847875117 0.211078231366012
0.405219606554788 0.0229008859552091 0.220228208184561
0.410253533851827 0.0161172033863738 0.228525609099777
0.412831066394007 0.0255235685326489 0.236171907080913
0.417461357961135 0.0142965150104092 0.242488320737733
0.42347170921769 0.0142914464157392 0.254530508977661
0.426747104505321 0.00803275504211623 0.259442663533332
0.429079572573608 0.00929774815961612 0.264450168050025
0.431900448974878 0.00275347392768192 0.268376220746818
0.435585084303409 0.00199751795102501 0.275560058009284
0.440560119685157 0.00198275528304399 0.285525125795212
0.445832717711037 -0.00343846441430593 0.296474366476992
0.447516669834451 -0.0103632111152655 0.306645211759588
0.448552661887317 -0.00578663219745309 0.309378038201742
0.449379717458896 -0.00627409515771391 0.314996784388954
0.452016446323234 -0.00364189768143802 0.329435254099454
0.452137481899603 -0.0114660616426502 0.336692376063165
0.453389479219184 -0.014967262849807 0.347491560010249
0.455559231402267 -0.00996814791426388 0.357021444990395
0.455423593938588 -0.0157068146773038 0.360929415280974
0.459114743824582 -0.0136858321767907 0.382522765355145
0.45834397250895 -0.0156637664819009 0.379305141634117
0.459377629847277 -0.0144841795864451 0.397433210699206
0.459488101952215 -0.0210349556784962 0.403719285732758
0.463299600548429 -0.0269776366355753 0.410182706784445
0.467247077822851 -0.0324384493321036 0.413038006311689
0.484210101316343 -0.041449988677381 0.413072293803219
-0.126507169424846 0.475365184093161 0.411765351516931
-0.11959564907803 0.471711377164834 0.413832310166079
-0.106056719213101 0.466423568814592 0.414972020647921
-0.105086381917522 0.46288418615317 0.414571307585539
0.151157581427732 0.254125812213153 0.106772765026771
0.156900300855543 0.245688151349317 0.104718378842849
0.163148032777131 0.235229705532259 0.101831623401489
0.169081204362765 0.230870470990283 0.10193021075587
0.174848244288294 0.224812544300343 0.101098123795371
0.183077381530735 0.225599660797293 0.10471730347689
0.195262769765431 0.210540996095495 0.101808075839641
0.206332764050758 0.201257443225789 0.102007669468348
0.207176898648728 0.20323406877041 0.103210835464668
0.222284739102589 0.197209652137167 0.108554399415025
0.222380836698144 0.193476124112476 0.107143361425726
0.229318644692399 0.179745114600846 0.105309519025283
0.238678564480567 0.176613630026407 0.108855052593116
0.242573224026065 0.168380482833721 0.107620287495115
0.256230231317435 0.164042384378047 0.112883902567897
0.259803773049991 0.154449897900207 0.110953910022161
0.265917087039969 0.152083399502092 0.113353714741415
0.273306714308087 0.151762145109735 0.117660330214977
0.279058112808089 0.13591665896314 0.117178415329803
0.282772742222174 0.13450033117622 0.119034798150458
0.289563235651401 0.130533052832283 0.122089548988758
0.301432356749226 0.123688159023811 0.127839856828662
0.30474346438842 0.121824148299184 0.13039908294609
0.308237991847471 0.121047392069344 0.133597130912426
0.320438669612878 0.114611756267515 0.143208003615013
0.321551620674784 0.103430891499352 0.13966167407462
0.328864355097836 0.10474751950908 0.14758234422941
0.332178263183242 0.104439284222674 0.150793947634403
0.336988160550879 0.0913443615455006 0.150174859851662
0.341036193739605 0.0917456260512519 0.154422658379311
0.353568426238744 0.0913133749753464 0.167816448364667
0.353242680700881 0.0812179763556167 0.166026456737683
0.359938792930789 0.0858977638268593 0.173935915135706
0.366437846619773 0.0768202475047628 0.179673104291565
0.373687031995898 0.0712394110094902 0.186719640076712
0.375042303471034 0.071147696552115 0.188172545498788
0.381569036634844 0.059263172939793 0.19353994166892
0.386143151194946 0.0538111634958351 0.197711260398861
0.39502043598221 0.0568546312886917 0.208748303021026
0.395144587338244 0.0442185080404568 0.206081860610671
0.399748820905121 0.0528595257446336 0.217169099285983
0.406513490393535 0.0463730707468322 0.229012966750126
0.408431087094253 0.0373641536736892 0.230478845169292
0.411795098315021 0.032155368943316 0.235845538619907
0.413290532964401 0.0287333757563182 0.237939347851277
0.417525484825765 0.0302611083414831 0.246828356136131
0.422769792553607 0.0275158330002615 0.256612668450875
0.425802053252411 0.0267084533785226 0.262475713409667
0.429843610197609 0.0110932749372937 0.266454813331359
0.436191691553535 0.0124264338650052 0.27952677521374
0.43699839655174 0.00977283056930907 0.280443214888248
0.442643294937774 0.00663318147193011 0.290926191930333
0.443144211149568 0.00644032760602566 0.291879050663982
0.447582089165264 0.00620955451052727 0.303610111373052
0.449154445714645 -0.00152034670741073 0.309630952889563
0.451199742892468 0.00613921549155044 0.326359140774058
0.452901383157086 0.00585256400949478 0.33684917010579
0.453731112531725 -0.00459582880151422 0.34103708874035
0.455732015031515 0.000986365188235652 0.350655875556638
0.455803961597067 -0.00768546909938857 0.356669717192488
0.458420144458405 -0.00631826060236075 0.372028595974727
0.460734213096117 -5.51048419878327e-005 0.381419166682408
0.461274976537839 -7.24006583433891e-005 0.390496232593867
0.463871240349906 -0.00275702446399754 0.407351888385308
0.461202104389428 -0.013310530148522 0.405116057705675
0.469137460762042 -0.00954613504513339 0.412484959943899
0.483045634557457 -0.0277808055993062 0.414091325667156
-0.113146841828232 0.480639024072909 0.408990856677505
-0.112530678349902 0.477634753282174 0.41149179233863
-0.105121008553652 0.470058659028895 0.414644228343426
-0.0964499925624683 0.465094612392483 0.414688602315669
-0.0905837467399472 0.461383385140879 0.413653843786591
0.158020702343727 0.253045504846156 0.108906059193839
0.167148821961924 0.250240479661442 0.111046119649734
0.17782587416783 0.246147654843132 0.113135593091341
0.181151595864162 0.24038148676191 0.111497507515441
0.193510382674955 0.224143401363631 0.108055017667592
0.200825966247535 0.224654664950341 0.111176364748813
0.208780488215923 0.209959621106085 0.106797951240621
0.212760008773057 0.213489312673684 0.110153003712104
0.216356265454539 0.204013110588213 0.108193581840179
0.231621155979707 0.200708311683574 0.114680701883715
0.237157910361289 0.187354463907897 0.112280328526741
0.241315675014862 0.183749779785759 0.112989630842743
0.252684546994317 0.184659785154943 0.119139432894396
0.253150098378486 0.181124501046039 0.117994204509529
0.261605650688977 0.176785285586795 0.120606555086182
0.271481356954905 0.164271906604774 0.120746119256591
0.273474597567602 0.155029280778892 0.118563115707354
0.282135764278004 0.161524733982137 0.125300094200876
0.285850376580475 0.152477123795749 0.125280491267267
0.297350620781295 0.143141926582721 0.131847796559933
0.300315894351632 0.143495213306198 0.134984182647377
0.307462671195446 0.137518217539441 0.13969240007086
0.309815900890026 0.124609501233008 0.136674826612307
0.319923482130624 0.11868868468726 0.144390879487132
0.324929904827503 0.124908653971401 0.152034076430194
0.329917801406251 0.11498742666284 0.152919460328787
0.336890583017333 0.106899332908685 0.156570888834881
0.339928504989229 0.108423623399044 0.16026940963544
0.348396325510245 0.0986562539429789 0.164726664026433
0.351884887980442 0.102786883664099 0.16996759085675
0.36065070482532 0.0927913696910955 0.17568766119694
0.359526461206505 0.0851993467201073 0.173390446940823
0.370276666548367 0.0845288456367826 0.184923214410636
0.372442796208876 0.0735181590943938 0.185698284998886
0.377737937898171 0.0777086309030067 0.192022664467181
0.385875085246401 0.0762579409754781 0.200617843878359
0.39181235765959 0.0684177532903746 0.20592356950222
0.392088946385487 0.0703225305440438 0.206493999913336
0.397231270204157 0.0678979546464401 0.216091649533419
0.401981062305959 0.064489895881876 0.224710207269605
0.404907710295402 0.053806167161987 0.227756196351441
0.407628576080308 0.0585764238349376 0.234466676896313
0.415180204535693 0.0511305410581571 0.247634348817405
0.416359500832707 0.0495366094765897 0.249576932519259
0.418300837062642 0.0448658239324124 0.252234800554753
0.425286064427174 0.0409362318208469 0.265195134278583
0.428714713885307 0.0300409352425507 0.269191219885685
0.433033561227395 0.0336547272065883 0.278798650418693
0.432981705071713 0.0222301395328004 0.275680878832992
0.440624145678412 0.0252069656498499 0.291780081712072
0.442974153953624 0.0185410587438122 0.294730522852496
0.445683113556299 0.0204312226088643 0.303442049907511
0.44751564577218 0.0141885615231793 0.309813796422236
0.449039253581894 0.0225230341003941 0.326336957399383
0.450206185965714 0.0211293512805454 0.332537097765455
0.453373226352809 0.0122871195029589 0.345164575227779
0.454596566366971 0.0171898598165768 0.356946367341457
0.455982284139497 0.0118145301753629 0.361221068059132
0.457387411754251 0.00653475248913739 0.36569744578227
0.459638477608196 0.0125028441336542 0.385598298027609
0.459190085440585 0.0159087207848952 0.39208222838701
0.46061236912652 0.00687657832913027 0.400403145932055
0.464605274942333 0.0108210451345952 0.409294237551208
0.475979255604269 -0.00427383991785489 0.414551949744884
0.47985688337666 -0.00200066017316537 0.414942962550274
0.486249609741803 -0.0105846673734696 0.413768135398595
-0.100689791547103 0.486152885935055 0.402659341040812
-0.102996632134297 0.477616182093251 0.412303021413699
-0.0905233833303436 0.476086716937085 0.41364394248842
-0.0877856569040385 0.468871686820941 0.414976685125719
-0.0791545416349424 0.465297742885961 0.414461988500448
-0.0763992935439048 0.46236009205073 0.413347619519945
0.161312976026795 0.267661892428425 0.117642495381096
0.170943856339518 0.259432815232116 0.117214892348661
0.182077887704588 0.250753778296497 0.117145789219057
0.184921392734501 0.241788441090681 0.113688731890156
0.191383733068685 0.239671940922667 0.115137222098964
0.208563551546399 0.227536557686161 0.115670885818341
0.213893862126542 0.223054610192241 0.115471183308831
0.226560398597109 0.213702592885078 0.117183048448454
0.229535108425441 0.215190568358341 0.119280934932688
0.23903353979445 0.204681328764932 0.120011955195388
0.246519648034852 0.199013749768349 0.121610783745466
0.253616100974023 0.186607011309737 0.12037565384197
0.252025930447611 0.19233960751118 0.121807008835206
0.265801833826821 0.180140701904286 0.124057214280544
0.277003300462214 0.168397452761725 0.125173590932001
0.275872607290242 0.177124640177308 0.128789592080124
0.28639929016657 0.161118420558881 0.128314663021635
0.29195374656578 0.157342010233196 0.132336651363068
0.298206871618213 0.160598976418868 0.139999388957326
0.302647483500257 0.15426965495594 0.141832793308787
0.307924996170971 0.138942740115593 0.14075316126371
0.314410016691074 0.14046100385238 0.147923712085182
0.319985884148711 0.142573100183866 0.154425802754792
0.321793661741008 0.135262490114232 0.15319570919353
0.327407228169474 0.129319903413441 0.156372874118493
0.336482286573074 0.124335778070211 0.163439262229319
0.341414282581175 0.128555736215618 0.170172411684784
0.348282378007458 0.115027800803853 0.171447122567504
0.358046395936692 0.110978543071472 0.1795982743047
0.356057613223351 0.10728086680068 0.176049832468056
0.364859285028208 0.0951009174460318 0.180568878126839
0.373577294407442 0.0980933813944904 0.190425092160796
0.373492982977198 0.097070328619506 0.190188206092753
0.384273904327931 0.0905717391189248 0.200924246598526
0.388115678472113 0.0867572039447498 0.204536594820808
0.390022541152245 0.0735973141661942 0.204725163931761
0.393233651247564 0.0735446391018909 0.209570854738991
0.402249168482791 0.0743941249168816 0.227860221975251
0.404011203569155 0.0662526472695349 0.229243221241018
0.406787540793622 0.0666137515560689 0.23490169924035
0.413018010832677 0.0608687291457626 0.245870732872916
0.413801953444821 0.0567062656953901 0.246343516618071
0.416209250009901 0.0543234144964781 0.250538643016965
0.424054901128985 0.0476968417067369 0.264511614745278
0.424452047845959 0.0565194312103027 0.267634858708229
0.429188341652254 0.0446356941447534 0.273990443015756
0.433124701144788 0.0438344893924815 0.281666747618175
0.438915515137268 0.0393837533772077 0.292096238781194
0.438514192223553 0.0338092114591933 0.289821477479059
0.4441786177472 0.0301326905821258 0.302009210734792
0.444913550323219 0.0298598546420492 0.306416121628132
0.446365174391494 0.0310491013187046 0.316554925343745
0.448761567452617 0.0378725958312464 0.33732642812243
0.451136507144167 0.0223202157580563 0.33939070274322
0.45206225086472 0.0229043829721607 0.345711890519288
0.453161145427266 0.0324476892692768 0.36056078904701
0.456450297290401 0.0265566332050788 0.376407591210908
0.45745729872919 0.0173820575666107 0.375141309746742
0.457521481481249 0.0285830261715334 0.387633012032053
0.458813589836936 0.0187684888147418 0.391136055644904
0.46249006835753 0.0150527555444118 0.407608885891883
0.462469266910526 0.0225579342371597 0.40865516406657
0.474220742860803 0.010022805505139 0.414420961561717
0.485085906717587 0.00509415182684256 0.414416723744238
-0.0977646637593257 0.485597141099691 0.404839405598004
-0.0926057261596336 0.48383692878891 0.408456924077105
-0.08872330846348 0.482455863647498 0.410417494004687
-0.0829649433930713 0.473927235525742 0.414540237299334
-0.0727176721650058 0.472473658485381 0.414846487917114
-0.0718668745882259 0.464403073972894 0.413844845807351
-0.0673165246079502 0.461285810717726 0.412328265483503
0.176819622037846 0.263211477463168 0.121438363148259
0.187455493618566 0.253240970886506 0.120516278263271
0.19015759268945 0.25044450399388 0.120147776975356
0.201529261476657 0.24367701408714 0.121145788450068
0.207339596108929 0.236949505349063 0.119989391662888
0.214107791481177 0.242895427210383 0.125666355742513
0.224763441718611 0.228036106257616 0.122260509343961
0.237082414646985 0.2201036653794 0.125048571369585
0.237641391000228 0.216771266046935 0.124030294310116
0.247412506309441 0.214031191727252 0.128667801325149
0.254381107965438 0.198521150897778 0.125424602029825
0.260032389092101 0.202042804942 0.13162875958755
0.267089436965983 0.195787904826749 0.133582749657694
0.270724935222033 0.194355070755171 0.135777842203325
0.280718122249581 0.176232517596228 0.1323911449454
0.289789260987852 0.173512253986307 0.13843602851088
0.292992561401423 0.174623742629192 0.141946880014261
0.300315914977982 0.163246320958911 0.143230523172114
0.307824021076881 0.168515757341868 0.15299846464462
0.309698144614828 0.15420908608791 0.148914307488432
0.32155525764793 0.148444158609102 0.158458908418434
0.321752681571039 0.150206773342393 0.159393816721406
0.329350765035605 0.147523617005675 0.165932151019897
0.330025912294658 0.145641144597823 0.165826719806721
0.338447764308467 0.139215143411389 0.17163270021351
0.341380952077893 0.128145985756488 0.169967740149836
0.350067348558943 0.129115245099616 0.179127979719235
0.356788591222666 0.121032346397417 0.182528035380453
0.362382209099368 0.117545434082165 0.1867103658489
0.37273743021133 0.108868155314152 0.193525175045245
0.371332955348688 0.11731370805155 0.195635634568139
0.379958815188373 0.10121751660964 0.197772730789067
0.387085461726807 0.0953276039235583 0.204642704979286
0.39116290803654 0.0950618366473995 0.21109784761079
0.394111952690277 0.0918463955780222 0.216158886044826
0.396149335053694 0.0960004772950759 0.221337254403725
0.399481520938774 0.0866941340272652 0.225559220258412
0.406321697681615 0.0876251296045124 0.239511148859274
0.408580026556519 0.0760118389890715 0.240972738937288
0.410522581300633 0.071865249654115 0.243771334163789
0.413491601248648 0.075255421942061 0.250614992298129
0.420144965921666 0.0789528419793991 0.264922383751381
0.421675179195283 0.0701664797089565 0.265670735372483
0.424090141037128 0.06378657754495 0.268826779747782
0.432655814912312 0.057125228861157 0.284233357047856
0.436081204287728 0.063445916878139 0.292764571437339
0.439721243368191 0.053035956714243 0.297312273120601
0.44116198788906 0.0504881113875252 0.299885939722504
0.443788699476544 0.0456494792316848 0.312429914968326
0.444412319521653 0.0548538430848617 0.324001134520062
0.446567257057878 0.0564504915383315 0.338912104528799
0.447487738803614 0.0492320320392175 0.338723938139401
0.449224499923416 0.0458876388401108 0.346897460431545
0.450429757647047 0.0479946107421646 0.356244765398515
0.453795408137066 0.0461226052849398 0.375909663316814
0.455191647159737 0.0462798748011286 0.386385689640679
0.456609321636277 0.0355115680654398 0.392402224125401
0.455157614672456 0.0465383772063596 0.392554066201854
0.458389139999309 0.0412454156374416 0.406848807427748
0.468883495606922 0.0352004036006488 0.413725613188777
0.473953662559597 0.0258828990888264 0.414641475241554
0.486935796243921 0.0169924516604817 0.413242198718835
-0.0784776847815738 0.48510052278851 0.383733787586617
-0.0847891380944881 0.485911811051458 0.40732569655851
-0.0790855289781641 0.483625135944513 0.410480905383688
-0.0798427345252831 0.485696724504929 0.408262745748192
-0.0723222642611883 0.47613350096241 0.414452259461601
-0.0575422451571738 0.469217839973774 0.414579431869129
-0.0573242507073426 0.46604379084586 0.413750694906223
-0.0545923531840007 0.464867795282486 0.413222740346979
0.181212608452407 0.280171805510402 0.135225880160678
0.188869142137676 0.269101640354337 0.130729224437029
0.203957597095609 0.2535019550362 0.127248034729686
0.212203873119703 0.251240273242949 0.130767310444048
0.211568957075387 0.252847764114304 0.131736996326838
0.220302595443767 0.247397922827991 0.132820427211977
0.230330604894055 0.237934082126306 0.131289188884542
0.239682905710396 0.229033872717214 0.131941650986609
0.242054152019655 0.222917181002666 0.129931605612518
0.25414475212999 0.222355084836717 0.140023385237958
0.258808447340666 0.214504652818077 0.138846095068862
0.266206887259719 0.202678432636694 0.137395301981432
0.268630239516883 0.209975397529095 0.144339242525123
0.281619686192293 0.193906129582464 0.144909699772053
0.288859996193308 0.182999178913441 0.143932583126463
0.293305836196689 0.178120233567056 0.144540285175774
0.301866022034396 0.182565718591276 0.154902151427859
0.303153201551693 0.174438785262952 0.150763387276835
0.309960626125713 0.168864247379549 0.155297581218806
0.319085763711412 0.165806666027019 0.16321880204384
0.322184114382338 0.165577266557152 0.166246046527075
0.323530338488284 0.16040236440173 0.165442407506102
0.335406746390279 0.150254837302784 0.173176670057104
0.340541306911926 0.143978904187241 0.175731838915586
0.345625805643972 0.149062922420718 0.182979460655208
0.349910895564932 0.140188622983898 0.183593546458235
0.356498050129719 0.133433812092632 0.187412938617061
0.363590319629859 0.125849724562592 0.191395234967244
0.371573060556971 0.125916909418133 0.199469589378664
0.37879526090004 0.11329129621067 0.201477954890532
0.376259688302141 0.118462228064132 0.201081117518521
0.386874535316569 0.108534443820406 0.208541744590141
0.390107487674159 0.114148881825586 0.218920861688384
0.39382646094167 0.0993924615464767 0.217577507742306
0.397995374267405 0.100887580631687 0.22632558458909
0.402896748035249 0.0999594636615453 0.235902102082459
0.406628964036172 0.0968018553725506 0.242547713685197
0.409498873327597 0.0897248187752456 0.246431473023054
0.41328312583627 0.0940146511197852 0.255146026669492
0.419183709821044 0.0786438125786799 0.262914697939571
0.418991262771821 0.0813151861924216 0.263233794555396
0.424579138228929 0.0858478925933538 0.275626514287597
0.42818881862166 0.0774257548664442 0.280637780641728
0.433676785735787 0.0758595385755827 0.291221378537106
0.434883893813758 0.0707753389151558 0.292298941540668
0.437900290571274 0.0616472736965015 0.295935160633167
0.440600056100568 0.0668484024772129 0.30992229590133
0.443319402718677 0.0624921095276843 0.323450628007715
0.444642503617079 0.065953568426086 0.334665096638575
0.446290738182517 0.0651785013780726 0.344413046106426
0.447564351046133 0.0623606390427307 0.350103681989957
0.449082278493716 0.0647506652518059 0.361657140775316
0.450284726500181 0.0586088186827679 0.364140212617079
0.452311260934853 0.0614084679242609 0.379240159018914
0.453778799452808 0.0569195694127754 0.384766434493059
0.455215017356533 0.0461023605326945 0.38817118256363
0.458567522608315 0.0521722952310823 0.408651984246558
0.460376469562424 0.0501221559058389 0.410316729580672
0.47535373834397 0.0430108906965812 0.41495913512033
-0.0703598973461588 0.484900519925131 0.380149467237181
-0.0772916191512819 0.489281755096525 0.402353943864174
-0.0746379634159334 0.487628306152003 0.406870299822051
-0.0679344775073151 0.483973923757273 0.411193751426717
-0.0594998501447762 0.478998958610929 0.414046901736516
-0.0524767969308111 0.478093084993844 0.414523627054328
-0.0507704779546575 0.467918870141435 0.414098706685573
-0.045223230679829 0.468791258673262 0.414147553253138
0.180288774136081 0.291871565050954 0.144739111041435
0.183950864203779 0.286611327808832 0.142618308655622
0.196789276081766 0.268630293740547 0.1355815251698
0.206695795841796 0.264742577330206 0.138796051403678
0.215339182936567 0.252559815244934 0.133991813332498
0.220832627385751 0.258047941388398 0.142390654884438
0.229705299819128 0.243252690328639 0.135477441879223
0.242725407535173 0.240797042953563 0.142387799421348
0.248568033233524 0.231543439109456 0.141299002835153
0.258810198190598 0.225874014352513 0.146398745928288
0.257386900914443 0.231786794840899 0.149093864528569
0.262834909475961 0.222399070483525 0.14757442609931
0.274846862175592 0.211362964314521 0.150641657920801
0.279350662887184 0.217234823937722 0.158439839864096
0.290887064772959 0.202887933439575 0.158896547254302
0.288155965780134 0.208266774280385 0.160105064648443
0.298450196624817 0.196244229198245 0.161030351680554
0.305560599311678 0.182411239366532 0.157997419166562
0.315466957383435 0.177979780214024 0.164653599108781
0.322430247858073 0.17481868174819 0.17035253938309
0.324495061639162 0.174915221790271 0.172474100961285
0.3321583515631 0.166410716214975 0.17664767915827
0.334479607307837 0.165606812662189 0.17865177884265
0.339086547905929 0.160684192809465 0.181240150777996
0.349617677890544 0.158936112528115 0.19112529139235
0.35136571347864 0.156621645596316 0.191920928646634
0.359929978548788 0.147406163001007 0.196705814786829
0.367273884493893 0.13594224577373 0.199321876722555
0.366733598390882 0.138725609486347 0.199939375646157
0.376395752081479 0.124353105326556 0.203677775251825
0.379937011791994 0.128094710516187 0.210716342261202
0.382924648522433 0.125643965440753 0.214399485798804
0.388383581861152 0.12277698723366 0.222375207575668
0.395529211809433 0.113900018380137 0.228852051376622
0.400527073545437 0.111314990864942 0.236184912052047
0.404038211475977 0.108521425792585 0.240580409279098
0.407003633928485 0.109689872865029 0.247021290041437
0.412512995272685 0.109488012337015 0.257684789876486
0.417821528752774 0.0988583718356569 0.265517863308229
0.41923328241454 0.097048936850325 0.267869393583097
0.423319977475171 0.0915868750526836 0.274617383194718
0.427223097447683 0.0967755386287103 0.283807239234401
0.430689263989321 0.0898598525389047 0.28892834227124
0.434175325865181 0.0949301603138841 0.297251275599078
0.437001836871339 0.0830980859999365 0.300724646762799
0.437337973856256 0.083958527034618 0.303557980346656
0.440016104515634 0.0815225216961227 0.318420306151116
0.443103214876674 0.0696173303590385 0.328001610255023
0.444891331860368 0.0730461003374007 0.3421206297914
0.44550129541404 0.0815558348753319 0.353029209990153
0.44628807756049 0.0796013885499825 0.356367268631625
0.448215960366599 0.0747773317622904 0.364517592213124
0.451081161232424 0.0672685623542019 0.376348903450521
0.451211080321118 0.0681304818388047 0.377883368388128
0.451598365664361 0.074339839406756 0.399569084914542
0.452461524050634 0.0691733946506274 0.40072269702281
0.4546870668142 0.0725086755279587 0.407350596362848
0.468058368088112 0.0605765683031834 0.414496385947342
0.474400886121841 0.0603285107989084 0.41481412565472
0.487341993532325 0.0405909131502057 0.411341367011387
-0.0500533323691243 0.483452473961047 0.368505839225118
-0.0632088794341572 0.490812826294435 0.394192759309466
-0.0570272815861914 0.489821728708396 0.389093633729243
-0.0577307556192331 0.490088776981643 0.406400219613803
-0.0570911142643344 0.484636355924883 0.411681044470778
-0.0494041070289218 0.481545854511444 0.413628237090467
-0.0414912593065706 0.473189631657985 0.414782528309975
-0.0346223294208555 0.473044229979188 0.414667824469659
-0.0337265494669825 0.468633337350249 0.413572900223222
0.188175155371149 0.296766724861301 0.154214011967123
0.190333069295209 0.297249472688151 0.156065069306992
0.206129054647114 0.275663063683406 0.147871945728259
0.210082076256281 0.279539486485922 0.153852670664812
0.219701209394564 0.266630893607433 0.149068241282088
0.228119473975411 0.26573621915401 0.153884968693906
0.234624219421812 0.254461433266626 0.14844622427017
0.244711582637782 0.245157968249081 0.147093220961341
0.247295473887782 0.250539540937627 0.153467410147703
0.260229844003432 0.234032674720645 0.153046229496916
0.266914047128247 0.227802557407644 0.15469396103614
0.274364324136591 0.233869420013933 0.165172000581085
0.276332015345303 0.225277884891228 0.161168950125732
0.286598964598479 0.21494087240865 0.163190095645822
0.290934054967694 0.220369118202672 0.17054761624833
0.302208029187575 0.200204523775743 0.16691326044996
0.306997399697034 0.19298424952902 0.166263278348895
0.315947098168656 0.196859650677445 0.176583660087094
0.315468380693336 0.195426350497596 0.175217354550307
0.326429772165409 0.186065966444341 0.179079783762232
0.32817592811144 0.178823016455669 0.17781582676847
0.337396290149107 0.179268641899473 0.187295660313487
0.340209502150973 0.172227955667927 0.187191703365918
0.353248106751471 0.164999181273168 0.197316030251948
0.356874234503463 0.15284846415139 0.195897963946405
0.362032913860428 0.162791717022867 0.205249144588211
0.366115533205244 0.159123535654845 0.208907137357339
0.371357713288658 0.14613118802557 0.208646794348739
0.376803009392431 0.140040625693293 0.214103813289426
0.378867539110226 0.146606721593067 0.223037250116791
0.384859761805101 0.136960050244681 0.226765087409167
0.393024050889997 0.131747475516965 0.237978191643955
0.392572937302273 0.134498414337875 0.239263531018824
0.396542356272231 0.12725359272021 0.241071983814749
0.406022449414795 0.118833082629311 0.252260876875366
0.405125787122127 0.129179075530777 0.258588563959043
0.409955698509489 0.122050186200926 0.262093430458562
0.417396915533815 0.111065475154285 0.267887318340099
0.421520733052099 0.111692170871427 0.276315937980115
0.422679897767644 0.114156760296574 0.279747520358011
0.427676416152016 0.102210611252887 0.286149396874138
0.433038855936345 0.0985236579483804 0.295922002605948
0.432749055703595 0.100480287791046 0.295857470260974
0.437614310755218 0.0939955051252162 0.313630831485381
0.438385635211827 0.0972920747668998 0.321229780746217
0.440343406125797 0.0907927323687344 0.328178046127133
0.442642501102189 0.0948597147987245 0.346048230445678
0.442670818323571 0.0882693062870235 0.340756716621107
0.445314654049601 0.0891300849517901 0.358139161567033
0.447523642094405 0.0864650482515034 0.369853693027612
0.447745412981006 0.0943102919338407 0.377763394496855
0.448800668677507 0.0948241758918665 0.388027727844087
0.450814171498074 0.0795301035615559 0.389371234985436
0.451499308171103 0.078921394286165 0.402747269884153
0.455337686000224 0.0892695661452345 0.41038071275198
0.461775854413367 0.0801247665556405 0.413315381716267
0.484543404060006 0.0671883191880025 0.410893623170959
-0.0434022947380439 0.483229801893287 0.365403010768697
-0.0466200950997531 0.489079494191384 0.383125934140623
-0.053456881235789 0.492387873285548 0.395311812833575
-0.0407140140806497 0.493176887639917 0.392504905758638
-0.0489007504671301 0.491743154692867 0.405414580839857
-0.0457448172614549 0.487993847957319 0.410494073515518
-0.0415049240958078 0.483325573533037 0.413373905554518
-0.02861017635362 0.481570179605341 0.414487021688908
-0.023253393930061 0.468604070212188 0.413088804730358
-0.0195528603248833 0.468039370697353 0.412624640970662
0.199369310376734 0.304459731870031 0.168307517867354
0.201228063236561 0.298083203950912 0.164022788199844
0.212968562192904 0.294824118132774 0.168999495427186
0.214921423231746 0.293170394021069 0.168865125367273
0.223846781467223 0.285378054066871 0.1680483236542
0.232429771655327 0.273600023438489 0.163554290227006
0.240717715921078 0.269627523871353 0.165620430123658
0.252416136536471 0.251347342936284 0.157782821550502
0.263653438946292 0.247767601110417 0.165131807788428
0.26497616476454 0.243486199037211 0.163433143784138
0.27340561413434 0.243382126980345 0.170660192224806
0.279862506504237 0.240686918565789 0.174458937157472
0.286403558769933 0.227216979659148 0.171174325187801
0.291911481288226 0.224528214918399 0.174155962221728
0.298941969788839 0.223309304868352 0.179431693484208
0.306454194620457 0.208410917564373 0.176038960937731
0.31629036936791 0.198797622611583 0.178167914608572
0.319367929148397 0.209872883817683 0.188187522398184
0.328614690777603 0.195996938477791 0.186975200910637
0.335012732138527 0.197023479179724 0.193194863549895
0.337088174003326 0.186826282082738 0.19014049443635
0.349659674726421 0.186912089879305 0.2028479221948
0.348593858274254 0.186852987620516 0.20174894323194
0.358495443559729 0.180856286582625 0.211487498454337
0.363900432725468 0.175659498450932 0.217560532517748
0.365781456605549 0.161927579151425 0.210452086200884
0.371286779213843 0.154096130737522 0.214674723654175
0.376555767203219 0.154614853037738 0.224914397146535
0.379466667959212 0.157453293038755 0.23254510682528
0.384356297676962 0.159589114828386 0.243327151071539
0.389582965388892 0.144772302472234 0.241626734423943
0.388453501196498 0.151461779685844 0.244691640018071
0.398812934380305 0.139301431943491 0.254629945213472
0.401624553308584 0.144999359442371 0.264286904779844
0.407651612557673 0.140743516741469 0.272249255986556
0.413751126939923 0.129360385231681 0.274834390485836
0.416441832300913 0.12109446386491 0.273465419604272
0.418433327463977 0.124347861997256 0.279700320661356
0.423110069970043 0.123734119702656 0.287958238766752
0.430657402698136 0.119149011747546 0.298504642250163
0.433516068175794 0.111940528378919 0.302687929156046
0.434235620113945 0.116587966415706 0.311458320140988
0.437287841613855 0.108997172534231 0.324023998596624
0.438296769633976 0.112073178020624 0.332937845551698
0.44001024728114 0.116188380770274 0.34715604238888
0.441003067178172 0.109749125564254 0.348070669695222
0.442064857352172 0.115289649339093 0.359363335005577
0.444247655033672 0.110552875414261 0.369193208055166
0.445403030036195 0.102780642080697 0.370026288262842
0.446987953477055 0.100925855772373 0.378478927284674
0.447862687025326 0.101948853884078 0.396877551448259
0.449538102901128 0.0984026893694264 0.404191493224321
0.454306785314304 0.0938451036325011 0.409977679011834
0.465939753118496 0.0936591455459369 0.414740803394484
0.465502529246566 0.0847306367838877 0.414564582838791
-0.0240171767856103 0.483120674271849 0.357884712527656
-0.0286565329953529 0.486234826955992 0.368408120744216
-0.0218934149829681 0.485631807272642 0.364189076165156
-0.0294757870352972 0.49165200564364 0.384017036393523
-0.0348015581331325 0.495301608541005 0.39966867346534
-0.0315890241411858 0.494785656377292 0.403884942777056
-0.0293371816507444 0.488598948844477 0.411484427481077
-0.0276090566420852 0.485446672676592 0.41327362900977
-0.0188379092766359 0.479833782473949 0.41481734315233
-0.00643286502836096 0.470019732840573 0.412785824185383
0.20155208812263 0.305417311837297 0.17058608321058
0.199221471540745 0.311145278381223 0.173996050485263
0.206481962377592 0.308812623619027 0.176799170731366
0.219920065490513 0.289668084785361 0.169153601579253
0.227523846985063 0.285954599092447 0.170989535594441
0.236429576522272 0.279962699228174 0.171718080828178
0.244290655111363 0.272646040733947 0.170606150956172
0.251646356351684 0.27231524180275 0.175205227113874
0.254620741015496 0.272814018707106 0.177612430067788
0.27045242902317 0.254038016295409 0.175181313885151
0.270994850012576 0.26206856455828 0.18098442169215
0.276029330737751 0.249367666023193 0.176906556003742
0.285036362695243 0.246618689547031 0.182876881402569
0.289289049389384 0.243862163746525 0.18472703565121
0.30029762104466 0.234364107367027 0.18794730321468
0.309127667994775 0.226353990644154 0.190270171206118
0.308911897173935 0.220767111822964 0.186372798206113
0.323054961083195 0.214594935398318 0.194515081751054
0.325396623385205 0.207673764942864 0.191945122867155
0.336979892764292 0.202887356310502 0.198792137041054
0.341789346724828 0.195022498622051 0.198301117305505
0.347824977915318 0.187394133227068 0.201199875275589
0.351288656418293 0.186388345552482 0.20427120532755
0.354942938043823 0.194223158797324 0.215192543542398
0.361907779202118 0.180105328644707 0.217278335592534
0.368608391579318 0.179403296910576 0.229247021781113
0.372400985170152 0.177527839193028 0.234878162858067
0.375338825532863 0.172624986691457 0.2365717742405
0.377511265300787 0.16620468875262 0.235662549398085
0.385606777961352 0.161774422771169 0.247352297848897
0.385366267551447 0.16589859989024 0.250092997410821
0.39249300981829 0.150361162599235 0.251383121471825
0.399072407197472 0.156635513893777 0.268521261816176
0.3996700736088 0.157186033768755 0.270063041882869
0.406399695825435 0.148669780508455 0.276042089404318
0.4091114274445 0.146120877435393 0.279134132374614
0.415478387018171 0.136104578535392 0.283275810448322
0.420084725805826 0.137589805078755 0.293025687680574
0.425317821104415 0.130572994688053 0.297370082010307
0.42646900758333 0.135142557362076 0.310982168675346
0.428012211333126 0.133758280664608 0.316679688124757
0.433190202071718 0.12417464352189 0.323778360082625
0.433807730941994 0.126952416945597 0.334165777375518
0.433477141093529 0.126855622266144 0.331988072391816
0.438563554342705 0.121217088734625 0.348148902180648
0.440829857488354 0.120496111153454 0.3597086087349
0.439740456127824 0.122687237367221 0.358640521397209
0.442980243263937 0.121444968670461 0.374650758013299
0.44547826432122 0.110612308085462 0.377000883784617
0.446353045806372 0.113415717381686 0.38941545257772
0.450262420048666 0.120703783776545 0.409443302566334
0.449419696240038 0.112592167717948 0.40736111165347
0.461114044447684 0.106415141398008 0.414277802099625
0.462602000683013 0.107157864272523 0.414570272822598
0.479976174695233 0.0927964009052319 0.41165524508437
0.0139053804243482 0.467709734540011 0.310585953894337
-0.00728795148937033 0.480212329502243 0.343446094898465
-0.0192288190882227 0.490414623309026 0.376710073200835
-0.00910882499350064 0.484937707742967 0.357473124942616
-0.0240853005204858 0.494562416958366 0.390234402700459
-0.0224908168873471 0.496390782382289 0.403019918451282
-0.0198171891092359 0.496698174551094 0.403158112029358
-0.0152492624565179 0.493147330841338 0.409402060607181
-0.0162797759841724 0.488222375464947 0.412819084707456
-0.00318277332412626 0.48105722785373 0.41490886818796
0.0032704553147299 0.471767115030534 0.413271787740023
0.0151666705257501 0.462278635239233 0.407396405656544
0.214090195576239 0.311116066843681 0.183846056771914
0.215925930010961 0.31317718165177 0.186849300373041
0.226381162976205 0.302256182885065 0.184340555615246
0.229662867270444 0.295934050514472 0.181047983363672
0.238973755850196 0.289615441084921 0.181762835400178
0.250935946673052 0.281641406330988 0.182805725291127
0.254059716166108 0.282302502919633 0.185452641414934
0.26677804004573 0.26789063708559 0.181425418443238
0.277187429149169 0.262587788470837 0.186689302843814
0.277414448610587 0.260073336529478 0.185215789418879
0.286555765481213 0.251571675864905 0.187481612861532
0.293854841479593 0.253933025374295 0.195367706090846
0.302716373527526 0.241441133941308 0.194741186992475
0.308686574975185 0.242407138766476 0.200550323941758
0.307724828277221 0.238069152793858 0.196836737539784
0.318807485352195 0.232174680435367 0.202514505719476
0.327416087140999 0.21711131111682 0.19996117466955
0.335271841679978 0.219854855414997 0.210296843495349
0.340923132966759 0.205121518603132 0.203689089539173
0.342370290497579 0.216609900228873 0.217686293748409
0.350540644825667 0.209588273274972 0.222147809489189
0.355943476274541 0.194804119036184 0.21751012640413
0.358801603907738 0.202222783618246 0.22858481047423
0.364087101861884 0.191732274379866 0.230340366462306
0.371014487792888 0.19270693139705 0.244029306608846
0.371475038340398 0.193640286491642 0.245611157079822
0.377249966100259 0.180866278982505 0.2465144550931
0.382871364749371 0.173427261408312 0.251257355061062
0.387639611468013 0.182924428650232 0.267506283897058
0.39294203122296 0.17276591056797 0.269550211179872
0.397597202640251 0.167626716886779 0.274267699883752
0.400070181391698 0.169327381878241 0.28020070615295
0.404520979314272 0.160283700349094 0.28151670526124
0.40710416555326 0.169924040277906 0.293796332901593
0.415414230039646 0.156947578182912 0.299276758300178
0.417104331538813 0.151971873027553 0.298584192611008
0.41979059166344 0.152681924904228 0.314428512093736
0.421596720266202 0.149209868425335 0.316590191713193
0.424772233149471 0.144311579023328 0.32332613202798
0.427170540440084 0.144097512487347 0.336894877352652
0.425728368560444 0.148337566272757 0.338740256864343
0.432668715491948 0.13698963619946 0.351899187485901
0.434308886597125 0.13674665915104 0.360943654922074
0.436650977587541 0.130387818169964 0.359229217983158
0.437877448425606 0.134046538418362 0.375337798137376
0.438472867853673 0.136515048108062 0.395348377641611
0.437223157723648 0.139532115253005 0.393246116444878
0.440727533348505 0.132400109462229 0.402165418195254
0.448528326675853 0.123836167318174 0.409003208346967
0.45470106707203 0.130345569435496 0.413900171428177
0.464615626087107 0.121469089166072 0.414996184337508
0.010464359564656 0.478920859848444 0.340978948329936
0.00718845890185987 0.483006114418832 0.351301881584323
-0.000206015623344581 0.491890009681654 0.373802982307498
-0.0124560019747849 0.497257817994961 0.39352390709111
-0.00622514014747069 0.497691918008292 0.404752500916708
-0.00710744995305196 0.496405911152602 0.407036767808311
-0.0066954096423177 0.493271552402114 0.410406978454004
0.00243928492170728 0.4867048292893 0.41398030657381
0.00441185686576514 0.482807625669564 0.414699918022443
0.0159432169620181 0.476824850817868 0.414812223469317
0.0227721846943135 0.468252212158901 0.41294605651631
0.213706000460751 0.317813209815487 0.189387647149323
0.218641174168458 0.322900554314598 0.19706880526215
0.226979091788113 0.316288010512269 0.196883026776207
0.238980897775416 0.30173706301013 0.192259534363595
0.247460799257266 0.304352247677167 0.200155182238913
0.259929954763066 0.286899718876085 0.193330602954386
0.258895255513241 0.291467265474165 0.196596863863854
0.271037643412614 0.284431270842585 0.198571361658804
0.277406418397552 0.272566795527483 0.193506560737708
0.288435649874598 0.26608534732053 0.19874823702376
0.29855547831503 0.256294303851463 0.201004654757296
0.294394197181997 0.262023497986068 0.201207960390096
0.306787553509804 0.256289586154343 0.209451934925439
0.311121043166716 0.247337415437497 0.205932013771671
0.320658493287855 0.23892704231961 0.210330925090529
0.322656411250802 0.239752594932745 0.21455018764987
0.328905216818807 0.236888111279497 0.22104540569051
0.333120012999911 0.230654201143019 0.220133609217358
0.340063221660127 0.227529186572246 0.227421711859805
0.347759574642403 0.217216413264964 0.227073900270636
0.354323820756175 0.219163845485359 0.239995297980677
0.36096036735497 0.208135341778698 0.237188734274167
0.36047060650128 0.211798881670438 0.240789721170656
0.3676724102958 0.199588808667728 0.243111537484309
0.372422825817366 0.203954275495322 0.255358124849393
0.378298477523033 0.191485863134923 0.256685857378875
0.380290015128256 0.192461984179701 0.261159507619265
0.385894206178378 0.189002930328215 0.268948527530301
0.392821201207462 0.184973033704032 0.278766031456111
0.392853185863046 0.191945073651435 0.284218187307367
0.399540402692277 0.18248271006299 0.289386297105114
0.402264569226564 0.175932985683779 0.289407176353689
0.407874539262914 0.176363220963984 0.302050593914046
0.41127905341734 0.167714012579888 0.301004254655522
0.41406345722407 0.16332461155821 0.306680840918944
0.412460324742108 0.176568879955961 0.329491791079286
0.418765761043303 0.161630364746355 0.330183263422026
0.419484130878847 0.16342149982821 0.338762182758042
0.42443666163807 0.153442589771264 0.343574442561363
0.422415252892654 0.165281616620485 0.360508521548526
0.423277285602523 0.165728424883273 0.366660102304341
0.427996464576456 0.159481660226689 0.379183398796642
0.430324234659026 0.154797166699443 0.381459247698571
0.432241954299258 0.151557804117105 0.39295066929391
0.433383650439127 0.160324365333128 0.408972193588732
0.438072261518192 0.154435419765654 0.410850706082381
0.442260407870433 0.149167556314216 0.412041299625288
0.450733777055588 0.139368952133769 0.413826588487605
0.463080720604576 0.131484274123126 0.414821743522922
0.473571093546342 0.120098634113164 0.413170178784022
0.0931210937064466 0.424486912273468 0.240540641399303
0.0856772535108274 0.437946741521109 0.265547688703308
0.00950710200526247 0.489362989757823 0.37012323257913
-0.00732272731062346 0.498384609983747 0.394826747149458
-0.00520695357464576 0.499287458784237 0.398762643464867
0.00151717568650605 0.499321144567454 0.4019536428336
0.00752507649977362 0.493628297240782 0.409981776745214
0.00449600381581825 0.492949105868598 0.410796752293375
0.0203511547208174 0.484034485693896 0.414087640489893
0.0283195024497719 0.484576102619567 0.413540772574221
0.0286231131713642 0.480262113974014 0.414629769970578
0.0338159432482548 0.469468213404292 0.413863974440891
0.2250090588818 0.325725437438983 0.203743230871779
0.0537423865271994 0.457854009016261 0.408103782577233
0.239778181123764 0.314651575276088 0.203967309680612
0.239171355396612 0.320122838855027 0.209772630153987
0.252541785256321 0.305074523268616 0.204154967566282
0.266704959453417 0.290995674343055 0.201375609176403
0.270088850403421 0.292561125887876 0.204978059770505
0.281732911694224 0.278942240471317 0.201485736889512
0.280040016677419 0.285061998859075 0.205096356679972
0.29064680616422 0.277231204045799 0.20933700254988
0.296630009509326 0.273239817966292 0.214019848089959
0.303954432204978 0.261589436944275 0.211429930222485
0.308637838861099 0.263894582376006 0.221775636760958
0.31369994698812 0.255388800897274 0.219427231004048
0.316693000548468 0.263751216312638 0.234515188092568
0.330085913878042 0.242302149694922 0.229599797279434
0.331104189340687 0.248529859441059 0.238894865063459
0.338770725008767 0.242808430375475 0.244148251362776
0.345724790080187 0.233919682458902 0.244362292396117
0.348770700615119 0.229282806915022 0.243541189675575
0.353913554253828 0.230401107658848 0.253163343759194
0.360349291892302 0.225765255199413 0.257778873567528
0.366573182422929 0.217754137613476 0.257901927411031
0.374013501032845 0.215059471214371 0.266917467914233
0.374647100255873 0.209212912810728 0.263578607016937
0.38096804226721 0.206058479408549 0.272941578959653
0.383073120712551 0.210956181966278 0.280660333138291
0.389300243745182 0.199119874004492 0.283133240464373
0.392504481971392 0.201181002451867 0.290710480708321
0.393992265310664 0.201968084895975 0.294097290509956
0.403109971242082 0.188686286422439 0.30404693861591
0.402999168572449 0.194615610987872 0.3178246280918
0.407636228519502 0.18613320347879 0.324425192995081
0.406637991989919 0.19047925809555 0.329136566346991
0.408876522588135 0.185670943513615 0.330586837166998
0.412582496270725 0.184071995754365 0.34846788744629
0.416372178198248 0.175612416130009 0.350145795418119
0.417736056708152 0.175601023175265 0.358130634358959
0.41749509812742 0.177256834633149 0.360744354796489
0.421255754032282 0.178080837800588 0.386163477902564
0.421889655164051 0.176550465091066 0.388573889693299
0.423459342335259 0.1731502875094 0.399880608603767
0.427439322505431 0.172547749923432 0.408083940437906
0.426837458864891 0.176450814267622 0.409106859691698
0.433785056992999 0.171872723469585 0.412592901127412
0.442034424382412 0.164473033397313 0.414370925269181
0.452515437938139 0.148481032183114 0.414819324232143
0.0915352312292687 0.440638273971785 0.272486337349851
0.0654851086041307 0.459799929780578 0.307424060730969
0.0578505105590681 0.467867431444023 0.327376188515361
0.0370346116376269 0.480313446342782 0.35479557933001
0.0311058435649414 0.487055145413246 0.371636606598319
0.0274042670238395 0.496084972399014 0.396996415348553
0.0211098133223462 0.49538810340515 0.405442228379031
0.0267491585259639 0.491433899268013 0.40961779193898
0.0325530918424328 0.486872794875705 0.412314138328756
0.0400159208383647 0.483139755938414 0.413505184053081
0.039172833410018 0.479502273888448 0.414561031930037
0.0445873244401251 0.474123911077971 0.414929158099368
0.0594208140168699 0.462724218728352 0.412582328932158
0.233145486792031 0.329653982158496 0.21764122673858
0.238442389673689 0.327934728110323 0.221401610875493
0.250386380213245 0.321783498815871 0.226233915819091
0.2619109038965 0.3060474325868 0.215181444410202
0.265701158816617 0.306545676462674 0.220643726515102
0.265440775247945 0.310767504948558 0.227092796347275
0.280253100385795 0.292648991383701 0.216265401699349
0.290154754236177 0.284388010321486 0.21735347927135
0.295306275724618 0.28166909297815 0.222268370581277
0.298357934599042 0.287170247170012 0.233929915130354
0.304829704129508 0.277574233939468 0.232500434486215
