ply
format ascii 1.0
element vertex 866
property float x
property float y
property float z
end_header
0.0408129699645939 0.26937692696818 0.0342558163264428
0.0362168000815823 0.277933052911538 0.037921475488441
0.0261067522517021 0.288985245623197 0.0426565123195796
0.0192555593913801 0.292312470265834 0.0440819788889187
0.012146872318072 0.298910313695893 0.0469086606580905
0.017436905562285 0.303837759851887 0.0490197022984948
0.00319295263487912 0.313818860337468 0.0532958563294197
0.0056081307513169 0.316674775928032 0.0545194022682889
-0.00312501481905729 0.327716204674907 0.059249827546676
-0.00592346580881022 0.330984676611689 0.0618394743404083
-0.0178307773600471 0.33870553040416 0.0695603839148914
-0.0171423270474093 0.338542432352001 0.0693972846843729
-0.0188356015551457 0.342334098976735 0.0731889787033308
-0.0250792763250069 0.352264640692925 0.0831195921661975
-0.0261382424652538 0.358781203072445 0.0896362016269057
-0.0294109238927052 0.36222769283132 0.093082716286153
-0.0384140924279191 0.366578897555027 0.0974339524466634
-0.0484614717143885 0.372585404189185 0.103440502476933
-0.0446329688072784 0.37562680646443 0.106481926725853
-0.0582604357539442 0.378234122881182 0.109089261980076
-0.0529529400594444 0.386565301991324 0.11742050128174
-0.0646579428633328 0.38828894326917 0.119144155012636
-0.071978879650132 0.396734531219606 0.127589803981181
-0.0748569817031014 0.399200801971589 0.130056092551601
-0.0765215908251182 0.405885590799592 0.136740929676201
-0.0816489278228653 0.41487955450644 0.145734958363092
-0.0831791860304684 0.417918324790065 0.148773750601378
-0.0917381037466305 0.425810377802949 0.156665860633163
-0.085486466247315 0.427316509163614 0.158172002875402
-0.0995621034444669 0.431371697186832 0.162227220196747
-0.101833293503988 0.43777383426058 0.169004752204344
-0.110183405018787 0.438167296355221 0.16989996430482
-0.112352639218701 0.444812304953594 0.185018808498606
-0.112730929862438 0.445254303199425 0.186024450931376
-0.116506162581817 0.452584066648121 0.202701261791377
-0.12122770732664 0.456215141778164 0.2109627498443
-0.116362242328947 0.456878617690387 0.212472302284261
-0.123364839386655 0.462111354785155 0.224377920715246
-0.121314547100457 0.463713807724311 0.228023850732689
-0.125478366268795 0.469558029564321 0.241320730356692
-0.132961187903425 0.469591902791811 0.249513976623282
-0.134638061727078 0.470250785103469 0.252719863051574
-0.139593696075154 0.472782451961362 0.263345825740558
-0.140694108228731 0.47598098330171 0.270900040257036
-0.135438847187622 0.484163375024654 0.281044165409704
-0.145393259046886 0.48190222249847 0.287913027173586
-0.13948551267164 0.489561652138341 0.296284436314407
-0.145583831430372 0.489090996094575 0.302294559962575
0.148070563286002 0.128342434803842 0.00127871912134632
0.145568505343125 0.142342017139833 0.00334927427724869
0.131363356104525 0.148538278803293 0.00209937348219817
0.133534452578412 0.15624074623626 0.00542227317866278
0.126210760111494 0.156602607558009 0.00398770664863373
0.117817682467211 0.165565275905189 0.0055151962346294
0.112180896760866 0.172394855121852 0.0068416844385455
0.101818295007518 0.179677731722092 0.00732402910239741
0.107504149631004 0.182973793250175 0.00976493844014237
0.095723441575557 0.191884487597286 0.010547471308952
0.0866169490274361 0.207859296603735 0.0145238321561567
0.0812100871894337 0.208812395200199 0.0137192398157831
0.0733003778584108 0.214471502585024 0.0141245625657457
0.0646009862195306 0.22207895632311 0.0150836146040742
0.0623559025857136 0.234358815233785 0.0192531781038586
0.0535701159559844 0.235877696727595 0.0199039050684488
0.0517248720674765 0.243147767200366 0.0230185857794747
0.0443925738047841 0.2451650412279 0.0238828366180252
0.0473654101837587 0.25814870913328 0.0294453659132663
0.0301803422114477 0.259025064950819 0.0298208187470608
0.0260900212992782 0.269399032137179 0.0342652867358087
0.0247072667894028 0.272331905012537 0.0355218031075525
0.0221020964133274 0.286535149608383 0.041606829675363
0.0108441621094369 0.288361794701064 0.0423894102923418
0.0091626187437258 0.295655988008862 0.0455144258315159
-0.000807442684548968 0.304364442609732 0.0492453464147149
-0.00546183137421865 0.30743282909704 0.050559920219988
-0.00914371234965037 0.313313420938129 0.0530793134013131
-0.0139941101221951 0.319230659213381 0.0556144068350699
-0.0256018525052193 0.330767276346645 0.061622072504679
-0.0218165720679788 0.334501964845423 0.0653567879860229
-0.0242901972818066 0.335601444511786 0.0664562755959616
-0.0330942637340637 0.339466122930144 0.0703209819360421
-0.034936222030758 0.346714875776384 0.0775697871534368
-0.0425520907302747 0.354145476841445 0.0850004419034779
-0.0465655437078448 0.354565312917871 0.0854202810131571
-0.0563482074620758 0.366149241329151 0.097004293116585
-0.0538116646305433 0.367437754436986 0.0982928155337342
-0.0609905733332925 0.374265151477395 0.105120261901065
-0.0684771913212485 0.372209563798231 0.103064659370588
-0.067805342866008 0.377838094415304 0.108693230652953
-0.0715769650258533 0.38518128369051 0.116036472981601
-0.0788957186243934 0.394788898076508 0.125644156781175
-0.0844566596928475 0.397945228321594 0.128800509830275
-0.0857751316458138 0.399973230820169 0.130828526980865
-0.0966408771688053 0.410086618646259 0.140941987874667
-0.0936716457529798 0.415578817956778 0.146434226865504
-0.103591086254751 0.417792383403078 0.148647808304482
-0.109038061562962 0.423287217083233 0.154142681683988
-0.112472843502644 0.431747578953599 0.162603104679203
-0.116575572732225 0.438110523140382 0.16977079285578
-0.120683903475545 0.437220024969163 0.171761784532523
-0.114079607937222 0.443742922552038 0.182585730245454
-0.122809504907145 0.446719567138449 0.192897754748151
-0.126360549756237 0.447091307380079 0.197669931353448
-0.122829308050504 0.453426196826247 0.20613500412396
-0.130502052527463 0.451589392873707 0.211244355401217
-0.131689453069554 0.453958299029824 0.217262837956075
-0.134044074664851 0.459842439703155 0.231535568339
-0.138214522611498 0.458826974610921 0.234279038690235
-0.140842806168734 0.464673615635802 0.248789200220722
-0.144777906557012 0.465449830005197 0.254795256388127
-0.140036399972637 0.472890345927219 0.264062043629117
-0.146284698329064 0.475450179404827 0.27621405204235
-0.154294896586788 0.472576030316481 0.279663312350337
-0.15674808542319 0.478200165006534 0.293535858784746
-0.157807325655826 0.478317519442117 0.294972094882869
-0.161106080602891 0.479265669992134 0.300593021186746
0.139916473899772 0.129440558074924 -3.67803984747923e-016
0.132325245600306 0.132684579022476 0.0
0.130350019922913 0.136572813794219 3.67803984747923e-016
0.118223022534663 0.149497158648619 3.67803984747923e-016
0.114385360283236 0.155188242209289 0.000929789794855029
0.101546244710566 0.169196296760923 0.00337685688042451
0.0989390568256752 0.173218835129355 0.0043108349523388
0.102197007225081 0.178507857163153 0.00697109893587688
0.0933493339698155 0.181126360310922 0.00604735169427654
0.0777794585520673 0.191564522920851 0.00658492935478082
0.0802142303692293 0.191072080146807 0.00692377846386078
0.0721970282988257 0.202591013997793 0.00948022890156812
0.0705548393071808 0.208272253728695 0.0112363448821167
0.0617275284698672 0.224514989135116 0.0153719178914584
0.050547911202197 0.22474937011612 0.0151362505632314
0.0483814595614451 0.235593188243221 0.0197820144909474
0.0413240702301996 0.232809070099535 0.0185892283808491
0.0393163296935596 0.24301947187492 0.0229636208411043
0.0388291180073589 0.25152365960386 0.0266070283680989
0.0280957184027818 0.255488289400185 0.0283055753078054
0.024465586223588 0.258245770021443 0.02948694923454
0.01562371686641 0.265331213180726 0.0325225309692633
0.0157715344518511 0.276517657111604 0.0373150843931917
0.00557672089371922 0.281868989056425 0.0396077293474951
0.00542262226094308 0.281353047297265 0.0393866869447718
-0.0102716515678543 0.291872608371406 0.0438935310102872
-0.0182495560803463 0.303264293842329 0.0487740150627112
-0.0223760166593984 0.311326448477928 0.0522280445149512
-0.0208419065492696 0.317478665467624 0.0548638087292901
-0.024395139890603 0.320792356043217 0.0562834769645244
-0.0384287614424617 0.326555464092916 0.058752537140102
-0.0362104464091927 0.334435871343685 0.065290694006769
-0.0402653268429037 0.337520746622205 0.0683755915730506
-0.0453659717868291 0.340950740276975 0.0718056100090118
-0.0488963243013057 0.349146000531858 0.0800009294734222
-0.0578124596201408 0.354420415381378 0.0852753824298005
-0.0602824674172694 0.358958156526073 0.0898131563589957
-0.0685952750470863 0.359904973436151 0.0907599801096849
-0.0663075997497465 0.36908293029374 0.0999380032766383
-0.0729202634849676 0.374023242849895 0.104878351525811
-0.0759906037077731 0.374911682317207 0.105766797411966
-0.0832074714582968 0.384145589667631 0.115000771475988
-0.0833179138071657 0.384835749220697 0.115690936015353
-0.0893187332057526 0.395620519288537 0.126475784001542
-0.104364872470765 0.397340444118083 0.128195721257289
-0.10480249965545 0.406407932205878 0.137263274856326
-0.100595576851127 0.405725367683819 0.136580705402842
-0.113546659472918 0.417532566985543 0.1492225687072
-0.118844523019743 0.414621733344222 0.149350645526367
-0.123597059607205 0.423010296707398 0.158991692448481
-0.126340956902304 0.428622003775564 0.165223566999694
-0.128197332655651 0.432417592234141 0.170846432055786
-0.133454373166628 0.434214410743466 0.180367334355654
-0.133666718981032 0.435288175597472 0.182724643628096
-0.130732717218858 0.442450994752257 0.193500491961812
-0.139441870412424 0.44156088410686 0.201654232589743
-0.140278980494025 0.445470995578096 0.210311007435237
-0.137387127803174 0.452292594835624 0.220462466368655
-0.145729859426786 0.451255358849615 0.22790946720408
-0.14807680324639 0.450723228867613 0.229530864624757
-0.143728093492917 0.459751979579476 0.242373953726665
-0.148764603832869 0.459903798662989 0.248402677428979
-0.153290146970298 0.465700640101633 0.264973053737545
-0.161467878576402 0.461149330186447 0.265308229310928
-0.156510137046519 0.469227499326933 0.275585455525447
-0.163483855988371 0.473692706260633 0.292317050589725
-0.167001697807591 0.474038236749824 0.296999811516616
-0.172000355121153 0.475699542137806 0.30595976013598
0.138996369719489 0.12157414780809 0.0
0.129413815506642 0.128884502152383 0.0
0.119473775151474 0.139100207552454 3.67803984747923e-016
0.118210402582159 0.140175135624152 -3.67803984747923e-016
0.102843840457587 0.149038227088497 0.0
0.107195174662009 0.154446451701109 0.0
0.0947686485286151 0.163572034664816 -3.67803984747923e-016
0.082526793231498 0.171524120786261 0.000166337248201664
0.0733644325950717 0.179665781684475 0.00122442080912275
0.0734704707303554 0.192060913204781 0.00584606428358823
0.0650133620269651 0.1964786998877 0.00567356368922276
0.0705277561395626 0.198232642821781 0.00750557635879459
0.057928259706943 0.207695806910701 0.00831769568387945
0.0532574762751369 0.216020102894723 0.0113964133308802
0.0419297146531275 0.220973461815375 0.0135185566502241
0.0443403153571649 0.221112342557634 0.0135780566469116
0.0335871563632393 0.229563303727092 0.0171986605795317
0.0319798251659701 0.236355857652327 0.0201087612131875
0.0217187486243854 0.245546161017029 0.0240461179039824
0.0182090672358424 0.246210026688206 0.0243305346243522
0.00883509104733139 0.255468456863663 0.0282970785512488
0.00996571568887474 0.261719149931586 0.0309750323898146
-0.00619706461850544 0.269201668889711 0.034180731365642
-0.00123893852571417 0.273509798984877 0.0360264424572009
-0.0082186272817314 0.277335131740774 0.0376653110476327
-0.0174261544038548 0.287716751461419 0.0421130575741905
-0.0258061548001629 0.289737333502695 0.0429787256488778
-0.0241531432974855 0.295109507698938 0.0452802999469516
-0.0314427482126558 0.307597396164064 0.0506304248830777
-0.0422053406933872 0.318036927652301 0.0551029822647901
-0.048459358017038 0.323663610141514 0.0575135943051908
-0.0533139139210041 0.328622097872241 0.0596379349355325
-0.0600457241597892 0.336460573608415 0.0673154108996687
-0.0635605080743679 0.335311301078344 0.066166130066277
-0.06469468209443 0.342104063505661 0.072958941570285
-0.0648719506408985 0.344445432309271 0.0753003272899332
-0.0732495236059948 0.351886426833355 0.0827413755740896
-0.0723573763828203 0.358178795644741 0.0890337898468975
-0.0890104754581493 0.360766103494172 0.0916211163892411
-0.0913519089322052 0.365636161835008 0.0964912099155192
-0.0908493318186613 0.374065616220019 0.104920725202077
-0.0980121995850203 0.380744985831612 0.111600143071116
-0.105859220911564 0.383598597741719 0.11599092991825
-0.104992082295619 0.385807039077841 0.11746993759566
-0.111148657108859 0.390029863485973 0.124205346877414
-0.107328266805905 0.396416390998521 0.127826072952787
-0.120427954106565 0.402098995178077 0.139297279059412
-0.119301710646721 0.40614917654048 0.142241738552391
-0.129020480897962 0.41252171708576 0.152619980657574
-0.130755678782491 0.414924171366651 0.15556818733872
-0.134118469929167 0.421976952354596 0.163357526691349
-0.141141794161445 0.420896419739251 0.165933438723426
-0.136984873950823 0.429075042629616 0.174257070018157
-0.13992810405299 0.431470722570251 0.182325755195063
-0.149138334213352 0.43064086241886 0.191168242904375
-0.141185756758093 0.440307591143526 0.201168609181122
-0.152799075759626 0.437680691492846 0.209203991833094
-0.149389349062537 0.445341156184934 0.220419210297294
-0.154058276971768 0.442541698869577 0.220214583553328
-0.158448084825839 0.448122318645102 0.236204503715668
-0.157482084122345 0.44942378873619 0.237669984946052
-0.162225498147635 0.452802559257113 0.249723654148824
-0.165990665264778 0.455580382323026 0.259480355895198
-0.161516604295075 0.462150138094178 0.267335648749667
-0.164687979638672 0.465728758734139 0.27799473649815
-0.168796576421052 0.46684028140104 0.284858854107923
-0.177141505942163 0.46674144379866 0.294157372388799
-0.172352269630425 0.47453506828083 0.304065625807485
0.127232031482727 0.113354287343181 -3.67803984747923e-016
0.119835891689463 0.116704179766514 0.0
0.11637106779926 0.130283340153555 0.0
0.103927710039285 0.137483149832456 0.0
0.0922472607626888 0.147395409478814 0.0
0.0901376716376705 0.146708525612161 0.0
0.0830424295641153 0.159321375026664 0.0
0.0757202160396646 0.167856887078689 0.0
0.0773144919013876 0.176615348680107 0.000938780013966397
0.0699107037793785 0.176048671417575 0.0
0.0543917854829391 0.18878060214049 0.000542086355468217
0.0532443787888348 0.201087415409612 0.00499887511610636
0.0530153349645188 0.199521832722876 0.00432814018799858
0.0406253146420405 0.204901692969826 0.00663300738315879
0.0399530942937974 0.214225009123059 0.0106273500919443
0.0334566086843217 0.226551728552779 0.0159084261670355
0.0192204835247349 0.226150612150386 0.0157365778299266
0.0157051604970335 0.232512139606781 0.0184620159030936
0.011936018448879 0.239074013919861 0.0212732875995206
0.0148880507895531 0.243723362053244 0.0232651850651818
0.00422554467253893 0.245596007879227 0.0240674735511902
-0.000542318154210384 0.256547619699547 0.0287594190033209
-0.0064452665243395 0.262988333051241 0.0315187823020544
-0.0110615215463509 0.273918518106607 0.0362015479901455
-0.0218492570404874 0.27833688520722 0.0380944873824182
-0.0254906814127729 0.286538800770892 0.0416083939250455
-0.0313925085176364 0.289397099620696 0.0428329609120065
-0.038615814408038 0.292020670328554 0.0439569644699339
-0.0376732074642717 0.306406431065824 0.0501201855349335
-0.0415855408222413 0.307411808837893 0.0505509146132397
-0.0594434500455958 0.320549088512249 0.0561792550468471
-0.0590813763642365 0.32054982900979 0.0561795722945837
-0.0657124880645518 0.32446525132314 0.0578570375131931
-0.0746686956903652 0.330139827373199 0.0609946189980075
-0.0718881265982674 0.338239061018573 0.0690939111591338
-0.0799739776588646 0.342099322652261 0.0729542006826336
-0.0884867770427067 0.344267538860987 0.0751224325563965
-0.0857368553853309 0.357573398925166 0.088428388753423
-0.0957312543202419 0.354648499692545 0.0858552085454521
-0.0984311969379273 0.360295450320265 0.0920956276375849
-0.104065472972904 0.370001785227803 0.103318779347646
-0.10695959807114 0.372773202104394 0.107165987111668
-0.113239246967944 0.381845377734493 0.118162625571822
-0.115408350185069 0.377824902680137 0.115765326328029
-0.118158225864656 0.381135474316594 0.12000733395369
-0.119686842519833 0.392398773446832 0.130526021453882
-0.122173553705711 0.396192350368542 0.135054743751336
-0.129019267396567 0.398607368955996 0.140569107884278
-0.135364390607078 0.40401737367602 0.148426927782829
-0.143959529390683 0.408399962863184 0.156519989215803
-0.144775708771329 0.417535583420594 0.164839818497265
-0.142018072745331 0.419484107297653 0.165148473891653
-0.142678891615742 0.42512627303035 0.172953993530137
-0.148961709610509 0.424711501360634 0.179284119571214
-0.154002163015577 0.427919115678683 0.191338457847808
-0.154308968536947 0.430271769838705 0.196323144634311
-0.158248521127912 0.437243673171039 0.214542230879619
-0.161236758488403 0.434954407156757 0.213430914578415
-0.163863014734877 0.438554340567535 0.223511864507788
-0.170615608035494 0.438402539669224 0.23089456794633
-0.165640234168374 0.445632692826703 0.239480807542403
-0.176671169375237 0.443336785736137 0.247505851758226
-0.175638830009123 0.448901718658525 0.257296578703192
-0.177559979774772 0.453717721199453 0.26897153172541
-0.181784778279937 0.452623788578748 0.271622219604606
-0.176957408089871 0.46176158355303 0.284135640706164
-0.179300405595903 0.464147430992193 0.291502121904866
-0.183519284356579 0.466223887448646 0.300392999668266
0.119881347853748 0.110058354032627 0.0
0.113110207954624 0.117443241332726 0.0
0.104948668037831 0.121970689920547 0.0
0.103791885190472 0.124029983633209 0.0
0.09389671190981 0.129832718642396 0.0
0.0854528688331229 0.139775400924575 0.0
0.0768017578682646 0.153924357291335 0.0
0.0673240976375315 0.164472668048468 3.67803984747923e-016
0.0643335098067236 0.166243730516357 0.0
0.0521822806631887 0.181061350091901 3.67803984747923e-016
0.0547544529465931 0.187118738394327 3.17791669246917e-006
0.0512195402680936 0.18608333352181 -3.67803984747923e-016
0.0360357012992324 0.201725906030526 0.00527242052788519
0.0353933038996526 0.20201901035284 0.00539799377816511
0.0256687754875169 0.208167419642041 0.0080321266780168
0.0214833726215343 0.208060049137181 0.00798612645811898
0.0171862070002686 0.221791820488886 0.013869162051455
0.00316162428116258 0.228282074628742 0.0166497498675948
0.00312837498577206 0.232573817785813 0.0184884403834673
0.00131861641319581 0.239874819056936 0.021616372625048
-0.00218361720063974 0.24854073219067 0.0253290673756914
-0.0112476149321167 0.247724874684472 0.0249795335373298
-0.0191265622326429 0.258910239340545 0.029771624572836
-0.0293783207433614 0.269185926000963 0.0341739867168657
-0.0217570641031442 0.265695721399165 0.0326786954412893
-0.0320939503182591 0.274110948250937 0.0362839898950778
-0.0363200123764919 0.27837809256354 0.0381121416484065
-0.0426113529327065 0.286552936671438 0.041614450099732
-0.0523264865929593 0.291494024289136 0.0437313360848098
-0.0523991396348561 0.298868062241043 0.0468905590740772
-0.0627205992109942 0.305162323833195 0.0495871787622436
-0.0725133643443977 0.320073981430836 0.0559757072452548
-0.0767489664677232 0.316505348631349 0.0544468153607915
-0.0784675673567072 0.330920841569833 0.0617756388373514
-0.0884961918686098 0.33798480231925 0.0688396506228282
-0.0916439092517349 0.339755546712682 0.0709137524442664
-0.0943708758316557 0.344239013035735 0.0761600693705833
-0.091539888329191 0.348804245469659 0.0796591719420953
-0.108173743050925 0.349214013894411 0.0873700610976073
-0.107614111053997 0.356938142378815 0.093779582896233
-0.111108990931963 0.363282353090291 0.101021322798424
-0.111680125545521 0.370905991156539 0.107909204103384
-0.110806523236891 0.37274569269697 0.109065639573476
-0.121269858248004 0.377499161272586 0.118413999161618
-0.129075665162541 0.377922300602401 0.122683382873282
-0.132519848505944 0.381427253419222 0.127440887095423
-0.13665310424707 0.391670687455765 0.138378668086882
-0.142501092341707 0.393734669732102 0.143090157258028
-0.149774601905854 0.394876387577738 0.147715702117004
-0.1487480365327 0.40252799261114 0.153828947936045
-0.155667818612773 0.401390871891734 0.156304081428245
-0.152705888440247 0.409207669565909 0.161592699913262
-0.157491512786049 0.411714732716328 0.166156725437481
-0.157649425401493 0.418015881784147 0.175974317058699
-0.160725315186861 0.422671884480991 0.188647649640678
-0.16868726909133 0.419856012039632 0.192156854848585
-0.170566768216638 0.426357375600338 0.207105255549953
-0.171229631914789 0.431148188036919 0.217299136421597
-0.168632834153344 0.433364374284957 0.218711761831973
-0.17980093625263 0.434825310669898 0.234295320411952
-0.178257587706875 0.437813803235128 0.238428109046397
-0.186391463317195 0.436752526011248 0.245590142609109
-0.186647381203641 0.442560550013285 0.257325388563873
-0.184598623034995 0.444463418286626 0.258744108079753
-0.187325629484996 0.450438201422571 0.273619068464493
-0.192029437814899 0.451822713770016 0.281698202104525
-0.197902287131404 0.449680110323224 0.284157429989469
-0.19896141053006 0.457104857665232 0.299991996191946
0.116144043001773 0.0985984425084513 0.0
0.103427441112658 0.108649671961734 3.67803984747923e-016
0.104307900698704 0.114962726925921 -3.67803984747923e-016
0.0944563917244494 0.119583359216587 0.0
0.0895034980610216 0.124708620130284 -3.67803984747923e-016
0.0759748263149904 0.138269605558012 0.0
0.0772428213559266 0.144612789454707 0.0
0.064682049208387 0.153932255812622 0.0
0.0592859461544313 0.15841298201471 0.0
0.0470161760629297 0.170926078404354 -3.67803984747923e-016
0.0476926491089437 0.171758298526318 0.0
0.0286917212443982 0.188811952857373 0.0
0.0285661385582924 0.188308347369539 -3.67803984747923e-016
0.0310771640658353 0.194015605268661 0.00196913410870419
0.022035020480327 0.203423485244192 0.00599970608199976
0.0173347813771724 0.206014672702318 0.00710983584273683
0.00878937348953721 0.21054222395464 0.00904955246675053
0.00328628266029584 0.214521609163267 0.0107544209955325
-0.00776584839354222 0.227774683842492 0.0164323709163441
-0.00886102332151704 0.234686462909635 0.0193935505940289
-0.013242232764105 0.243442222808979 0.0231447379547294
-0.0205048278715783 0.243785189131205 0.0232916733375941
-0.0320541298273087 0.257755931925504 0.0292770902964925
-0.0290402117687443 0.256438366485469 0.0287126121835277
-0.0328190889845072 0.261078226785089 0.0307004448230055
-0.0415701908084626 0.270016708286745 0.0345299147054976
-0.0549821571657629 0.276242956698476 0.0371973958396497
-0.0567203041726312 0.283408884211823 0.0402674590922739
-0.0638653862203999 0.283875983519353 0.0404675761624918
-0.0663976908076613 0.297427351792246 0.0462733225477123
-0.0722986289105544 0.302094320852935 0.0482727692610186
-0.0764170314380732 0.306425121405098 0.050128192945513
-0.0852668818613874 0.314032560225498 0.0536277809781523
-0.0914775345129571 0.322692228519005 0.0581711517036926
-0.0972473781793845 0.328626905962892 0.0640777519204595
-0.100976344223469 0.330363580002252 0.0674462631154942
-0.10077049876043 0.335701812862575 0.0719664183095389
-0.107638499992317 0.344063712852071 0.0826421138700361
-0.111745193866074 0.349993508123923 0.0898308660888617
-0.112941573525024 0.350271502365468 0.0906698120548358
-0.118738794848622 0.359320241165553 0.101404937948836
-0.118404149942968 0.361796360763078 0.103382012254237
-0.128290254477623 0.36652797578127 0.11242282864632
-0.128826106353167 0.369302091794619 0.115093228817799
-0.135169787969107 0.374628707247479 0.122878110168333
-0.138364503119953 0.379310462164863 0.128530027270463
-0.143854189305578 0.378934367452028 0.130949180265623
-0.145744196397538 0.385260892917599 0.137373161994449
-0.149260363930702 0.394116054710949 0.146800108936481
-0.156712097412189 0.392370024113172 0.149013884817848
-0.165203115315765 0.39845527325556 0.158529442863288
-0.169310582494867 0.401992846622527 0.163646841828557
-0.162556203284008 0.41410313849126 0.173846655564529
-0.170950758013438 0.41326355118025 0.181742057136483
-0.174227070732556 0.416531739794897 0.191908848351341
-0.17531524062778 0.419281381709599 0.198564645711589
-0.176860652470882 0.422674608715551 0.20700872361498
-0.179756146097349 0.421701492758711 0.208385238956556
-0.182424236698412 0.425427942603686 0.218763067594423
-0.184815261712071 0.427323620884097 0.225218357619008
-0.190303280448406 0.429797998026369 0.236337082152661
-0.195506207910636 0.434516520527296 0.251553340919436
-0.194463040101736 0.434592027634966 0.250515402708711
-0.195865972691305 0.438003214941785 0.258832783837948
-0.197585229297474 0.44250858411734 0.269665990405099
-0.201405174109476 0.448968729800406 0.286740644161765
-0.197425626205688 0.451491236152751 0.28718381258812
-0.203540851257439 0.450129185057788 0.291456767103431
-0.207289386443678 0.454731875472313 0.304790260852681
0.0994367064283919 0.0902921674473036 -3.67803984747923e-016
0.10679919108266 0.0942999675935608 0.0
0.0949036811808775 0.105208115107519 3.67803984747923e-016
0.0908820882835209 0.107937064462199 0.0
0.0741681388266505 0.128667890157654 3.67803984747923e-016
0.0674299023174299 0.125562927223209 0.0
0.0591160447413011 0.14128487482227 0.0
0.0582068643695552 0.139986749841241 -3.67803984747923e-016
0.0476740212730755 0.154788819724926 0.0
0.042643368960021 0.158117027082197 0.0
0.0388910987292758 0.16937083964077 0.0
0.0314449429330803 0.179374557940689 0.0
0.0202665778440958 0.186591147893373 3.67803984747923e-016
0.0119470180622525 0.188758630977318 3.67803984747923e-016
0.00903184915341584 0.199142219184087 0.00416550421750346
-0.000139042398508741 0.20658518903772 0.00735425936405594
0.00273681886715728 0.207067058235468 0.00756070422605423
-0.00570645096777448 0.208450171113118 0.0081532645069094
-0.0151315917023721 0.221529474626766 0.0137567664977358
-0.0134685049443007 0.228564192915072 0.0167706164242463
-0.0231116161569097 0.233996080812524 0.0190977735710736
-0.0265968568128658 0.241013882035554 0.0221043758021048
-0.0372124419509058 0.248873844300174 0.0254717809664287
-0.0445278827386791 0.25308042480325 0.0272739856632576
-0.0514078225128908 0.259662691576386 0.0300939940015398
-0.0505439337536922 0.26554160199229 0.0326126668181024
-0.0553266613944045 0.272058878784756 0.0354048318170449
-0.0685480023200038 0.282717193860455 0.0399711215803496
-0.0700950517264044 0.27909614057817 0.0384197714450011
-0.0797032249961109 0.29114520006807 0.0439441466841127
-0.0865617069396378 0.303651616905642 0.0500535382450627
-0.0862319786157147 0.308311233770704 0.0517117500830053
-0.0909990556994995 0.307417838047684 0.0524014438774204
-0.103577802324281 0.314016885023637 0.0575443940723818
-0.0969598665205717 0.322929679281746 0.0594336366888499
-0.109166662672499 0.32262040937955 0.0648356210135477
-0.109771265768539 0.32911252811641 0.0707603051167213
-0.114689975495442 0.334463225520509 0.0778535511073551
-0.117539061949642 0.343834479338732 0.0873939071334951
-0.122907219797581 0.345597211028392 0.091604586902077
-0.130176390456614 0.346209807794923 0.0957697266859789
-0.136584575917263 0.352875659094493 0.104746680836263
-0.139402699379501 0.355890054438865 0.1087663145537
-0.138605000101176 0.359069174191032 0.111120680391404
-0.139798799408696 0.371357297913128 0.122359488551465
-0.150437088094815 0.370211027833765 0.126685965144118
-0.151897021543951 0.3706370863302 0.127784917289804
-0.160544426934618 0.380016554643568 0.140231567743043
-0.16258067738842 0.383176228323638 0.143986077770129
-0.169377821759212 0.383778818364771 0.147906536563737
-0.170346347725276 0.395750821038307 0.158758936402624
-0.172769383498842 0.398697020899331 0.162521965400805
-0.179085547877861 0.401976219472315 0.168755746547387
-0.185060564778778 0.403205996255984 0.177976128148945
-0.180500865247041 0.410511162735712 0.18718304864607
-0.184661610357426 0.410504223408417 0.191902676822135
-0.189048201818033 0.413919619652626 0.203622588641554
-0.187999003510942 0.417562857471059 0.209607634972259
-0.19503165627259 0.41604790826386 0.214622993638782
-0.198622479203207 0.42015038870933 0.226791460412097
-0.194948033430044 0.426777356905534 0.235669133946769
-0.195568496145482 0.429273725011497 0.241293813491967
-0.202866022341974 0.434408017250835 0.25971213811999
-0.201273341817226 0.435517120101653 0.260085662918175
-0.206452278579722 0.440207461465784 0.27521910162766
-0.206888768003967 0.440559045958779 0.276408416890464
-0.210087855678221 0.44452978997049 0.287871669043433
-0.215558695206825 0.447095013421029 0.299149853622287
-0.224048480369552 0.44479298346886 0.304271998015983
-0.216626686272549 0.452084499265386 0.310196076495605
0.0962626225662751 0.0848950564090821 0.0
0.0967207287032679 0.0938551754345685 0.0
0.0859634144675358 0.105189957863764 0.0
0.0734231401974342 0.109360879800375 0.0
0.0753006109311239 0.105944041190086 0.0
0.0585431625528609 0.129976092456958 0.0
0.057136667475062 0.125835998350283 3.67803984747923e-016
0.0488170631019516 0.138194665958691 0.0
0.0508035023473635 0.139343838725329 -3.67803984747923e-016
0.0350877227749969 0.150971864843682 3.67803984747923e-016
0.0271945306000836 0.156697101568364 3.67803984747923e-016
0.0264533294127648 0.1627854003039 -3.67803984747923e-016
0.0093634110578644 0.178565961925244 0.0
0.0146210179213019 0.17578565794609 0.0
-0.00170998088974545 0.195939281717664 0.00279328539477503
-0.00504554301898129 0.198295252178179 0.00380264228843949
-0.0114972843805173 0.207387608448302 0.00769803598488224
-0.0198192492233174 0.207547069785034 0.00776635322493213
-0.0233188426300337 0.213964913511051 0.010515918601867
-0.0300358260699478 0.222435286949018 0.0141448392376757
-0.0352386609989168 0.224282022968022 0.0149360273118889
-0.0428201213024023 0.23360238831068 0.0189291058193429
-0.045932914908392 0.247246211492318 0.0247744622086179
-0.0486766352040289 0.243848068342585 0.0233186123703784
-0.061347933893908 0.255360833275885 0.0282509699042741
-0.0616236311635334 0.261485583072227 0.030874966483396
-0.0678578940701479 0.267421526428787 0.0334180736435909
-0.0711118748162266 0.27799215229077 0.0379467951462369
-0.0855977211226248 0.283118831714875 0.0422288221740969
-0.0822418349566233 0.284617341015233 0.0420659366792686
-0.0914119437559239 0.293440552495796 0.0473039390035025
-0.0956257021578535 0.294092913509611 0.0484486225142604
-0.101832017492384 0.300773588088079 0.0522568039810872
-0.100948103152825 0.308592074618187 0.0549683282326376
-0.114894680489491 0.310788254861248 0.0587707023900777
-0.115320262856138 0.317487219593854 0.0634669384600541
-0.115629066070727 0.32045097452299 0.0661880467860295
-0.125901510610965 0.328256207923254 0.0780838854082766
-0.131745129187743 0.335033290401322 0.0868748837994019
-0.132462402487485 0.339257779825418 0.0908920646318811
-0.136553144877055 0.343291354076139 0.0964306536110266
-0.142574730964349 0.343582383591646 0.0996935091818269
-0.143793437155938 0.353770595768331 0.109126180990926
-0.149795500797039 0.349641188008299 0.108551036633402
-0.145314050361864 0.361748041949684 0.11679521405148
-0.152478560272151 0.364986889035429 0.123182439008262
-0.161753022220086 0.369052675512215 0.131340803300025
-0.161540567081649 0.37686179271839 0.137997517705902
-0.166958489110934 0.378526151433516 0.142147885634424
-0.175701967320024 0.383752733984762 0.151046042290709
-0.184291807645391 0.387524732584593 0.158607663695073
-0.183681668504698 0.388302355410903 0.158976037908303
-0.183998475193614 0.396590247673313 0.166312019496822
-0.186000953225954 0.400075207020126 0.172877025740318
-0.188453790417139 0.4038435656763 0.183092557129428
-0.193746994093119 0.407438132793468 0.196196876934615
-0.19792326805541 0.40449847564063 0.195155553288954
-0.196685949746964 0.411710611424902 0.207958737445068
-0.207361762660517 0.412725117045214 0.222102617664543
-0.207626775879093 0.414579326078253 0.226057626504657
-0.205242914040128 0.422963212793618 0.239865306524983
-0.213909664134479 0.419871051406672 0.243631895443586
-0.215142771377248 0.423251063737256 0.25169465464591
-0.216179806538703 0.428591960301649 0.263398080331737
-0.220566615449717 0.426478731477142 0.264224654822314
-0.217431427201376 0.433944416265229 0.275368397033746
-0.221199503019224 0.43446560159445 0.280681936149476
-0.229062825379316 0.435231096880453 0.291135652440923
-0.226464820238798 0.443178892465774 0.303840448565336
0.0904218906027472 0.0803873641119467 -3.67803984747923e-016
0.0795316822095082 0.0911517193297497 0.0
0.0754071352521823 0.0968937157425368 3.67803984747923e-016
0.0670526334359897 0.10194295481415 0.0
0.0662312306193916 0.100102586470905 0.0
0.0588742740708874 0.115841447977582 0.0
0.0440110283331451 0.126913088774663 0.0
0.0421293549857687 0.134031324643813 0.0
0.0392919186354688 0.133222458533285 0.0
0.0317963423109852 0.142396247301235 0.0
0.0194499778081337 0.15631669528991 3.67803984747923e-016
0.013970773131449 0.164979190350611 0.0
0.0131955658713966 0.169434287539188 0.0
-0.000629981094561703 0.177390445689783 0.0
-0.00747935932572447 0.182654389236026 0.0
-0.0157874173510716 0.19461109137169 0.00222425530535937
-0.0199969046343254 0.204280969934783 0.00636707405123542
-0.0210333622188812 0.203529501186628 0.00604512597334743
-0.0295159217142206 0.209108695580684 0.00843539292155855
-0.0372806481642023 0.215338678236143 0.0111044738994741
-0.0365831427443223 0.221336631925077 0.0136741478428733
-0.0540940801106888 0.233317205931634 0.0188069265284451
-0.0541840665243811 0.230065404798093 0.0174137732839653
-0.0593928083256748 0.246977015787725 0.0246591320104138
-0.0639907214613533 0.244518056017191 0.023605651910715
-0.0666533642040899 0.252381449330859 0.0269745270225893
-0.0819096438910351 0.257263670217187 0.0318458260788723
-0.077154800215311 0.266953092026549 0.0344223162263283
-0.0880658544527644 0.270556538897617 0.0380965771820295
-0.0897199508363956 0.274949329786879 0.0400807495269784
-0.0997719166159922 0.288597386909395 0.0472978048117577
-0.10670096977695 0.288398726908948 0.0487083867493447
-0.10742828891518 0.297593898452013 0.0522758447824211
-0.115737240693094 0.306028354630509 0.0571851377394306
-0.116789128570532 0.3049728158502 0.0570188319133593
-0.130691263268859 0.31307153609792 0.0673283724819435
-0.128643140626801 0.319029518048735 0.071464104765442
-0.136466452198779 0.322278799748163 0.0781897696387576
-0.136731544897087 0.326305125077067 0.0818092421566016
-0.1425731958632 0.32849155942146 0.0866236101084449
-0.144080110290462 0.337454997505491 0.0951396939350829
-0.150277771641604 0.337609737845628 0.0983725570329854
-0.158094259448857 0.34045809212666 0.104747594161321
-0.152690735153585 0.349726611551466 0.110072643763442
-0.16118095283854 0.356047632910538 0.119791987901041
-0.171542260222949 0.360546975467189 0.128869252129034
-0.171476534350092 0.361979760759288 0.130077226381104
-0.177665499909081 0.366627715059115 0.137197007098854
-0.176348101742101 0.372227093000798 0.14138754183402
-0.186628645423467 0.375603627241708 0.149452036368423
-0.189407465227589 0.380573466715134 0.15514549464129
-0.194883963327348 0.383932195850229 0.160792529245276
-0.202994512294237 0.38750229607971 0.167939652858035
-0.200577295598297 0.393791445771186 0.177077702574384
-0.202572800996935 0.395501074612961 0.182716454691199
-0.20033470452473 0.401472603174265 0.191936656121215
-0.208885768250932 0.39977916363407 0.198327676116606
-0.210168577295602 0.402660580531317 0.205464545733374
-0.214001080178197 0.407605757403229 0.219568396088488
-0.210603667442803 0.411352750562275 0.223086531554134
-0.221373889508458 0.411869326298848 0.236356693072186
-0.225851356206055 0.410276530477472 0.238311860166095
-0.220114422459567 0.420913806766715 0.252745126574889
-0.229712722331434 0.414938785798667 0.251891077912594
-0.229982697362623 0.420563499164084 0.263281120725649
-0.224428883277155 0.429064398799758 0.273713196171736
-0.23330037612973 0.431814914479297 0.289225094039264
-0.236314548387605 0.430650126246073 0.290358948844422
-0.233207126791975 0.435578248875079 0.296534274496549
0.083674646433624 0.0738606025467021 0.0
0.0770965293308143 0.0740747077259075 0.0
0.0666087722882347 0.0866005817956759 -3.67803984747923e-016
0.0650490116682613 0.0926258296512729 0.0
0.0510085322743924 0.104002955756375 0.0
0.0552271150127891 0.106528481517863 0.0
0.040131826303382 0.115390389291953 0.0
0.0374383793850927 0.121025888481384 -3.67803984747923e-016
0.02936387088812 0.13060729800024 3.67803984747923e-016
0.0212037789757745 0.136460244495665 3.67803984747923e-016
0.0186446010925561 0.14184486404172 3.67803984747923e-016
0.00776424782291012 0.153951553552145 3.67803984747923e-016
0.00741451091251203 0.156556750258592 3.67803984747923e-016
-0.00994978452112072 0.167249615576373 0.0
-0.0142785513584141 0.172342870647614 0.0
-0.0174336236992264 0.18657967277379 0.0
-0.0308632781474003 0.197520649796015 0.00347078318095427
-0.0365010630023779 0.194929514729406 0.00236067586605857
-0.0406409114431922 0.205226436770322 0.00677213578022297
-0.0472048287869559 0.209401311164129 0.00856075678383666
-0.0487669717300201 0.219854747127818 0.0130392711919147
-0.0647653967037707 0.223102484491881 0.0154985900052784
-0.0662912142262669 0.230721351982032 0.018652245012164
-0.0655595631376639 0.236852162308417 0.0207702124820604
-0.0758289656170544 0.238618562504861 0.0236254296137935
-0.082671166520364 0.245955180393941 0.0278131984468704
-0.0796465827634332 0.251591003046699 0.0292563371522766
-0.0936739398747433 0.262295707499606 0.0362329077777901
-0.103501268582768 0.264823356239165 0.0392758709407846
-0.0972557948418287 0.27182374022373 0.0405353437118317
-0.103088923951013 0.275931814663691 0.0433090798282405
-0.115379659578968 0.2828714419758 0.0485166989612796
-0.117632379180356 0.294382434469121 0.0532701490797607
-0.127892326524755 0.294188917541361 0.0553961585826799
-0.127481828189296 0.304321354032283 0.0590676324554348
-0.139666740623771 0.304806551752222 0.0646584054641735
-0.13867656978331 0.313316548530318 0.0715332431092107
-0.14257316452583 0.316436719504587 0.0761837214071062
-0.144798561013819 0.316028775761629 0.0769431354929961
-0.153719166427039 0.327755402409098 0.0915591003744062
-0.151916607690882 0.330657745722457 0.093171335694275
-0.160551405805928 0.331125411163536 0.0978937790229438
-0.167253008103329 0.334938999553037 0.104547292666823
-0.164950022395905 0.345214634574715 0.112294816756198
-0.178502237917961 0.344657786742384 0.118588725620605
-0.174846871222316 0.349921130431913 0.121319251344261
-0.178937368498873 0.355634247302112 0.12831225484996
-0.185164547189673 0.363339739802847 0.138099067157411
-0.183808533714125 0.367491591419139 0.141016690471328
-0.19620918598424 0.366308927123538 0.146192836678857
-0.192689718788003 0.370320194261154 0.147906974707581
-0.206892246254866 0.377702864113338 0.161401915578979
-0.208489887576026 0.381905823997604 0.165840638339296
-0.204662794155642 0.387354128765981 0.169041334502762
-0.208508712489239 0.391273673805385 0.181139544797843
-0.215651859752808 0.392705355927811 0.192086635720106
-0.212638417082073 0.397466189641363 0.198039247119891
-0.225125750397742 0.393055123306228 0.203553400205602
-0.222478272161851 0.401846256249965 0.217863624452676
-0.226753998878102 0.398251825456356 0.215645275328405
-0.222548701634698 0.41127330156214 0.23651876482418
-0.23236237794252 0.409942928850105 0.245061530040304
-0.235403211383581 0.412682336105795 0.253918528835677
-0.239529939587944 0.409233349298703 0.251817260005854
-0.237318814126077 0.41810649212772 0.266785475138317
-0.23794386119896 0.422432061910395 0.276019622874465
-0.243080590831317 0.4193147968521 0.275720964282541
-0.246934076121517 0.423053700976029 0.287471848548758
-0.24721522916979 0.428091366543978 0.297717890520795
-0.253882591484005 0.428758611365542 0.306617479415686
0.0782580395036077 0.0606714182534175 0.0
0.0747121724334013 0.0732245141320091 3.67803984747923e-016
0.0605126873569607 0.0782559793130562 0.0
0.0618690575535154 0.0846719263327535 3.67803984747923e-016
0.0545826080256458 0.0870764442342143 0.0
0.0413225611535479 0.0986501176412249 0.0
0.0437581480019044 0.101719550942632 0.0
0.0285207837751758 0.109964560555041 0.0
0.0270764858811914 0.117659812257869 -3.67803984747923e-016
0.0194725686768088 0.133618003166621 3.67803984747923e-016
0.00844808209043601 0.140028197552275 3.67803984747923e-016
-0.00164508792076765 0.145595294678575 0.0
-0.00980737580630048 0.157838895798579 0.0
-0.0211379740951453 0.162583788196447 0.0
-0.0148163854822158 0.163901690863489 0.0
-0.0222245083346099 0.179291680033617 0.0
-0.0338880393870023 0.18340090749065 -3.67803984747923e-016
-0.041419650408381 0.194866068547237 0.00233349392875514
-0.0484433398433107 0.201145146823995 0.00502360870341699
-0.0555249929946831 0.207222094946065 0.00762712584518491
-0.0669792786278602 0.209852482384925 0.0110567224384984
-0.0632072233378859 0.213958403604655 0.0117721085810849
-0.0653303927091123 0.22452712060191 0.0161481977398239
-0.0741077202791888 0.228569956333945 0.0195284128009664
-0.0865269126708929 0.236683156100634 0.0251989760819678
-0.0921816486725247 0.242315198379264 0.0284999314090576
-0.100436442249972 0.244866627620331 0.0312148610159861
-0.0986439975655908 0.254749740784108 0.0344977989410294
-0.106310229096274 0.263764301194356 0.0394846475005052
-0.11420808434631 0.259200382159132 0.0394831299329668
-0.121549385404909 0.275096890678815 0.0469537630410598
-0.118720184829714 0.27750106319994 0.0472397257418214
-0.126508484450803 0.286817398077522 0.05236468930146
-0.130711891982044 0.28363605869334 0.0520847490716485
-0.133128873518317 0.294729418260912 0.0567184330564792
-0.140019509539069 0.305649814193642 0.0655650831687131
-0.14709698749261 0.304031074082681 0.0677019675258228
-0.150056405326256 0.309424233054739 0.0738523335542505
-0.158851436677117 0.314804452781675 0.0829093216260591
-0.161773789970382 0.312827199278573 0.0826581446945808
-0.164396454188074 0.324483334556454 0.0940640684695161
-0.169203456842951 0.320633488551134 0.0931334986325099
-0.168384599203318 0.331937020749535 0.102513283616057
-0.17625748395955 0.332573784385717 0.107001211903689
-0.184903040393157 0.334105880231651 0.112650864861705
-0.186068341452764 0.342326941999316 0.120353219376344
-0.189187617383871 0.352489622987778 0.130714072103532
-0.195196273960479 0.348254162775128 0.130050379455917
-0.196236034347131 0.35720128442948 0.138318754029999
-0.204010447262879 0.363664972272139 0.147803746888907
-0.205878910613625 0.365125398433687 0.150002760607963
-0.21436883858476 0.370658141407715 0.159039285848718
-0.217488930003749 0.37710006287429 0.166178250775031
-0.217253163827313 0.376990578568876 0.165965549960287
-0.222584882981998 0.379465984186312 0.173886891218822
-0.223748310730961 0.386178812701801 0.188437352476163
-0.222352658905265 0.392237406561444 0.198787479761033
-0.227712656951361 0.38762819104872 0.19580307906109
-0.228489547382326 0.396693788398676 0.214549699951688
-0.235899205541532 0.393264412343649 0.216221762998527
-0.237923052081876 0.399740040639902 0.231283665948782
-0.240212091099911 0.404240486088451 0.242755360463924
-0.241483814604972 0.402269899795308 0.240319247897652
-0.247106497917059 0.406995439356964 0.256026851122706
-0.243165877975072 0.412628117753534 0.262642577146825
-0.245112662421669 0.416417429950797 0.272323705128992
-0.249398387801221 0.416549096394907 0.277458620351051
-0.255030866138323 0.420155444036118 0.290972114396198
-0.254167011697209 0.425214036013754 0.299956818784323
-0.254498263741889 0.426537721585716 0.302941839826577
0.0696140365786099 0.0626401924462932 3.67803984747923e-016
0.0663941739461634 0.0573752709640231 0.0
0.0580120886599134 0.068824167343681 0.0
0.0507502676959981 0.0806858492032432 0.0
0.0388728197281039 0.0875163258362755 0.0
0.0299383951753916 0.0920085068488853 3.67803984747923e-016
0.024593462323599 0.107498240164156 0.0
0.0211105113296911 0.108268280535938 0.0
0.0121672439376113 0.121955825802917 0.0
0.00839659152755152 0.123097559238082 0.0
0.00700537803256613 0.126194863001661 0.0
-0.00501242734558822 0.139646226045427 3.67803984747923e-016
-0.00813023200202317 0.14302000058504 0.0
-0.021885791404529 0.155211426702771 0.0
-0.032109945655289 0.158950379182414 0.0
-0.0364533146496674 0.171494871145105 3.67803984747923e-016
-0.0462780957191407 0.169762865972115 3.67803984747923e-016
-0.0512930396873268 0.190113137471839 0.000372702727846037
-0.0567901102986842 0.196218010646799 0.00381531719006961
-0.0631715389402324 0.198236107880752 0.00593106792358461
-0.072630523866674 0.200520115825625 0.00880472990552592
-0.0786608284130449 0.206241024704592 0.0122191086397241
-0.0769785681861914 0.21437647879163 0.0148772207104138
-0.0810599144276594 0.222468518632765 0.0187538617779094
-0.0928698055348568 0.224294220814764 0.0219610735505602
-0.0990312844885771 0.236014855199822 0.0276296117959029
-0.103695309356729 0.240353444455673 0.0302384383346711
-0.110132376334694 0.245664576230314 0.0335879123077441
-0.10733694800101 0.252681138880056 0.0355924308350075
-0.117644535854563 0.253599284087705 0.0381411022281287
-0.117964376514679 0.262584834781156 0.0415434982559182
-0.133523487541451 0.267685481844719 0.0467689330558749
-0.136276580688564 0.274904441263145 0.0500371092051831
-0.142779385172175 0.283671465299991 0.0546828944025791
-0.15229324246355 0.282363240552578 0.0562354953242891
-0.157543695352219 0.293379058483846 0.0637003764348407
-0.160863711909 0.296507622549061 0.0680698322395109
-0.163034883902565 0.299110680486935 0.0714097566682954
-0.164892934013588 0.303545923251438 0.0761798490927721
-0.167795586264448 0.309710673540195 0.0829700546341162
-0.179251472198596 0.312160776347312 0.0908199055876259
-0.172681620849947 0.319618889743052 0.0939939185099195
-0.182230698957211 0.321511614071042 0.100407651251876
-0.191368363074886 0.327377212779191 0.11005631050999
-0.191215431151365 0.329470034968498 0.111792294271906
-0.196349147476204 0.335409773713232 0.119503172788648
-0.200856995394353 0.345345462366411 0.130361733976381
-0.197845685523868 0.346907085211082 0.130208482988547
-0.20764238779473 0.348483683779202 0.136472253790019
-0.210481580872009 0.355492422144635 0.143961649910977
-0.21632677223729 0.361144889969932 0.151779482806663
-0.222913288809027 0.361838088004495 0.155673096330888
-0.224651794991928 0.370630557174624 0.164156912379519
-0.22647173651674 0.376441935513198 0.172350035493008
-0.232047762764744 0.375813770614351 0.177455639508779
-0.234092864443185 0.378491727155135 0.185058802525837
-0.232781502594069 0.383374973987642 0.193188918925829
-0.236266142033085 0.387807491947505 0.20588689523118
-0.239210810404268 0.39013097088777 0.213814951981655
-0.242590102739875 0.392049764158356 0.221440049582814
-0.244253962692887 0.391813388400163 0.22286711774921
