ply
format ascii 1.0
element vertex 863
property float x
property float y
property float z
end_header
0.166736081468723 0.292801964041425 0.0677968206415555
0.171995939025006 0.292344632249846 0.0700307046095925
0.174703330441792 0.291354741815957 0.0705271336418741
0.180554710358574 0.298653423392923 0.0797737340648719
0.18652797303693 0.298494665918734 0.082622897982996
0.196067715305443 0.3034140054698 0.0916531073797571
0.210270687554509 0.294926067703388 0.0914038219717991
0.214226159568289 0.29654376536559 0.094782549660424
0.221921860348466 0.301047169245729 0.102530518191723
0.225674584267208 0.305362275429529 0.10814391228193
0.235215004597715 0.296606675057266 0.105331529780524
0.24645206368138 0.304651555779101 0.117917221326962
0.246085237210725 0.303928366728672 0.117107502152167
0.253744708422628 0.30327169425625 0.120368566275565
0.268067485658495 0.29993724315746 0.12464226641089
0.272151598572102 0.309309154939461 0.134800709945636
0.280236479974261 0.302904211446849 0.133296296003223
0.291899124753096 0.302284573111801 0.138591034106744
0.29405485361625 0.304541793226352 0.141623730410074
0.297290759014868 0.308473305277291 0.14664650870934
0.308038873743973 0.303783815228621 0.149516828809641
0.31465029618088 0.307455826982723 0.157078549104106
0.318428439628006 0.313235138083958 0.163240217375886
0.330906772202604 0.305370752208296 0.172383935454746
0.328923406453159 0.311528315170549 0.175480817603957
0.338123939958187 0.30690597692756 0.188351104704756
0.333883934558187 0.316486122402296 0.190895072420209
0.340350349700648 0.314420847249303 0.201286999847989
0.345867488974922 0.314989954330028 0.212805374359395
0.352551905517428 0.309559235196392 0.219798291410987
0.354228324271557 0.310339853621281 0.223989540031408
0.356383235795253 0.316092005771842 0.23477927112752
0.362538877632278 0.314592039594352 0.245201952475286
0.364825264846217 0.318770017566318 0.254459948006207
0.367815331712989 0.318129425578011 0.259622822693137
0.370533078306898 0.318851464944339 0.265799260204942
0.374230493417767 0.317386358595679 0.27141791653177
0.378872151684259 0.316118586232252 0.279121595408231
0.387002911881661 0.312902721865737 0.291484022140516
0.388899011735407 0.315866701166142 0.29859194082901
-0.0481411304600624 0.284700208955717 0.0408206950322197
-0.042925240727127 0.286807480133251 0.0417235029092745
-0.0293003040614233 0.282579280111926 0.0399120358680537
-0.0217716570419697 0.28397491714428 0.040509961811213
-0.0112565980106006 0.290244233406082 0.0431958942935863
0.000613272631692944 0.286474735493747 0.0415809467519109
-0.000450069212836638 0.292554977676903 0.044185875152148
0.0178836462594895 0.288170861733949 0.0423076098157154
0.0252762647822154 0.290207114236546 0.0431799915094514
0.0414477570741193 0.291334246553636 0.0436628832915826
0.0446099734920055 0.293954613153256 0.0447855141290999
0.0515187192772888 0.291794426685659 0.0438600360133044
0.0672593404930111 0.297691852055489 0.0463866411009605
0.0749758230601972 0.299893215953684 0.0473297606618143
0.0895454391656524 0.294130304498673 0.0471600269240246
0.0908193346723811 0.295889298225806 0.0480855455425133
0.103862656440127 0.29699333996789 0.0512892181195293
0.116500656741449 0.296681895487545 0.0538808821081864
0.127081033130907 0.296816454575384 0.0561972566029652
0.133306897981876 0.301642757421917 0.0593216037943204
0.138472441446259 0.304723712686184 0.0639895103071695
0.144429441005618 0.299375042579849 0.0623359139514019
0.153531463384771 0.30004675041853 0.0674686782763815
0.158332262797819 0.306318984137381 0.075301048309197
0.168644739719772 0.304543277054711 0.078919505469523
0.17140602712149 0.304494326541811 0.0802577664513489
0.18040533885411 0.307443227480196 0.0873112964038731
0.187875249018328 0.303897911218802 0.0879759223409529
0.191951464364729 0.309752433307501 0.0950842462261887
0.198057782870199 0.307107691410858 0.0958469973207012
0.208161186133477 0.306572631571717 0.100435356689069
0.21192596153573 0.310816173608996 0.10599279974791
0.220321944787084 0.316057678325833 0.114730130737876
0.226399502207916 0.31093551329129 0.113332974311829
0.23555477730926 0.316003069539122 0.122299309088188
0.244718872465493 0.318581776000295 0.129114631209911
0.242645003285057 0.319138037027094 0.12855942878881
0.260209006113814 0.30995863417197 0.129391840153083
0.261530675189827 0.319354513195095 0.138189808179544
0.275876026203233 0.319634548448712 0.145605054903495
0.278259662329264 0.321311288461541 0.14824899151507
0.284845126467785 0.322720090466918 0.152761814514125
0.299799159475461 0.318605925427665 0.156675887856999
0.303015317888149 0.321421707713764 0.16072253529084
0.308899779445216 0.323809339567664 0.165732552106095
0.31980561048347 0.316963631549197 0.166297151140418
0.322527314547458 0.322527314547459 0.175390540617954
0.323512415630486 0.326192919864781 0.183733897246227
0.331382486687349 0.318465983712208 0.188218535936808
0.333689727032542 0.326920989974347 0.202383206613769
0.341296161955932 0.319288294771092 0.208687877695301
0.34249258102055 0.318844867776232 0.210540851321914
0.34706005465561 0.318872114266569 0.219571582246577
0.348987726990437 0.327634310969737 0.233337815994858
0.352857172869534 0.328302663219364 0.241722483049546
0.358016438782772 0.320991427779839 0.243570955884836
0.360815852052052 0.324158097622465 0.252689342965187
0.368126979059323 0.32475552150556 0.267774798473099
0.371871464612341 0.32376846504629 0.27403003613808
0.37424913043601 0.329047051863712 0.284719949354829
0.377060966439316 0.327799850099627 0.288841553745957
0.382899056814728 0.323669997380179 0.295646749934203
0.382356935361239 0.325520180123427 0.296683340282764
-0.0496016300755742 0.292751249084865 0.0442699627508576
-0.0528657235342251 0.297166718722677 0.0461616607973243
-0.0403390789121233 0.297696821101548 0.0463887699650445
-0.0281099358937401 0.301831247219121 0.0481600619116348
-0.00836166760225967 0.295730593110611 0.0455463885301198
-0.0114518843118551 0.299892460757522 0.0473294371168192
0.0124969284036979 0.298874073956427 0.0468931346438767
0.0133877381921326 0.301600259899875 0.048061101144962
0.0249159854639546 0.302023863412018 0.0482425835244433
0.0288018182228718 0.298217945891666 0.0466120329083532
0.0430037159077322 0.300525882106106 0.0476008107250624
0.0571942780597599 0.300754386303832 0.0476987076601355
0.0635745516260886 0.308889896011256 0.0511841642667791
0.081604251405112 0.305888185394516 0.0498981560784042
0.0818841880759385 0.305933771411859 0.0499176862727039
0.0884189473989335 0.314071842066772 0.0543175676084731
0.092579929661886 0.314557104352743 0.0553889476638647
0.102777098517646 0.313753433879575 0.0572751257716057
0.113097472751262 0.313828387174794 0.0595136891809107
0.118509685050981 0.313876173372792 0.0619343807233763
0.134856144542774 0.312272192609067 0.0687185713951117
0.143466633854637 0.311010808479666 0.0719314485634409
0.149629073591775 0.310585476944667 0.0746443401177646
0.150930804895317 0.313924563431919 0.078186965087679
0.165763626984251 0.31218206177926 0.0840943681146006
0.169498619600033 0.317867292278996 0.0908854675259553
0.170398015110322 0.321523118558351 0.0945012298339965
0.180603232401866 0.317638174913957 0.0962393911493167
0.181621154444221 0.319929276391547 0.0987325222651051
0.189635646526237 0.317879385595343 0.100964526927398
0.202190719582853 0.324511875000928 0.112986054624385
0.202912587054978 0.324531066641219 0.113363611536253
0.211209622458809 0.319889994415314 0.113492843723411
0.225166507267649 0.318713908215623 0.119452808661403
0.234212236718265 0.323278458458462 0.127928751090832
0.233675102968613 0.327637178103586 0.131434971488392
0.249729238569759 0.322798430872671 0.135271588983288
0.248362873353727 0.328457205054596 0.139489079041614
0.263507625486148 0.324073294280185 0.143264904288834
0.264386186544822 0.328794316586841 0.147792742780288
0.273991398067546 0.328324947343793 0.152188894614724
0.279143250051591 0.330691852401098 0.156814653934897
0.293936923250486 0.327047281491683 0.161055230178204
0.301058838651244 0.331064720977056 0.168095443395202
0.300908664826921 0.33277780285634 0.170994497011682
0.308641086609166 0.334323363876597 0.182836338581895
0.318799496658431 0.326844060129598 0.179655442487576
0.316721383597223 0.334311160170181 0.192004511635617
0.326818082331877 0.328690744594033 0.192416159344643
0.330086127749124 0.334461974406814 0.207505529769085
0.333743418919712 0.336022576000294 0.214741101662503
0.33558276218348 0.338364984039538 0.221449028372511
0.342308005964202 0.333227946726377 0.226539486402213
0.34663476871019 0.3355793340104 0.237739885043191
0.350519793275699 0.334097206882181 0.243708843430791
0.351506827908826 0.3378400440255 0.249911578741795
0.361568768883675 0.330756699546709 0.261679517263949
0.360060466498349 0.337081675104077 0.265902912795464
0.366637050944813 0.334817881999016 0.276286081634335
0.372664819358682 0.333005415835682 0.286101298788121
0.374886576025748 0.338337849612821 0.296545265904189
0.377426589620462 0.334227852999914 0.296874530907937
0.378375066986479 0.341373150187365 0.306871962535928
-0.0602180240501109 0.300507219453895 0.0475928151763174
-0.0443242134885432 0.304503724779957 0.0493050183932208
-0.0319724792134561 0.302403238586099 0.0484051173735144
-0.0315405401853637 0.307146458169748 0.0504372317251821
-0.0250140295181432 0.312243405533802 0.0526208919385724
-0.0120006370432539 0.312746949855902 0.0528366229680124
-0.00861912523952955 0.310231479143747 0.0517589321621738
0.00342805949572253 0.311961500800792 0.0525001168735237
0.024175630615727 0.309511041162688 0.0514502784439602
0.0249816124827574 0.311596048027275 0.0523435477303867
0.0400529657956118 0.30942256514242 0.0514123730956213
0.0438230281834951 0.312579855291769 0.0527650354617046
0.0530843197616417 0.315436353330812 0.0539888309361242
0.0625116130048371 0.312173018793587 0.0525907364919526
0.0794458952813275 0.316987512982744 0.0546533866740215
0.0874767067278306 0.314710072575199 0.054352528595825
0.0983797557381295 0.317042669315826 0.0575535549880223
0.100514614479875 0.317912243725879 0.0583335041356498
0.107057902462546 0.321654888976897 0.0629450620530964
0.117148958777638 0.323857521872293 0.0698981764881142
0.12569887077164 0.319502797938493 0.0704018345708039
0.127982280510718 0.328212433022878 0.0790863674251084
0.136048365642901 0.326266167530415 0.0814339115927508
0.145054189321595 0.320122387335352 0.0806161477997279
0.152398336639716 0.324162776244777 0.0877873527060269
0.153585192951446 0.328965141905786 0.0925397858579573
0.165474594135878 0.324383232653576 0.0945164509209314
0.175616487148991 0.326679232757771 0.101575842847494
0.187030012486751 0.325788340853489 0.10651110615152
0.188936303653198 0.325152709228792 0.106913781509555
0.194232598856342 0.327317068168747 0.111436351610692
0.200398191638362 0.330546912487829 0.117316317713864
0.208634472319589 0.32718217638489 0.118520519812418
0.218901697148797 0.33400308708967 0.12956129394167
0.226127313672086 0.335689026409242 0.134634205134064
0.232536071480716 0.329409807195599 0.132400604546119
0.23793912194309 0.338766584190685 0.143205414415166
0.238172716328587 0.338297723195374 0.142916163985356
0.25614845201575 0.333761591908941 0.147975663453847
0.259729870466463 0.341661689714253 0.156608120438744
0.269873081545579 0.332738097086545 0.153951648877212
0.272430012537659 0.336801085962926 0.158748800613946
0.284292724808592 0.341493065352963 0.169264577466032
0.283666688405196 0.344721647635676 0.174913980711753
0.292096052790425 0.345070257947281 0.185190202762604
0.301336180610284 0.342175333609808 0.189997706621556
0.30353257456514 0.343718702181116 0.195537392691724
0.305513630807766 0.344412702819933 0.199158516837491
0.312985848588791 0.342206204110342 0.203311301788561
0.321419064506738 0.341454336705234 0.211423527694371
0.321244822584695 0.344026611640966 0.216293710599016
0.332904624646024 0.340953799921874 0.22350334912465
0.340036474513481 0.340171754925914 0.230075667373151
0.335043526511725 0.34807204462546 0.239962349318698
0.345742559395769 0.348648866094494 0.253270233371223
0.346551426039521 0.350679150412873 0.258190872969
0.352917506512267 0.348832046128614 0.265195776599873
0.355009403284267 0.346415653598392 0.266568733062856
0.363359524541577 0.343430637179603 0.27962600282881
0.363809386120712 0.347905401660424 0.28560294129877
0.36620591996233 0.350425721653776 0.293192202620914
0.370108938718473 0.352925767866902 0.303726773241206
0.377441733386208 0.345712851182234 0.309969808313478
-0.0629795027048882 0.309546443491852 0.0514654456905759
-0.0511890859412908 0.314617869047544 0.0536381717205199
-0.0450334225469559 0.310360893491739 0.0518143765178969
-0.0283654881286259 0.31769544789066 0.0549566837618014
-0.0281188377305901 0.316327396299321 0.0543705761141263
-0.0212324353853451 0.315652559466329 0.054081459072595
-0.00962121543692845 0.31845413981532 0.0552817264298477
0.00859680411300213 0.315467249118047 0.0540020674670374
0.0150473920223567 0.318781008305086 0.0554217650971378
0.020930698167001 0.324563026209413 0.0578989267291834
0.0382569829109052 0.324585716439174 0.0579086477932678
0.0365209219058325 0.32151286998913 0.0565921632279887
0.0549810304390452 0.32822979802978 0.0594698638340444
0.0677926554244363 0.322939396282885 0.0572033229062293
0.0800950627102105 0.329188447234718 0.060043231985948
0.0793758122530156 0.329103935629512 0.0599587197701576
0.0919840183761848 0.332163152258178 0.0645085542570755
0.0987468116973841 0.334628989830271 0.0700254687553064
0.100790127123022 0.331923236725053 0.068703865994326
0.107561150810986 0.336400231171887 0.0759666212338074
0.117781547648056 0.337603480519874 0.0821189086038209
0.125711793353343 0.337577013450537 0.0860611387838716
0.135050945540834 0.337245515184301 0.090443660620581
0.138269755937278 0.338536468789562 0.0931710841411504
0.14479841151729 0.336131414870371 0.0943525826757541
0.151191325911038 0.338730527515417 0.0997999768068592
0.158484366398677 0.33757339785067 0.102444412471048
0.170048159079797 0.336250847206567 0.107080979854286
0.177879905110277 0.339688637567541 0.113974116456536
0.181602418573883 0.343206367938591 0.118881852510735
0.184676595339772 0.339929050680633 0.1175806914914
0.200945783356132 0.341000934618389 0.126643629697484
0.205782547055275 0.337797541674941 0.126287789308851
0.208897535478112 0.341760754005935 0.131277562129603
0.211741943146322 0.346842685127693 0.137100889487798
0.221696009040366 0.345905664518091 0.141266468878505
0.233947905465409 0.340719979876474 0.142901494268101
0.241579900280021 0.343986916099613 0.149546789448103
0.244302598625548 0.350099756583732 0.156202061852396
0.250609661053584 0.351684477113132 0.160728034002008
0.267463015189355 0.343038918472933 0.161667444444624
0.267889563862699 0.347407769249345 0.165664283415367
0.273136029610687 0.348828533148032 0.171026401426105
0.270535591434614 0.354803466187055 0.179841107816634
0.28482816449788 0.345837785212806 0.178434520278496
0.292165812817132 0.348847205061204 0.192711646607682
0.290976951009144 0.351699897996961 0.196980123428102
0.303587304261835 0.347937191972491 0.203911752140412
0.310167125312683 0.34812479586464 0.211766670385328
0.307080920436552 0.356295557516739 0.224355417665904
0.314996005633709 0.354228078621773 0.229285936796156
0.323461829397424 0.351605794415871 0.233749794553668
0.323009167400012 0.354419359524694 0.238778681619078
0.32854781032992 0.357205037613039 0.250568383057969
0.337324915229798 0.35479120787018 0.255797095051701
0.34343447396171 0.351899900211788 0.257050361393265
0.340295921780744 0.35740699648645 0.264331080381408
0.350759921612296 0.357109059375244 0.275647967262633
0.356307357277626 0.358968640334274 0.285622892650998
0.357934933095768 0.359969797670398 0.289447114806353
0.361838095683886 0.36210355507492 0.298091736586295
0.364614599925199 0.362663351331951 0.303978309439378
-0.073868569892533 0.321243374535218 0.0564767046096511
-0.0538442781772129 0.3258199658383 0.0584374312225971
-0.0464248898841711 0.32180561962927 0.0567175845235204
-0.0395412527534252 0.329463616482803 0.0603184032220896
-0.0271179247926949 0.331795983708281 0.0626507872985722
-0.019442484942294 0.325535813411697 0.0583156931891837
-0.0049503438775038 0.325003527153886 0.0580876483928977
0.00318070305208238 0.328494170258544 0.0595831275341072
0.00809267700262116 0.327873855540584 0.0593173691354736
0.0197656713748639 0.331128286125964 0.061983084892239
0.027540085722533 0.332485119347284 0.0633399279164765
0.0395849230191922 0.331028377791444 0.0618831758358965
0.0488560428439695 0.332790251621556 0.0636450623952826
0.0514406244512538 0.335691499637699 0.0665463313725086
0.0551122772404718 0.341244329153071 0.0720992010062422
0.0695388505571545 0.33971080138991 0.0705656621635734
0.0833287944904776 0.336838428675358 0.0676932686965587
0.0961258002134983 0.342769137472719 0.075764579126193
0.10112936761352 0.341421095832867 0.0770989341611797
0.106298072674263 0.337000824253915 0.0758552102268977
0.110834699247745 0.345023767419821 0.0850716626954398
0.116343341385054 0.341711141120594 0.0849571644084937
0.125543670047437 0.34667929855019 0.0938599436044965
0.134985490454259 0.346356551873039 0.0983013790749827
0.138581988986989 0.345087507122901 0.0990006084009791
0.144574429490729 0.341799096440249 0.0991489825355695
0.15824208717145 0.342750011552365 0.10680638334304
0.162036260165418 0.349901259703157 0.114896690858215
0.17050212996678 0.346857689196756 0.116493827921136
0.175990067483354 0.348762367806947 0.120887328484049
0.189884280549083 0.346029445194302 0.125467687699956
0.197924811079104 0.348156079270484 0.131329714451454
0.193855304278906 0.355268249492697 0.135454310939207
0.204010507206835 0.349060650008633 0.13515597139801
0.213519942781389 0.348539654415283 0.139459524858491
0.220502460754756 0.350805608329247 0.144913196900152
0.222666720221651 0.35796468454641 0.152195321117169
0.231490747180423 0.350232872190155 0.149911372177673
0.241411506094156 0.354171500052243 0.158282763900776
0.249276524027062 0.352916080140145 0.161128067887683
0.259975058881711 0.356899758779651 0.171957878177608
0.260767195128507 0.356086214227843 0.171256014045432
0.265789616834203 0.360136349118202 0.184949939069501
0.271788284793334 0.357733980002436 0.187040457962171
0.270250864276741 0.362645045013944 0.194968220818816
0.276109078551644 0.365057596362079 0.206386261815345
0.280094797642092 0.365468838075716 0.211730761353939
0.286757295319612 0.365080667134551 0.218545228436679
0.294945387398553 0.35789312102019 0.213697759017575
0.292315176314132 0.365524123870615 0.225741710002068
0.304019410738008 0.362100518676378 0.23231069287376
0.309981674535682 0.365729627034162 0.246244201493531
0.313747228244499 0.36285485458478 0.244863487366369
0.311882735560413 0.370171510578565 0.257159138538035
0.322177294265005 0.366645570102351 0.261922820412166
0.329932734650273 0.368121150970426 0.273652959491783
0.336231568569191 0.362255647536987 0.269261201403826
0.337396661584902 0.370405975432212 0.286646001146799
0.3435311549468 0.37035574298948 0.293525678636431
0.348816790410975 0.369197996948136 0.297257446514464
0.358208205066644 0.370391936660312 0.310293739963647
0.360904395214131 0.367313089205864 0.307294399422074
-0.06663839377912 0.327350418253997 0.0590931154606202
-0.0647581176782341 0.336181219323108 0.0670360545960691
-0.050245363963764 0.336164563503648 0.0670193986562746
-0.0500967925157352 0.335574469450913 0.0664293003401979
-0.0389802747857558 0.33995679626228 0.07081165881322
-0.0342376521745941 0.339984958142075 0.0708398208964792
-0.0122133031903971 0.333793658224036 0.0646484762472261
-0.00712081516783433 0.338375864184527 0.0692307153134692
-0.000246334516877081 0.338817875359039 0.0696727296814462
0.0147376610799536 0.341182082258305 0.0720369536617521
0.0171227067915146 0.341905333129648 0.072760209758474
0.0217248806581418 0.340556318256871 0.0714111851392668
0.0301725419542467 0.347503498487656 0.0783584155623892
0.0482403774577563 0.346991681422103 0.0778465947990351
0.0552638285222227 0.342188132656088 0.0730430113280985
0.0695353715313702 0.344619648993106 0.0754745452324581
0.0716316613721373 0.35104699548488 0.0819019381608488
0.0863101862220779 0.351861320987671 0.0827162695470193
0.0929542748496172 0.354160339052762 0.0850153042221721
0.104970830544681 0.348462218184022 0.0851175143866368
0.104356635509216 0.351741894610107 0.0876507182719751
0.110801190982423 0.357839616096049 0.0961538391539379
0.121239945060539 0.357248987226965 0.100861750601869
0.12616494731464 0.349367501826419 0.096498653629996
0.133895647876302 0.356411280126744 0.106464166856355
0.143241830987413 0.358786657483315 0.113194444171171
0.151437610688841 0.358165787295524 0.11675467038872
0.155874225995822 0.362479151860379 0.122708504346408
0.167100154086425 0.359671817400296 0.12589026841996
0.168803689474051 0.354553325578881 0.122309266295349
0.180680579592199 0.355700471603559 0.129241219035603
0.186086294531417 0.36243368534978 0.137775272315361
0.189264451833563 0.359969969818193 0.137230706794006
0.202030235844693 0.359126122453835 0.142882846380688
0.208998279489055 0.360326429700211 0.147406397452319
0.204153175980616 0.36693055744153 0.150703211910739
0.218793019065027 0.368496343448291 0.159379206594
0.229283145709131 0.361790984123537 0.15881725433932
0.230114688192001 0.361688832694346 0.159144562212776
0.23877102789483 0.368868900452445 0.171419937557497
0.250239565513314 0.365859004841705 0.178535961610426
0.242558197214942 0.372368302489793 0.182623466048335
0.254316415659086 0.370287871283366 0.191900447251673
0.256120954140187 0.372934333766275 0.199167887603555
0.265677093857842 0.369698313214569 0.203662794604025
0.270885779647887 0.373598578554599 0.217273312870712
0.275358200650366 0.374615962777864 0.224365830135048
0.283635274103383 0.367101438039119 0.218975309125708
0.281740060720041 0.37442728810402 0.231254128118627
0.286099454890188 0.377702190699491 0.242666271828879
0.301693835351928 0.37084783840983 0.246900787318777
0.304996472196142 0.369582820759032 0.248165310340038
0.30355205300682 0.371693541034351 0.250681082267233
0.308098258883228 0.376030113611573 0.264397655720116
0.31775125411994 0.372095705007878 0.267626644911166
0.316504178867236 0.378778768070442 0.279376246323349
0.327219161256886 0.378412895960405 0.290844794341902
0.327990325547158 0.378439031189298 0.291773574607508
0.334713163709867 0.377968903171713 0.298495197619328
0.341511630625448 0.37744769632111 0.305202211021834
-0.0819061478202255 0.337119208227705 0.0679740502774961
-0.0728918487701539 0.341753407508387 0.0726082830395739
-0.0692180679570068 0.343002657303387 0.0738575418602168
-0.0488984196429669 0.344604928840909 0.0754598249739116
-0.0543125521658999 0.344144643908394 0.0749995367159072
-0.0376853026742455 0.348095406915851 0.0789503282670338
-0.0301025885209631 0.350702248850205 0.0815571890354314
-0.0164922972707329 0.350738093353383 0.0815930337975797
-0.014261672176961 0.349826757247362 0.0806816911072919
0.00324602169165063 0.345584509992506 0.0764394132028347
0.00770791093720213 0.350513956856703 0.0813688956815465
0.0175052523098436 0.354301770111703 0.0851567363029306
0.0259629567596287 0.353777314654353 0.084632277056468
0.0349429475109053 0.35093888211013 0.0817938240049952
0.0491895091666201 0.357005428626883 0.0878604143516387
0.056047457182835 0.355469164064749 0.0863241386902232
0.0559920734580838 0.359822716664943 0.0906777227441832
0.0814568845742022 0.358613769034657 0.0894687663794315
0.0761758718705319 0.36432963038136 0.095184669022377
0.101043538849269 0.358590626744121 0.0919253768373158
0.101248880354843 0.358471760622081 0.0919251065068139
0.108128051938335 0.363094627268648 0.0993682660281193
0.113949749399042 0.366059438799133 0.104846756442294
0.12231432122925 0.364858733581673 0.107989223840313
0.12987306865831 0.365056753365712 0.111940116262673
0.136022229750307 0.367193915470176 0.116865569068545
0.146358609448192 0.362351883256094 0.117840443057417
0.144753375122916 0.372135249584378 0.125510525084396
0.153481269453002 0.369896094247498 0.127935324363367
0.170078137183866 0.364649239219074 0.131689875610084
0.166443232411575 0.373372076378803 0.137426663244472
0.176621066358781 0.374644742067206 0.143617785764367
0.180210005484559 0.369993465200318 0.141384115262678
0.190860867656764 0.374463322481283 0.150580622748297
0.196119587624935 0.374182793845711 0.15296705504898
0.204113116499224 0.372571206716357 0.155568162884171
0.209034453478824 0.377873420959975 0.162620734558657
0.211235344811709 0.380222991769362 0.165755990885614
0.223729016643135 0.377023507689993 0.170375820379379
0.234710913496667 0.375746652228252 0.180353014106453
0.234673246150901 0.375364791509263 0.179557746283757
0.235369357526262 0.380016320581639 0.189515006530773
0.252129685781143 0.374772678723504 0.198249653364627
0.254820173612523 0.374999502515091 0.20175730959761
0.255931288457999 0.382543595091695 0.217886179200719
0.256720467701286 0.381936286713927 0.21758731823542
0.264404097077807 0.379980052694414 0.222473727660967
0.267589957399389 0.382813171262096 0.231680358813789
0.277316722228889 0.378690322276905 0.234621966653542
0.279865943735367 0.383152808114001 0.246314851635253
0.285942060629524 0.384620046600047 0.256118139266317
0.297110040103546 0.379024970347478 0.257798414188313
0.293355369523652 0.388115496442284 0.271439009657994
0.29675879122856 0.384447259743864 0.26808289152232
0.302221739109776 0.39001882541579 0.285275785344177
0.308395937334696 0.388602333673963 0.289508558604549
0.322042706810521 0.383100957140683 0.294193353151636
0.319175523058882 0.385380839511462 0.295423891636667
0.330296291816377 0.3827562159865 0.302903429530895
-0.0892377996957333 0.350056015244504 0.0809109507607887
-0.0823827899079334 0.352802658009066 0.0836576133694344
-0.0790738906824127 0.351290857887765 0.0821458023256035
-0.0690724398911192 0.356262583855637 0.0871175642134513
-0.053045670331229 0.350484536083979 0.0813394746962636
-0.0485477311051152 0.358584726572246 0.0894397237071936
-0.0379171483870418 0.360312392328276 0.0911674019453503
-0.0305494374044642 0.35818020240071 0.0890351966130312
-0.018382502911761 0.35409613367668 0.0849510983822164
-0.00835159772939793 0.36014792606293 0.0910029344917603
-0.00169923360245904 0.358682282831877 0.0895372806716546
0.00161880911096933 0.362817887439884 0.0936729151587839
0.0197906828559882 0.360819012720247 0.0916740259975763
0.0318404627351374 0.36298862750298 0.0938436564554522
0.0348296300541785 0.367964972677024 0.0988200375828454
0.038614317826422 0.367990958441328 0.0988460235348917
0.0499111126957892 0.369150144039117 0.100005217507623
0.0586723500995152 0.372705445047682 0.103560544202706
0.0792199387854952 0.36502806760276 0.095883111289882
0.0882697845091105 0.367450576939799 0.0983056381291876
0.0912221038780611 0.367210039726491 0.098065099178035
0.0970482566884131 0.377067118257495 0.107922248924955
0.114293849316094 0.368811671756203 0.107402328522267
0.121657489444338 0.370349060648562 0.112415602642563
0.118390441196124 0.377121310422919 0.116647049435171
0.128053027010823 0.372062227688397 0.11709705142575
0.137033206993801 0.372098825612189 0.121618868818187
0.148154698168518 0.379127283885274 0.133266521971418
0.155194788232886 0.375076621380883 0.133278590459834
0.160547049944608 0.379240255214248 0.139560579373546
0.161999814860952 0.384156128364664 0.144544268867912
0.171344451739951 0.376179586126277 0.142308682942952
0.175742848660662 0.382299200625655 0.149807677199856
0.181354750437347 0.384835073189841 0.154809794288829
0.193107899115862 0.38741408098254 0.162919913487096
0.195672917998516 0.388511166302679 0.165152542816078
0.20942255990555 0.384530812663513 0.168893034434993
0.213641577138025 0.384872923873882 0.174366721540656
0.220334469994101 0.381225252863295 0.174793258208261
0.221968168781148 0.385155255083678 0.184395432262422
0.219817304890038 0.39121050947174 0.193879843362925
0.232042540638008 0.385584967774267 0.196702833605947
0.237432028211357 0.38820813088375 0.208002635576038
0.245341777440398 0.38610779614588 0.212862345415433
0.249110935152735 0.385748748406099 0.216442706952015
0.252142028693832 0.389416189926307 0.227117221219782
0.258444231694976 0.386196120930743 0.227941851170139
0.262273658826481 0.391310790948758 0.242376171262072
0.262352661366058 0.396306346755737 0.252309272045637
0.271045931342439 0.393511523954567 0.256691905196945
0.274899731259026 0.394977194538196 0.263963975473026
0.273154012007327 0.397366703553442 0.266686310133192
0.287018679428382 0.393118158275692 0.274087561957401
0.295207642718039 0.391452258797835 0.28012091805797
0.292818668048036 0.39998509463912 0.294216270544483
0.302738965884699 0.391673755226266 0.289125055488751
0.305348223958161 0.400288815537234 0.309068457737544
0.30821981944969 0.398518324701133 0.308846641497066
-0.09360366756904 0.356067984477422 0.0869229634292852
-0.0888177215623312 0.362367191221619 0.0932222156843072
-0.0899607750110128 0.361892581437894 0.0927476024715979
-0.0691846927561185 0.358194506566864 0.0890495008825309
-0.0708583161829126 0.363843558409175 0.0946985935383954
-0.0567332054289536 0.361335889464094 0.0921909064757827
-0.0473176957549883 0.367747290669821 0.0986023540029225
-0.0392755046590618 0.361293216181598 0.0921482328849772
-0.0390133382848876 0.369387470162827 0.100242545345981
-0.0181546948106162 0.370441506299192 0.101296589097599
-0.0172009216957922 0.370393182758811 0.101248265208087
0.000224364235873605 0.36843026350998 0.0992853317774577
0.0065315497031584 0.371563054660742 0.102418145562166
0.0146600185510901 0.369576040622085 0.100431117167631
0.0324348515784887 0.372037727197401 0.102892821528263
0.0390504790928013 0.372686608902901 0.103541707921837
0.0451046890801996 0.373150804428976 0.104005906801655
0.0477822321908117 0.37826471953184 0.109119858851791
0.0619448233134284 0.381245358825855 0.112100519680477
0.0641878296733592 0.381759859063576 0.112615023635386
0.09389170330725 0.379903244212042 0.110758395370088
0.0931543053945277 0.377157273912519 0.108012405231341
0.106244683453403 0.381287437267599 0.114182124438105
0.112901304536645 0.382299606515808 0.118387029641196
0.117600894263663 0.382083919517227 0.120550049712052
0.124864223972606 0.384127150299413 0.125951243352224
0.129720026560857 0.383474281823435 0.12781375741711
0.139586369496144 0.390199422310463 0.138571149110522
0.139111199662476 0.391429334829625 0.139398705658645
0.152348532918449 0.388284406952125 0.14329381299301
0.159988654587878 0.385000441825994 0.144269883655266
0.159645132351229 0.391478621122414 0.149708429670309
0.168529830109528 0.394365793617819 0.156651193435653
0.183228417821723 0.389612020501771 0.159883622363072
0.187153814899666 0.389443307606864 0.16170022437369
0.194051772205588 0.392401920950631 0.167711480772442
0.200397546258131 0.392384823677141 0.174101614532851
0.198863162338449 0.395995252619206 0.179470062804352
0.206405092136363 0.395834464717792 0.187733014645426
0.210326221943979 0.398745983883323 0.197930575320311
0.217838901578441 0.395593456551172 0.200265338348041
0.223725220086324 0.395933670776033 0.207632024704336
0.230771916290524 0.393467955935131 0.210789973832289
0.232750651940284 0.394936700803459 0.215935011539341
0.235641050442136 0.39786324579847 0.224989609770178
0.247015399096663 0.396586701686176 0.235413873710198
0.248211292705953 0.396089400034732 0.235794451592074
0.247496516313303 0.402392822354308 0.247401558144199
0.257352716500129 0.400058755069079 0.254015022415995
0.268697906729776 0.397396621742408 0.261675955023707
0.262736874102774 0.402588432905619 0.265124557887843
0.273580631858923 0.400312656002376 0.272976331791839
0.278127982142106 0.404209423199599 0.285827616053996
0.284012489436521 0.402933297170927 0.290007410423186
0.283418854505341 0.40329892589382 0.290052519573556
0.291513915875251 0.404335194661202 0.301303395445637
-0.0974322359640236 0.363622054912777 0.094477088441668
-0.0947855075960877 0.369839989594019 0.100695068046558
-0.0878109367024892 0.372503702908836 0.103358800606304
-0.0737150456564913 0.366622201465358 0.0974772566698584
-0.0745795281682851 0.373415364420433 0.104270468704519
-0.0697524881269648 0.373053250990381 0.103908352658252
-0.0479461256608033 0.37229963747089 0.103154733694015
-0.035220423526496 0.370504389015933 0.101359472268658
-0.0440278054669186 0.378639910339037 0.109495052369685
-0.0266658338267143 0.375661054047718 0.106516174556575
-0.0231130082061221 0.38142441260335 0.11227957475161
-0.00669026746984791 0.374856880293932 0.105711994992755
0.00616121073813351 0.377503061299205 0.108358195116288
0.00786110294511502 0.383551176028015 0.114406353541822
0.0214305521183021 0.384809163666315 0.115664350268894
0.0319305953730697 0.382745858579853 0.113601030275362
0.0475024673962096 0.38213860016866 0.112993767476818
0.0462888617206597 0.389901253621789 0.120756477013955
0.0567980380144285 0.387880825881829 0.118736034676708
0.0666404098993266 0.386893553015522 0.117748754677502
0.0824357076280857 0.390079550377416 0.12093477505775
0.0785478096921752 0.394931532036508 0.125786791771683
0.0914664966730397 0.394423317673331 0.125278573736733
0.105082043513418 0.393281655657379 0.124136903472444
0.111057400097059 0.389460781409339 0.123666874945961
0.116415770810061 0.395356847532237 0.131452259595116
0.12365277335211 0.393675814493394 0.13361495917497
0.133361685234578 0.401490524673554 0.145237236624042
0.134020829064031 0.401348214213897 0.145443565556166
0.147189720572245 0.394531359279237 0.146124446682174
0.15157882786492 0.397034616376699 0.150486916085078
0.156308592761844 0.401390700073599 0.156624322017585
0.164310771223713 0.405525697662238 0.164206478984422
0.170349335111494 0.40563661509318 0.167321840749091
0.176547575589797 0.399792412175847 0.165359718621024
0.178519846460007 0.407709473096769 0.179408983617155
0.187516296364216 0.407000074961354 0.188245630927809
0.194242285067494 0.404803836547931 0.191569715760579
0.199762349186187 0.405272691542788 0.198773221150595
0.205038938486649 0.40252464181323 0.199361168859361
0.207549270105012 0.405633885452566 0.208343388363309
0.211491705745472 0.40428141776316 0.210163441033248
0.208217947182884 0.412098628793977 0.221842190553141
0.220567046365949 0.409707793931739 0.231179744703042
0.227019873362066 0.411360507601798 0.241777040859664
0.229588644675031 0.408259004888636 0.238588107647918
0.236215899105715 0.405846092465359 0.241372937717636
0.236477327714584 0.415252508030618 0.260204711654281
0.239262976575054 0.413807530863654 0.260526512812223
0.245647584288765 0.412871300872245 0.26594495599473
0.257432101320474 0.410751289117585 0.275173865327566
0.262552158217709 0.408600981434227 0.276761529320944
0.263059418754882 0.417107369636165 0.294099552925848
0.265934177435275 0.416452386873248 0.296079328606446
0.277413641486279 0.414425539384212 0.305144777462952
0.27476608044056 0.418249925070722 0.309668444999304
-0.12899150641189 0.377384174672687 0.12217526910137
-0.122069149141772 0.374627524080096 0.116326718769175
-0.0960269028216164 0.381446630575887 0.112301792884669
-0.0868398918389385 0.377793424385179 0.108648560300093
-0.0748249576232853 0.381965233522497 0.112820399578108
-0.0780212756840307 0.382610295621634 0.113465466337722
-0.0617100655847539 0.378249203583228 0.109104342791078
-0.0502883662355607 0.383953030266065 0.114808210683209
-0.0526196636934135 0.38657895456519 0.117434153954244
-0.0384557263593389 0.384289286718814 0.115144469565361
-0.0283142676485924 0.386683995527604 0.117539195675564
-0.0149674081317632 0.383048065638944 0.113903239517854
-0.00246387085291357 0.385385446834013 0.116240637600152
-0.00857427195010894 0.391837193061846 0.122692430440887
-0.000201339832629832 0.394174157148793 0.125029411412049
0.00876506491045758 0.394411581812646 0.125266837791259
0.0239053658223998 0.393900552791584 0.124755805078088
0.0377622579507136 0.395051068592011 0.12590632919082
0.0469366254299392 0.39352944139124 0.124384690996521
0.05305119585111 0.398334889416594 0.129190173740517
0.0660007094802819 0.394961146001955 0.125816405951087
0.0747118465197106 0.397502227730546 0.128357506038613
0.0806544779945668 0.402490509399569 0.133345823747225
0.0894694722551371 0.406395845177471 0.137251187740592
0.10685210777984 0.39877749513019 0.129632782651874
0.119079649494325 0.403482179268639 0.139821003097631
0.12240803220631 0.402146146834276 0.140328160089291
0.125848190572277 0.409583429275582 0.148489173763243
0.132585533340623 0.407306995093637 0.149886405410523
0.144261514754194 0.408717581052077 0.15694605039605
0.15246382413954 0.407658038958791 0.160129637720334
0.152360186782944 0.407221561029245 0.159699814961476
0.155266799678065 0.410589934414201 0.164070249905349
0.162709849729479 0.414986695336427 0.175762402665306
0.170503464310552 0.408569730870345 0.171984523616422
0.172219301106307 0.415256671158356 0.187112400340983
0.180889933513269 0.413286156860759 0.193093495559685
0.183412467198925 0.41198619636855 0.193401714886821
0.187553575901254 0.413761725842914 0.201611175187424
0.19764242832169 0.412633997010226 0.2108662720822
0.199508956359999 0.416040516414983 0.219701845982974
0.209329212838712 0.412446999704626 0.223792805349684
0.21268746762299 0.412478163715616 0.227674591939512
0.210178030179236 0.417942582967411 0.235586906897169
0.216854090665607 0.418684075071683 0.244642687513984
0.222925455447098 0.416044223786029 0.246347972882977
0.229522234674123 0.415465753020929 0.252712711910995
0.229641646266913 0.422779045740184 0.267258643610426
0.239251158009859 0.418702381216271 0.270157864985659
0.244209055665376 0.417935739965127 0.274287426953602
0.247502313678206 0.417633064111086 0.277437475651154
0.254208385584884 0.417922244769112 0.28563616454194
0.250629233590001 0.425319096194083 0.296139220532616
0.257724052264576 0.427868801457407 0.30923428154326
0.26735920626285 0.422373598155048 0.30936758962443
-0.155055414515575 0.383142077678873 0.14019384360966
-0.111780907196585 0.382031503708822 0.117594641404645
-0.114022851160468 0.388729497579661 0.124516296240685
-0.0965829612045392 0.385307902344033 0.116163092549925
-0.0963556268043169 0.392428722816688 0.123283964469443
-0.0822750583544041 0.390618480174194 0.121473708748216
-0.0727064678645392 0.393137550279412 0.123992797053338
-0.0637589565118931 0.391681012750546 0.122536249001206
-0.0500632078397719 0.387922757229673 0.118777966327501
-0.0439718501648779 0.392344014370578 0.123199255411327
-0.0364410342978752 0.396808687000115 0.127663960297455
-0.0308232105975167 0.397292243622635 0.128147520413599
-0.0202530503059948 0.400325797622807 0.131181096330745
-0.0061699444604506 0.399037513704239 0.129892803104518
-0.0129469143668749 0.4033855295226 0.134240850336642
0.00781475472492961 0.401482854397638 0.132338161465138
0.0217097725885784 0.399379695637612 0.130234987510103
0.0194671302009052 0.40364459035368 0.134499913039398
0.0328377221656414 0.408982557546504 0.139837918798236
0.0433631811369044 0.402656148842567 0.133511464386941
0.0590190315359287 0.40780858425673 0.13866393702668
0.0667016870146835 0.404386785594117 0.135242113642084
0.0729510939266385 0.409776209796352 0.140631576782102
0.086750580518765 0.416208359804327 0.147063773261398
0.101552482302918 0.412231123738688 0.143086508460824
0.100240563861012 0.412845873962242 0.143701263125856
0.11705347094522 0.410469506949993 0.144859153499316
0.119519813000126 0.419834059750268 0.15420233264947
0.125300708894522 0.414454043066774 0.152433536696785
0.137295853311529 0.415093413732407 0.158984867476204
0.144069170822338 0.416518056744741 0.16360533665357
0.147242636315571 0.417221781387083 0.165801528684769
0.150910481762316 0.424259391963993 0.180610225587419
0.159176493557758 0.418482772636416 0.178631483858134
0.156564691344614 0.422005025476805 0.182600509397947
0.16053656171402 0.426480806641404 0.195938009708925
0.17645972845746 0.418611967622868 0.19854761413399
0.16884921194424 0.426443472763627 0.205320993512727
0.174515309451246 0.427396033574119 0.21364372016345
0.181818209408036 0.426678224606257 0.220537197005247
0.186206805444196 0.427937908411329 0.228011780528326
0.188551712112612 0.430239234480336 0.235213892976947
0.200292619441873 0.428065538809908 0.244287412904887
0.198367227158472 0.43054384905513 0.246980323545627
0.204395244527789 0.426667131533695 0.246199179330815
0.216813911110086 0.424334825451635 0.255731198902028
0.217924335992693 0.427655538183924 0.263537549803882
0.218634271765604 0.43173872811048 0.272390683222169
0.228631653475681 0.430358556677055 0.281044310134058
0.23186295876097 0.428218873282849 0.280504247214374
0.236083867520305 0.435568286558621 0.299787251145009
0.243463201854525 0.428215698534485 0.293694533536871
0.243291719969203 0.434385981954792 0.305657360401463
-0.147722067032554 0.394057776122943 0.145980483828071
-0.140899891015223 0.392035046041544 0.140817622883288
-0.124254268729658 0.3930703762264 0.133391380328791
-0.105354696106317 0.393189078684755 0.124044325830966
-0.0925098331721091 0.396615292944713 0.12747056484481
-0.0866631274702722 0.394341418819471 0.125196674291168
-0.0849372570276436 0.401297194320997 0.13215250004713
-0.0699097496008473 0.397119453544617 0.127974729087199
-0.0538534880953765 0.399967347991844 0.130822644110036
-0.0586182367277677 0.403415738243483 0.134271059275779
-0.044119265312332 0.401212361018017 0.132067666131242
-0.0312785284584568 0.400541700549457 0.131397000817261
-0.027103554712919 0.409362562741542 0.140217926738755
-0.0190195179593796 0.411492803249259 0.142348182637141
-0.0106484423147151 0.408996983987349 0.13985234534331
-0.000439079999672176 0.412217683510379 0.143073068135411
0.0209952291716256 0.408049336431339 0.138904690940687
0.0273110166956598 0.409201851455081 0.140057214291177
0.0252793752185334 0.409576063485847 0.14043142902557
0.0405861515281874 0.413275448023002 0.144130840290224
0.0482852001327548 0.414512021147386 0.145367422348664
0.0520138764447472 0.418267319785112 0.149122748117861
0.0672278790113262 0.415146505377742 0.146001911163073
0.0815271927208932 0.417164602932937 0.148020023298722
0.0954211381849852 0.418810013472306 0.149665445725934
0.0919501478118608 0.423921383155712 0.154776852338222
0.100473410352589 0.421478701446524 0.152334152981024
0.109380355431071 0.428656538947417 0.159512042340719
0.12788791491381 0.423551779058404 0.161606076461853
0.12593656369147 0.426042966933228 0.162787841373894
0.136137821348612 0.42590080494409 0.167765390270204
0.14281121790958 0.426007242816169 0.174840389099643
0.136523617984114 0.432062633202902 0.179619079710489
0.146972871688244 0.429753726545364 0.186956783464875
0.151045681660168 0.428544501481301 0.189207395956833
0.156239307094015 0.435026859409437 0.207888528192364
0.161255286064285 0.430462975308221 0.204602089133725
0.16623028810111 0.430051081946982 0.209450103279851
0.168789558057514 0.432663808833523 0.217509660500144
0.172746904323252 0.436747949472171 0.230058950851139
0.183695990962144 0.429424792505202 0.228085206725221
0.18779673953158 0.430592187806878 0.235050487393021
0.191930485085994 0.433510581034861 0.245503466301443
0.197101679753214 0.431910871452465 0.248234201778387
0.199068635768553 0.435843392128413 0.258220454636945
0.205938084043289 0.43526843178714 0.264902301376195
0.205961522689758 0.439287482471611 0.272848089680012
0.214919019079717 0.438116766696795 0.28073144435565
0.213677334569243 0.44378460458194 0.290486781965315
0.217739158049363 0.444970603293642 0.297444437196293
0.218516248131767 0.445587036369559 0.299543079638506
-0.173260173740637 0.396924943871511 0.161232687483376
-0.14610470969159 0.395702229882233 0.14659594833509
-0.144747271826604 0.401115500321307 0.15060528808706
-0.121898792842463 0.406556444006683 0.143892995552127
-0.114782484015409 0.404122263497344 0.13822673804255
-0.0993019089407686 0.401395053840879 0.132250360274033
-0.0875198002136435 0.407178677500233 0.138034025719202
-0.0811867967285813 0.411997170258598 0.142852553290456
-0.0769018117381093 0.413502455172549 0.144357849079865
-0.0557988716309459 0.41038242751806 0.141237798883643
-0.0552736726601219 0.415305928587689 0.14616133552483
-0.0449306950373663 0.41139807148601 0.142253450189469
-0.0329166210422442 0.418438727893239 0.149294157464387
-0.0228153285404605 0.417570626168687 0.148426049467929
-0.0206453571345434 0.41707269004288 0.147928109744608
-0.0131396545813535 0.41963926956235 0.150494707807231
0.00108383356008353 0.421508811417056 0.152364263169096
0.00987185628759825 0.419929085182639 0.150784525521393
0.0133401659582742 0.424892633319942 0.15574810951959
0.0200489905822334 0.424889220539447 0.155744696714437
0.0421132080610648 0.423027880450712 0.153883343177798
0.0436630096397132 0.430158854004014 0.161014368251316
0.0584432777468506 0.431236769982822 0.162092292017907
0.0682315370792947 0.430705866822224 0.161561385021613
0.0739016743028458 0.430297729688732 0.16115324493939
0.0783778874773245 0.434092095958732 0.164947638623118
0.100498051972309 0.430283123363225 0.161138638508356
0.0954981617681348 0.438378499728176 0.170380498053066
0.104148123011067 0.437695107756494 0.168825632233078
0.118226531784253 0.439234418357391 0.172935410316725
0.127822211429656 0.438167865703599 0.181750010728447
0.130941951670558 0.434965993014338 0.178990096098448
0.132342106067823 0.437335596389554 0.185251983168298
0.137487571075022 0.442022489432251 0.2003405495439
0.138840860591717 0.444036697421204 0.205848852796776
0.154012628713433 0.436185488503221 0.207638397621783
0.147983390703915 0.444113836984895 0.216401473580581
0.161553127568373 0.440869591121172 0.225446077998037
0.163186289753663 0.440954748821593 0.22747177257751
0.163517721930246 0.443664827240117 0.233188742457171
0.169457985999037 0.440696432984124 0.234097526474233
0.173916099694592 0.444545442291098 0.246753192394016
0.185749693632159 0.443360842774374 0.257881065266046
0.184205842035966 0.446534597760295 0.262378322091846
0.193056803327683 0.444365428978871 0.268173132943275
0.19532257108782 0.443602569151505 0.269247554411331
0.197954055337754 0.448270386245023 0.281438606270882
0.205344651880274 0.447917405215418 0.289150703317574
0.2090254066737 0.448754014637658 0.294986415841671
0.214716977387843 0.445436710872557 0.294924793888769
0.221617071064777 0.447694929018569 0.307223988714698
-0.169607738410214 0.403793084246082 0.165354483638446
-0.211413883744491 0.403301364636651 0.208143816552501
-0.13906722166503 0.412565823613413 0.157681584983599
-0.11863731732448 0.409723277203235 0.145004823823632
-0.128852820908648 0.412253583862722 0.152303938196825
-0.0997047583658839 0.415379604756092 0.146235012225532
-0.100171394716977 0.418491077758682 0.14934650770805
-0.0911817796549594 0.414506256417287 0.145361657576916
-0.0777087588624427 0.414460980467339 0.145316381299857
-0.0741550072819945 0.41934866390039 0.150204100045689
-0.0633527293835238 0.420586828717954 0.151442273808807
