ply
format ascii 1.0
element vertex 848
property float x
property float y
property float z
end_header
-0.0902411234308914 0.106258601515169 0.0385426772552207
-0.108462827712465 0.101685328395047 0.039350839563049
-0.119830990131491 0.101167562613402 0.0401579126497129
-0.125619640646235 0.10262325249324 0.0406659269022335
-0.141012614984493 0.103321493050762 0.0418377274749018
-0.145451315375609 0.1004114043384 0.0419999908496787
-0.160024721087354 0.103345320842052 0.043237700308503
-0.171560092224538 0.108113826573931 0.044485150448621
-0.17611715448983 0.102218555026392 0.0444879164961334
-0.187585785776099 0.103090070933349 0.0456140266813557
-0.19829921609402 0.110255870313657 0.0469310715470698
-0.214441310560821 0.10364745483083 0.0482214703406464
-0.219483518476892 0.111329469816066 0.049013164484858
-0.231050834224263 0.102258125099184 0.049764970637369
-0.238615861554781 0.110174220239163 0.0508088549904216
-0.25152878704751 0.10489446856319 0.0518413801671986
-0.262329099594629 0.1037610505933 0.0553548575034085
-0.269407397666291 0.111979206154086 0.0592942024773511
-0.271592023411258 0.113258729425512 0.0603143755496502
-0.286746378810186 0.105128638551105 0.0647439198977376
-0.294928415600124 0.108854538932694 0.0683987738315448
-0.304812594976692 0.109705474801454 0.0722457752451246
-0.310951280011706 0.108792663706034 0.0744106423511087
-0.320333100895578 0.111406367326641 0.0787798514240669
-0.329861829741467 0.107371755195396 0.0850332475640567
-0.335977013375822 0.116412393366997 0.0928802477326326
-0.342851566586515 0.1062429007508 0.0949989602614804
-0.343709429547047 0.112226108824857 0.0976540553400167
-0.353877505923047 0.115090758629421 0.106690619383822
-0.362456278475194 0.110366710831806 0.111960723052402
-0.368406414799753 0.109136358617971 0.116290533604077
-0.367413635174991 0.115366670429282 0.117554258627731
-0.374030848070105 0.114859227506503 0.124588861457651
-0.378961384040219 0.117381074988612 0.135948754644336
-0.387321927621167 0.109219820754289 0.145416806497675
-0.387238754978388 0.111389106193985 0.146966996499493
-0.394684277520233 0.112116053972871 0.160590874997467
-0.402942464718974 0.111092086290225 0.172644821403659
-0.400691425337103 0.114085251949225 0.171088881111616
-0.410842864147326 0.10871812595278 0.183861880478433
-0.412495002976786 0.108314922224144 0.186502221669058
-0.42011683208985 0.114883678380266 0.201486875214652
-0.422881669325971 0.118362911561979 0.207958459777004
-0.428701715179145 0.116508477384898 0.215731646513074
-0.432311868853338 0.1198458515529 0.223413475457126
-0.437540822434509 0.115632923349956 0.229448371249713
-0.444362261056819 0.117391762931303 0.241094186332607
-0.444645142353134 0.112905480914415 0.240586035283828
-0.447531916310468 0.112403721774906 0.245243566160096
-0.45151058329994 0.109494646885899 0.264698229726963
-0.45018870351951 0.119535321820817 0.281591617454068
-0.450524979936309 0.116981048550776 0.28789478619462
-0.450636678482157 0.116132613764068 0.295139659112541
-0.45017015248892 0.119676230903939 0.316138569675403
-0.458219284364945 0.115561858886412 0.320471937428621
-0.473072914794138 0.109897090880286 0.320471937428621
-0.470518865357323 0.120208134401695 0.320471937428621
0.0464476482587643 0.109246048586966 0.0366389035394725
0.0388199669797836 0.111741508758257 0.0365820172661529
0.0291874187633158 0.10504580056681 0.0356665956629241
0.0072153184673398 0.107355063348478 0.0355886316325736
0.00728193229221296 0.111531756060362 0.0359734158901579
0.00337116357915109 0.112302601197619 0.0359969492802878
-0.0181365277986776 0.108734462938189 0.0358476270807271
-0.0293482313943632 0.111612417964012 0.036247905937854
-0.0288288229095179 0.110821718161398 0.0361689275867302
-0.0469222744646175 0.108833469003917 0.0366204006296872
-0.0505469605893127 0.112940676347049 0.0371008804982334
-0.0660240972585784 0.11681680018121 0.0379821481490297
-0.0799295733244464 0.113683374924587 0.0385068100305848
-0.0831375134640182 0.118096371147549 0.0390125360089378
-0.0904439497719737 0.116004725034618 0.0392711011885228
-0.104596181539121 0.110100406973757 0.0396356216007831
-0.115350095194844 0.112518187788884 0.0404690008265984
-0.119266515038158 0.117371081783506 0.0410310512793398
-0.136201355030791 0.116542831010888 0.0422301112362411
-0.150961886884148 0.120254948694061 0.0435525387779263
-0.156505169240911 0.120451037416446 0.0440232050451785
-0.166181028563569 0.116703586846278 0.0445853464005352
-0.177063241950122 0.121622183899251 0.0457968977480404
-0.186658897255191 0.119183800838084 0.0464354434255375
-0.194206914865491 0.120619344490167 0.0471504473177759
-0.216226498004605 0.120696785961552 0.049073141612869
-0.222243073359016 0.120576591389629 0.0496475282448235
-0.226381551518082 0.114595853288108 0.0498074395368293
-0.246638122349823 0.120619745762431 0.0520823785890511
-0.251218611829796 0.116123887203005 0.0531039129662153
-0.257730521785054 0.123845888885507 0.0567531720589177
-0.269212159640426 0.118812549417384 0.0602845378842038
-0.273805801867617 0.116022202116455 0.0615765022624565
-0.287007306757393 0.117941828276192 0.0668365337890846
-0.291032200242702 0.116891682749056 0.0681856457452564
-0.307083648886706 0.117313788132542 0.0742835948845399
-0.309749846323142 0.115718315788659 0.075037211838239
-0.316686240416421 0.120020613238555 0.0787171998646176
-0.326347866540807 0.117261146117824 0.0854967140814559
-0.332624771578211 0.126980691988077 0.0936962219777387
-0.337188719549666 0.122736712053744 0.095929395078873
-0.344173572221614 0.120518124789973 0.10075690910506
-0.350081662837069 0.127480630074391 0.107754037390893
-0.356257316053977 0.12773796181338 0.112753740611506
-0.365715891807464 0.124184067835971 0.119109774625277
-0.371387544228041 0.118836051699668 0.122695172969002
-0.373198648756891 0.12517497445933 0.131130361497139
-0.378179611567467 0.122763470421383 0.138701099343734
-0.383659480342531 0.119260280602733 0.146360651580989
-0.387023216309387 0.119341608993604 0.152819830614125
-0.393626552457867 0.123854921911419 0.166444979685083
-0.392897432547957 0.127942255605557 0.167928109651595
-0.402362968947306 0.119313974020597 0.176993266301686
-0.405594785924305 0.126067758636712 0.186270359363595
-0.410769750681646 0.122194540425616 0.191764343776368
-0.414346569784961 0.122249861445725 0.197303116334425
-0.420733267869709 0.123563127560097 0.207967073892431
-0.426251523904095 0.123144976447859 0.216191300966575
-0.429144938761372 0.129307567566507 0.224570919625349
-0.431344546606247 0.128845597305589 0.227660942378258
-0.439150737039017 0.126542821859565 0.238204390343599
-0.442486800853832 0.129986750687279 0.245532398681246
-0.448101385452773 0.123122823048206 0.24979672695747
-0.448780999916709 0.123653602413254 0.265842958716169
-0.449910461342469 0.120926841206079 0.27325993271591
-0.449324041294159 0.122342584499625 0.286032964927823
-0.447655737477536 0.126370226369631 0.296057748430499
-0.446474375937316 0.129222285542306 0.305507020351543
-0.45403135275495 0.131634166537747 0.320471937428621
-0.466826679280338 0.121409648402327 0.320471937428621
-0.467469588528842 0.123430091267823 0.320471937428621
0.0501884014426357 0.120483138736902 0.0377343076357825
0.0349406510689959 0.116500750381989 0.0368520762844005
0.0294799216815327 0.117584875542445 0.0367985687570135
0.0168807318789172 0.121955732046203 0.0370479054746903
0.00237493117847002 0.12262529879793 0.0369338934068215
-0.00296762666350252 0.123614119681564 0.0370319726989863
-0.00703639240806534 0.118958362535749 0.0366531980145334
-0.03069566742645 0.121999318586979 0.0372191185358584
-0.0369628978241539 0.116886420991848 0.0369568754785864
-0.0493225770896288 0.119254383013496 0.0375983183249066
-0.0623559256716516 0.117444438041995 0.0379057517663318
-0.0708392209571347 0.125950945014213 0.0389355203515946
-0.0777490493127841 0.118119703623242 0.0387100817501993
-0.0815128135766892 0.118318802268406 0.0389371873092824
-0.086962765057304 0.126084636199498 0.0398161233525354
-0.107746951706637 0.120908611435172 0.0406085846450639
-0.119440813890308 0.121560874769095 0.0413166694433094
-0.12579980210924 0.123111659922863 0.0418357203091063
-0.142095169146083 0.127501913576136 0.0432823140959432
-0.141674416952138 0.121742472959334 0.0429262496448774
-0.158414608690963 0.123262531121315 0.0443593797431693
-0.161523735732237 0.127403942596903 0.0448790818988903
-0.16776494656417 0.127688083554361 0.0454130266922664
-0.192847845769722 0.124207589714708 0.0472657043685362
-0.19924742316107 0.124876423867746 0.0478371414591409
-0.206459841239681 0.126299737895961 0.0485236277194332
-0.220586678885042 0.127266295877461 0.0497548213117098
-0.225967422170334 0.126173511456892 0.0502292193632128
-0.239163685596458 0.125582960891428 0.0514759961638343
-0.246835476916882 0.12879838322311 0.0534296671303608
-0.251581060222763 0.128053372394274 0.0550971177315842
-0.266161140686977 0.127697488227498 0.0605210116562299
-0.273972632620844 0.136081174525452 0.0647616630340156
-0.280058490233727 0.133781291746721 0.0666907597828349
-0.290789422448175 0.128887059657173 0.0699616594200839
-0.295537339131523 0.132449100167861 0.0723004407843307
-0.304383317347746 0.135078579949003 0.076034134897341
-0.321683297664344 0.128942364425406 0.0856351516017868
-0.322940769651827 0.132967578526161 0.087962820517226
-0.332608492656199 0.132710823744715 0.0955722073224964
-0.33589808925628 0.12914087407547 0.0970133864202325
-0.343769027286673 0.13068236208582 0.103785599361602
-0.352668152994283 0.135456006136597 0.112441574043784
-0.354245609419392 0.139040113740985 0.114878490558413
-0.364368733357863 0.13023589649496 0.120032631342233
-0.365339238189469 0.140212202135417 0.12802990991761
-0.371876621892391 0.137459598886484 0.138291097700034
-0.373022641354883 0.133538599409487 0.137382112166766
-0.377238702048908 0.139859599587153 0.150375487775376
-0.385277735020476 0.132419548436226 0.159057506164487
-0.389119412121784 0.132798842559804 0.165210284821508
-0.392728605632534 0.134161831439957 0.17163229250461
-0.398609906168669 0.140834186181978 0.184934146374478
-0.401381004114013 0.134767326161285 0.185331309347854
-0.406741509587238 0.136737627656857 0.194835054965069
-0.416228735226115 0.132078889620902 0.206463511138706
-0.413805176544827 0.141579504893612 0.208789544266001
-0.419538185575586 0.13408860484861 0.212836496524176
-0.42372037459378 0.142336811020929 0.224528337087749
-0.426745461466898 0.141141617120049 0.228421184071053
-0.437469542761458 0.142822730719888 0.24599334895216
-0.442308140671131 0.137253177934748 0.24988864600246
-0.441778546222099 0.140559021805195 0.265713749678829
-0.445294015778653 0.132071927165941 0.264747397021848
-0.44428633598664 0.134504681488882 0.279468341488061
-0.442972515408236 0.137676525081476 0.301188745662699
-0.442075164480807 0.139842921951992 0.299779373087744
-0.445040742770506 0.132683382322964 0.312934593720628
-0.44892166169769 0.135992656883716 0.320471937428621
-0.4691359118399 0.1387610227996 0.320471937428621
-0.473406301167732 0.141164463698297 0.320471937428621
0.0462748218559944 0.128034009938002 0.0382423052229624
0.0357370056975823 0.132389893969205 0.0382415323094175
0.0260670673448847 0.132122725354294 0.0380937775737187
0.0191272577664248 0.128819275523371 0.0377060854223058
0.00458860312597213 0.128926658211986 0.0375399921612077
-0.00668728483526111 0.127433378194903 0.037428110584274
-0.0122627836374036 0.129999652708096 0.0377315190093217
-0.0266992153814271 0.127370232442019 0.0376645153177435
-0.033653718251471 0.135041722446583 0.038453954577936
-0.0382308514481305 0.133210611477178 0.0384003359517948
-0.0495016853235373 0.127265219255549 0.0382909494300123
-0.0684353883520484 0.136602234459196 0.0397626991494751
-0.0795272511773999 0.130660124093861 0.0397329960422816
-0.0869988273690405 0.137941585934865 0.0406904168784896
-0.0942441142114675 0.137143191375975 0.0410406684609076
-0.102594001183798 0.13372189045892 0.0412603186569614
-0.112815887104749 0.130222542653257 0.0415798988561141
-0.121356078014638 0.138434255249226 0.0426660753926394
-0.130409818709586 0.139013766150027 0.0432197772537642
-0.14774017512172 0.137258059160443 0.0443647291170608
-0.152134082040144 0.138172382909078 0.0447859414554884
-0.165560810718149 0.136172368870184 0.0457689837004284
-0.184295228702573 0.141735142598133 0.0476704876806448
-0.187202746798141 0.139600226534206 0.0477754159999351
-0.19150054291544 0.139190082505611 0.0481046723368727
-0.203858514056248 0.14403169299471 0.0494333320443933
-0.226509942082076 0.143424255335225 0.0512672535125325
-0.229678352786258 0.137622371187138 0.0511611520286377
-0.243283235428968 0.137295017014834 0.05341733289598
-0.244736575664906 0.135652723284601 0.0537078615357962
-0.257145542805172 0.145556587686516 0.0599129124030217
-0.268447562898232 0.139862108135766 0.0632738607973429
-0.270664251103587 0.143109926875148 0.0646124763718823
-0.285253448236395 0.140641838229797 0.0697110017016383
-0.287674760862227 0.147575363128076 0.0717002491506077
-0.297246934034217 0.137965230217562 0.0738015822342819
-0.306668010019646 0.147962737265405 0.0799553590526813
-0.311536994593369 0.141675809006712 0.0817578355863723
-0.318371894225689 0.141750282749888 0.08722191870689
-0.325303908727828 0.13914095878549 0.0918785750924134
-0.330219347379685 0.145265224371925 0.0978093783704455
-0.341554883473116 0.140473570778169 0.105251157120589
-0.347491923201643 0.149239012388845 0.112865663349223
-0.35569427097568 0.146561269740804 0.118510756115062
-0.362574140713331 0.141700879651994 0.123945245637909
-0.364191767954862 0.150764160505215 0.134158034167413
-0.368381963151273 0.149493025199815 0.14112340838515
-0.37127837285244 0.147354114318205 0.144945662963128
-0.374813049528343 0.149189085719305 0.153110832677883
-0.380560100413959 0.1422644601992 0.158073164565943
-0.384132888914867 0.144325412918361 0.164883993701079
-0.392358744483032 0.148292014500255 0.180068854718458
-0.395992374556892 0.148714311751689 0.185928926760258
-0.398372988029608 0.149933948814465 0.190369202332026
-0.40155353320659 0.147683171760859 0.19382848747442
-0.406600529515317 0.150891924221013 0.203639156095206
-0.416533166989179 0.151804099307795 0.219503485625645
-0.415237695886018 0.15197891174814 0.21762160785791
-0.422712482281719 0.153624261400735 0.230171413527803
-0.428981799848695 0.144340266014138 0.233900761636224
-0.432270007608102 0.145629507744076 0.239781879233082
-0.437740731015275 0.150307170450731 0.253479440767743
-0.437109580503145 0.151830902641234 0.256748802282736
-0.440361084914513 0.14398107626234 0.276022710438275
-0.439531260876855 0.145984448792872 0.281101147940466
-0.439425816928582 0.146239013013595 0.290306296675497
-0.439155682407967 0.146891175464417 0.302695527047838
-0.439852209729242 0.145209609687956 0.311281036446952
-0.457838366106821 0.148727660577802 0.320471937428622
-0.46446872857964 0.152974503305266 0.320471937428621
0.0474462345303854 0.14250535205712 0.0395236094144583
0.0367960383861736 0.139564843568285 0.0389078132887806
0.026254254725381 0.142594538628829 0.0390587536817479
0.0208550925413279 0.142753289353782 0.0390080006506445
0.0159152760623502 0.141513010109306 0.0388341894740484
-0.00179245599139165 0.141726099543254 0.0386828471185904
-0.0127475059259773 0.135836979158887 0.0382740316325013
-0.0218255425972758 0.145856665300126 0.0393050505181666
-0.0278268817741652 0.145916060204004 0.0393831467720277
-0.0449614878561093 0.144036059655084 0.0395665713787969
-0.0523875236246891 0.147022619847057 0.0400859381424044
-0.0605693696811678 0.142904610498666 0.0400234878043763
-0.0714047902015509 0.139094119426508 0.0400815441804022
-0.0781529832065307 0.14754959665599 0.0410453710067261
-0.0925356108873526 0.142589617924304 0.0413448930037512
-0.0999977936566651 0.149669374135407 0.0422869450976457
-0.113365469292409 0.149059343317806 0.0429966533398622
-0.128591027333895 0.143673821165103 0.0434788385121073
-0.135192544335425 0.150135734474656 0.0444317391991335
-0.143671979308993 0.147792533908646 0.0447758929678618
-0.157907846127171 0.151998371718049 0.0461402061418214
-0.170224704261896 0.151373390467695 0.0471187208280478
-0.171633983968622 0.151250975712502 0.0472274523505928
-0.187716462094935 0.153708600852093 0.0487127772281249
-0.194763169251346 0.151710013026151 0.0491685136262474
-0.20274501607878 0.146819968643816 0.0495181467661483
-0.211121639070218 0.151460828665478 0.050504959803188
-0.230804650057462 0.152202833203848 0.052790876147342
-0.239104203356166 0.1474493084783 0.0542921496776763
-0.250561337571821 0.150649895804703 0.0587820595402479
-0.254913910791203 0.149738103790416 0.0599609061207472
-0.265929296028315 0.155093820770627 0.0648419242769657
-0.274468026417798 0.152464821941492 0.0674981833448206
-0.274214385187545 0.152784375965155 0.0674526063970288
-0.290662253560442 0.159076841388583 0.0746133378597433
-0.295821528839916 0.154198475738588 0.0757928411608628
-0.309301631366963 0.150170634159941 0.0827791524456004
-0.309604948287927 0.153253968037574 0.0840369688322655
-0.318988382180043 0.150755312475896 0.090681061323111
-0.318941125474964 0.160631286419995 0.0938990721025075
-0.335233494188851 0.151631233709017 0.103898429168275
-0.332269254139316 0.159137993619903 0.10401395554638
-0.344891398536046 0.161629143958716 0.114880457413594
-0.355503959398355 0.151262931594403 0.119909202501783
-0.353387597616615 0.159741272572999 0.121019792260052
-0.362063617540409 0.151615003914661 0.130782037268648
-0.366150486928865 0.160373064800392 0.145448985928205
-0.36859325692143 0.157958589780506 0.148191773518649
-0.372850515195909 0.156837619699689 0.155402903513235
-0.37971844236608 0.157177562463325 0.166282772394832
-0.383016826870131 0.158122039613596 0.171959818191969
-0.384915289375107 0.158720137035279 0.175262097868925
-0.390363090670021 0.162646619014537 0.186146903567712
-0.397450530063682 0.162174462983126 0.196751153778099
-0.399885176515374 0.163982478761578 0.201649561889853
-0.407637507929547 0.158974871173775 0.210386256158837
-0.409492781543192 0.15501341849975 0.210716124083854
-0.417366924492303 0.155477421474039 0.223127491372271
-0.419532663763368 0.159557964804431 0.229060502554498
-0.425323106947637 0.156040017311927 0.23572792634193
-0.430607224961399 0.160948832288202 0.246986953571468
-0.430976032471476 0.164402462588881 0.249755541362259
-0.435953040754099 0.154623036706488 0.266352451356894
-0.432260678549579 0.163537187993544 0.277323473196145
-0.432014494972276 0.164131527749752 0.291554762271512
-0.435929643944772 0.154679521603259 0.292739038982323
-0.433224090953773 0.161211304603149 0.304498076426056
-0.440046578084536 0.161732125127907 0.320471937428621
-0.444147715245811 0.160282605659706 0.320471937428621
-0.460603512055916 0.158582990794546 0.320471937428621
0.0504343744355994 0.148533809549135 0.0401460918403577
0.0398947025436911 0.147378051875407 0.0396730795963293
0.025697714887838 0.152702694413163 0.0399812959463596
0.0193361807260738 0.145236910041907 0.0392179448059687
0.00837494908771754 0.153988227279709 0.0398898173022062
-0.00535664107427583 0.145746619190838 0.0390956059119671
-0.00906549308860919 0.155187905087668 0.0400084657038446
-0.0274124452972065 0.154626002538617 0.0401788662812033
-0.0326044384394807 0.155653240169399 0.0403361439721759
-0.0475977489439923 0.156437591189354 0.0407225383781564
-0.0502529623064622 0.153787834407175 0.040589758253991
-0.0666290606803714 0.158145331362214 0.0415441640310081
-0.0673041173897821 0.157035935968642 0.0414730783077643
-0.0816789192198361 0.156331501873102 0.0419228205695024
-0.0919462330736219 0.150442625895542 0.0418893309396638
-0.100715835550667 0.149863172053631 0.0423417342510169
-0.11024633562007 0.152920390360715 0.0431046212919207
-0.124158176973395 0.154070761161058 0.0440571120695834
-0.124394102305701 0.159810626121859 0.0445465554160714
-0.140153328917027 0.160420457588877 0.0455965757301482
-0.156972364685964 0.15377784962298 0.0461757482296493
-0.161683332327903 0.153761192172257 0.0465641177552038
-0.175459896635375 0.158772779987687 0.0480208253298356
-0.192322634884132 0.160491569976977 0.0495237850231758
-0.193617896918095 0.156008301299077 0.0493464820151077
-0.206818457608436 0.159736758253698 0.0506741858677442
-0.222460997696102 0.162492563421633 0.0526462799746759
-0.225428196824379 0.159355015277992 0.0528268937492186
-0.241289266323946 0.161232202211305 0.0584103004198872
-0.235471338687761 0.162370413714703 0.056814632931879
-0.251294115848002 0.16359249849863 0.0622234618284791
-0.261846480469407 0.161015406726306 0.0649906873485287
-0.26791414187092 0.159363297453325 0.0665396925854521
-0.280184798439782 0.16578408969122 0.0720895429379526
-0.293362527137285 0.162997306895491 0.0762383951178076
-0.294097065884723 0.163526191448341 0.0765967681333514
-0.306993645130184 0.165916023960262 0.0861328248708135
-0.313245836077836 0.166408683899892 0.0912710164594479
-0.316521202385954 0.168062224695504 0.0944227967358864
-0.321271056048636 0.162595617509914 0.0964008825809701
-0.327926425919891 0.170555415311707 0.104321488640523
-0.333001679770348 0.169935088457424 0.108156121971479
-0.342766212494512 0.162820002815557 0.113581702194329
-0.35054141370505 0.167483076694444 0.121372178039352
-0.354850004247513 0.169147595265007 0.13087448027807
-0.35963033583442 0.173257542997693 0.143199437955026
-0.362007075991469 0.16993406956822 0.145100851113489
-0.367045244761986 0.165458309662684 0.151154742171131
-0.367617291635806 0.169510192874522 0.155433185622659
-0.375822608839536 0.173872571287449 0.170928707946496
-0.376403296426061 0.171239445189682 0.170144007545304
-0.384354960245085 0.174281085500401 0.184317470474591
-0.388619908782125 0.165057097241034 0.185001017337268
-0.391315061552999 0.172230427036571 0.193719756363783
-0.399803885006392 0.165737672127295 0.202643127074805
-0.401441792384072 0.173082641769608 0.209844515106096
-0.408934096162393 0.165120329797592 0.216297979718597
-0.410715062778781 0.173220726013078 0.224200946951639
-0.417755912566566 0.167213615363424 0.231205893890401
-0.420653362510917 0.169164274627678 0.236907311628135
-0.430025478516392 0.166032445789348 0.24933180495385
-0.428963784216704 0.17149659534115 0.26551540923294
-0.428999888929363 0.171409430850512 0.268983021663503
-0.427308042695976 0.175493909144755 0.282543439325083
-0.43051585044759 0.167749575838917 0.294041469613376
-0.43046361645152 0.16787567986596 0.302824058430376
-0.431282918417133 0.165897709865532 0.307950951077067
-0.432367758622882 0.177375719621721 0.320471937428621
-0.443863692784018 0.166635262649365 0.320471937428621
-0.461865445965873 0.177624270796612 0.320471937428621
0.0507394101933747 0.155497192694274 0.0407534578706329
0.0391879870701289 0.159844807884544 0.0408011719588212
0.0339447962170448 0.155647241774431 0.0403518152036433
0.0187083844425319 0.157087351324447 0.0402997990517612
0.00615773375465152 0.16438837477411 0.040819103777564
0.00341992609082923 0.157768693230128 0.0401773967946876
-0.0102372493532408 0.161383516921349 0.0405922321216549
-0.0130184057280343 0.162091220970955 0.0406909549439149
-0.0262121926256814 0.165999885731131 0.0412099802658806
-0.034992335787604 0.157464124714509 0.0405315263237348
-0.0523265537156089 0.167936070032278 0.0418753962419356
-0.0584976649435848 0.16354016124641 0.0417177877594452
-0.0627389496487445 0.162235943067095 0.0417565595203434
-0.0784628295745285 0.16382999024094 0.0424510810237279
-0.083770667975645 0.160211398734143 0.0423294308159441
-0.0967428031585132 0.168444856416197 0.043518355618256
-0.106661539264883 0.167728526209353 0.0440763001636925
-0.118415174638565 0.166640809242995 0.044731919745406
-0.127658379495673 0.16903337336377 0.0455159954333809
-0.139659455233002 0.166383981472771 0.04605821632751
-0.15379540123005 0.171084872544575 0.0473434539812337
-0.160726371840873 0.168082594934223 0.0475349067360045
-0.168203044272797 0.173846506778591 0.0484856192264585
-0.183804653344852 0.172621706471974 0.0495890727690945
-0.193226184636859 0.1675071093081 0.0500434721765773
-0.206245770019727 0.167584111595212 0.0511246037979949
-0.215072326775989 0.172284311262912 0.0526865548974622
-0.22578276040895 0.169873651647308 0.0555460042093689
-0.235822348612794 0.169374863269636 0.0586623923937911
-0.234545902502248 0.176437767435684 0.0599994262416399
-0.243244757557775 0.175200109036693 0.0625001795414938
-0.261998143008472 0.175174517794814 0.0685457954508319
-0.269684103393619 0.17463573883698 0.0708927356748695
-0.274842962831556 0.17764088808116 0.0733017176208696
-0.288555450714217 0.17534533842131 0.0771584717586025
-0.287174579978577 0.175541991966965 0.0767615439729477
-0.300736667274614 0.178533952679059 0.0862676936597091
-0.30087486102448 0.18092748848015 0.0876173025039263
-0.313286663736435 0.179373211073012 0.0955772720513134
-0.319921922440533 0.173411638530759 0.0988926858298329
-0.326496672245571 0.176677180809404 0.105201666929208
-0.333945559278304 0.17748037296144 0.111394612337919
-0.338772527495842 0.172675574934417 0.113652235281135
-0.34424774541272 0.18401191364043 0.122423160773457
-0.351428477790765 0.179784254009065 0.132745872017894
-0.355061780864738 0.174483738180484 0.135479335912275
-0.360148581969558 0.176929766307231 0.147076612341079
-0.365380132266288 0.175202691192901 0.155662756470774
-0.365610411796805 0.185047912448191 0.162338022146528
-0.37367223501155 0.175373468072217 0.168576583424217
-0.378246281415878 0.178857433219646 0.177834944686222
-0.38259967967978 0.18242159432326 0.186804914756374
-0.384040269389959 0.18432005010557 0.190231446368445
-0.389998944336807 0.18322552926068 0.198702255378168
-0.392734160106547 0.185795298280193 0.204548629621956
-0.398886878423251 0.18558683979163 0.213882723857126
-0.401950126018637 0.1829987375332 0.216946538706646
-0.410828366977254 0.185981421500546 0.23250811548016
-0.412241295873514 0.18496965345967 0.234037300361915
-0.4177303210773 0.185654879343599 0.242919771321715
-0.424464835223601 0.177423323853131 0.248035655862854
-0.426361204774783 0.177779778191812 0.251885155694687
-0.422397485710938 0.187349042916508 0.274522343136584
-0.42431785729538 0.182712855597148 0.282049837217025
-0.424659056278672 0.181889128349495 0.297068989835189
-0.425644218575592 0.17951073607089 0.299521627701902
-0.425224604982164 0.182807991619702 0.320471937428621
-0.428139891092932 0.179624883292608 0.320471937428622
-0.448362069264491 0.184969498875215 0.320471937428622
0.0524248176111203 0.163814442612251 0.0415257899893527
0.048473491597594 0.168734553531522 0.041807075142319
0.0289171184185721 0.172101697053691 0.0418036796324453
0.012298472608515 0.171994194101062 0.0415926564764263
0.0100162808432164 0.173096200958712 0.0416663458390589
0.00407614784049311 0.166967812965511 0.0410310465729888
-0.0161303565889186 0.170016297386741 0.0414571998199658
-0.0161404861610655 0.174796508689338 0.0418967840125272
-0.0252023446594023 0.167001596866534 0.041289848614108
-0.0451369342137201 0.171600961470078 0.0419539581988357
-0.0518322883360995 0.17676313398097 0.0426140575910738
-0.05652697371785 0.176528701129798 0.042760565067092
-0.0676854643148962 0.173002144111789 0.0428544097616797
-0.0769004701806255 0.172150413751941 0.0431084379744596
-0.0856713673875873 0.171346087589194 0.0433561790025957
-0.10782178214886 0.178779970709623 0.0450634479812355
-0.103758846654831 0.176761101799076 0.0446388483514482
-0.120893133201292 0.17934359846902 0.0459391566997085
-0.132763014067169 0.180678629114517 0.0468024230702982
-0.133820369508749 0.174885889682775 0.046390641857017
-0.154415000319034 0.174890877769802 0.0476973737581426
-0.164442024641852 0.183802685284447 0.0490700720932561
-0.168235676799027 0.174786637794634 0.0485654038361283
-0.186521274376175 0.176518956477137 0.0500608417311934
-0.187329965954571 0.184042885881116 0.0506049347888198
-0.210554402004992 0.176558504028445 0.0522869652999172
-0.216843631759919 0.182505840739 0.0557892941915471
-0.217068776090005 0.185468135531215 0.0565954924420673
-0.225113426230577 0.182436732367645 0.0584409476765747
-0.242458737730312 0.181401280060441 0.0637820925378688
-0.251995934017 0.178746893558773 0.0662025703007965
-0.255491566463762 0.186442232273371 0.0692362210880693
-0.260791805211352 0.188888285154282 0.0715523810904884
-0.278697935557685 0.181816344391659 0.0755797174644101
-0.279861756459623 0.190482202860034 0.0782672306557965
-0.296163435703194 0.181832086702852 0.0848718411903882
-0.295200394699176 0.188693167957462 0.0878116291586436
-0.30611508024412 0.187571080044951 0.0946824038733936
-0.310566779449073 0.190209410316929 0.0991082714775761
-0.318463213505728 0.19276965167856 0.105847352609145
-0.324501849039798 0.190046796203324 0.108546350573267
-0.335929139324041 0.18599996388214 0.115781725631678
-0.337857373102282 0.189044147044697 0.118319820801517
-0.347450075157412 0.183888483638106 0.128414226644553
-0.345207894938319 0.189728670788352 0.128750557185763
-0.350962527066885 0.186646503791574 0.137264045877722
-0.354987872690811 0.191309393110926 0.148589067613437
-0.360923863187411 0.187645540516345 0.156782567326384
-0.365726996845331 0.187029936414535 0.163780619383201
-0.370124824365692 0.18838832630679 0.171413136918549
-0.374711045133752 0.193182858597283 0.181525500085155
-0.379711839000529 0.19587434334643 0.190935406211194
-0.382917827858513 0.188995797479908 0.191484403768879
-0.38666606237677 0.197318767612875 0.202556184816583
-0.391791684476526 0.197142794804691 0.210330629685851
-0.392866886258957 0.195537591383371 0.21096194994078
-0.398975565242673 0.195494715055602 0.220333813767496
-0.406429328719512 0.191862998586896 0.229488015888562
-0.406761321965705 0.196005751657823 0.232639160709582
-0.41743826535898 0.192440172284825 0.246794897774523
-0.420548481159699 0.190520904694533 0.250357252223028
-0.420025647784894 0.193075166446656 0.266015304466915
-0.420331809886812 0.192336025716768 0.273781559091568
-0.421287680395062 0.190028350074616 0.294526857210941
-0.42201282674866 0.188277691839267 0.294241040433814
-0.417517947823385 0.199129289959261 0.312151118010493
-0.42367869951869 0.198383444699691 0.320471937428621
-0.433711435596691 0.188879804233273 0.320471937428621
-0.450725066860001 0.190341543097305 0.320471937428621
0.0486036409561214 0.175611200449655 0.0424008047742323
0.0394671045519707 0.178220665794594 0.0424939072715736
0.0270886165095507 0.176024893747859 0.0421422220059116
0.0261834776584081 0.183279585243745 0.0427982160994287
0.0148533473444252 0.175913654757126 0.0419839085936871
0.00248625286790188 0.175358554105518 0.0417831939040485
-0.00604800675431962 0.18341620692677 0.0425670710283549
-0.015223979155314 0.18437808345796 0.0427665590497778
-0.0198114944895868 0.176606527158155 0.042107616590612
-0.0416365883923051 0.18039279342854 0.042719856491946
-0.0545198186654887 0.179297432670714 0.0429265339234266
-0.0560736835010128 0.186489743944321 0.0436337939751703
-0.0628725882808435 0.185215154425022 0.0437821953460182
-0.0796639952017382 0.182811822549829 0.0442203788708172
-0.0888425537789455 0.189285084452299 0.0452095048505275
-0.091065336640826 0.182927727492005 0.0446861514959859
-0.118159455764111 0.185374495545108 0.0462642956313676
-0.117996917059265 0.185240086461578 0.0462428750298978
-0.130829921046799 0.18822084116545 0.0473032740693273
-0.142675165663946 0.183338899882074 0.0476510597460629
-0.150215370645103 0.191313883932002 0.0487885775618717
-0.167082695392094 0.189065507235504 0.0496726145420918
-0.169503127458879 0.191691834702467 0.0500432447919883
-0.177331102060442 0.186826630517221 0.0501375981659297
-0.194789894014825 0.194918290041738 0.051913897810218
-0.207110853210978 0.191165123277732 0.054792668242302
-0.20760714900857 0.19672414547253 0.0563293878168498
-0.216651958919194 0.194779120979134 0.058766622823107
-0.228358147164523 0.188630244886884 0.0610217348846554
-0.236779996444882 0.189978913282275 0.0640735368217349
-0.24752194317803 0.192626839728931 0.0681957934745046
-0.25276776778571 0.199098038948438 0.0714911244253181
-0.26477819414854 0.194570802972045 0.0742459782784552
-0.272557429392523 0.196553866778704 0.0772474934244648
-0.276163802157942 0.201959427354616 0.081758651350017
-0.284307936028574 0.201092268869968 0.0868696903267824
-0.297109114605041 0.19741320418441 0.0936888374506792
-0.295197698015918 0.203521141919175 0.0955855497539286
-0.308827224419665 0.203184155660204 0.104723377401832
-0.31464808816887 0.197104371605471 0.105513180683891
-0.320257729381135 0.194747049887082 0.10811068527674
-0.328621210318376 0.200440557760872 0.116812029968525
-0.339230908165674 0.195575881788248 0.121991807139369
-0.342022314431671 0.200049218498084 0.132023078737712
-0.343856968720849 0.199855384031659 0.1347755063423
-0.346982910068885 0.204000219470154 0.145071291654702
-0.348841494168968 0.204264290353745 0.148436421347453
-0.357730819266936 0.199495540153494 0.159421966737029
-0.359019828415892 0.199364978005797 0.161322103982221
-0.365098513879522 0.19711994510068 0.169244307529266
-0.371386300975422 0.198422431768972 0.17974920442395
-0.374785571827869 0.201311107950612 0.18682058533246
-0.380268241004137 0.205268225923593 0.197778566281117
-0.386505435388065 0.198087170583092 0.202798763957115
-0.387239044000922 0.208223008189447 0.210387458600019
-0.395355879103333 0.198275811071272 0.216536829825039
-0.398222530407703 0.205828198763131 0.225761033758015
-0.400543258096535 0.204555998724257 0.228521031571573
-0.412366441605175 0.199065009428598 0.243213314197625
-0.413838787443929 0.200530296819447 0.246412634580832
-0.413913003918777 0.207832394792178 0.255832162538038
-0.415199139474916 0.204727388758626 0.267198159531742
-0.417390275855346 0.199437517369027 0.278787013889515
-0.416076281086238 0.202609781495198 0.292544064108954
-0.413406309234472 0.209055664022566 0.306970571579898
-0.413410799423037 0.209044823747978 0.312996380379419
-0.422608905629059 0.206738834205965 0.320471937428621
-0.440841673027011 0.203902811115697 0.320471937428621
-0.446694253460601 0.207987816149988 0.320471937428621
0.0516362037775605 0.186844351727933 0.0434909906756317
0.0484918992725946 0.190587120320565 0.043793583451174
0.0400891282712117 0.19183335720862 0.0438080450953062
0.0272633850371689 0.193310106051593 0.0437861661393654
0.0130550759506134 0.192682464336299 0.0435280921658867
0.00601470454273956 0.193459471894389 0.0435126095081984
-0.0158945648970851 0.185675762639152 0.0428939755336505
-0.0173350733274662 0.188840304442529 0.0432023378341365
-0.0213289428233497 0.193406142540036 0.0437153773592422
-0.0304540600885101 0.188937374289261 0.0433778396518348
-0.0387030973855824 0.197889910586831 0.0444148605886249
-0.0549359029106645 0.19246643125668 0.0441637657669122
-0.0764003363784542 0.191753862215001 0.0449510402514936
-0.0752485397449196 0.197585990770226 0.0454665373745327
-0.0802782139034798 0.199113902823649 0.0458141725832711
-0.0938092888009669 0.199414099902405 0.0463826065268883
-0.109633793361602 0.195250385578306 0.0466127746020679
-0.122397768310059 0.196392131382434 0.0474438909768894
-0.124078350491526 0.197145053396979 0.0476127298119331
-0.138707887308118 0.193655941598265 0.0482522598951974
-0.152856613440268 0.202977299151936 0.0499202531322799
-0.158906566693323 0.203601047625976 0.0503555636622397
-0.175316886622637 0.20118909381194 0.0511970908867899
-0.175690544917068 0.199274619851728 0.0510625345356687
-0.190890994545714 0.207288528444096 0.0547821251630689
-0.200650816107333 0.204285629511051 0.0562298381149456
-0.207077550733868 0.20422867606734 0.058016797045949
-0.222095142819894 0.198457238195488 0.0614340042418491
-0.224596902411954 0.209348745466331 0.0649383743627399
-0.23920352132869 0.200830401322504 0.0675427498160314
-0.249270133697189 0.206976456015275 0.0723132952572008
-0.250427494119707 0.209935998443171 0.0734196497893033
-0.267154776970606 0.206835913863901 0.0781590223419365
-0.270474540343943 0.202104984832709 0.0779499203917167
-0.279621973134543 0.211643866884804 0.0892005000357881
-0.279585104629134 0.211130058569193 0.0889058635835886
-0.288826279633986 0.210702604829581 0.0949972108738589
-0.293429605806636 0.205403478482562 0.0953643134041204
-0.306038418117686 0.210317165542594 0.106558019609137
-0.310382471121569 0.204543939526494 0.106499315456424
-0.318341139171723 0.207354852693471 0.113412379721724
-0.330725162659457 0.206902540782743 0.122164784593467
-0.331940910684668 0.206527891811143 0.123680274960038
-0.334721763175356 0.212494134277383 0.135694410767076
-0.341325511714744 0.206978649475235 0.139566225927058
-0.341911269164962 0.211201928673769 0.145813184115343
-0.345871972908063 0.211235415714748 0.152321367273305
-0.353539140961055 0.215337235965195 0.16729388560814
-0.358128962857612 0.213718926953551 0.171717592646942
-0.358479977084642 0.212058344903585 0.170497794492868
-0.366073973589781 0.21598581846909 0.184513460958671
-0.372699932269412 0.21031147224864 0.189347734458344
-0.37947308625055 0.211949188405238 0.200813100113923
-0.383506201068975 0.208953227357885 0.20510927002937
-0.38615009937303 0.211466545222572 0.21077915931665
-0.392811448615752 0.214690905704672 0.223083718498529
-0.396158715495606 0.210263287083829 0.225412155670392
-0.402691351302139 0.216128981246635 0.239202081543926
-0.405641874707611 0.21674025085689 0.24413152212508
-0.409370784868665 0.217454308255496 0.250324146800369
-0.411631801901108 0.213339703873865 0.265073169655448
-0.410151443771127 0.216913604699067 0.273742899644855
-0.408846662523489 0.220063625415812 0.27728702592641
-0.409445725944863 0.218617358318252 0.290932807652052
-0.41166578300679 0.213257666224207 0.308944588331957
-0.412267883427389 0.211804067161622 0.314483585723625
-0.416335455824135 0.213734057729963 0.320471937428621
-0.428618883903587 0.212749351266735 0.320471937428622
0.0582584862935749 0.198137532465305 0.0448421725031083
0.0512724015784717 0.199894713356312 0.0447929098493539
0.0361787387014068 0.194642860947583 0.0440450957235249
0.0275185805249166 0.202310040280066 0.0447193654470653
0.0164775225804319 0.195977638390586 0.0439150426261555
0.00637573996242005 0.197334959757508 0.0439178728035167
0.00331130425039493 0.200699895282571 0.0442238068769777
-0.0162626857421985 0.196084850727964 0.0439231962246833
-0.0275713204722053 0.201624186592216 0.0446492313423622
-0.0350691610832753 0.199269072266008 0.0445079110712826
-0.0393589949076954 0.205031687453829 0.0451615545692707
-0.0556793875795963 0.200201014792157 0.0449379728258689
-0.0656041580754586 0.207140300018066 0.0460017143740759
-0.0794945270336606 0.206062806024689 0.0464518527790288
-0.0814199911349586 0.204450907891513 0.046373460745273
-0.0979095935571412 0.206158735102248 0.0471953665357464
-0.107252526252981 0.202967964959087 0.0472607489505934
-0.123264362132993 0.207407661455283 0.0484094437839492
-0.127419241824758 0.204371405915119 0.0484220000619255
-0.14782104709037 0.206000280140501 0.0498507374844896
-0.153965842937614 0.21050493154701 0.0506128737554404
-0.156926126266649 0.206844914096463 0.0504980941836573
-0.176715632458985 0.208200764435072 0.0518654242429574
-0.188374664278233 0.208455035345818 0.0545354626390839
-0.188921865989675 0.216344159495791 0.0572168834079207
-0.198885605687068 0.214008931511513 0.0589305575975888
-0.204037350822563 0.211380181470192 0.0593579333002569
-0.215827058398421 0.209484544455743 0.0621418629452956
-0.222810659442166 0.210870216565616 0.0647386872001536
-0.237381057904849 0.218318316778856 0.0712850813517051
-0.246244044762608 0.21102629926808 0.0723395850338657
-0.246407897269034 0.217725028929555 0.0740512422381277
-0.259752871682948 0.217995958124182 0.0789528003924097
-0.264542032844348 0.216335176428409 0.0813548458013372
-0.273206902135423 0.216641849108956 0.0874373151175509
-0.278449827010055 0.217993842691267 0.0917293608572023
-0.291319694238055 0.214102607167775 0.098484188416818
-0.295455214393088 0.215714868970444 0.102155907869304
-0.296837830470002 0.219714678889887 0.105198293611267
-0.309829791346933 0.214877454070768 0.111540485956998
-0.313634313599604 0.223949428224254 0.118897858494581
-0.31719472864586 0.225546626410137 0.123431150213478
-0.324682890081053 0.219861275402936 0.128534057697384
-0.328330463533019 0.222706820892869 0.138053791150712
-0.33266343321011 0.220454776327446 0.142306567623901
-0.333697698743686 0.223658919352171 0.148009050520839
-0.347152843987225 0.221110671482507 0.164709220935729
-0.344109854819037 0.221525959323441 0.161109624721653
-0.349579543352257 0.228305920639945 0.175210490934756
-0.353796519163414 0.228406379502234 0.180884142018651
-0.36232859214768 0.219430766353221 0.183057438134721
-0.369717620193274 0.227047363932787 0.200542512920667
-0.374436328292229 0.223382359159248 0.203061466287312
-0.37211240084096 0.23016117870663 0.206863635628226
-0.380650516845217 0.225124613852095 0.213038531488093
-0.388386412466555 0.224442122846288 0.222567860652109
-0.392332916107392 0.224683929545977 0.228716317881118
-0.392566430991155 0.23092216282848 0.234660637180492
-0.403890836387507 0.222243437728379 0.244944637474453
-0.40709263440149 0.224298224075205 0.258138844500364
-0.405254439583891 0.228736019121178 0.26204416590026
-0.405849683581675 0.227298972928239 0.269547581354724
-0.405078146311386 0.229161628748555 0.283423248039747
-0.404999530894175 0.229351423162996 0.296260098319803
-0.406454667723151 0.225838411947309 0.307028426468023
-0.416393346774472 0.225184853571941 0.320471937428621
-0.419539060119842 0.225938624534866 0.320471937428621
-0.429669084969047 0.233755374596273 0.320471937428621
0.0542007029496043 0.211317054111771 0.0460127081017466
0.0420897027023824 0.210404852458879 0.0457537618275438
0.0403420147975048 0.208534891634431 0.0455368185833715
0.026874680829017 0.212772450777306 0.0457914164122456
0.0181767803488222 0.208677922321453 0.045250142171121
0.0101621264868864 0.207201146890352 0.0449885844140435
-0.00378531902578981 0.210582499886602 0.0452511654216466
-0.0194809016988167 0.213174788912987 0.04573242248116
-0.0339793112265616 0.208669971985079 0.0454642387722095
-0.0360924990595532 0.216560773000329 0.0463081293641837
-0.0540318240202547 0.214780497976921 0.046368198759986
-0.0513624181509046 0.209341681192535 0.0457700430902962
-0.0746597769044047 0.209819928507045 0.046620748179836
-0.0683279381020575 0.215083255375814 0.0468749420873377
-0.0892438639323004 0.216614057715952 0.0478563012369066
-0.0981225230868405 0.220794484637279 0.0486127517511956
-0.0986952778962309 0.212090375952651 0.0477976978926799
-0.122057714892378 0.218498554677522 0.0493461242768464
-0.12906926450538 0.218809769185793 0.0497201899607072
-0.13340063279288 0.218811270306884 0.0499950531884594
-0.152970356124519 0.221859015398427 0.0514883007087814
-0.155073840247124 0.222258816962272 0.0516547740084531
-0.169257310589081 0.223046005593276 0.054510196947706
-0.174450083988863 0.220874309789361 0.055095229455825
-0.188131322536514 0.226378683750523 0.0602593911548158
-0.192724381668002 0.226205835923236 0.0613409721102844
-0.201212252391278 0.225138055849496 0.0630982040329349
-0.220944663311024 0.22408025174788 0.0676430964692501
-0.222082149656494 0.220386158105024 0.0668599829271691
-0.222157114822512 0.229584707021949 0.0697196878499801
-0.24263682912846 0.227853891185108 0.0753424413130161
-0.243796478953682 0.225023343960724 0.0750157576543563
-0.253149273780547 0.232051099158116 0.0818103326601579
-0.260540002153056 0.230055765398809 0.0858148743132478
-0.264634893792217 0.232555816550447 0.0899243830446137
-0.279191444470597 0.224446664697079 0.0956200375334187
-0.278416976003875 0.234266923438927 0.100240485176621
-0.290127856232545 0.233686351435828 0.107939356592767
-0.298087485708745 0.227965991820801 0.11037929342469
-0.304916200217948 0.235164852715097 0.118821169225037
-0.306264155217702 0.229465905295729 0.116753855936537
-0.314789153953084 0.2366880437327 0.133461066948295
-0.31863855368584 0.235009927963611 0.137643349676741
-0.323646343883661 0.234135498112851 0.144723623109954
-0.326745714315522 0.233677710303754 0.149210158638817
-0.332392566162081 0.233759845998123 0.158031180591302
-0.338703739739287 0.230826847573961 0.163396371478101
-0.3455536559746 0.233866821332962 0.17552910630205
-0.350151541849124 0.234117268170495 0.181858111495226
-0.352397831940066 0.23268864771482 0.18337767600693
-0.354921929690906 0.238521468045622 0.192626334113841
-0.360573217146467 0.237222340686533 0.198776136272494
-0.366243545197642 0.240451575232279 0.209542188862559
-0.37320087242948 0.230768110017686 0.208917149044681
-0.380165244071268 0.233589796881465 0.220979800581752
-0.382961970519188 0.231704586359226 0.222763729834711
-0.385639033703772 0.232867009963645 0.227479403019225
-0.397110599609129 0.235282215054708 0.245085201924512
-0.396928032991414 0.234961147803629 0.244518465591116
-0.403634544580174 0.232646791773603 0.253140085282663
-0.398051718948837 0.240067943995899 0.261690500652241
-0.398509682327716 0.239471114482296 0.287440379899136
-0.402130968252818 0.234751762636778 0.283535284142251
-0.398501992764654 0.239481135716295 0.303648200845907
-0.402443241929045 0.234344799646094 0.307737104264716
-0.402145075418481 0.241353361146054 0.320471937428621
-0.418516339491228 0.233618682874155 0.320471937428621
-0.436570522431019 0.236575995390358 0.320471937428621
0.0582373742516934 0.218862133962477 0.0468470441313442
0.0432037491613202 0.212391787351037 0.0459741712903608
0.0379093916902994 0.216643982518458 0.0463414353490753
0.0185451118056943 0.219127527765108 0.046334636889361
0.0160313341557713 0.214986631823473 0.045872678129991
-0.00342918942090848 0.216954874656849 0.0459046133469889
-0.00394270920382667 0.220064818555239 0.0462328667617316
-0.00614210586247161 0.217684034360181 0.0460168346773932
-0.0149915171965884 0.22259692698791 0.0466447097613072
-0.0353320985832445 0.217589263898569 0.0464040349021248
-0.0417805570658454 0.228142811369743 0.0475819583157035
-0.0576397439440756 0.228177301063151 0.0478012097015383
-0.0692537821152379 0.229704995287363 0.0483194053127048
-0.0745062148559435 0.230364888583705 0.0485923638548246
-0.0898414606637567 0.2288896404599 0.0490618256554171
-0.0945173157297282 0.22178877936979 0.0485647130506187
-0.112163221297535 0.225423792028565 0.0496182435392937
-0.124176856801716 0.225159242795689 0.0500718066569118
-0.130067398073334 0.232924706862868 0.0510542192613354
-0.136505892182732 0.225470231412297 0.0507424745961449
-0.143218345885831 0.226118784749971 0.0512218580605839
-0.163219559593057 0.230447836308345 0.0554037561408519
-0.160279686464286 0.228564541763886 0.0540680041685969
-0.171760207139485 0.228450202183354 0.0568739814086113
-0.186316763592502 0.231790287753892 0.0615564516041886
-0.193541467284461 0.236770320752289 0.064952595631499
-0.20462113405767 0.237779488371882 0.0680218808735054
-0.209231940812677 0.232743294315958 0.0675383937428527
