ply
format ascii 1.0
element vertex 833
property float x
property float y
property float z
end_header
0.313379289777136 -0.115175874466929 0.0869278655004799
0.321154312884151 -0.112309617334275 0.0960573388941916
0.328480123695158 -0.111368700967281 0.105669479237867
0.330341984041459 -0.110371510252904 0.107677268689428
0.336488002148012 -0.111428622171593 0.116801348018218
0.342793657419988 -0.105986726591741 0.122416061866889
0.348422991425656 -0.113535695502251 0.134550599571387
0.352222276686296 -0.109579916922874 0.137545006020453
0.360929029111539 -0.106802165253197 0.148016492246126
0.363189447803541 -0.110389948577623 0.153208501948556
0.36220767865281 -0.117510649587833 0.155935408767689
0.36815195488055 -0.117258732180258 0.164028494553986
0.37674171421007 -0.111757845370309 0.172774701436374
0.38179287915062 -0.118123978737323 0.183429023943916
0.390174058964169 -0.115059144297473 0.19328453263136
0.393621506882893 -0.113295461589318 0.197049674260081
0.396469744518949 -0.116276046824194 0.202707747825811
0.403150293194236 -0.113097418919204 0.210141168751037
0.407144797713419 -0.119229704537011 0.219196916365428
0.414767159709973 -0.112430713031075 0.225857340613274
0.42014395090929 -0.113338750377513 0.233829837895402
0.420937195193962 -0.111880868860046 0.234436053839566
0.426864528358801 -0.113508136167768 0.243569591359562
0.434702619575421 -0.109765852094661 0.254493445113706
0.438547964103051 -0.119039863055591 0.262607056605999
0.440633391767728 -0.114859850567817 0.264310845870581
0.450733868854812 -0.109785932752147 0.278338526270527
0.455116569607167 -0.11784036513647 0.286433307064748
0.455881866051208 -0.110867851770779 0.286206287475314
0.460861315044871 -0.12092127874207 0.295579914463162
0.465401856043875 -0.120126265936594 0.302176803533746
0.474491085572851 -0.117873286978048 0.311425090069647
-0.0205893470913247 -0.0913579659337506 0.0124570036027855
-0.0154981948456171 -0.0900146865240925 0.0124570036027862
-0.00115130157349428 -0.0889781376763669 0.0124570036027859
0.00713909130846305 -0.085402078104296 0.0124570036027862
0.0226081424897318 -0.0923907577888698 0.0124570036027859
0.023925829498877 -0.090063907552692 0.0124570036027859
0.0357101868175434 -0.0909699906302695 0.0124570036027859
0.0502091982757945 -0.0965899150945511 0.0124570036027859
0.0579453105687389 -0.0906725697104231 0.0124570036027862
0.0773112393664537 -0.0967105378392997 0.0124570036027862
0.0786350306160158 -0.0876785565029112 0.0124570036027859
0.0994683141557956 -0.0917063745526451 0.0124570036027855
0.0996966007403623 -0.090282283011759 0.0124570036027859
0.112060578770484 -0.0938916268439325 0.0124570036027859
0.12187311501237 -0.0980492713988091 0.0124570036027859
0.13357249048502 -0.0936844120661958 0.0124570036027855
0.146808429570333 -0.0970120144302259 0.0124570036027855
0.153749222962039 -0.0999229752935322 0.0124570036027862
0.164626488225615 -0.097520781671571 0.0124570036027859
0.18477873951141 -0.100401209654544 0.0124570036027859
0.191475369948664 -0.0920411439108328 0.0124570036027862
0.208633371891385 -0.0958427418140555 0.0124570036027862
0.214251404112349 -0.100499294215324 0.0124570036027859
0.222907327048885 -0.0940083372298194 0.0124570036027859
0.239694252234163 -0.101521414487576 0.0124570036027859
0.244128765693706 -0.0983758004665032 0.0124570036027859
0.258453738049874 -0.0955120501291461 0.0124570036027859
0.26752936471556 -0.0927147903224742 0.0124570036027859
0.272403356147263 -0.101153098682922 0.0220931999387447
0.27678018419351 -0.10335109229175 0.0294203963204315
0.281861053315805 -0.103357223541559 0.0364650822961987
0.284459350997686 -0.100844167227393 0.0386232958436443
0.294901529428699 -0.0978916297856232 0.0513994374909056
0.293694746369021 -0.0944169401171542 0.0477324949842785
0.305037608701256 -0.0980154674278929 0.065517297681646
0.308680506594022 -0.102956544382638 0.0734019983178107
0.308683035174512 -0.102639106134336 0.0732232849358177
0.315239218206025 -0.103941550710032 0.0830566058481742
0.320523823327729 -0.09415370291362 0.0847616428268969
0.328369771081413 -0.0961099724256596 0.0967576565383182
0.332094337533763 -0.0976941466152217 0.102828588432012
0.338652091412683 -0.100637673331794 0.113606108674718
0.340243791060997 -0.102771602581889 0.117036845819968
0.343431910640587 -0.0983780865790658 0.118933014783974
0.349272679360867 -0.098140822255854 0.126891069107795
0.352263677536105 -0.101903187310052 0.133195744260743
0.360258812218847 -0.10373334748888 0.145326114168845
0.364756607041291 -0.101255651449785 0.150136985198786
0.372311086059375 -0.101843591326788 0.160943620289408
0.375071399016862 -0.0978585334807281 0.163480518876015
0.381738784128 -0.104085814102663 0.175295798477856
0.386258742610014 -0.0969592121467423 0.179941892868836
0.3908208108781 -0.0965736026312632 0.186650953368672
0.391417918909297 -0.099680229861424 0.188147197236996
0.400849714427435 -0.100060765328634 0.202248359805285
0.401740697352928 -0.103250268610491 0.204197871047543
0.409683309311096 -0.0995442350581674 0.215284262093524
0.415017479684672 -0.102764535340251 0.223847566103824
0.418510150060131 -0.106945264552624 0.229860293245347
0.424087311025921 -0.106224634588772 0.238013372988457
0.43031328932975 -0.10333634046027 0.246706947231083
0.436316821484141 -0.10484082004112 0.25592976487437
0.436729834546764 -0.101821871210788 0.255952906549301
0.444327721881489 -0.0988365363501906 0.266667739494482
0.450813083879779 -0.10428369313968 0.27737905268675
0.45199527858842 -0.107268317116516 0.279721531394645
0.462200936434965 -0.104048765514815 0.294268698221152
0.461688824611352 -0.105387168815822 0.293769147296999
0.470257665160643 -0.10177997937317 0.305806197638939
0.472961410949381 -0.108136752549354 0.311071708038238
-0.0157195239984126 -0.0821953778798083 0.0124570036027862
-0.019687873421642 -0.0817181872128882 0.0124570036027855
-0.000507317492320679 -0.0841892562878216 0.0124570036027859
0.00176512170779019 -0.0805203587509726 0.0124570036027859
0.0171064435495812 -0.0822306180005869 0.0124570036027859
0.026759065742515 -0.079733735637768 0.0124570036027859
0.0398820974760437 -0.0810260050064974 0.0124570036027859
0.047295882986861 -0.0791720335454531 0.0124570036027862
0.0584532543453661 -0.0808287299836087 0.0124570036027859
0.0742473258848129 -0.0767412507881231 0.0124570036027859
0.0779986252919655 -0.0831529700336361 0.0124570036027859
0.0915901448463405 -0.0851281468998181 0.0124570036027859
0.106223689873429 -0.0785463251951827 0.0124570036027859
0.112931686038439 -0.0873152788525135 0.0124570036027859
0.128992796989772 -0.0872081935741025 0.0124570036027859
0.129178575347926 -0.0879632907245671 0.0124570036027855
0.152834839729975 -0.0846993374769047 0.0124570036027859
0.150332570089887 -0.0836301578331246 0.0124570036027862
0.166834692298455 -0.0801910929342137 0.0124570036027859
0.186575796056586 -0.0901942140798435 0.0124570036027859
0.190672393241548 -0.0866091079612934 0.0124570036027859
0.202709384300714 -0.0801214934347202 0.0124570036027859
0.216418205550407 -0.0898815998324116 0.0124570036027855
0.232391840151667 -0.0830134202363732 0.0124570036027859
0.23212080727895 -0.084265786675404 0.0124570036027859
0.248494662322774 -0.087232109152006 0.0124570036027859
0.262689648640208 -0.0883802214845108 0.0124570036027859
0.270186664455768 -0.092166974639885 0.013863004624584
0.278804116099124 -0.0914427363512912 0.0253895044269409
0.279113629075863 -0.0910710390892573 0.0256050699072722
0.282717273165151 -0.0877995074874838 0.0287211280184091
0.28672259596338 -0.0909460921056416 0.0360780003528409
0.29088458546873 -0.0897693848931138 0.0411703061981511
0.299963295967432 -0.0880586122188512 0.0527697318766967
0.309564993449107 -0.082705294463143 0.063094693212039
0.312138418908791 -0.0887662621715952 0.0700484610829345
0.315526549488877 -0.0924128453596645 0.0768370282837831
0.320788194988524 -0.085724491826771 0.0803765979568176
0.326383656673306 -0.086654470650094 0.0888800654503843
0.325578551405092 -0.0848104989482846 0.0873217093216336
0.335297086382582 -0.086971792263995 0.10219795474706
0.338744147231609 -0.0879046798347846 0.107506960289053
0.346271007521879 -0.0888463929498017 0.118885038065252
0.347631175507167 -0.0914939849002318 0.121426205548445
0.348727712291104 -0.0882494175496847 0.122421687655556
0.360198993317271 -0.0859951579696063 0.139040041716811
0.361688456439307 -0.0871280069460863 0.141476922249524
0.368725009311853 -0.0861107653978935 0.15174228853165
0.373680238560363 -0.090916229315754 0.160052401755272
0.372840244519275 -0.0904394382452255 0.158709839507459
0.38097536036921 -0.0857375815131931 0.169887544533213
0.387008561251257 -0.0893465704358052 0.179566524924172
0.391443139669938 -0.0884457933733008 0.185985122402503
0.392627482656402 -0.0909609616363103 0.188238881558799
0.400762898538808 -0.0930002215274801 0.200736871209237
0.401915199294499 -0.0921092917234597 0.202276100691436
0.410279454801096 -0.088157443236516 0.213941418300439
0.416822810166911 -0.0945642209003266 0.224926860820096
0.420820290801521 -0.0966527487445516 0.231280694650811
0.424716777088874 -0.0963371763338045 0.237013635913608
0.434225379762945 -0.0911125933866286 0.250131601426639
0.434238624277898 -0.0934343287303964 0.250605869146723
0.440451908631078 -0.0930687221201492 0.259774480555017
0.443937899661208 -0.0966967398559019 0.265669059405974
0.450486063041756 -0.0975828230248699 0.275580759401651
0.45564485599996 -0.0882161795664862 0.281418859098845
0.459284921449534 -0.0942748998456237 0.288018477908054
0.467331442309034 -0.0896932553406539 0.299087963628179
0.470596071062196 -0.0934568632270881 0.304679886840239
0.474745399358999 -0.0977070520028608 0.311425090069648
0.484406550627598 -0.0949015737705665 0.311425090069647
-0.0272415159962722 -0.0706701845583051 0.0124570036027859
-0.0157726129331011 -0.0695525576025104 0.0124570036027859
-0.00252750709987728 -0.0655525511689424 0.0124570036027862
0.0059434535289837 -0.067094978077108 0.0124570036027855
0.020864624396435 -0.0735298389664215 0.0124570036027859
0.0237874051590557 -0.0750924535759251 0.0124570036027855
0.03856523497075 -0.0678614821557402 0.0124570036027862
0.0475441245976842 -0.0749564736916123 0.0124570036027859
0.0559943767459251 -0.072599438292942 0.0124570036027855
0.0775527272936428 -0.0672559621572178 0.0124570036027859
0.0805145168710809 -0.0695879552618323 0.0124570036027859
0.0893182214143106 -0.0756024262544299 0.0124570036027855
0.110732976114636 -0.0742790027855622 0.0124570036027859
0.111261647623401 -0.0769623745974907 0.0124570036027859
0.121409928857699 -0.0710457294813903 0.0124570036027859
0.126894263044554 -0.0774338942640849 0.0124570036027862
0.137821036655384 -0.0757191637253759 0.0124570036027855
0.159318170933278 -0.0767071918990747 0.0124570036027862
0.167785566587256 -0.07592825890233 0.0124570036027862
0.184938826472009 -0.0698148052812549 0.0124570036027859
0.181985786312818 -0.0760635111799047 0.0124570036027855
0.202828306978107 -0.0783486867947393 0.0124570036027859
0.209522716305611 -0.0695716241549007 0.0124570036027859
0.222086954532323 -0.0802051660294147 0.0124570036027859
0.238413969177816 -0.0739779524001665 0.0124570036027862
0.243807422868509 -0.0810334434782622 0.0124570036027859
0.25590577733213 -0.072983606425262 0.0124570036027862
0.262201449805283 -0.0771816732490713 0.0124570036027859
0.277063788225324 -0.079914817784898 0.0163604093057302
0.287517623348857 -0.0716889691634628 0.0281496870325538
0.288385522670435 -0.0760881535796194 0.0303017117024776
0.290873186552115 -0.072190588773368 0.0332381826213151
0.296157055651443 -0.0725684268257539 0.0411701565647487
0.300272651643059 -0.0723444184362464 0.047246877867654
0.303789892165631 -0.079767426940251 0.0539309484834011
0.314441409854975 -0.0770414240968219 0.0692378150450973
0.317256072122356 -0.0782425332072861 0.0736588530052886
0.322937289523603 -0.0759550748876794 0.0816599138670302
0.325267681087472 -0.0771043353867978 0.0853506088737366
0.330890326419901 -0.0802912113323176 0.094336379280352
0.333509483487712 -0.078547189649767 0.0978900432403131
0.33939514561438 -0.0769055404338455 0.106321590115541
0.34123626351245 -0.0737349898616273 0.108438880594229
0.349992677356128 -0.0780671933298885 0.122309331892245
0.35309083253432 -0.0745887547610246 0.126235765927085
0.360985439240927 -0.0751164415931823 0.138079682234162
0.36385287899999 -0.0792069383063768 0.143144920296188
0.367601128279485 -0.0776846848084875 0.148421153098135
0.37165402411212 -0.0842446838190317 0.155732864756278
0.377514133161367 -0.0831281332658811 0.164229218624043
0.381394128283725 -0.0793907060298135 0.169267672244631
0.384389101117975 -0.0811764271438464 0.174071322950411
0.394344585003487 -0.0748910999638521 0.187646193226089
0.398088442125016 -0.0817023233230867 0.19454749965754
0.403786731811981 -0.0793028694516082 0.202552022334804
0.405473475855871 -0.0823152472630535 0.205650284214837
0.413272997784913 -0.0816473440760196 0.217118709831755
0.420324955825749 -0.0807840518318879 0.227437127800972
0.422735613291258 -0.0775411120493081 0.230387245863911
0.424678089604881 -0.0775555152045546 0.233278853086649
0.429737835130688 -0.0806150630302565 0.241402567830186
0.436800457861071 -0.075804064711218 0.250963927413934
0.438213077412555 -0.0764834497203636 0.25319774531447
0.44845822981321 -0.0789785730132271 0.268922519280708
0.452617167244925 -0.0821916567497659 0.275736642377001
0.456862193849908 -0.0768711665832179 0.281008012114585
0.461217446148328 -0.078701312800229 0.287843323906836
0.467800199478253 -0.0816481993823549 0.298209948177508
0.470515770606956 -0.085413418276163 0.302985646267006
0.483233251776723 -0.0814359833092149 0.311425090069647
-0.0209726322987237 -0.058953016747793 0.0124570036027859
-0.0176763763603306 -0.0546711286383123 0.0124570036027859
-0.00333308397126913 -0.0607970546480005 0.0124570036027862
0.010575329695635 -0.0590084495107481 0.0124570036027859
0.0156543662347183 -0.0567146556311304 0.0124570036027859
0.0243559001500755 -0.0579727075916291 0.0124570036027859
0.0412208372573006 -0.0563149494270842 0.0124570036027859
0.0407934312443963 -0.0632933836745021 0.0124570036027859
0.0653574320961945 -0.0629036094951278 0.0124570036027855
0.0733669270525836 -0.0659742306716147 0.0124570036027859
0.0796687584416777 -0.0584048090868715 0.0124570036027859
0.0858630037665201 -0.0635017951849243 0.0124570036027855
0.0990552183441757 -0.064333502091566 0.0124570036027859
0.113962906986159 -0.060436235902382 0.0124570036027859
0.12407714559316 -0.0610652812532144 0.0124570036027859
0.126209286132375 -0.0672247341219274 0.0124570036027859
0.143577015419693 -0.0625439404983927 0.0124570036027859
0.15311242900979 -0.0609582477828717 0.0124570036027862
0.165533798471729 -0.0618796732437973 0.0124570036027862
0.176711616760247 -0.0664526927741944 0.0124570036027859
0.193819552384443 -0.0667804526626063 0.0124570036027859
0.205373087541928 -0.0620469334630063 0.0124570036027862
0.213738293059627 -0.0622097852847814 0.0124570036027855
0.219657953757074 -0.0605326048189706 0.0124570036027859
0.236386153235553 -0.0692258042394793 0.0124570036027859
0.239274230453125 -0.0622233171703373 0.0124570036027859
0.268576152943837 -0.070632644866059 0.0124570036027859
0.2691770893111 -0.0671903611776461 0.0124570036027859
0.27580329740019 -0.0614529523606152 0.0124570036027859
0.28508131172988 -0.0660635376471438 0.0234250848464131
0.287511706948677 -0.0648647596445054 0.0268047812305864
0.294925831718305 -0.0656881313549843 0.0379920324484592
0.298247754928319 -0.0665298936931668 0.0430970960422648
0.304856063444226 -0.0655430844050378 0.0527315496347288
0.307313766489872 -0.0650637511363649 0.0562927168982634
0.310688081251214 -0.0705737542965107 0.0623896870418705
0.313832553802801 -0.0701571016968293 0.0669844676554013
0.320452512046664 -0.0611297386745702 0.0750619920488567
0.325131337578035 -0.0717860883892524 0.0841065874712056
0.329302630754915 -0.0674316055761868 0.0894574371584421
0.336374746852251 -0.0615776088656368 0.0988287070542092
0.340327576832805 -0.0662887333709398 0.105629614226494
0.344830501377054 -0.0701988520532559 0.113091775681415
0.349409362621999 -0.0646186197015968 0.118808758638935
0.352277705665984 -0.0677726527166371 0.123691990475742
0.359140095980996 -0.0707535589038612 0.134481142398558
0.36154464312597 -0.0695135549817892 0.137814326779355
0.365907456501895 -0.0703623504678982 0.144468745197557
0.375350302142778 -0.0618116749145768 0.156837705697331
0.37659729955761 -0.0673244418419881 0.1597715401794
0.38039024370737 -0.0662702183488167 0.165205876992068
0.389375303713748 -0.0708901213493654 0.179472691871388
0.391755008101032 -0.0708127550951925 0.182996562917086
0.400662611131971 -0.0679755143303783 0.195688157445193
0.400622395437264 -0.0661393274228562 0.195268844251531
0.407200576138773 -0.0729386846391145 0.206382940742556
0.410066003184264 -0.0703062827240766 0.210128914024853
0.417091742013859 -0.0720352589603323 0.220915878041622
0.420990281648398 -0.0658398235471561 0.225500658782471
0.42597622741557 -0.067520126920695 0.233244579649079
0.433378369646605 -0.0728213453468911 0.245290725249205
0.435871236672577 -0.0649320235252272 0.247453390848817
0.440374994677843 -0.0728161958789403 0.25569486893981
0.446842220511217 -0.0741853659667068 0.26558078450666
0.454239302506333 -0.0703795189348846 0.275836338824634
0.454643784496109 -0.0709012109493591 0.276540012918298
0.460366286567007 -0.070546273827424 0.284980837940382
0.465312665668821 -0.0661536035923371 0.291476893375536
0.472235697105882 -0.0675017816181252 0.302036558106852
0.476568024680769 -0.0716638497819153 0.309294342338487
-0.0276542089101467 -0.053132032198986 0.0124570036027859
-0.0159622169494557 -0.0511245362683336 0.0124570036027859
0.000941082045125537 -0.0507067269616153 0.0124570036027859
0.004155092567053 -0.0471365805382699 0.0124570036027859
0.0209577753117414 -0.0483815673347262 0.0124570036027862
0.0268034602109405 -0.0499774936551917 0.0124570036027859
0.0443039506829748 -0.0518078043117821 0.0124570036027859
0.0486037471896988 -0.0471715866979992 0.0124570036027859
0.0584251790697383 -0.0561259176736592 0.0124570036027859
0.0754501888558518 -0.0463427902681854 0.0124570036027859
0.0832194649143362 -0.0564345952050122 0.0124570036027855
0.0874959050897936 -0.0476519121020583 0.0124570036027859
0.0999073181739077 -0.0544062518469639 0.0124570036027855
0.118699999520313 -0.0559096168827591 0.0124570036027859
0.124700640606205 -0.0497671631372239 0.0124570036027859
0.13598634460035 -0.051209487783929 0.0124570036027859
0.144902497654353 -0.0496920027310043 0.0124570036027859
0.154431694268656 -0.0520340657406887 0.0124570036027859
0.171866306563962 -0.0498053938771448 0.0124570036027859
0.179620985756254 -0.0519821969205355 0.0124570036027862
0.190016275520714 -0.0514208197618573 0.0124570036027862
0.204806416694997 -0.0521917603807559 0.0124570036027859
0.212614800594978 -0.0518727659028827 0.0124570036027859
0.217441950584392 -0.0526855170047019 0.0124570036027859
0.230637855988679 -0.0588090148927293 0.0124570036027859
0.255896063443756 -0.055455164272942 0.0124570036027855
0.257059566784684 -0.0573428522641895 0.0124570036027859
0.266056192572877 -0.05196772374689 0.0124570036027859
0.276638939517306 -0.0595256684464668 0.0124570036027859
0.285130696472641 -0.0526865742141472 0.0208794620700087
0.288965690342251 -0.0588983365728959 0.0277989360496427
0.295423984293071 -0.0582123005621714 0.0372691810735076
0.300347990095672 -0.0585625333595481 0.044660573279201
0.305738352638138 -0.0512265539782861 0.0512406379624442
0.307876113327219 -0.0591680618377776 0.0559747079095758
0.314646040005488 -0.0505175354158791 0.0643490410233222
0.316417713056617 -0.0566482357906454 0.0681841407005274
0.321303409661291 -0.0538326072629351 0.0748987189842873
0.324238442019464 -0.0543124887607887 0.0793575587654513
0.331185117607032 -0.0546841237768525 0.0897611896431523
0.33720228935945 -0.0511729729469586 0.0980222849418558
0.341854549101034 -0.0560410518829641 0.105894091174125
0.348081921238005 -0.0573289556825761 0.115407393100083
0.349622972854273 -0.0576486878762173 0.117761794797822
0.35335653545125 -0.0548730614870827 0.122770789059507
0.360890095926244 -0.0584153504537457 0.134667996026523
0.368940273702059 -0.0531544119052686 0.145609921695636
0.370621728065944 -0.0523229621590007 0.147947736674594
0.371193937948777 -0.0580653236021993 0.149923001356835
0.378388634306662 -0.0528412459879097 0.159599900018307
0.386141164745885 -0.053835696956248 0.171323912565595
0.39056242189328 -0.0551715691941612 0.178160611059751
0.39491511469203 -0.0614835827573659 0.18586961806591
0.400079568033551 -0.0548115012685811 0.192243702070424
0.402666233006575 -0.05703941123535 0.196526706520683
0.408622002591869 -0.0526745370498259 0.204529336636545
0.41260792661374 -0.0539763056452816 0.210711944817386
0.420146667486036 -0.0566097346230855 0.222438910851419
0.423677104864989 -0.0544854989654701 0.227273359260416
0.430998024389724 -0.0529950847267676 0.237868984182298
0.433130818227594 -0.0536953826599766 0.24117791625265
0.4392271800992 -0.0534783111194916 0.250201725946241
0.441509886869813 -0.0585550039405634 0.254590454867366
0.444985494598433 -0.0524782509438303 0.258569501856818
0.455823719250497 -0.058253384140099 0.275818464281882
0.460032425021607 -0.0564977558107934 0.281733780625419
0.459117784379802 -0.0552074065447164 0.280120920414434
0.469941539235125 -0.0597990173566383 0.297116642825707
0.475433149742577 -0.0611341772488692 0.305544996358235
0.482286578694644 -0.0581516076811682 0.311425090069647
0.484785407233767 -0.0559783776938262 0.311425090069647
-0.0213537430490789 -0.0411555498377038 0.0124570036027855
-0.0140999988796073 -0.0367954849674387 0.0124570036027859
-0.00323909887006773 -0.0350630948394158 0.0124570036027862
0.00897504280622455 -0.0367610128160408 0.0124570036027859
0.0218778929756004 -0.0446006249263546 0.0124570036027859
0.0277232463518163 -0.0411392381089081 0.0124570036027859
0.0399714693213819 -0.0401962468544574 0.0124570036027859
0.0437135326341889 -0.0444799758938657 0.0124570036027859
0.0578940920984363 -0.0433076968480634 0.0124570036027859
0.0721991926683467 -0.040307479230514 0.0124570036027855
0.0779391949595145 -0.0440825101025965 0.0124570036027859
0.0813736284597851 -0.0434670536792287 0.0124570036027859
0.10690234690872 -0.0431119559411526 0.0124570036027859
0.111686038126925 -0.0388646035750089 0.0124570036027855
0.125779263223287 -0.0373219113814762 0.0124570036027859
0.13465893100506 -0.0414077731663267 0.0124570036027859
0.141301581521476 -0.0366607842551974 0.0124570036027855
0.157048311546561 -0.0380892503992379 0.0124570036027859
0.166153823323207 -0.0392347441224978 0.0124570036027859
0.180991140818076 -0.0463474832880967 0.0124570036027859
0.179627254685335 -0.0396907397976122 0.0124570036027859
0.199375055088397 -0.0414595204123104 0.0124570036027859
0.21175256711366 -0.0390091921400043 0.0124570036027859
0.231499070169076 -0.0441644996866427 0.0124570036027855
0.236036700454469 -0.0386997718949127 0.0124570036027859
0.249134989233 -0.0425618220383334 0.0124570036027859
0.254038881762967 -0.0450884619704685 0.0124570036027859
0.275094048794343 -0.0478009811576982 0.0124570036027862
0.283614014534049 -0.0395921860771221 0.0160601613640116
0.285174243444592 -0.0441629126998321 0.0192753820805091
0.292200211857726 -0.048013934718213 0.0304781613598958
0.296170663269832 -0.0489155077324473 0.0365594051735297
0.301378140113506 -0.0417560830582628 0.0429020557477946
0.304553409329388 -0.04345982551353 0.0479577867919555
0.306769828558251 -0.0416666743831336 0.0509028931909285
0.310284415695305 -0.0435182455337532 0.0564921900241232
0.32165332448253 -0.0431946494626164 0.0733363026744329
0.319369295819626 -0.0436814384430306 0.0700348780208758
0.329614789679187 -0.0440857786909747 0.0853508068692114
0.328988932497144 -0.0467162285483554 0.08493506644414
0.334441975315908 -0.048411997536588 0.0933766667697897
0.344221814698416 -0.0459566594225546 0.107440195119108
0.343782154061802 -0.0398713009650548 0.105594898199101
0.351635652746067 -0.0442965693830185 0.118140784724804
0.359019673214145 -0.0497327543474857 0.13018640523426
0.360251025173708 -0.0455179345818442 0.131192415031184
0.366232459898213 -0.0426946751177855 0.139535045151823
0.374407835559143 -0.0416827728123426 0.151495076802825
0.371991231941775 -0.045036119081084 0.14855773222468
0.380174344811622 -0.0444939773582391 0.160621244489869
0.387721882538021 -0.0473478673003761 0.172404456812909
0.391155204003162 -0.0410327619880062 0.176273950224157
0.396796554923578 -0.0402189386658121 0.184504244906957
0.40142946133005 -0.0470754660653268 0.192736586401808
0.406665576213314 -0.0467971826607182 0.200469080283928
0.409924830811667 -0.0486758389817917 0.205683957903217
0.416454410121693 -0.0438074788123414 0.214441361911092
0.422078453345627 -0.0451266794848392 0.223063540403695
0.423083514014026 -0.0434390936118021 0.224227822519197
0.42869972083572 -0.0428407491416089 0.232462912171875
0.430963561104178 -0.0505073992960724 0.237330669351194
0.442485713581639 -0.0467161621067485 0.253723754018622
0.441814160137686 -0.0446017084155644 0.2523110543185
0.446625680096736 -0.0470496563690995 0.259945871414386
0.45279651148626 -0.0402761264374127 0.267796745416902
0.457627814299148 -0.0421884083902605 0.275356105260904
0.464414637713323 -0.0434786303774647 0.285701858704119
0.468200911607489 -0.0463967504461613 0.291904018049819
0.470363172732922 -0.0500073047148553 0.295826569923201
0.481716812715503 -0.0503342473356128 0.311425090069647
0.490131788576858 -0.0450282908410648 0.311425090069647
-0.022558992977809 -0.0264218733675248 0.0124570036027859
-0.011716590376582 -0.0275637627683178 0.0124570036027859
-0.00114744481091336 -0.0311214918219132 0.0124570036027855
0.0118737144111269 -0.0265766860337907 0.0124570036027859
0.0138555657663196 -0.0264750711240985 0.0124570036027859
0.0344938622046336 -0.0343692593420623 0.0124570036027862
0.0411019134587985 -0.0282982239946023 0.0124570036027859
0.0536702868080673 -0.0330512426793819 0.0124570036027859
0.0613566893562846 -0.0330224442424015 0.0124570036027859
0.0731439740685045 -0.0357275373807924 0.0124570036027859
0.0785683667165301 -0.0291698076714243 0.0124570036027862
0.0884799686287219 -0.0296037367361067 0.0124570036027859
0.103860465035788 -0.0289206830956968 0.0124570036027862
0.105121639101633 -0.0292972403837787 0.0124570036027859
0.122982473039299 -0.0325609094838971 0.0124570036027859
0.130264435909805 -0.0308296655989443 0.0124570036027859
0.149111885956929 -0.0325061030503538 0.0124570036027859
0.157555385441724 -0.0286648361421592 0.0124570036027859
0.176259598123478 -0.0344307878242015 0.0124570036027859
0.177098873597917 -0.0274064743796737 0.0124570036027855
0.192186318556069 -0.0266581208144395 0.0124570036027859
0.196946896116435 -0.0371941450634612 0.0124570036027859
0.206341012095737 -0.0268691207758387 0.0124570036027859
0.226757617393541 -0.0348629977297062 0.0124570036027859
0.238161946136906 -0.0307463749125063 0.0124570036027859
0.253853357709289 -0.0284007022325123 0.0124570036027862
0.255741040262923 -0.0358652084580745 0.0124570036027859
0.27156986117112 -0.0347248476645678 0.0124570036027862
0.283896593417699 -0.0301273595830854 0.0146272917937676
0.284448465315047 -0.0302365125195297 0.0154693886046565
0.2936010106886 -0.0384192370226279 0.0306828445303666
0.292700632833103 -0.0337709690399904 0.0284337509528896
0.296985122453998 -0.0355889420251317 0.0351614434172217
0.304062130605897 -0.0382474855294185 0.046206652807073
0.312631203143438 -0.0372227003026486 0.0587496552379586
0.317164437792589 -0.0325694313019767 0.0645802733093604
0.318173295837823 -0.0383415568809257 0.0672107343558197
0.324199274727293 -0.0315475907450949 0.0748421872682155
0.330884381219391 -0.0303502773354115 0.084549637846816
0.336644076333634 -0.0321173228374429 0.0934612366142498
0.341637833853051 -0.0294136073700394 0.100358430934399
0.344552051031489 -0.0290719374914922 0.10462546410177
0.346103500544841 -0.0349340890087456 0.108080475546956
0.352777503909553 -0.0348092591310303 0.117981394705139
0.35857383545515 -0.0307020273086503 0.125797357398179
0.364108809302903 -0.0309510236176681 0.134077540277109
0.367393960975598 -0.0359967293301079 0.139951005524761
0.370919376443955 -0.0296471418200188 0.143950706880437
0.375816608297532 -0.0306159427077951 0.151423390751065
0.380545854155593 -0.029071902506336 0.158154263975092
0.388853654491257 -0.0370131059878727 0.172064155481396
0.391376173965177 -0.0393087881909047 0.17626503392136
0.396182683842412 -0.0288566951201932 0.181366710335875
0.400751972698664 -0.0356339130414101 0.189488913944524
0.407265394681792 -0.039777155974094 0.199986664662391
0.408598022261659 -0.0353947083561703 0.20111046851141
0.416242734684647 -0.0307961013500605 0.211579076791051
0.42409536593952 -0.0326157674460726 0.223613524279848
0.423073994254288 -0.0389599469430768 0.223336696105291
0.42952962775228 -0.0371418008008723 0.232581329553774
0.432826396240933 -0.0372773563216681 0.237510716138542
0.44076043755462 -0.0316036386076594 0.248199109720705
0.443290359153137 -0.0301739220621812 0.251681603188542
0.450358065430353 -0.0299831255929227 0.26215510888898
0.455104528345225 -0.037499157745068 0.27068545187509
0.462068339361327 -0.0371758064251448 0.280978495121521
0.465820173482639 -0.0403712159175357 0.287183727062412
0.473352614140956 -0.0334256537692747 0.297025859768788
0.478047156145111 -0.0400016870311584 0.305294945960952
0.479935084799247 -0.0367279207341443 0.307461643331676
-0.0247939160573806 -0.0200881367415201 0.0124570036027859
-0.00739059123409623 -0.019092233713196 0.0124570036027862
-0.001505981409647 -0.0212403462774447 0.0124570036027855
0.00993099403394714 -0.0186673570222715 0.0124570036027859
0.0221985996809622 -0.0184491211816835 0.0124570036027859
0.0309988814803338 -0.0199054368025876 0.0124570036027859
0.0382608788538136 -0.0170585763435397 0.0124570036027859
0.0457980985039233 -0.0220843636817414 0.0124570036027859
0.0638483716304428 -0.0230378518995412 0.0124570036027862
0.0637430915157332 -0.0158964793110533 0.0124570036027859
0.0882359638645929 -0.0242580780070208 0.0124570036027859
0.0919232796788848 -0.0229040471826314 0.0124570036027855
0.104609783342133 -0.0249759939182241 0.0124570036027855
0.112985441531289 -0.0247961915108581 0.0124570036027859
0.128015720394053 -0.0212028915330319 0.0124570036027862
0.132244123352905 -0.0229847325267836 0.0124570036027859
0.140124031838672 -0.025623123016233 0.0124570036027859
0.152731861120764 -0.0261788422542007 0.0124570036027859
0.166952866869397 -0.0215801079314741 0.0124570036027862
0.188261607693311 -0.0202866341384008 0.0124570036027859
0.193775849169449 -0.0233018605947775 0.0124570036027859
0.201686505869344 -0.0174508245133344 0.0124570036027862
0.215653690950027 -0.0163010527411561 0.0124570036027855
0.230059531655532 -0.016091114699469 0.0124570036027855
0.238625333113742 -0.0183693320615567 0.0124570036027859
0.254973429763957 -0.0162289070360804 0.0124570036027859
0.251633190151298 -0.0209151201897775 0.0124570036027859
0.272112206942756 -0.0193184973209564 0.0124570036027859
0.282177611383603 -0.0246575900312746 0.0124570036027859
0.288793436577786 -0.0180133995388087 0.0195379331598723
0.292849969238741 -0.0199561495353158 0.0259510454916387
0.29718032132537 -0.0194537657901142 0.0322926421220375
0.303147108241479 -0.0218790029384278 0.0416410879176719
0.303661831150755 -0.0262088249227606 0.0432542997577298
0.312832167220378 -0.0193099764714138 0.055541402989091
0.315539842054957 -0.0199682698082497 0.059697055224545
0.321069354142052 -0.0223670689758954 0.0683900239234068
0.325349529084197 -0.0250817599775817 0.0752868675209187
0.326791479849921 -0.0266818906636687 0.0777445779847314
0.338139548609261 -0.0185573479619982 0.0930303562381092
0.340683277314955 -0.0278868523358937 0.0986399233909305
0.344470350216558 -0.0216104541242713 0.103043082803714
0.346375549652902 -0.0260104625056122 0.106737907599925
0.354413220568012 -0.0242589140419922 0.118348334462058
0.357695356842006 -0.0254451007023864 0.123461662818894
0.358998461294034 -0.0255777602193509 0.125425570450506
0.366910378061513 -0.0258789377359441 0.137250881616242
0.373602728868342 -0.0207988579166727 0.146208901630678
0.377910775243812 -0.0212721560662411 0.152708354000831
0.38319652102877 -0.0187702719003953 0.16007930012605
0.387869926755376 -0.0204700050214979 0.167362225803321
0.392942392158507 -0.021735107989506 0.175153524050738
0.396164950053917 -0.0203557961114509 0.179675952258574
0.40268396981938 -0.0189703523585865 0.189099570183673
0.40658129948068 -0.0188107946690542 0.194864311695855
0.410201851194692 -0.0236049676812236 0.201187325506333
0.415678419168168 -0.0265972576068007 0.209917756584239
0.418906794167417 -0.0251419722916401 0.214433961013457
0.425171669743195 -0.0240738836739203 0.223541758748247
0.427467702573692 -0.022385606936448 0.226625797174326
0.435972739068129 -0.0220583656668709 0.239210138931353
0.437412267065516 -0.0243373485574439 0.241797158323334
0.448356617114074 -0.0256303956628413 0.258326402520955
0.451417294379904 -0.0200333212837805 0.261782294432844
0.457218322694193 -0.0245762971389498 0.271298860011758
0.464312273598132 -0.0228794943223522 0.281516535951681
0.46601430380598 -0.0262492419184082 0.284707500090576
0.472995171966176 -0.0264302801324076 0.295124664231687
0.475263053993294 -0.0181254943802957 0.29687139611253
0.483579672054149 -0.0201327525440971 0.30963259812058
0.494688163717205 -0.0273387520376167 0.311425090069647
-0.0267455291816338 -0.0127109255416973 0.0124570036027859
-0.0136564744566384 -0.00907948836607644 0.0124570036027859
-0.00133680543075799 -0.0127503920008466 0.0124570036027859
0.0156728471085777 -0.0129232735675436 0.0124570036027859
0.0237910153209009 -0.0123873850761505 0.0124570036027859
0.0286290962548032 -0.00658449536010571 0.0124570036027862
0.0341835586033323 -0.00542256444102964 0.0124570036027859
0.0582181877454437 -0.00708779727545627 0.0124570036027855
0.0509734158010058 -0.0110658399364445 0.0124570036027859
0.0691948119968258 -0.00760075272552737 0.0124570036027859
0.0853941316954843 -0.0149589417431554 0.0124570036027862
0.087126758524455 -0.0101179149491464 0.0124570036027859
0.107030246039791 -0.0114707790104474 0.0124570036027859
0.116147417444755 -0.0073823451806707 0.0124570036027862
0.123157500431736 -0.00640917686553248 0.0124570036027859
0.142150688191436 -0.00883383339110319 0.0124570036027859
0.145339710408255 -0.00553826119053379 0.0124570036027859
0.157576466503051 -0.0132488627336811 0.0124570036027862
0.167828762612146 -0.0133751752990153 0.0124570036027855
0.179944821835467 -0.0111589837897538 0.0124570036027859
0.184742341232978 -0.0121689611672693 0.0124570036027859
0.194668378135219 -0.0152222843587391 0.0124570036027862
0.212629332824663 -0.0104301942492644 0.0124570036027859
0.216061595777286 -0.0107082134237974 0.0124570036027859
0.232909213330295 -0.00578905143371469 0.0124570036027859
0.256867146601149 -0.0129417813317692 0.0124570036027859
0.263373363538688 -0.00677248963270916 0.0124570036027859
0.271507789383255 -0.0120028969092813 0.0124570036027859
0.276832551926118 -0.00613888147944379 0.0124570036027859
0.288996407859388 -0.0135692704797099 0.0189696725453703
0.291343795685455 -0.0126617671595224 0.0222829515128621
0.297753127146468 -0.00843684478837049 0.0309875050813585
0.303591543052927 -0.00798680391237755 0.0395820930720603
0.309740359824275 -0.0130391723959712 0.0497156118890683
0.312250123731825 -0.013136642614151 0.0534671343078203
0.319421921938525 -0.0101328533052604 0.0635446882550042
0.318909458073086 -0.0109246576810377 0.0629375955711892
0.327095167591797 -0.0101255015207823 0.0749546488138468
0.331132441006454 -0.0133428706755539 0.0815886762023398
0.336621652461873 -0.0143706238443999 0.0899532749995509
0.336789165071571 -0.0145545830546941 0.0902384115165667
0.344877345925016 -0.0127227233433595 0.101908231024879
0.347974013812844 -0.00729074256521562 0.105449970571254
0.355898818158788 -0.0080094701078436 0.117376199544599
0.358205899092431 -0.0127751085919008 0.121740275816481
0.363090580603092 -0.0157481010460105 0.12958669446807
0.372362239961301 -0.00683824407189975 0.141630748452645
0.375460066851527 -0.00554666636846192 0.145984858200876
0.375868826636842 -0.0166350186998864 0.148763732995627
0.382733108447174 -0.0155600261494201 0.158761596361023
0.388558254496179 -0.00637603578568979 0.165626436099239
0.390034860073341 -0.0138609039161506 0.169287852621374
0.397446975226184 -0.00822550312862221 0.179207556732024
0.401569327469839 -0.015742075258938 0.186809848463219
0.409907812801605 -0.00967136888826878 0.198021991833974
0.41404727556247 -0.0150590241612277 0.205232910650295
0.418650609476241 -0.0106454186516701 0.211214701599604
0.421347478340048 -0.0123631035405902 0.215561701066813
0.42917786559708 -0.0152014189442807 0.227762508632584
0.432578832232163 -0.0117206005458927 0.232138808016643
0.440801391595313 -0.016374288865722 0.245278271682796
0.440255784634748 -0.0128482629936791 0.243776504760602
0.446704856528916 -0.0146939066000083 0.25372871079395
0.452556283521874 -0.0161064089063205 0.262707314451076
0.457527120465286 -0.0103896997265739 0.268980510145595
0.463131494502808 -0.0121046012515028 0.277650911255793
0.468502407774343 -0.0142658634097524 0.286061509781573
0.472889472097631 -0.012972280831625 0.292332538738965
0.48136899903325 -0.00594713850239239 0.303567566232708
0.48167708698788 -0.0152006497235199 0.30583748293845
0.493538769275099 -0.00892725438242183 0.311425090069647
-0.0224293767128262 -0.00183238654643255 0.0124570036027859
-0.0187116209721975 0.00368245522719162 0.0124570036027862
-0.00703572375617176 0.00375072296260315 0.0124570036027855
0.010659250260421 -0.00480360729966207 0.0124570036027859
0.0182216449268987 -0.00228714922212883 0.0124570036027859
0.0275701043008772 -0.00178458572869881 0.0124570036027859
0.030602809318034 0.000362878621175955 0.0124570036027859
0.0397909425252262 -0.00301949168494205 0.0124570036027859
0.0509108427476283 -0.00224415752176502 0.0124570036027859
0.0648342950624181 0.000221303810469068 0.0124570036027859
0.0720190091365908 -0.00282459231929652 0.0124570036027862
0.0951031009513934 0.00498552003953386 0.0124570036027859
0.104523516492073 -0.00507496884979333 0.0124570036027862
0.107423935258194 0.00339068410116746 0.0124570036027859
0.122252194282466 0.00354640605696575 0.0124570036027862
0.135825507135167 0.00133726445033573 0.0124570036027859
0.146216061480235 0.00171393189623498 0.0124570036027859
0.154184105305731 0.00117673000674467 0.0124570036027862
0.162664771889239 0.00143597043535157 0.0124570036027859
0.178330417221767 0.00514495949297209 0.0124570036027859
0.194052612272006 -0.000404025084548445 0.0124570036027859
0.206329589090849 -0.00237108694114221 0.0124570036027859
0.21191802700496 0.00361782944567591 0.0124570036027855
0.21789803158362 0.0018460835135587 0.0124570036027859
0.243230403460128 0.00391060054199319 0.0124570036027859
0.240592534085633 0.00114154312882967 0.0124570036027859
0.263343383583117 0.00238199529465983 0.0124570036027859
0.275704375359851 -0.00266688408228355 0.0124570036027859
0.287667951386286 0.00318138918298119 0.0149601996433022
0.289362091937568 0.00410394579829674 0.0176602967624775
0.292932465664916 0.00354005905917319 0.0228596368068718
0.29679000418937 0.00012524175326989 0.0279278572782039
0.30223002728872 0.00167119458701409 0.036320762704721
0.308893774933251 -0.00305403127387875 0.0465016148550154
0.312047683656056 -3.93220479604371e-005 0.0506017569758511
0.313525070850878 -0.00174824726691524 0.0531334681421255
0.321689160219232 -0.0032605706942178 0.0655709315477606
0.32722706457991 -0.00364958670428083 0.0738828869472793
0.331822752717829 0.00468993557488142 0.0809211331954948
0.332825632052355 -0.0040662441456975 0.0822904704386282
0.340085541214163 -0.00482882560137773 0.0932364751679025
0.347756211451057 -0.00251121811588942 0.104190282332181
0.34865910016151 0.000503267330661037 0.105139893635497
0.353492541408314 -0.0033317176968466 0.112881809650115
0.357697356981068 0.00521559603923224 0.119503917039018
0.365019146321256 0.00359740793464596 0.130075818767722
0.368726819406677 -0.00179808613671217 0.135237460975722
0.373955737642347 -0.00538180654373465 0.143715391216734
0.379161194134103 -0.00146198843505184 0.150689317453634
0.384753793355725 -0.00526220529032669 0.159750489847229
0.386669848112684 0.00319309949070256 0.162194875059589
0.393102374185623 -0.00058341064158079 0.171250168318059
0.395192294267307 0.00487620452524127 0.175198712165988
0.403484446373643 0.00473300708348554 0.187502493034112
0.410988974367459 -0.00177738870210879 0.198084303189405
0.41199836647604 0.00375388264403004 0.199972414460428
0.419193193086392 -0.00298640816632484 0.21052206198559
0.422805733445106 -0.00106017341963754 0.21551737771811
0.42528713231588 0.00213682120020072 0.219418429060021
0.43574360270824 -5.46393203262102e-005 0.234561280909503
0.437426387914689 -0.00304131011355502 0.237648622177181
0.446202053240445 0.00559386173795198 0.251199266881684
0.447311316419805 -0.00436072525112119 0.252607491885145
0.45187823643956 0.00250094889236475 0.259035141674245
0.459542577644471 -0.00461413658572331 0.270847038743972
0.460755174365281 -0.00336228550256308 0.272405273892956
0.468629346540667 0.00331885215147786 0.284106981419345
0.473685419832224 0.0053496672523689 0.292023820088143
0.474153066259314 0.00542574589319251 0.292734183941706
0.483816663082332 -0.00219028123636091 0.306472099737982
0.490636223798629 0.000419334391528437 0.311425090069647
-0.0165909971956698 0.0144954374178883 0.0124570036027862
-0.0131035523902984 0.0103938734682395 0.0124570036027859
-0.00262012692584047 0.00958122898034608 0.0124570036027862
0.00647657478452438 0.0120466430471765 0.0124570036027859
0.0188733332216753 0.00523066758656018 0.0124570036027859
0.0273314699269145 0.00851790077347194 0.0124570036027859
0.0452616995385192 0.011281896043028 0.0124570036027859
0.0451974590965574 0.0052206605517073 0.0124570036027862
0.0591962433917952 0.0108718935990359 0.0124570036027859
0.0686828199941677 0.00693554534205578 0.0124570036027859
0.0772084899838704 0.010732685490949 0.0124570036027859
0.0918192335123135 0.0142937925572816 0.0124570036027855
0.108724264283903 0.0124707750499825 0.0124570036027859
0.103786040569488 0.00627802244660848 0.0124570036027859
0.115034314285649 0.00631550577476554 0.0124570036027859
0.138857654023953 0.00777333184235334 0.0124570036027859
0.142724260062838 0.0112412720747411 0.0124570036027862
0.16172111643784 0.0087276171653269 0.0124570036027859
0.16646190152358 0.00862977108480105 0.0124570036027862
0.179114543757173 0.0124642954348801 0.0124570036027859
0.195965153001081 0.0103243738354429 0.0124570036027859
0.199570803457784 0.00649345192873401 0.0124570036027859
0.216243692388779 0.0140069823350694 0.0124570036027859
0.217303232845404 0.00949283346228007 0.0124570036027859
0.228284789505433 0.0104667964843423 0.0124570036027859
0.25029697595079 0.0157610716158162 0.0124570036027859
0.265645674939158 0.012967255006196 0.0124570036027859
0.265999358060987 0.00711323415660982 0.0124570036027859
0.284104421616503 0.0109735386596522 0.0124570036027859
0.288622716619156 0.00711456439341579 0.0171501688445513
0.294417552873353 0.0112774520658179 0.0265831085994189
0.296600991798989 0.0158281411712837 0.0307212237352048
0.30057379925283 0.00695888759444929 0.0348929481923867
0.308705640723525 0.0116294319227862 0.0479007994019867
0.311733061722674 0.00945766365754365 0.0519778719281489
0.318812315525982 0.0109420793404108 0.0627965393267607
0.32063353127514 0.00784294693433275 0.064898214892466
0.326010724078769 0.0117048800787245 0.0736511252950467
0.329804904822863 0.0145903634784647 0.0798586535391523
0.337043242661842 0.0116653443072744 0.0900505854002895
0.340976275242896 0.0128078966694995 0.0961233623273218
0.346382491987884 0.00826864206818588 0.103274573616319
0.352807110639752 0.0118816053084282 0.113536435840909
0.357095677048911 0.00866908205273811 0.119285273892465
0.361403303726983 0.00980605377066462 0.125914042278007
0.363831728773836 0.0151335572827474 0.130568584700113
0.367184340606754 0.00897445860706322 0.134348593814539
0.374001483060731 0.00933205930576802 0.144556839483716
0.378832332492185 0.0113146203901309 0.152129284974823
0.382973527853723 0.0163201691791855 0.159267968101647
0.388958994824776 0.0150636294602099 0.16792334179137
0.39261886213404 0.0123546302020657 0.172835783710151
0.395579394030453 0.00787432746298813 0.176361394628812
0.400715021134958 0.015095286524039 0.185412717718476
0.407513337697424 0.0085257444375878 0.194236705781491
0.412778836003274 0.00763632895027398 0.201893244613059
0.419314094636379 0.0161718692092809 0.213283434850194
0.422780155117576 0.0111646052306592 0.217457677979279
0.428148444487901 0.00583295176649971 0.224397341707775
0.430826283351433 0.014823938008639 0.230140074876761
0.438028114018013 0.0120957402959638 0.240316249998471
0.444473012133353 0.00844068274165784 0.249185270558904
0.447638279841744 0.00785070586058253 0.253777042011765
0.449785131415777 0.016184170677076 0.258601372599318
0.460370053029889 0.0124162953307499 0.27360521218028
0.460290098859617 0.011049857978725 0.273218773156686
0.468790932368832 0.00812928234785147 0.285289117282562
0.470775084961008 0.0126613664456371 0.28912721764026
0.476752207373361 0.00698767133079639 0.29690534986382
0.479759829946373 0.00834727506355099 0.301644383628513
0.491541431801545 0.00655955855248129 0.311425090069647
-0.0241695617851473 0.0190739807990668 0.0124570036027859
-0.0154348988805606 0.0184692619279473 0.0124570036027859
-0.00506705356331928 0.0181394669858658 0.0124570036027859
0.00728376761145378 0.0188669627059485 0.0124570036027862
0.0146974101090485 0.0197370549498975 0.0124570036027859
0.028675685363828 0.019795742556736 0.0124570036027859
0.0348026909376401 0.0209373206165904 0.0124570036027859
0.0532690940121108 0.0193902369025623 0.0124570036027859
0.0665503937578283 0.0177679244511113 0.0124570036027859
0.0693662623190782 0.0166805558168323 0.0124570036027862
0.0829802525197396 0.0254840709646946 0.0124570036027855
0.0907325865390697 0.0226677151926967 0.0124570036027862
0.098159825282106 0.0179036945131317 0.0124570036027859
0.111607515625433 0.0213717045066078 0.0124570036027859
0.127143990445876 0.0172632909166208 0.0124570036027855
0.136725683109333 0.0248203844158417 0.0124570036027855
0.14747446431329 0.0194862014376388 0.0124570036027859
0.153086296517472 0.0172882327848628 0.0124570036027855
0.166781361353748 0.0208494310382736 0.0124570036027855
0.173672613500093 0.0166661802809308 0.0124570036027859
0.184403976910844 0.0195576209181632 0.0124570036027859
0.197894855685975 0.0173943025568636 0.0124570036027859
0.207714453565674 0.0195793246400344 0.0124570036027859
0.215330095098209 0.0229810298796328 0.0124570036027859
