ply
format ascii 1.0
element vertex 847
property float x
property float y
property float z
end_header
0.291361653629943 -0.173841736729274 0.0910001561369812
0.299982000444615 -0.170291503089909 0.0986604341961579
0.304023930219633 -0.172312210074201 0.105133725257909
0.306713577412173 -0.181199421748637 0.114923544433338
0.308786011952486 -0.186267360615398 0.121715350094628
0.310743595349383 -0.187599817459008 0.125110584238314
0.316628480833157 -0.19441222518162 0.137771138311138
0.317104006249411 -0.197658562419161 0.141151007491846
0.323025414376423 -0.196857723153739 0.147432881514999
0.327669483652468 -0.198170847282929 0.158210889515187
0.327609200864059 -0.204689460896179 0.167634816624633
0.329066016546006 -0.208409683214376 0.17585695376967
0.331143606531805 -0.207008929671918 0.177769255858894
0.339388992427999 -0.203812550853113 0.188816259579091
0.338235117810172 -0.212327795713014 0.199076384695324
0.344639144632451 -0.210498826104611 0.20861279671407
0.343547663400535 -0.21692680277623 0.215937544888108
0.347876441316518 -0.21620383848444 0.223209513833007
0.344975327867657 -0.224477767819911 0.230758430122738
0.34933236310711 -0.220445870701373 0.233524388120614
0.355588393816082 -0.223608131466217 0.252535232005712
0.356670165564078 -0.225830459248934 0.258637571266526
0.355193264032125 -0.228540970500944 0.259957756087347
0.35743514690318 -0.231810666900491 0.270359909428278
0.367508298029342 -0.229513227462001 0.288555681107822
0.367023563004066 -0.23436059656082 0.296740134177868
0.364321306479439 -0.239932363979645 0.301086313400802
0.369819587455272 -0.239008561614686 0.314318493896395
0.374498051273982 -0.235104651351484 0.318967964545717
0.3750593881478 -0.238832518367946 0.328421770345451
0.377355954839854 -0.246340504416252 0.346842889356905
0.380506127730213 -0.245171339200386 0.351633398717349
0.381711192483196 -0.251563738679836 0.361036710930387
0.386293636871174 -0.249479076055269 0.364540226295974
0.389413802187108 -0.259094295564594 0.373698042041337
0.393942540994108 -0.268185629669287 0.38146915321404
0.40168139572093 -0.264664522146915 0.385259653343057
0.404179815885897 -0.272151553208692 0.399328282059207
0.403659699693804 -0.273154770398933 0.40053984285897
0.410437555249196 -0.275855944022446 0.402276578310363
0.0469073735692557 0.0830137109996144 0.0107548678601845
0.0628719881567578 0.0678200047128975 0.0107548678601849
0.0640976087307269 0.0622851430132408 0.0107548678601845
0.0721292823250062 0.0619926776059047 0.0107548678601845
0.0771019688358048 0.0451143905486912 0.0107548678601845
0.0856763022549897 0.0448393880226293 0.0107548678601849
0.0894645513568404 0.0332381038148874 0.0107548678601849
0.0995754274822522 0.0361172008262909 0.0107548678601842
0.102253739136137 0.0281134619358981 0.0107548678601845
0.111715238627315 0.0190831102086284 0.0107548678601842
0.125116849685089 0.00869524597264289 0.0107548678601842
0.131044741881874 -0.00343922932630241 0.0107548678601845
0.140209329539418 0.000678357942467509 0.0108024497872655
0.147579633369337 -0.0156209329865893 0.0115470709510228
0.157223231996801 -0.024689919584804 0.0124113113443553
0.161408077770722 -0.0328281710014782 0.012830472202875
0.168850366217933 -0.0271717894501592 0.0133645730617975
0.177634161231937 -0.0460914123729499 0.0142636665743635
0.187515588621854 -0.05531732131156 0.0152514029057179
0.196329381120687 -0.056951984171257 0.015956675688258
0.19800520597938 -0.0664278874415247 0.0166038519006697
0.203877849617437 -0.0720713336072423 0.017673225751506
0.217687715881177 -0.0750891251411468 0.0199468882014576
0.223992514290659 -0.0879846438195939 0.0239166084658238
0.224421250227281 -0.0821136893992073 0.0230112541904098
0.233932551100539 -0.0940995385934567 0.0301480387938662
0.233438184096457 -0.100065495804262 0.0311356492001943
0.245213366989818 -0.10172869474346 0.0373626797222881
0.245229694138523 -0.108649324884319 0.038802991440575
0.256436499233383 -0.112937725063732 0.0452893209757582
0.259621385956712 -0.118605804320471 0.0480534333511788
0.267938613796104 -0.129555935363092 0.0544747163402967
0.273433662704376 -0.13647592029663 0.0586520485184835
0.276518005040196 -0.131282694755248 0.0591182915401191
0.27794905780418 -0.138117789427144 0.0615006879361302
0.287161484320759 -0.142378628172322 0.0712569599621485
0.292056589818171 -0.151555634715326 0.0789859766253456
0.292888962941785 -0.157900541419955 0.0824397821559565
0.29258435466748 -0.158912202968881 0.0825916135461014
0.299850425622592 -0.164614906714026 0.0953661650844614
0.30125203433515 -0.161505066496295 0.0955167162047804
0.310689026373553 -0.165941289828555 0.110475588843558
0.314367187742084 -0.173703799087794 0.11962177092886
0.315841372044793 -0.177154392826873 0.12347404421364
0.317480918862986 -0.18264031289703 0.128664275943907
0.325037493635809 -0.176051958456783 0.135069443281965
0.326148329543004 -0.182337579547881 0.139997683087338
0.332074145692191 -0.182762338891254 0.148932711223896
0.331588316119705 -0.193006277536046 0.158126824304368
0.336682631767566 -0.193886540615038 0.169400292060182
0.336825611503047 -0.19558237899954 0.171884298099498
0.342481206125362 -0.196302050329417 0.184499805022268
0.34101056252691 -0.201448239333402 0.188448904637423
0.348124986314131 -0.203003221694395 0.204291921089519
0.346760744380493 -0.206869216915728 0.207347474052508
0.350547366981484 -0.205290411275054 0.212258437795348
0.354301226889901 -0.2068926842944 0.221761892473262
0.351902841874294 -0.21393028597558 0.228205730964751
0.361811075937679 -0.211619635843122 0.246018212486548
0.356550478600525 -0.219017404196273 0.246928869839534
0.364448680279884 -0.216441868671557 0.259895241875645
0.366348601800233 -0.220147384833925 0.270280874845757
0.371366953756734 -0.219616043344159 0.280376118684419
0.367107361948309 -0.226570120123603 0.282733083783566
0.374506469704622 -0.226656217312593 0.301080836416472
0.378028143681604 -0.224173823602307 0.305547902458369
0.379044175108781 -0.225283904615831 0.310708319620802
0.377284092180342 -0.235710332719201 0.327949240891222
0.380216297242548 -0.234750113577341 0.334014683817396
0.386089872508904 -0.233637893887512 0.344688712689324
0.382939188193854 -0.241463241980707 0.350756828785889
0.390418745686384 -0.239505470132191 0.360299425539972
0.389558326800831 -0.247993790672743 0.366898353177249
0.397770830806788 -0.249920900656355 0.374717428623716
0.399280149578873 -0.251546810466654 0.37679657276554
0.409983568659154 -0.252683091105907 0.384557094504687
0.408269165432327 -0.264709388590817 0.391301041409179
0.41227762832155 -0.272561255636565 0.402399958818141
0.0536219985858204 0.0854462995232227 0.0107548678601845
0.0614678906940954 0.082120541596034 0.0107548678601845
0.0693461660719683 0.0666556761027738 0.0107548678601845
0.0786475840779308 0.0613223414748912 0.0107548678601845
0.082617070110694 0.0557076449789572 0.0107548678601845
0.0866994562694227 0.0508392263087857 0.0107548678601845
0.0976971636382094 0.0424941817690898 0.0107548678601845
0.112704932335697 0.0315053305636997 0.0107548678601845
0.116923233312376 0.0324799270659542 0.0107548678601842
0.11987857617437 0.0282156317147562 0.0107548678601845
0.135131145521282 0.0109960432330568 0.0107548678601842
0.133958268802303 0.0132021757100251 0.0107548678601845
0.149975007441399 -0.00341203033639427 0.0116099133022661
0.15223232054767 -0.00303700628858595 0.0117859854367495
0.160814217869251 -0.0139358101163287 0.0125847710533085
0.163151489094651 -0.0177294355380179 0.0128109845324108
0.181716433070029 -0.0353308007625881 0.0144762356055164
0.179844524382924 -0.0329874335247033 0.0143023581656687
0.192764144029785 -0.039721239286706 0.0154033285772164
0.203543988494148 -0.0545394473417658 0.0166838806302382
0.206168539763416 -0.0609182958825648 0.0173698697224287
0.211481721277354 -0.064078821291591 0.0182324185931339
0.216868252840847 -0.066906793662689 0.0192121394472501
0.225157708768185 -0.0687941228934115 0.0210648637717328
0.234068912966149 -0.0807003227798481 0.0274433320084127
0.239162193156959 -0.0825484918420926 0.0303703804413831
0.242025771206839 -0.0872504437797681 0.0327740375871007
0.243884756540304 -0.0925994549647649 0.0348097054333887
0.250339938553086 -0.0953222587681161 0.0385981530380751
0.257410897231729 -0.106158366806084 0.0443732075476594
0.266550181096349 -0.110332964450107 0.0498030590035235
0.269423116992513 -0.115234003130156 0.0522525902995623
0.275252420960549 -0.117896124338563 0.0557157933417468
0.284866850874353 -0.129689660259676 0.0645462647312992
0.287891312238622 -0.130914542366546 0.0676852299302248
0.295073331299932 -0.130874638655592 0.0740536741345218
0.295750931832512 -0.142579219209724 0.0789648141919404
0.299232462910252 -0.138123467012499 0.0804187447822242
0.302185650677867 -0.149422381052361 0.0901151191435396
0.303395824680914 -0.152946208220601 0.0936573548488027
0.309620412143119 -0.153752723297565 0.102359275240414
0.312246403275652 -0.155852889524483 0.106997590284089
0.31793313365747 -0.164343506196385 0.119208856744751
0.32234660105454 -0.163798800059678 0.124765219020296
0.328166277473412 -0.16790301518621 0.134742233186271
0.33007598315875 -0.172976795967943 0.140064407185248
0.329342971716464 -0.174651055730521 0.140011985500311
0.334786459638143 -0.176566270722546 0.149256545899686
0.335469984851269 -0.187679165126695 0.160997145213263
0.341657231964895 -0.180974696810274 0.168570463983667
0.348316078863786 -0.178743906526847 0.181306398991698
0.347873858779801 -0.185152876955138 0.186219850665477
0.345976466988354 -0.19304344650549 0.189264552748103
0.35565210552982 -0.186660062706532 0.204880277069365
0.355182150948179 -0.192466957584497 0.209178293510431
0.354919103914455 -0.202045954910632 0.217405724659853
0.358581671418868 -0.196566793370849 0.220499363005838
0.357940809385014 -0.205823850115749 0.228326512391112
0.365755862018821 -0.20261154426917 0.244860552086141
0.366230701570279 -0.205222020256121 0.248828366766249
0.368110434205646 -0.210516554840538 0.259213151840833
0.374159767250556 -0.210734465990346 0.274867827246208
0.373728399250069 -0.213431187335013 0.276616091948228
0.376855698797256 -0.215000474816385 0.286247462719105
0.378258121226347 -0.215042850693983 0.289868100543457
0.383312378005756 -0.216544839855738 0.307722033421218
0.384506590520621 -0.218538120335085 0.314220597963869
0.385223509559118 -0.22503944200096 0.327262286199678
0.384342704912243 -0.230459257903911 0.335787795671877
0.388788071803028 -0.227341069014025 0.34015232428408
0.391988832195861 -0.232518265423618 0.35517114422239
0.394218272771103 -0.236325206245751 0.362137932690312
0.39584915380915 -0.2345330461454 0.362417375178368
0.401447599077968 -0.242639947748281 0.373240128270895
0.408609706786478 -0.246622872162824 0.380287758275488
0.419846487686141 -0.248978222748177 0.390717578944308
0.416955213345713 -0.255040474503216 0.39374142282811
0.418274581553878 -0.254479983510342 0.401173589840548
0.423641234431977 -0.258945584714663 0.402235709576717
0.0610795988311378 0.0907789449820667 0.0107548678601845
0.0663719369267651 0.0907531571970393 0.0107548678601845
0.080079981985383 0.0814933239321679 0.0107548678601849
0.0797903994074659 0.0689082291754958 0.0107548678601845
0.0979119470319907 0.0680025221309952 0.0107548678601845
0.101758616977843 0.0610889580246588 0.0107548678601845
0.103225378270928 0.0531148537469298 0.0107548678601845
0.115202362700147 0.0421843692249615 0.0107548678601845
0.125364487653608 0.0406811312039614 0.0107548678601845
0.134871998981923 0.0253130048459021 0.0107548678601842
0.137542231370922 0.0173585554197906 0.0107648812521308
0.145508588076559 0.0115911290857587 0.0113396081023262
0.158868644022315 0.0113811169815538 0.0124028005560334
0.157619308539342 0.00774543648485968 0.0122650026871337
0.163482685213971 -0.0042591394740157 0.0126959761737354
0.176620161464148 -0.00716604060390252 0.0137741423182891
0.175596826709212 -0.0215226226143865 0.0138432608842049
0.185955588695077 -0.0305005370909336 0.0147635758277445
0.202365607943696 -0.0393980542042584 0.0162405470808014
0.208307760845193 -0.0428530144387077 0.0171346839247465
0.214655728452154 -0.0426040047245758 0.0180173841337848
0.218970048569825 -0.056495627973169 0.0189299477462712
0.228368011062088 -0.0606585298703741 0.0210590680257802
0.230765371124673 -0.0715098036032093 0.0238910063973544
0.237137637596214 -0.0701507471751007 0.0267933297580623
0.245959619714482 -0.0775678845303528 0.0327356690966948
0.253779975272703 -0.0794472454415405 0.0370316115508256
0.25682011931016 -0.0829263032772351 0.0392704149467085
0.262734292539146 -0.0889656380432432 0.0434748987719899
0.261946230798939 -0.0936140945808505 0.0440431366165198
0.272827090352606 -0.095358857621125 0.049840244583307
0.281532023922402 -0.104884397778031 0.0561604195257378
0.283313096307317 -0.120239002204298 0.0602277190525839
0.285562953386107 -0.122282049587034 0.0624379071151248
0.291701774065541 -0.121045084975152 0.0674385073544014
0.297018169372505 -0.129935591405709 0.0754364802296961
0.298667466640558 -0.127939616369802 0.0761675234449486
0.307722382682793 -0.137352590701555 0.0908279485789044
0.309913296750255 -0.1368669012214 0.0934678967915181
0.315503899035663 -0.13489129793323 0.099799681834858
0.31407502552571 -0.142668019631493 0.10217774306175
0.321581299544473 -0.145379201827392 0.113626936026172
0.324391501851494 -0.148721113298213 0.119192087760408
0.32782850020629 -0.152004931540923 0.125556935989983
0.333657930269636 -0.154101760783586 0.134443688294993
0.335367370124489 -0.15782247597428 0.138756546011682
0.336557861637726 -0.167686731622015 0.145757188522607
0.342687295695113 -0.166198662499123 0.157265735134843
0.342460962879146 -0.17070860207606 0.160911734427071
0.34709488827018 -0.17336027811292 0.173642033604341
0.351909036705505 -0.171298611575405 0.182436824548927
0.354228301918908 -0.171237073977389 0.187530856952595
0.354783565239017 -0.180263813541176 0.197067581890247
0.354735052334627 -0.1853276310806 0.201617990735299
0.362068940093263 -0.179517653132309 0.212560608175562
0.362065560675903 -0.188647681905802 0.220951710021542
0.366187484327401 -0.19024149732209 0.232896380787343
0.366203572239465 -0.191466860785117 0.23423157834597
0.369954214774027 -0.192297582698953 0.244672301091729
0.373037527806532 -0.195902270426294 0.256341218662153
0.375765442421521 -0.201230611307867 0.268924394161091
0.379676013729723 -0.197713463641413 0.275180866735842
0.380374013365965 -0.200537308004808 0.279943043298445
0.382110145784934 -0.202460204338758 0.286400697122981
0.383776539978125 -0.205872508648833 0.29499274882511
0.386284344965361 -0.211763951715777 0.310912535181319
0.387922284140637 -0.215229674276843 0.32080099255496
0.387748741019008 -0.218585196866816 0.324714435735636
0.391787870380252 -0.216190994367346 0.334402817434174
0.395440003020945 -0.212251031228768 0.339404823048447
0.398897487182969 -0.222096991002065 0.356862884558396
0.399895095925193 -0.22725017964138 0.36179646738623
0.407114961328028 -0.222019410910886 0.368257287185104
0.405976605781756 -0.232942882904285 0.371307185554923
0.414840618358357 -0.238438709332162 0.380448624197788
0.422989406641471 -0.244213047790234 0.390110591806615
0.420972355818224 -0.248572535950066 0.39168039963332
0.427819823215245 -0.247390629939612 0.402552689870483
0.0702117360237314 0.0988711429999101 0.0107548678601842
0.078985937329025 0.087654033882036 0.0107548678601849
0.0833729129040979 0.0833994897231903 0.0107548678601845
0.0907456064477057 0.0858337641184031 0.0107548678601845
0.105743165258834 0.0669414455872004 0.0107548678601845
0.107458885932716 0.0662533364076508 0.0107548678601845
0.114518199534448 0.0562057778633778 0.0107548678601845
0.121531979414298 0.0458068813500856 0.0107548678601849
0.12410817730331 0.0513735867766472 0.0107548678601842
0.134210318365584 0.0378452008748153 0.0107548678601842
0.142496831107692 0.0288178227116932 0.0112802922186922
0.155333650742636 0.0236280679865681 0.0122494787579851
0.165551860764318 0.0179731319856849 0.0130049605824043
0.163322931938462 0.00429287275587737 0.0126835908062731
0.171620864656139 -0.000524144429895208 0.0133057427568062
0.177384094160924 -0.00695209310039916 0.0138328159555089
0.18950269719035 -0.0128502166694733 0.0148611358052688
0.203412309866621 -0.0219647103428624 0.0160660471326738
0.204014558171617 -0.0284246926217963 0.0162691001316749
0.211733982458695 -0.0299551137120016 0.0173762390907376
0.217806115712596 -0.0354768506706893 0.0183265758985539
0.219340613982434 -0.0384908707091656 0.0185965221167712
0.231329544922097 -0.0498914535574715 0.0217336678378832
0.239385236931829 -0.0518439088834974 0.0258048811802333
0.250816514173885 -0.0677072559881692 0.033121602120117
0.247598250509868 -0.0667041904812301 0.0313061923404266
0.252372918065089 -0.0673931743520775 0.0338655356384682
0.263086945689108 -0.0718625153690257 0.0401117642752521
0.267661094030262 -0.0880408603281987 0.0457449415013918
0.274836190536601 -0.0839906449796812 0.0484914482489766
0.283669602643163 -0.0900431710769603 0.0541571054186514
0.281964991077814 -0.103734193167512 0.0561387054363942
0.291147058097079 -0.105815385243062 0.0613388493210766
0.294690229386084 -0.108186507970997 0.06536080205641
0.298094622290348 -0.113883367053013 0.0704837463011726
0.303986225610552 -0.121361100090652 0.0784728476150331
0.30927819142732 -0.118280445835259 0.0824106560011747
0.314698429533566 -0.127848838767276 0.0948606603314451
0.315684747267017 -0.130970415128588 0.0978848214107218
0.318920134411467 -0.132860181622758 0.103216043489942
0.319047789746233 -0.133417654529358 0.103691785966695
0.326963788575261 -0.139310530362037 0.117433164571631
0.326251472829619 -0.143947135552103 0.119036223357206
0.334265166748536 -0.148721350502542 0.132292437666716
0.335142413667028 -0.151663677611782 0.135073374996643
0.340693953538662 -0.149837529530171 0.141435469037822
0.344250551769451 -0.149277993488709 0.145846801006877
0.347580533041128 -0.154128384157494 0.157029362123677
0.348313750108472 -0.159371917416937 0.163481160653976
0.352302952385856 -0.167002019872767 0.179359250652201
0.353733070267354 -0.167712740128779 0.183189049535938
0.358283832694138 -0.168333435383176 0.193866384319894
0.359632505324097 -0.169155794323929 0.197618004152155
0.362659851196332 -0.176356293848333 0.210964810115711
0.365652021336339 -0.174271441369632 0.215692010666583
0.367638723017819 -0.174318302033818 0.220147197989397
0.370915044277289 -0.174840410329215 0.228684691350721
0.369074422262166 -0.184619607083402 0.234319863983188
0.372751557448849 -0.190619507101396 0.250032624485844
0.380726021699792 -0.183030618265788 0.262350769488618
0.381795093871321 -0.191954930977263 0.274502158143946
0.382500744259143 -0.187921079345736 0.272041035708532
0.386588349761081 -0.192083840886906 0.286860101668311
0.386158472146343 -0.197321991695137 0.29129631623565
0.392273049243043 -0.195280020288129 0.308212660303998
0.394680974622191 -0.196740823526282 0.317906537551529
0.394902175340614 -0.198694430218283 0.321221720418819
0.398148263518227 -0.196858498268626 0.329218805920883
0.396738527037187 -0.202316985965988 0.33195754456776
0.39881298975167 -0.211148086305933 0.346625343319344
0.406915679089078 -0.204424895591675 0.357962609587988
0.405689834084417 -0.20957393885069 0.35939120802294
0.406882047071588 -0.216127497758174 0.36492883306407
0.415890494267744 -0.222333514969462 0.376278235321305
0.426087824177471 -0.230566023471426 0.387340468202472
0.429514185501896 -0.231613656084046 0.391908166407395
0.431504306449859 -0.22837052943066 0.395576323644545
0.0798013025206708 0.105655885594989 0.0107548678601845
0.0802532957846148 0.0993425568625071 0.0107548678601845
0.0927815042245114 0.0972003172781202 0.0107548678601845
0.0967898876412774 0.0816974532631584 0.0107548678601842
0.110256683107898 0.0756024592395578 0.0107548678601849
0.117663644186764 0.0705770626936796 0.0107548678601845
0.120134022925849 0.0595876773434176 0.0107548678601845
0.125786929442767 0.0590471693038948 0.0107791226008133
0.13673144238549 0.0524640150448163 0.0113897824677871
0.141445125967858 0.0441604370728875 0.0114844710396321
0.150645983677024 0.0389983194696388 0.0120370273805429
0.158379966657053 0.0313338164002121 0.0125733068975918
0.162713280240042 0.0309116497531759 0.0129144347002291
0.177881396942312 0.0185479399198095 0.0139942137968273
0.182653750301071 0.0171188900668573 0.0143597819252682
0.189742822887492 0.00211293721109895 0.0147675579541647
0.194174816706203 -0.00161428570835338 0.01511575202366
0.209692852112468 -0.00769836231489181 0.0166813811570576
0.209287745963049 -0.0226663916162525 0.0169001938681585
0.218766127207007 -0.0324576099489105 0.0184052018356265
0.219113495360216 -0.0308335103858637 0.0184238688805391
0.232524128616045 -0.0428180403012553 0.0218487288432536
0.239267511581624 -0.0358738329376608 0.0246145430737563
0.247615258546178 -0.0515655442487512 0.0301976262034749
0.250193608679374 -0.0562996245385112 0.0319141141888329
0.254832915329564 -0.0546116244624451 0.0342822586779101
0.25836588865762 -0.0589352519485538 0.0364815813075807
0.265855365604227 -0.0612190621070147 0.0406581421856003
0.277477327570595 -0.0763328125596083 0.0482262415722717
0.279443342402272 -0.0787395881731773 0.049706515029968
0.278824061680802 -0.0839220008692858 0.0504695722470242
0.290793079740028 -0.089081287105095 0.0575169223350756
0.298973142383368 -0.0892826430036765 0.0622080608883537
0.30194458067705 -0.0950836582055337 0.0669845537204345
0.303195742780265 -0.108430670025202 0.0730100986841725
0.305312139060515 -0.11095843461214 0.0758216482760571
0.315490402136482 -0.113590925212677 0.0880756884298511
0.316949311932018 -0.11695669403738 0.0918610783566602
0.322393019978854 -0.119966489731358 0.100737801594598
0.328504746136292 -0.122358048577839 0.110161074913405
0.327918953660585 -0.125402521399556 0.111057011552503
0.332979990518351 -0.124397510816384 0.117219588176559
0.335536968608356 -0.127932940241213 0.122555118124769
0.336363102713487 -0.134991947259147 0.127530651324796
0.342333190896032 -0.142935358509467 0.139817143637562
0.348090868837007 -0.135959709635011 0.143622717503493
0.353855837476839 -0.138440165026656 0.156534191707559
0.350986246161921 -0.15057071389972 0.161320133887338
0.352814686282521 -0.152242305323332 0.16691842370584
0.359822011871216 -0.147718439501263 0.178318889165346
0.356873021373891 -0.157453212776785 0.180724655092833
0.365533538921984 -0.152456427176338 0.195361507231913
0.365231609716919 -0.159194657505426 0.200889400192305
0.367464288835555 -0.165309246715213 0.211472488548447
0.371973898922415 -0.164342528503977 0.220598188818525
0.374923059713826 -0.163829374402758 0.227274899943296
0.375573091883631 -0.169551510965917 0.234975822492709
0.381500941088428 -0.164062293170509 0.244293112828375
0.3783336179927 -0.177562306418869 0.250475244857677
0.385285408772628 -0.169239797717489 0.259410969510216
0.385656000057395 -0.176574564611749 0.268102568136699
0.386805116930528 -0.176202292740449 0.270639396756104
0.388214590611863 -0.187286725985348 0.285940165088131
0.391250868671176 -0.188937760974904 0.296471845382732
0.39670233286758 -0.182446863593852 0.305360861842316
0.394796985018189 -0.189491522430318 0.308618886338971
0.399681728494682 -0.19273286748963 0.328654396826625
0.402653029573011 -0.185976812217646 0.329210518410006
0.401553218080613 -0.194416068639611 0.336249657113341
0.407701015926364 -0.192570220468757 0.349578843644362
0.409974256711702 -0.200370117408448 0.360134798291717
0.410888339271517 -0.20153287721318 0.362293863509431
0.415451448652113 -0.205978829669614 0.369781438092782
0.423012350470126 -0.209825824796809 0.377753435973911
0.427205091353589 -0.220608053794251 0.384580471561668
0.430664008348104 -0.220848904731453 0.38784633390555
0.435071717446942 -0.224806231564225 0.402312121772384
0.0819340593516483 0.105122997482969 0.0107548678601849
0.0877751002770087 0.112756754806258 0.011107426382817
0.0950262834555931 0.0958141144893273 0.0107548678601845
0.106084719773479 0.0922176029554096 0.0108991966183582
0.108655305756685 0.0847127865570673 0.0107548678601845
0.118393921197446 0.0781196466206334 0.0109943693938818
0.125225407574851 0.0720543222747506 0.0111377611455976
0.132690607327317 0.0720187614943523 0.0116914091789546
0.146849367787408 0.0621631309579343 0.0124401931726288
0.15385307076521 0.0508712624257753 0.0126130733848654
0.155498331655557 0.0472747588842325 0.0126246316633235
0.168460732113902 0.033978526008541 0.013404963074044
0.168986444496244 0.0369738020032666 0.0134783322722176
0.177115380819779 0.0284417511925456 0.0140369992745105
0.190086523523754 0.0140341381436627 0.0149201225674146
0.194069914862378 0.0174611460171931 0.0152737568693541
0.198314094192554 0.0118726414622939 0.0155535372202857
0.212864115146794 -0.00605364153904619 0.0170943765191754
0.21859288753194 -0.00935887851353633 0.0179559331102421
0.227673613160876 -0.0160052934800471 0.0195618493006169
0.23559185347711 -0.0250166263449841 0.0221651066434805
0.240799297103545 -0.0343423866967388 0.0253276904822315
0.243926390418038 -0.0307267537465634 0.0267490274592955
0.24699115554997 -0.0394974901457637 0.0290112197138828
0.25334507055538 -0.0456268259489724 0.032850397537311
0.263576795984944 -0.0503608650330559 0.0386701159540226
0.263685190708799 -0.0549676176793046 0.0390533900960603
0.274605315639396 -0.0611486065847356 0.0453443133426643
0.281100304216442 -0.0608299920081559 0.0488040074983777
0.286445470186654 -0.0650007637917187 0.0519641188247891
0.28843901918491 -0.0794678003392223 0.0543514260201837
0.294500181636075 -0.0795913337688534 0.0574051297296665
0.306231685773961 -0.0822163604943066 0.0660578337507137
0.311231213249067 -0.091935524886644 0.0740792465266103
0.310860235312297 -0.0952201901240553 0.07495874709336
0.315388610377724 -0.0977652293224859 0.0799203408659853
0.321463023525234 -0.103196539488995 0.0902876041536759
0.327386144575616 -0.101893889394986 0.0974304058921735
0.325156517430471 -0.108816027558068 0.0982763850117327
0.329666917886074 -0.110035982571616 0.104931164658526
0.331946176241669 -0.114032866913821 0.110151823184175
0.341454885905596 -0.115653053895221 0.123658235214434
0.345141309668301 -0.120829670283611 0.131394245697949
0.343362850579331 -0.126409933730618 0.132101370713305
0.35115564987431 -0.126832109123699 0.14267274702105
0.353135763012292 -0.129921779168936 0.1470990816873
0.355133129569328 -0.131385853579413 0.152881632018833
0.358885128211565 -0.134172083126414 0.163777116415752
0.357447855085865 -0.143337763290949 0.169016612560333
0.361922326884885 -0.144486317296903 0.180010091696971
0.366893671402476 -0.141177132280284 0.188006407096508
0.366849394065576 -0.148899075877796 0.195011401447214
0.370933316544799 -0.148135483772587 0.203378585086863
0.372415584374715 -0.149668620337673 0.208080730095699
0.375085455780858 -0.154519926921804 0.218472659148881
0.381613690847965 -0.156581719997857 0.23667993781543
0.379969662174465 -0.162567223808035 0.238809645003983
0.385749675311969 -0.161921121010318 0.252865076512103
0.384493261419024 -0.162997983161987 0.250798821342894
0.389883607816783 -0.165432170721687 0.267113956272436
0.391662319327046 -0.169695107141531 0.276151628625077
0.393157372006901 -0.16734182163925 0.277478258460451
0.394394594000313 -0.174119510252082 0.287791220732445
0.398328304035427 -0.173727431211542 0.298972074040489
0.399343624813456 -0.177761983800711 0.307615416700045
0.403962209419235 -0.17256539563655 0.315549658046712
0.404464881999155 -0.179417118380199 0.326297983647176
0.407176418312912 -0.178052277025262 0.333203040409387
0.41031447255991 -0.185841841815943 0.349149175137634
0.411571487844651 -0.185889706568288 0.352310712435632
0.416970996218251 -0.187189974268455 0.362476892697399
0.423322095118328 -0.188923133636959 0.370507320853151
0.425387827160285 -0.192961491931835 0.373874413577184
0.430721773163342 -0.205673854472988 0.382140028247336
0.435341585118137 -0.207133048813346 0.386925205806556
0.436317710724509 -0.216884277272221 0.39792301996152
0.0860293775671687 0.118011412029704 0.0113572572834681
0.0964845325167397 0.10993291188333 0.0113536852493588
0.111269843016014 0.101196469756673 0.0116697152537783
0.111966787643709 0.107190831105867 0.0120076998639999
0.121073789622209 0.0904967123543438 0.0117714143829945
0.132712989993264 0.0891009369140437 0.012445789868641
0.134592102514948 0.0796291175167851 0.012101916045287
0.139182709025041 0.0766133058846332 0.0123152623620193
0.149078951602792 0.0683147520248812 0.0127952240467998
0.16073810436576 0.0529450297633635 0.013188534975678
0.16905060640551 0.0488005920147693 0.0136786735329181
0.172572559021488 0.0507674786363264 0.0140009331148271
0.178200993940716 0.0412224044331345 0.0142577507456345
0.19070812442761 0.0243836829842306 0.0150783481022267
0.191854667998542 0.027770089055225 0.0152053317942805
0.202022334476367 0.0128531283482053 0.0158595445031018
0.217947561715962 0.005400353794635 0.0177928898779164
0.216522336760138 0.00376293980616775 0.0175635490483544
0.223797183185578 -0.00112163553864593 0.0185317809302427
0.228391992545548 -0.00989357511304448 0.0195456919018849
0.234100698593524 -0.0146341282969664 0.0209163991808805
0.244700873916999 -0.0234655515149337 0.0266517342306347
0.254072781936296 -0.0259376492131292 0.0318508200386326
0.255921986722829 -0.0340184770711059 0.0334126132202522
0.258146843349376 -0.0375818410036237 0.0348569482911911
0.270630733444308 -0.0378193089379474 0.0415667452703254
0.273385351865992 -0.0488434025130972 0.0438217068971242
0.279429450460622 -0.0469665263109167 0.0469296763478746
0.284413178875457 -0.0603871629089539 0.0505488952830022
0.294024579390963 -0.060749448791659 0.0557274635184171
0.294784348773077 -0.0663144755908639 0.0565275998509853
0.307245977836631 -0.0680548118656126 0.0652077737215971
0.30692015366458 -0.0778923361075727 0.0661322665597023
0.3076127955014 -0.085342092400408 0.0684360207065087
0.316320471042572 -0.0850059705459997 0.0760513670794323
0.321286934044059 -0.0908715018999241 0.0832804773552051
0.323165804402009 -0.0906294802943529 0.0856403240128472
0.326964444317451 -0.0916296742206547 0.091229976725182
0.334307529821853 -0.0994589820042165 0.105275431712013
0.336230084517076 -0.101168027820988 0.108765489841122
0.343661227662337 -0.103157160780859 0.119718182414762
0.346233882109315 -0.112544160605402 0.12829037006176
0.34693624779274 -0.112685580552446 0.12929997796372
0.354245750486966 -0.112349381285644 0.138813342736717
0.355593675657466 -0.118807490964336 0.144150943635545
0.358424632661606 -0.124040868485045 0.153434858663643
0.361190897816617 -0.124065236507003 0.159600615185884
0.363470365310785 -0.122253269643138 0.162996065095136
0.36793624988263 -0.12870509221039 0.178848888494643
0.371831930049404 -0.126517783704099 0.185488362217354
0.370578597364397 -0.138554655334121 0.193777530065564
0.37552994535235 -0.134246210072266 0.200810229201058
0.376359273776544 -0.139249240779885 0.207254237003388
0.376937371611458 -0.144847162370005 0.213687543364526
0.383837245454258 -0.143849535564973 0.228902342773272
0.382844802006979 -0.152171873677991 0.235161520231038
0.38833680209795 -0.149814079874724 0.24667476381761
0.389418067366103 -0.150043189479517 0.249673738649636
0.390227072078541 -0.155614354023555 0.257620557521603
0.395575914135913 -0.149079587160618 0.264357236962151
0.394051502298128 -0.16187093978802 0.27397998994467
0.399318000928508 -0.157902920974296 0.283217601073873
0.402766886236357 -0.161978594400436 0.297595228353289
0.403735012244295 -0.162063743248592 0.300823493847019
0.404739870547816 -0.168889561283675 0.313152999342733
0.406737201944246 -0.168904734406565 0.319599314240945
0.409416735655515 -0.169586119678917 0.329128344123885
0.412033584532841 -0.172891992962254 0.340124203062475
0.412994639221792 -0.173809730384222 0.34344508097166
0.41492650417669 -0.174825721862392 0.349270515310386
0.416209816182497 -0.181403312900573 0.357581871988174
0.424745590639212 -0.179769076634592 0.368374343949292
0.427234652801155 -0.187667956045809 0.373562939671265
0.436083541846927 -0.189655061948158 0.381207410048568
0.441349157852867 -0.196185922928513 0.38827711763686
0.441503129349972 -0.204231235577615 0.394997506416452
0.0965656930614783 0.130929616175583 0.0126974979839101
0.10368674416497 0.116283662861529 0.0121115916167795
0.117959090215129 0.115125901220838 0.0127786170658403
0.121030744010798 0.106296385697272 0.0125422916465037
0.123962389876996 0.10575209429435 0.012702714430479
0.136062552056966 0.0882971520021761 0.0126201746762977
0.148200662933956 0.083630884646034 0.0132013948384727
0.150503143182101 0.0745005295480547 0.0130914571836226
0.154587937865257 0.0763213924476703 0.0134510471620193
0.163863074294264 0.0703144889343296 0.0139553920862847
0.17631766355682 0.0545088226085479 0.0143943937494382
0.175571628498797 0.0487760847912046 0.0141624995002008
0.184477374382489 0.0460163240184161 0.0148085900933719
0.200203726754081 0.0340916812409808 0.0159374952782579
0.203853232070945 0.0310147835807586 0.0162942127896296
0.208025405147172 0.0264594699211508 0.0167935499496891
0.217352826378907 0.0226114239256391 0.0180264729166557
0.223022061724968 0.0151661045097131 0.018681880015474
0.237095715893373 0.0044921599084161 0.0216415847411111
0.237010869635542 0.00721779173185287 0.0217612939575067
0.246351996599506 -0.0100593897812779 0.0265907050493904
0.249461840067587 -0.0062503994183302 0.027989145985182
0.259157560036144 -0.0169971919323927 0.033945894065317
0.257982595835136 -0.0193657367189463 0.0334831358600883
0.267398950306771 -0.0194011512612841 0.0385340616384037
0.272034074447777 -0.038359366804966 0.042357242941412
0.275423615541797 -0.0355315235383134 0.0439748918893989
0.284417839207818 -0.0442037996610286 0.0494091177464418
0.286878143468613 -0.0455159992183341 0.0508207895193755
0.296968393892782 -0.0518546860133401 0.0566779198224178
0.301866331177303 -0.0634784333734372 0.0601243127572904
0.3069047533988 -0.0536760836383804 0.063076856547521
0.307207839046617 -0.0633782660045257 0.0645841863020227
0.312480543484555 -0.069224462221159 0.0703471783543854
0.326276290947153 -0.071157667802879 0.0849570540693135
0.326276830423144 -0.077218610793312 0.0860939382777465
0.329742507469731 -0.0832497321879154 0.0921589455748282
0.332184959588806 -0.0882944861976355 0.0965821770675965
0.340454371941324 -0.0910282525773 0.108868727310263
0.337393078876128 -0.0965257063068781 0.107757242649553
0.346720883077961 -0.0997958943532062 0.12193042641822
0.350600426171292 -0.100448977753273 0.12743665797845
0.353705330537429 -0.103529516767088 0.133249172704547
0.357076503900996 -0.10342465771017 0.137664363632882
0.359066560927795 -0.10834027726593 0.143006225534733
0.361710548211216 -0.11462321903204 0.152069056709331
0.365402921871123 -0.113674967512901 0.159396820001648
0.365691212349489 -0.122669774445589 0.168311275363433
0.36912763830913 -0.125190651558527 0.178261839172327
0.370338517172562 -0.127332889620643 0.182921587055778
0.374561227312411 -0.122195402849093 0.187573496645673
0.380586531711275 -0.127781105439685 0.206092756656916
0.379845787088755 -0.132931517271716 0.209185509624817
0.382699485842874 -0.137227361395529 0.219474720283023
0.388807712750259 -0.130328720018119 0.227295878699489
0.389211288955893 -0.13468761158188 0.232928588996663
0.389955830616315 -0.142581869231258 0.243164592765308
0.393403242190527 -0.143872133447103 0.25331748937217
0.398393438255596 -0.136526422846179 0.25828321268466
0.397657066966759 -0.147484016098852 0.267978564670389
0.404541977038203 -0.142614480959467 0.280390641380929
0.403226584995579 -0.153636162036112 0.288677299062577
0.405273646190877 -0.152060626178773 0.292442989748017
0.409803411771323 -0.147067906164108 0.300363158215059
0.408821563223147 -0.160697199104686 0.315367511043463
0.412484719051691 -0.155562483385519 0.320310268463123
0.417151210888022 -0.151767829043138 0.330266953005185
0.416151102905478 -0.166333896590545 0.34359332752968
0.420560685960392 -0.164830779661673 0.352970099778218
0.423216385191603 -0.16317830947924 0.356727391546521
0.426102103133463 -0.169543422417623 0.364831007299094
0.431138703772286 -0.176659489936274 0.372972282698538
0.432158080930619 -0.172164989187265 0.372213651821106
0.44432283527217 -0.187377731823098 0.387657846876201
0.444182782426652 -0.192005331110283 0.389489767221139
0.456454604116299 -0.186545165229855 0.402379571214951
0.104649816381777 0.140447499498083 0.0137006873741608
0.115872611802581 0.128088042924727 0.0134615267294548
0.117998568339879 0.126841342815463 0.0134860690078081
0.126379693810414 0.113906130666466 0.0132562259084166
0.135837110499119 0.109007865428358 0.0136198798416432
0.132989995774099 0.103992895138198 0.0131926443334653
0.152418681433546 0.0884021241027753 0.013669029618787
0.155677837446829 0.0924183046917276 0.0140736529475666
0.164185028428279 0.0791716412232034 0.0142519434364158
0.16402979786283 0.0747263157047692 0.0141035792340578
0.173245293104314 0.0733054786641518 0.0147446532009964
0.191449599223335 0.0571013828703738 0.0155986552856206
0.193907174222963 0.0490306581078653 0.0155922155834819
0.205501647514062 0.0421144436898962 0.016728870641675
0.208108043117683 0.0398506388145643 0.0170515199281571
0.221560367020458 0.0309739969364189 0.018785753479829
0.22359522836833 0.0268329663314434 0.0190648399607989
0.230235673795366 0.027168935142773 0.0203171877400212
0.238152400634061 0.0129482425222398 0.0225896592345533
0.24108182184817 0.0121105026990637 0.0239099605580426
0.249143611035553 -0.000714384462075599 0.0274277821208018
0.254401196462878 0.00461681879117691 0.0305219983979797
0.259871956163536 -0.00938716594884656 0.0337917648132987
0.267489035692426 -0.0087570995368579 0.0378310665623811
0.273221638921531 -0.0187639172253314 0.0416108238156953
0.277909868394862 -0.0228519957153052 0.0444128924977745
0.287707942499889 -0.0236411416976425 0.0497216719765955
0.295399445564393 -0.0334752741410342 0.0545394729790364
0.299071511023267 -0.0413132409692563 0.0570614214710798
0.302904039886718 -0.0432789879900059 0.0592549188368926
0.307435981281151 -0.0529950400895316 0.0634980067954644
0.315772095941676 -0.0478577344028888 0.0708036203051162
0.319238568336928 -0.0589324238483682 0.0755004118475116
0.324423463461131 -0.0559632751372592 0.0800727528705008
0.327088410437738 -0.0608189546285381 0.0841753828707132
0.329698095359833 -0.0651781787878402 0.0887082211498275
0.336765740799588 -0.0687777651891122 0.0994459751069492
0.339444622740128 -0.0716903362076047 0.103806163803305
0.341658457281084 -0.073083678467258 0.107219433761504
0.344651493774021 -0.0823572846657704 0.113219288259966
0.352547350911822 -0.0869057947883904 0.125314136590717
0.353883254953013 -0.0935405897128184 0.128459900045547
0.357300690400638 -0.0957327777676594 0.133736617057471
0.366648273068234 -0.0932646782155603 0.146583198638551
0.36470593923105 -0.101833056908195 0.146955720849929
0.370336589637523 -0.0977677218479261 0.156607829217417
0.370985622728132 -0.107850365910323 0.166436937409476
0.376899397580016 -0.102816730174464 0.174939906486523
0.379208453832704 -0.104390970672702 0.181515999933772
0.38040622271427 -0.11183716880631 0.191025684027551
0.384494640706786 -0.116022013330693 0.203954860418536
0.385822171064588 -0.115347141495377 0.206282242236191
0.387332162708522 -0.121206599679632 0.215025689231078
0.389405518724875 -0.118026070697645 0.216704481039162
0.390445690664131 -0.129131973368518 0.230208424961111
0.396304132550572 -0.125582532094908 0.241397450683726
0.396806086024299 -0.12847995901691 0.245737465534423
0.39670270482456 -0.136294016412074 0.253726740254843
0.404122938537412 -0.131844644946833 0.267947538657437
0.404799387901001 -0.137535077214158 0.275682334766055
0.405652454340411 -0.136343711077092 0.276599204525419
0.408647052901263 -0.139688011372057 0.287766908722274
0.410750522096277 -0.14216874151291 0.296881384661013
0.414213835105015 -0.143021054767137 0.309159888915436
0.415104078275793 -0.14515895162006 0.314873206032812
0.419070895899284 -0.148290609139854 0.331809260116931
0.42361092379372 -0.141757726547064 0.336858535944621
0.424698062507724 -0.146856084693538 0.3447793253955
0.424738286620875 -0.15649319925119 0.354762920804595
0.430989550916033 -0.150345265842743 0.360598400822101
0.429889931464826 -0.165192690913184 0.367397096378027
0.435218841877864 -0.162467231681008 0.371352457691151
0.44394401352948 -0.165402695745444 0.379607053871176
0.448953245551978 -0.172619662437725 0.386297255745169
0.450660625941271 -0.182123083109672 0.393173769314163
0.451858627325225 -0.180973638208187 0.401105935307952
0.102931244222593 0.145820082243628 0.0139593727364773
0.109555981777194 0.135938849585972 0.0136532102788724
0.127508319675628 0.129868783130187 0.0141448964120898
0.138859005921044 0.117971784876246 0.014251626996721
0.146528582632732 0.110088557148582 0.014355038155839
0.148104868044276 0.108108896076825 0.0143586906218695
0.154628080379341 0.101973653014757 0.0144745394418898
0.155128023634298 0.0970198574209838 0.0142638813194433
0.173693829140935 0.0886352451416357 0.0152498406347657
0.176929221563731 0.0889171613261142 0.0154989417083639
0.188678137748644 0.0747005200345958 0.0159344153060895
0.194941927223164 0.0736566018242485 0.0165948585787151
0.197924807636286 0.0654422903755196 0.0165402063127278
0.20410548947052 0.0544388553937927 0.0167605129507982
0.216545190604089 0.0524735524601657 0.0184630980368742
0.21852031358955 0.0376929994263891 0.0184671831157657
0.226423532922607 0.0412019411702186 0.0199491163317895
0.233675873723614 0.034989883574941 0.0219016600443844
0.243320784316608 0.022284106937209 0.0258284311962569
0.250126809111639 0.020335948689541 0.0293398637259831
0.260957996170987 0.0088442434216002 0.0343357062978021
0.258785201555855 0.0102129416061715 0.0332674049309113
0.266319776784386 0.00447834605597623 0.0369021785340284
0.277963286520259 3.69186862663589e-005 0.0428311670448186
0.277883927126879 -0.00341591931188122 0.0430271209958794
0.287180818491905 -0.00577443513970105 0.0481779708487427
0.286748339252956 -0.0142135329853217 0.0485417639541651
0.298757104592997 -0.0215503878756479 0.0554979290439183
0.296530100015395 -0.0255518528452077 0.0545863933994326
0.311487106669428 -0.0343463340661352 0.0650201909141753
0.313821797407182 -0.0382646606491419 0.0677389394570243
0.319196106700563 -0.0416065052851568 0.0732843787612521
0.324134836691085 -0.0441773320012059 0.0783175653496122
0.329735945167515 -0.0532596829200666 0.0865280052846914
0.333814035534589 -0.0527373244646675 0.0922365340401606
0.334119890902057 -0.0567645370205174 0.0934269112445128
0.337718379562104 -0.0648063437501381 0.100057918064229
0.345256154823665 -0.0642641703889911 0.110688682050441
0.348933263277103 -0.0642944572203744 0.115929879603765
0.353157327904251 -0.0667467404143381 0.12240384144038
0.353005765044923 -0.0769208854048867 0.124095174649196
0.357997457955321 -0.0800024092966609 0.131780047136872
0.364248924918881 -0.0793842997824436 0.14056511258425
0.366023315297738 -0.0881814194648685 0.144740524283544
0.367867990701806 -0.087830014467182 0.147606593476627
0.372055972100856 -0.0939055941152801 0.159493725989439
0.37723048063456 -0.0927786014471861 0.171472113162375
0.378188113369311 -0.100751243577562 0.176255832506473
0.381074472384249 -0.100364053677042 0.183013175648611
0.38539946083285 -0.0979133933956457 0.192551660449302
0.387047822883558 -0.10393660071044 0.19850775496272
0.387247189416895 -0.110176592765183 0.204690605371533
0.389407933964573 -0.111501840329873 0.210708281472566
0.395812366611003 -0.110351535486963 0.224057220230735
0.40189339050482 -0.109160559322826 0.238304693783912
0.398195315077145 -0.114386231127024 0.234394511529725
0.402441462377934 -0.118807407609217 0.249890752599299
0.406183181971958 -0.118780321841475 0.259402743738546
0.405897852077123 -0.126559622912409 0.266891379404216
0.412360933342527 -0.122040616679316 0.278598095102365
0.41133022302231 -0.127304857988067 0.281529868319737
0.416984814205163 -0.12403989473916 0.292779526807559
0.417250725222606 -0.129645515865703 0.301105472875822
0.418797182354517 -0.132356487312481 0.309693770367098
0.420732543017158 -0.135914008026146 0.320661470053184
0.425981939575017 -0.131877360421203 0.332171061112049
0.425310023929816 -0.133113023864458 0.331656006518796
0.429412181303505 -0.135141833904253 0.344437424092352
0.433544709355299 -0.134661843159708 0.354177527911746
0.42959412563098 -0.149557198615851 0.357886218321132
0.444000632689225 -0.146837121415403 0.373430807903184
0.448016653300857 -0.158903372481474 0.380618108064296
0.447380243687592 -0.160245619436975 0.380559201901142
0.455927276616261 -0.163471553578163 0.389372586874458
0.459216805287666 -0.168281229744105 0.402552689870483
0.457096668411356 -0.170905807329047 0.402149704552888
0.115625326101963 0.147798413175699 0.0147071738703829
0.119628097828521 0.150233521365464 0.0150585566161633
0.131241080005283 0.143557990488387 0.0152012031629144
0.136901884460665 0.138845266813128 0.0151776543123202
0.148699338949551 0.128957575709248 0.015417471380956
0.157987723438815 0.116404422515461 0.015395520819781
0.161954837435811 0.105029701758155 0.0150917115216748
0.166717224184733 0.104734115358046 0.0153811350171343
0.172523629905624 0.10544069706205 0.0157862500267444
0.179678368372955 0.0898775602638732 0.0157327936125467
0.194783541923233 0.0840348199040375 0.0171341427149649
0.19931710407595 0.0698230443960976 0.0169578967251543
0.210916887920924 0.0705539801589589 0.0185081899870361
0.213475634219635 0.0634564512492666 0.0184585460971579
0.225504853450645 0.0593804972600077 0.0202253717354042
0.228968470027835 0.0475861565415796 0.0205833642225873
0.23545352321187 0.0440334878089237 0.0231985264029989
0.246764904312934 0.0358564929555593 0.0286329249708126
0.249339098788777 0.0321556641507395 0.0297518207716109
0.251238512511703 0.0303418868473686 0.0306421382180898
0.256480008787226 0.0185010205600119 0.0326165135560609
0.268940233697706 0.0182943056483012 0.0392822709132439
0.273610138607621 0.0193145431889221 0.0418579766655458
0.277798547043661 0.0131122010700603 0.0436657419582822
0.289425419922658 0.00151200431537469 0.0490805209154674
0.292997189975177 -0.00049720922666486 0.0509238399971309
0.292718081825697 -0.00204501208455272 0.0508834497995212
0.306632918297915 -0.013940328216819 0.0591832755832911
0.311458395925213 -0.0144076080828384 0.0624891948920193
0.313277537898879 -0.0258779274586766 0.0656645003849978
0.317258959632327 -0.0278986488981622 0.0697155672491699
0.32589508155453 -0.0269428823305177 0.0778323730542653
0.32402951193171 -0.0385803183613275 0.0775143195688456
0.330991538788789 -0.0364561850626026 0.0851659432736468
0.333548265272147 -0.0375696012697021 0.0890149559661714
0.3386993710654 -0.0384183134573843 0.0965082650987778
0.345843234787658 -0.0461554244159575 0.108130113494599
0.347075666932432 -0.0479901109780933 0.110228777924246
