ply
format ascii 1.0
element vertex 834
property float x
property float y
property float z
end_header
0.0356631477274103 -0.310235665457166 0.0517607256839431
0.0309100886526951 -0.305620670642556 0.0497835460425098
0.0158880540242234 -0.310478990074696 0.0518649720589373
0.00957126649003107 -0.309318973179065 0.0513679916977675
0.00619839839145838 -0.313583046694202 0.0531948278443691
-0.0135171965679662 -0.307518503029141 0.0505966250834066
-0.0218755785748979 -0.309975345403968 0.0516491980376251
-0.0285290088054596 -0.313190349602978 0.0530265865515376
-0.0426078027760787 -0.312956563932113 0.0529264269007771
-0.0470276462244629 -0.313712619506566 0.0532503400902068
-0.0539197179715474 -0.312932877713744 0.0529162791301673
-0.0688527218468773 -0.312875572094898 0.0528917279643538
-0.075976574119531 -0.314971656647876 0.0537897432106009
-0.0917812612040236 -0.321972256326022 0.0579690846325792
-0.100028923621685 -0.323387952807896 0.0609314353886437
-0.101097478962383 -0.316513826994976 0.0579395106247832
-0.113183688304905 -0.321289989416633 0.0656919625310567
-0.122478026879643 -0.322390889951846 0.0712925801122919
-0.121286830046557 -0.319405729287944 0.0681117337454585
-0.135454384314433 -0.322419467120144 0.0778055544383264
-0.139787894169671 -0.32212543444579 0.0797176834151578
-0.1435039111795 -0.320544030976441 0.080206159871127
-0.156555659782451 -0.321804790399739 0.0878239388981548
-0.160871155221236 -0.32846823057736 0.0957524523698737
-0.168766143957513 -0.324547490099455 0.0963044898708603
-0.175920712258813 -0.331196244294846 0.105639831504196
-0.18023511666749 -0.328972403382172 0.105871132655287
-0.182986755224815 -0.334003075607479 0.1116036832957
-0.189780419546134 -0.333647808763867 0.114692867663403
-0.200178488031096 -0.3337229107353 0.119956980153167
-0.204066180500692 -0.336239283375232 0.124080098808235
-0.221513950915984 -0.331006100918214 0.128271945350709
-0.221490214949699 -0.335214023879569 0.131904271792094
-0.23012557364297 -0.332527436260246 0.13389531239577
-0.242325107065058 -0.335931044581185 0.142942755743229
-0.245302423129697 -0.339117494794992 0.147190991301245
-0.25724564090619 -0.331667407645196 0.14671063198686
-0.259015649149754 -0.340345553971712 0.155111191977514
-0.262587784907321 -0.338833339087494 0.155587646792873
-0.272800135793815 -0.338991221169347 0.160830590009014
-0.283430171885033 -0.336308021418786 0.163821910518896
-0.28292097030672 -0.343840362786794 0.172329164258431
-0.291642726631659 -0.34314175838452 0.18087458559635
-0.293651014030492 -0.343899254904788 0.184651800229143
-0.306657811013885 -0.339394117545498 0.190571542660865
-0.30824228508761 -0.344957884533678 0.203336882974333
-0.312845803566887 -0.343090634107494 0.204894663266083
-0.320179166449464 -0.344548703278161 0.216110138156386
-0.321436244619141 -0.341374186785237 0.211285144806697
-0.330062618235624 -0.343698767512481 0.225678931973349
-0.33128670041558 -0.345348778955208 0.230322636106989
-0.342124748803466 -0.347179805920799 0.246259947855321
-0.344174181075907 -0.347342944616031 0.248912848560746
-0.349843864572126 -0.343646486116238 0.253240342463724
-0.352617055449614 -0.351021391585598 0.267094388075559
-0.359300799508018 -0.342611726625869 0.270697104255639
-0.359928418376659 -0.346338772550029 0.276173683688879
-0.365596436147795 -0.343754909686685 0.284402501468405
-0.369025492697564 -0.349399764740064 0.297580741593236
-0.369959707860686 -0.351120173757653 0.301378669000789
0.0525026729400973 -0.293898738787165 0.0447615761478996
0.0404139251222454 -0.29261934889853 0.0442134533995797
0.0434714873407755 -0.299937317831059 0.0473486550132923
0.0213707955578855 -0.295123807811278 0.0452864264740928
0.0118413910577854 -0.30150634685359 0.0480208664381778
0.00366292893604827 -0.29491761500815 0.0451980883006099
0.0018572310278437 -0.296855522118667 0.046028336359345
-0.00953816461936051 -0.300648415359708 0.0476533070471944
-0.0160689174741195 -0.303928743220455 0.0490586818577935
-0.0390611004059116 -0.3040017619011 0.0490899648937691
-0.0463058695312155 -0.307299520712531 0.050502807561258
-0.0461658839271531 -0.30706619801097 0.0504028462581701
-0.0654723562717189 -0.302626314468381 0.0485006886819683
-0.0726002535366782 -0.304831965030019 0.0494456447570609
-0.0812676000802045 -0.304572202599192 0.0493343560101668
-0.0922796169266701 -0.310560005194112 0.0538415850959827
-0.0982665604598496 -0.311855976673475 0.0556049039968283
-0.105635217164677 -0.314100986191769 0.0580163219638812
-0.110210306673694 -0.311221180307671 0.0579278777569155
-0.125655576893128 -0.309279473889836 0.0615264651715373
-0.131009722930164 -0.314199354707032 0.0684643300860125
-0.132762365887176 -0.311621770887669 0.0671083887001633
-0.1423159053665 -0.318938452231747 0.0782216706464113
-0.155874191648489 -0.317838266660657 0.0840480672285039
-0.157761696659997 -0.310798711295565 0.0788953487293901
-0.169507109651825 -0.313394374788788 0.0870160244203538
-0.17279883269955 -0.31340629754344 0.0886722233183318
-0.183965603782971 -0.313897849373996 0.0946813486472959
-0.186188450891144 -0.315564841202143 0.0972364479325365
-0.193411747225085 -0.3220704792435 0.106482210709917
-0.200983178953377 -0.321020938447599 0.109359018366859
-0.207948542813823 -0.32044195371801 0.112340306352059
-0.211147674665116 -0.32472684067104 0.117650731598123
-0.213129134694257 -0.326357226395086 0.120053434426729
-0.232541878040159 -0.317602682225895 0.122178163801348
-0.244708257906776 -0.320101717321281 0.130425641198569
-0.245381595255684 -0.324678173053613 0.134725667863341
-0.252052544056723 -0.327576955637703 0.140571603857438
-0.259089164874697 -0.324522915836523 0.141445044524868
-0.265760965047694 -0.330781332900942 0.150200956036324
-0.278524427393423 -0.325179202464673 0.151731110991125
-0.279210340804296 -0.325746179375417 0.152565090129957
-0.288911695936053 -0.333148196309183 0.163826183758847
-0.301423469781294 -0.326578939020175 0.164392931079825
-0.304340815810751 -0.326923281316503 0.166149825963983
-0.311226473947245 -0.332422975344998 0.182032979355035
-0.319399475323754 -0.329905583097527 0.186370398477834
-0.324221391490301 -0.331697574343269 0.195386787749613
-0.325683448650673 -0.331668343817623 0.196992441514184
-0.330507114765355 -0.332439042175663 0.203998469386592
-0.3288484563742 -0.335269510595417 0.207688710236313
-0.337251370786782 -0.33487187647884 0.218446058441589
-0.342092138231016 -0.335717934684548 0.228946774231083
-0.347672004190014 -0.33547260558921 0.239662235209974
-0.3468765931461 -0.333031264541211 0.235317668162108
-0.353601272211113 -0.333860978038259 0.249511843341329
-0.354750329800546 -0.339333238569333 0.258001235897564
-0.361640208910153 -0.333738707972446 0.265212642310009
-0.362579148614255 -0.341529869604178 0.275926022214441
-0.367909961520976 -0.337461062172092 0.281801126215163
-0.372388402253062 -0.337002602014157 0.290103882708086
-0.378279717791239 -0.341136563967804 0.30641494416354
-0.383766620663941 -0.333202324754937 0.30820025704173
0.0583685403873494 -0.283951676333167 0.0405000048642542
0.0377444771145887 -0.289749103218413 0.0429837680905796
0.0283806039943903 -0.288909852130497 0.0426242118544971
0.016820389065505 -0.284323903632908 0.040659476384505
0.0106425205232986 -0.283858362188838 0.0404600267421035
-0.000136476079454551 -0.294589293450056 0.0450574271023671
-0.0112041889401879 -0.287761119666717 0.0421320660272366
-0.0150592514621935 -0.286917528949501 0.0417706505850134
-0.0256365541747927 -0.291722540878397 0.0438292383287266
-0.0311096441076386 -0.29443293174146 0.0449904378208282
-0.0446685489912959 -0.298126657393635 0.0465729226239316
-0.0583229254749463 -0.297441770573924 0.0462794999157781
-0.0679331768422044 -0.299324879511512 0.0470862710614813
-0.0806338089860299 -0.298161443157033 0.0467467052575539
-0.0781419013679775 -0.301873020351837 0.0481779585704353
-0.0950351967143142 -0.296819532644655 0.0493337782222153
-0.106060948561249 -0.301584427831797 0.0534635375592743
-0.112028783495911 -0.301792868529819 0.0548192598478471
-0.120808431196087 -0.30017957712258 0.0561013958834046
-0.125429176206121 -0.30489992350748 0.0588425935452139
-0.138392898542217 -0.305612904958159 0.0647198072277749
-0.141509031680178 -0.303284083600405 0.0642610520256513
-0.147370711041323 -0.304472927597351 0.068221489422076
-0.16161104550629 -0.306549233462752 0.0771398547134122
-0.164476891568909 -0.304201665404261 0.0765397198331027
-0.174444005303971 -0.311594889089843 0.0879260784923496
-0.179864242518931 -0.308701218770278 0.088130206567694
-0.189685182503346 -0.306306490453552 0.0909668014962802
-0.187301670821637 -0.311767220620885 0.094504202260555
-0.197472856695116 -0.312186235553782 0.0999527121381329
-0.205524874471096 -0.30622402655399 0.0988152883519737
-0.221126709729515 -0.306476343194762 0.106834776541071
-0.216844662259033 -0.313157331549344 0.110479684777013
-0.226727605239537 -0.314975298592997 0.116995608986548
-0.237907180575298 -0.313374975274733 0.121199506378853
-0.239830802415828 -0.311976740606159 0.120950408756
-0.250271697159281 -0.310792394685 0.125145212779748
-0.260061984143144 -0.314254738814406 0.133038891274622
-0.262805309155383 -0.319764008235798 0.139181765436985
-0.272142659946871 -0.317528810447277 0.14191472251045
-0.283517246287157 -0.313640886004315 0.144234991108465
-0.292760725208051 -0.318312119057446 0.152902199678753
-0.298278750562327 -0.315620447481328 0.153330159484252
-0.305335269271938 -0.316147652692807 0.157315020735024
-0.309536565565483 -0.322804240868038 0.165180500170579
-0.318150244513976 -0.322188831290352 0.169744199718464
-0.323009750181925 -0.317319564834873 0.170416746867081
-0.331074816751168 -0.317291826341135 0.186276572020744
-0.327498568125614 -0.325579234693063 0.188657774422738
-0.335322002028636 -0.321162641644041 0.199048686584572
-0.341105985969437 -0.318477829092198 0.207391162442518
-0.346036962730577 -0.320104415091845 0.218957561877247
-0.347769728125992 -0.319102350478314 0.221231839329295
-0.351069023684022 -0.324279629973641 0.23362248062267
-0.354436135101159 -0.328133752298435 0.244641510455178
-0.358778861879791 -0.31959799670924 0.243488052020775
-0.360515766061417 -0.3260612310437 0.254263076367824
-0.364871343136509 -0.324472923518447 0.261038418093521
-0.368698412184381 -0.324047650649284 0.268095468117207
-0.375470496418054 -0.322343415513974 0.279500407320967
-0.376178623294349 -0.328039218162356 0.287375294987913
-0.385423442505756 -0.321516068213979 0.298170461849981
-0.38492745094882 -0.322544158275127 0.298362726298293
0.0429842328341905 -0.274876418144059 0.0366119364149777
0.0303580215299742 -0.273652062050212 0.0360873915260097
0.0303327689787024 -0.27369421003283 0.0361054487799189
0.0112527142162395 -0.273941663497511 0.0362114640566907
0.0115960320545428 -0.274092305456654 0.0362760028539651
0.00582472281725518 -0.282760111859336 0.0399895087285584
-0.0109818745307957 -0.283616509369382 0.0403564109223544
-0.0201214821059902 -0.285385082372975 0.0411141119984255
-0.0272199798272585 -0.285077482124342 0.0409823283293792
-0.0456040220458879 -0.285681127850095 0.0412409453132634
-0.0439325226164104 -0.282210796562245 0.0397541682643183
-0.0600354733716783 -0.283351820489084 0.0402430115608244
-0.0659644986403824 -0.291135457807791 0.043577717202125
-0.078148031404513 -0.286001672060389 0.0417026167989852
-0.0870413412027738 -0.290256875609063 0.0451864709085675
-0.097029582193546 -0.29231515804904 0.0480897559205789
-0.115121701287828 -0.286290525041711 0.0497300132760189
-0.111709957430928 -0.294040767709974 0.0518747243963941
-0.127909724515396 -0.288523846646344 0.0532979910490074
-0.129017623640045 -0.292859234866191 0.055143863143069
-0.140017620680044 -0.293962665351488 0.0579096031210262
-0.145940143914319 -0.296287869111751 0.0604176808976424
-0.153673461295054 -0.298663026791544 0.0663413292738675
-0.166309808301423 -0.299876475410552 0.0737104333475896
-0.17286826167906 -0.294731625995765 0.0725340812456499
-0.176693572771731 -0.300914846646579 0.079801615459262
-0.177073075256586 -0.300289962252641 0.0794501984031943
-0.184966738484962 -0.301213622911984 0.0841969779073732
-0.20297153935027 -0.297618972414919 0.0900863622414556
-0.201236379263997 -0.302217669210404 0.0932013929529791
-0.212078829204046 -0.300907958791193 0.0974884064011722
-0.223314971137997 -0.297097024476376 0.0998061281844339
-0.228882984760733 -0.296622912923071 0.102179559493974
-0.23016500744205 -0.306385518210938 0.111275300735939
-0.23829156718226 -0.307389173271762 0.116207807021717
-0.252423833869664 -0.304661044239521 0.120911345300811
-0.259544275566021 -0.298588707339188 0.119212755860997
-0.265389607243656 -0.302185090530742 0.125250024523492
-0.274243772939505 -0.302068011025808 0.129575744798336
-0.283199369327894 -0.304467181045668 0.136131332540526
-0.285289842860948 -0.31190841269308 0.143620919059907
-0.290348102206064 -0.312375846565392 0.146554879537748
-0.297944515870035 -0.312700274319959 0.150634078518271
-0.302000538247009 -0.313821572160615 0.153633183789904
-0.316692269147593 -0.313607473481863 0.161922807815482
-0.319484041996111 -0.307455191977858 0.16126440851509
-0.329398042529039 -0.307314747073713 0.171622645658488
-0.33342639843833 -0.307862480332098 0.180183211256195
-0.335113759430481 -0.312056091865064 0.188278672365316
-0.338331041618287 -0.313642178141295 0.196422340780422
-0.345030296595117 -0.309363151008448 0.204754670708112
-0.343095509791614 -0.312371082465657 0.204364223264375
-0.350430790124174 -0.312578801399651 0.219053938517849
-0.357829606137194 -0.308969719374261 0.229526816851998
-0.355974281149811 -0.314117343177579 0.231727074144606
-0.362568205682651 -0.318200828878148 0.249365131815039
-0.364321371708283 -0.315165650067848 0.249366717437546
-0.368364453102994 -0.311822992103595 0.253530553716271
-0.370481945054223 -0.318040030673066 0.264775412419359
-0.377984247436416 -0.314218766011463 0.275210819063014
-0.378902823386835 -0.316666538776437 0.279805386618305
-0.389028052896628 -0.314635454155228 0.297445525334453
-0.390569322617004 -0.318563674788155 0.30495121758404
-0.394228108167678 -0.313374457320363 0.306257175740036
0.049700241888569 -0.267983488250639 0.0336588321965388
0.0337782645268295 -0.264281025207244 0.0320726040756782
0.0227606586953109 -0.270623322574735 0.0347898034959727
0.0106920376593337 -0.269603055583191 0.0343526955022386
0.000153869462835951 -0.267764013738281 0.0335648038053746
-0.00481835533219548 -0.272550704865018 0.0356155424574858
-0.0186300392070726 -0.272184091890004 0.0354584762549009
-0.0231818912342067 -0.272345014437923 0.0355274195145089
-0.0370297796207514 -0.271544706004276 0.0351845472891999
-0.0494630955705425 -0.275156251989716 0.0367318242598923
-0.0509537778596572 -0.279383123011045 0.0385427219241505
-0.0590414509297911 -0.277482150848635 0.0377282977244633
-0.0724416216372968 -0.272578802527824 0.0356275802016455
-0.0906917846253235 -0.277187789558638 0.0411194575939904
-0.0923427794790057 -0.27655306552271 0.0412376216455052
-0.0999498738856005 -0.282589403246475 0.0451068011869455
-0.109121015933495 -0.276796177343658 0.0449219315647831
-0.118607897179318 -0.281529043714347 0.0487101619453534
-0.126220577798684 -0.278185970493099 0.0491005231827398
-0.135342309658911 -0.278958824900699 0.0513412625228656
-0.139567628210685 -0.283154176294121 0.0538029675436509
-0.157249571322567 -0.28209455378062 0.0571975131283324
-0.165808988033977 -0.284603938739173 0.0602335211082531
-0.175363139482489 -0.281136205535314 0.0620074646008028
-0.174279100345589 -0.283865818672926 0.0638293725149459
-0.187003948642101 -0.285060839748774 0.0712267687176384
-0.196095752473121 -0.282221655783887 0.0733138802724987
-0.202538267134913 -0.28387135440736 0.077963852115018
-0.202444296455314 -0.290900764531643 0.0840045581593491
-0.215430234896846 -0.285169231300071 0.0855338850480171
-0.224913883797924 -0.28645688863652 0.0913908957790095
-0.224911848661646 -0.29302472299012 0.0970778306958933
-0.229712889526769 -0.292989947248853 0.0994482515788949
-0.234074474036738 -0.295536378485526 0.103834349662501
-0.249877340004886 -0.289237431246503 0.106280751995246
-0.259537124734571 -0.29557849688856 0.116602242863862
-0.26346329033605 -0.298748032975362 0.121310258448446
-0.269033912204059 -0.292762204147 0.118911672225082
-0.28154230031013 -0.292331353244076 0.124792780940765
-0.279858163090467 -0.298233730497386 0.129062351821807
-0.290352579546238 -0.296624713107663 0.132916137957889
-0.299701655497628 -0.296989719076508 0.138899461227017
-0.310499341523253 -0.29483282001038 0.14717214186268
-0.318082678529646 -0.296968408093388 0.154807353560043
-0.320346826755134 -0.301785424994304 0.159176703459378
-0.325372224046533 -0.304961172907733 0.165116742050133
-0.336410397753427 -0.2959087313238 0.172464180346052
-0.331677967910467 -0.304083499201757 0.17243910624375
-0.337707454653571 -0.298169874652133 0.177592194182207
-0.339240044426542 -0.305884353284707 0.189388064959381
-0.349704756007264 -0.296660340189685 0.19951437731409
-0.353730356186419 -0.299416405395208 0.210581731497823
-0.356859928474006 -0.300637053576756 0.218136850919692
-0.35934947300668 -0.297226268000179 0.219162100670652
-0.360738139146235 -0.306704772001976 0.232681156064319
-0.364586550060653 -0.303391375930403 0.236494702861878
-0.3733259558044 -0.302837294368665 0.2530844710616
-0.373993454917131 -0.304111958650663 0.255849778781102
-0.379474014783507 -0.303508263865952 0.265961887299756
-0.380741105916145 -0.307745883648836 0.273279314240666
-0.384029862484468 -0.310087943470101 0.28242381790737
-0.393513586529848 -0.299238548314628 0.288768146254692
-0.393272694263341 -0.301958118524488 0.291387300678573
-0.402477243912527 -0.300630371203346 0.308013457713668
0.039399107300989 -0.257277217682159 0.0290719970961691
0.0343643749042918 -0.259945130250043 0.0302149978201664
0.0183241089646337 -0.254817262721452 0.0280180906320151
0.0132987423759004 -0.255001931342968 0.0280972073057143
0.00286257114495415 -0.25629585932355 0.0286515585376139
-0.0121610370760625 -0.258648619181303 0.0296595399284499
-0.01106270878546 -0.265612093259026 0.0326428670465081
-0.0372923501812187 -0.262228607988574 0.0311932970117484
-0.0441043609928831 -0.26099947310853 0.0306667047707984
-0.057242486444898 -0.268579257980692 0.0339140749061324
-0.0611871743464587 -0.265878015925823 0.0327567949931487
-0.0685698771805204 -0.262139210820697 0.0311549970206484
-0.0780654655762213 -0.271653448047692 0.0363613512899521
-0.0895378031454304 -0.262950661037925 0.0355899008329461
-0.0937982740628868 -0.264075672118005 0.0369199566989465
-0.110073860826597 -0.26630620534037 0.0412339797951287
-0.106676224197264 -0.271021072301717 0.0422555064418664
-0.118198891751097 -0.273499186663213 0.0456432538740627
-0.128492922253665 -0.271658484459092 0.0471654141642802
-0.144137008147249 -0.270483928506697 0.0500807817399183
-0.149201610440529 -0.269052069219798 0.0506344246347238
-0.157684799634312 -0.273868104657385 0.0542385095500097
-0.155959746764699 -0.276386404419661 0.0548033388403065
-0.17346885425669 -0.272164396052344 0.0569875302497839
-0.177063839264802 -0.278364708118537 0.0604576161251655
-0.189421862420659 -0.277535880393247 0.0659188812941708
-0.19947155293757 -0.279949388101908 0.073033936945397
-0.201427420074806 -0.280766632638706 0.0747196372228303
-0.21141169702677 -0.274113988742692 0.0739504115250324
-0.219092127993752 -0.277123215677165 0.0803967405529547
-0.231088545499155 -0.275502066888446 0.0849910264640991
-0.23599309940615 -0.285379441818602 0.0959974405489348
-0.243680759079559 -0.278153391907835 0.0935833101522965
-0.249787050520243 -0.277646105602112 0.09619715192937
-0.25589537334226 -0.28034680937627 0.101590230380799
-0.267490058108737 -0.282341293287348 0.109114900862695
-0.278469058389349 -0.279522192351042 0.1121630099983
-0.274010649853056 -0.289652834798531 0.118707246727125
-0.280592962497168 -0.288511945263402 0.121010380368523
-0.285495740100797 -0.289511783386297 0.124327678351245
-0.296240558171985 -0.286590987959753 0.130702638239272
-0.302688204067298 -0.288282711281265 0.1371323714935
-0.3068423275883 -0.285964235649175 0.139570727793734
-0.315493231769341 -0.288233782354362 0.148197466259257
-0.318318343337186 -0.288062752055224 0.150558586554584
-0.326310189885432 -0.289791605339032 0.158344211579986
-0.334564711380405 -0.291554442050531 0.166374313262329
-0.339578487718661 -0.291617171366812 0.173824456862041
-0.343556864106994 -0.291297615040725 0.181299906472079
-0.349525330857924 -0.285577095720912 0.186552439080299
-0.353168606879537 -0.290133193783407 0.198914196714592
-0.353735007839623 -0.293313671594011 0.20364837173453
-0.359056377432799 -0.293894918232996 0.214794812380055
-0.361684827286494 -0.294271369119303 0.220402155296114
-0.364475065434674 -0.294197702216336 0.225816227254286
-0.368745989389634 -0.291616197213323 0.231294898283973
-0.376188510219347 -0.293512408442079 0.248116764021928
-0.377616924504276 -0.294926469215965 0.252539955215495
-0.379551219253219 -0.297459874202565 0.259233307752591
-0.390992946011296 -0.290406362243833 0.273753909402149
-0.391359476486857 -0.293735792028052 0.278263709392114
-0.394515307234059 -0.293706078968089 0.284448146099073
-0.398850547192066 -0.297428764331588 0.297225249353013
-0.405236733346777 -0.289654664003736 0.30096468250971
-0.407492866261189 -0.292061617925099 0.308148332032882
0.0401060640791549 -0.247958467321365 0.0250796104874916
0.0256555224831123 -0.243787573078985 0.0232926946806736
0.0147756349653982 -0.249061355561552 0.0255521154984118
0.0072133946823563 -0.25309803709661 0.0272815312119028
-0.00131391351515802 -0.252217764832942 0.0269044004742618
-0.0175239070312406 -0.2521992678024 0.0268964758819959
-0.0298606714866447 -0.25322541007417 0.0273361009932821
-0.0326197916390747 -0.257069755950382 0.028983115281795
-0.0395047876266831 -0.258217528708118 0.0294748499468919
-0.0518948129900647 -0.250577063928154 0.026201483015642
-0.0665294013850738 -0.257878483997121 0.0293295946807337
-0.078199449749155 -0.259840721721266 0.0320072116734155
-0.08743404027568 -0.2568214225615 0.0328651352994041
-0.0836922399698048 -0.261549597588636 0.0338178754184449
-0.0966923831229648 -0.261317372681958 0.036516507554652
-0.112204889999101 -0.262444165257822 0.0402575517514218
-0.112578411001277 -0.256577880232449 0.0381610143569744
-0.129444577530831 -0.256807167039389 0.0418590305482846
-0.137776149675588 -0.265570306458824 0.0468951194369381
-0.140789931575378 -0.266241168813356 0.0477896174151964
-0.148951569377523 -0.264495929935587 0.0488904118953274
-0.160986955264839 -0.264427368161789 0.0514431043600435
-0.169329157657473 -0.268338098634037 0.0546810955245575
-0.176370655575659 -0.263720693626118 0.0544762907254562
-0.193000780979638 -0.261632712133446 0.0572639747809071
-0.194218281247596 -0.270662191419045 0.0623642757569603
-0.201796483503238 -0.267210909640714 0.063164484970479
-0.212924886763708 -0.27041080728704 0.0714999394739181
-0.214361726813313 -0.270451436927397 0.0722535512441088
-0.223439967305332 -0.265900965114974 0.0728518516239541
-0.23096472337914 -0.26698204840291 0.0775505091986692
-0.238045012940049 -0.271899819990713 0.0853496254512112
-0.248535206846608 -0.271840431466621 0.0905433279573853
-0.253196842056274 -0.26856461259265 0.0900371995424883
-0.26745884160527 -0.268460029142986 0.0970776782587988
-0.265885646912657 -0.273642398403555 0.100779171086475
-0.27616407385531 -0.275838890057807 0.107939679393596
-0.280762398201725 -0.277582266551787 0.112793668408513
-0.285914918100945 -0.276704241285111 0.116816897968426
-0.297558995771486 -0.27503151869011 0.126064670550542
-0.30252563316806 -0.273575084848586 0.129637713601114
-0.311075421517916 -0.274938140859208 0.137723633933523
-0.313535175895276 -0.276888712326823 0.140829151881933
-0.31802131427935 -0.280918662296831 0.146729279299668
-0.328842416127276 -0.275688702511253 0.153485697317878
-0.331192343074641 -0.282733925727103 0.159043445512867
-0.334957770183727 -0.2825919082483 0.162233415352921
-0.344643183856723 -0.282240253836565 0.173136651026326
-0.350688652833515 -0.275307085848905 0.177161388436321
-0.355364256689866 -0.276997415232635 0.188297116989353
-0.353512332317092 -0.284535221378231 0.193223167969606
-0.358135252331095 -0.282884113258859 0.200453838819399
-0.364437395461588 -0.279763259704213 0.209321249642594
-0.369666868824154 -0.277300161556555 0.21682334399455
-0.372532769273277 -0.280542401455656 0.226158706378178
-0.375536683379584 -0.279407371388591 0.230786388374161
-0.376683916909594 -0.28624305540225 0.240823229738993
-0.381130513353436 -0.282658215637993 0.245506642533147
-0.385516127552552 -0.282399179283272 0.253853360258627
-0.390961777261473 -0.283258582357985 0.265561115322651
-0.398804015326888 -0.277565010681133 0.274536376666494
-0.397585468451349 -0.286365575648904 0.282146958487835
-0.404185056146033 -0.286768414112748 0.295609037128806
-0.404072822657778 -0.288464632067993 0.297317525573766
0.0317184542464721 -0.241350848697436 0.0222487407798521
0.0304113916263384 -0.242927847042536 0.0229243664626019
0.012669910008474 -0.241633728275783 0.0223699334931174
0.00339445352720761 -0.236997167053536 0.0203835142612113
-0.00705973046953635 -0.23935214515447 0.0213924460031159
-0.0144731770058425 -0.241057058833361 0.022122873826271
-0.0248579592351371 -0.237638902741897 0.0206584499413541
-0.0350243452999194 -0.247868067063757 0.0250408807475664
-0.0460223410829603 -0.24624303572762 0.0243446765255529
-0.0641544828944234 -0.242561428878869 0.022767383722088
-0.071541433950819 -0.246148388018518 0.0255007552705852
-0.0687082376823605 -0.250658028851174 0.026567047687949
-0.0764363624674341 -0.248119161554665 0.0272805206466803
-0.0948788022357552 -0.24818402530568 0.0312551889551749
-0.10075044329057 -0.24821876288764 0.0325258567567572
-0.109291211440917 -0.250964765215988 0.0353742375807571
-0.117434266839357 -0.254549870423628 0.0384487531859942
-0.131921751739953 -0.254049717244029 0.0413665839648432
-0.13846394319732 -0.247695762008027 0.0404105143888896
-0.144965206128789 -0.257096275428535 0.0452910110479736
-0.155505559269487 -0.247844667687166 0.044116290503894
-0.164792645567114 -0.249538536848679 0.0467341722044826
-0.175192650628829 -0.248802841029973 0.0486890208075491
-0.181052724829088 -0.254166799689089 0.0519344958865186
-0.185906048153573 -0.251232423715724 0.0518854058775745
-0.205324207136294 -0.256176212227897 0.0578792984301223
-0.212587172057461 -0.254277966631994 0.058730816270761
-0.214814581616138 -0.260859405699997 0.0641729775481864
-0.222826888581667 -0.261662038465103 0.0688742653612971
-0.231622293361534 -0.254633033722858 0.0671846588740591
-0.240440181557672 -0.253761609922113 0.0708389542247666
-0.251579316708744 -0.255812026496966 0.0781842877110173
-0.254755763974589 -0.260839645835611 0.0841266003437739
-0.261594317859251 -0.262223187854892 0.088744093182458
-0.266949458556309 -0.262872517367658 0.0934762976184735
-0.277465224037782 -0.257559514599938 0.0999267628851165
-0.279016988307569 -0.257223122220101 0.101102442467567
-0.28371084819815 -0.26677566023755 0.109943777260199
-0.291704876346273 -0.261373184202353 0.114165601199268
-0.297445025795315 -0.265367157112167 0.121133753242055
-0.302746878188967 -0.267055450682572 0.126569478159292
-0.307045590604853 -0.266400303069605 0.129964723038488
-0.314343475431785 -0.266225529382057 0.136197534879537
-0.326659429367821 -0.262866835909139 0.145184182050235
-0.332629833775125 -0.263422955757027 0.150632803226959
-0.333707607715069 -0.269173257069635 0.154441361010853
-0.336116665043092 -0.269457525668576 0.156669816255704
-0.347895648556901 -0.273328469689727 0.16940717026811
-0.352319953892185 -0.268429994630584 0.17255225730001
-0.355646504564295 -0.264217879906443 0.174315141891096
-0.364106765168491 -0.265862729226029 0.192856407153236
-0.363781801099985 -0.270236226411979 0.197191429114555
-0.364314382170875 -0.270719914914074 0.198791073540185
-0.373348680040715 -0.270087643154394 0.21587294633906
-0.378319188701872 -0.267282764605517 0.222475965006027
-0.377301012648636 -0.27447247759151 0.228648837002606
-0.384579256713036 -0.271825014367071 0.239978087041028
-0.388517371640974 -0.269116892629163 0.244656951908542
-0.391340720047092 -0.268075437681623 0.249035299746433
-0.394583440028671 -0.274002220078406 0.262167106013309
-0.399746631194943 -0.274595929574244 0.273016050264343
-0.402693046109614 -0.270553885758093 0.274223390814387
-0.410241386437394 -0.268499334257764 0.286759339403387
-0.413079320254598 -0.271486127737241 0.295748998261606
-0.417540319404742 -0.2725834704359 0.305787283370041
0.0314846810265476 -0.226512473773665 0.0158916084341428
0.0116764375651638 -0.230082620638446 0.0174211489821898
-0.00298012113409112 -0.225275180257129 0.0153615208284908
0.00413265792910598 -0.231401806928028 0.0179863215077931
-0.0185299408070142 -0.227653234082414 0.0163803387900415
-0.0180534297504538 -0.235107303462461 0.0195738492523721
-0.0325193599946483 -0.22823477941909 0.0166294874123978
-0.0441514588185233 -0.229438068612713 0.0171450067124099
-0.0479603277459993 -0.236236769787436 0.0200577409820782
-0.059324246108113 -0.231562252534487 0.0180550604337061
-0.0655194232664888 -0.239266158434409 0.0216572718192286
-0.0781278917435036 -0.233386270789614 0.0221765668181705
-0.0838211377382062 -0.23721463591239 0.02481655849965
-0.102594195019085 -0.239602952565516 0.02972411304797
-0.111907809402016 -0.233739302475427 0.029543633511704
-0.112823545119505 -0.234175801518087 0.0299017485387973
-0.12356283316747 -0.236711630639094 0.0331430999827066
-0.121558553538936 -0.243472735856288 0.0352223108825394
-0.136437624440626 -0.244363996313467 0.038740276360811
-0.151783694823121 -0.241047394456743 0.0407970483533238
-0.157947121371805 -0.241415794649799 0.0422540181164485
-0.16582789520697 -0.237883890574469 0.042631746935944
-0.17340857161769 -0.239868486138934 0.0449919615708477
-0.188070543514383 -0.239871917331583 0.0481340130661403
-0.187296254518498 -0.247570357885411 0.0508244801409537
-0.196175331469655 -0.241354186999377 0.0504201224898736
-0.214810333523027 -0.242481425052927 0.0548302096341424
-0.222869767772302 -0.243269217843254 0.0568489340348228
-0.223443187398133 -0.249251921006356 0.0591915122739314
-0.236727439204746 -0.25159617768386 0.0671072367588982
-0.239601959525208 -0.251412576076148 0.0683855024978862
-0.25219345804001 -0.248435231263753 0.0734784387806561
-0.258749858200835 -0.251472111214216 0.0806749398458078
-0.267156168072633 -0.247981257630684 0.0862096309421279
-0.273940746315646 -0.247884727726849 0.0920370252043688
-0.275787485048177 -0.246615488415684 0.0930017351751462
-0.285099774344995 -0.254439364487291 0.10497843883865
-0.290308404547918 -0.252442597495806 0.108490886794284
-0.293954775010992 -0.249086279638323 0.109970588008717
-0.300402247172785 -0.256467144648019 0.119244762199907
-0.305935614255948 -0.253035515225981 0.122321006176613
-0.313664493061827 -0.256424636021835 0.130709032565
-0.320226078539482 -0.249157895551905 0.132758176847441
-0.324418148470941 -0.255520849137526 0.139570141910407
-0.332023439215848 -0.255966506646812 0.146379394848785
-0.337257077850451 -0.254022576575256 0.149939919548873
-0.343514781296426 -0.256854340786088 0.156775181191237
-0.355913331815702 -0.255733190563212 0.166952139326065
-0.354377412023713 -0.261477121805957 0.168696614819141
-0.35800965877476 -0.257838189880243 0.171713899915686
-0.363667221157596 -0.261109421688332 0.186582925276116
-0.37010608598533 -0.259638336556233 0.197596523615231
-0.370597971558053 -0.260252604552166 0.199264530182177
-0.373472356837654 -0.261987682355273 0.206902049767343
-0.38064716652099 -0.263058897423207 0.222257895219651
-0.383863812147163 -0.254133510749687 0.218442362317679
-0.387736605564227 -0.260156164359615 0.232924727177572
-0.389438516937122 -0.263443719629511 0.240018120480228
-0.397674060064495 -0.264908036103844 0.257911227359651
-0.396421632172783 -0.263202683324659 0.253503422748848
-0.404092296523995 -0.256999436218501 0.261560804414362
-0.4058268411759 -0.263299847109618 0.272145950124724
-0.411009103143134 -0.261591640306641 0.280413790543869
-0.418562610330603 -0.257605879238302 0.29076295836249
-0.421247611057718 -0.260425223291952 0.299260786374871
-0.424827608980197 -0.262187380401663 0.308319448462253
0.0246454803661238 -0.22012505719676 0.0131550788117836
0.0128602322960146 -0.222334394430553 0.014101614349784
0.00984916647965812 -0.221750995838023 0.0138516717460918
-0.00677805154786736 -0.220144910659402 0.0131635845336153
-0.02034301561086 -0.218472789482438 0.0124472058415667
-0.0344814687375485 -0.225686740132272 0.0155378434115164
-0.0314816991860572 -0.227518568600653 0.0163226447167778
-0.0475444044333586 -0.223389886418245 0.0145538136162173
-0.0580896473000043 -0.224942585820889 0.0152190290219763
-0.0619155356427522 -0.22189099084936 0.0144386171098537
-0.0714340246193368 -0.226874759446688 0.0183267097698842
-0.0847998343730764 -0.229414722440202 0.0221322289119738
-0.086711563928644 -0.224890250665957 0.0208630440775184
-0.105531648611672 -0.229025905482918 0.0264289821666341
-0.100558003408346 -0.230909291829274 0.0260623521639327
-0.11442189603998 -0.233632015533239 0.0300423760735557
-0.130915479906489 -0.22436375116039 0.0301367322206451
-0.130814366470146 -0.228994295349644 0.0318331294888611
-0.146535832016731 -0.227842723843933 0.0347736006083876
-0.152875809477742 -0.235946480222139 0.0391384159873069
-0.168245178697464 -0.229213627217319 0.0399326573824449
-0.165052759043688 -0.2333920889872 0.0407991232589228
-0.181386900376881 -0.233678536339587 0.0444043810818663
-0.18471565812196 -0.235726407653427 0.0458772583778667
-0.20093821613714 -0.22946886499178 0.0470306165056276
-0.202037671400328 -0.232903016767992 0.0485402967418954
-0.207859750064703 -0.2339102396223 0.0501611659749343
-0.22983823363972 -0.234559416136024 0.0551100950804475
-0.236243454450436 -0.238908834785356 0.0580959256447663
-0.243782168025173 -0.240004810352796 0.0619787544108327
-0.241949954405923 -0.243311613335267 0.0625438182045397
-0.251054951956087 -0.23745967500667 0.0670046386891765
-0.258710294308177 -0.24417955166493 0.0769943701436764
-0.270023618530252 -0.234053079041146 0.0817287942146093
-0.270136618394975 -0.245412574437428 0.0875064444085806
-0.282472668101601 -0.235879021947984 0.0934230433383775
-0.283944807418153 -0.239476253149886 0.0964965911911348
-0.292077390231218 -0.245478709096294 0.106540915047045
-0.292976431492003 -0.241624089816684 0.105392189678821
-0.307836600562935 -0.239561639757238 0.117230334097261
-0.309761479383487 -0.24476649588922 0.121499786966992
-0.311731599880182 -0.244086264607177 0.122865855594194
-0.316768108588323 -0.249105969809727 0.129737502329362
-0.330535598987318 -0.24238414502778 0.138299648230051
-0.337722580869907 -0.242475716964387 0.144569588384267
-0.340018260865716 -0.248266859331856 0.149453312047249
-0.349268459247439 -0.245219666153735 0.155940669116652
-0.348146218033852 -0.247684919238902 0.156201408142882
-0.361842483902977 -0.245746642229983 0.167093662512409
-0.36467232003138 -0.243130237284777 0.168236178269995
-0.366607683542728 -0.247373715614237 0.176750938809454
-0.374563596669632 -0.245183826140682 0.189936005798298
-0.37493117603784 -0.252907228337123 0.199446495422228
-0.38312380846976 -0.244952033450586 0.206539329584968
-0.382701093227398 -0.253289527818515 0.215191222128542
-0.387781785584968 -0.251488697050887 0.223153560259018
-0.397684980962147 -0.244293267434635 0.234481197906438
-0.397745015215219 -0.246372475512751 0.236964815183999
-0.402339305247656 -0.246374987991009 0.246020247413455
-0.400433599199288 -0.252599061068488 0.249345812493735
-0.406644797963257 -0.251978344092177 0.260878204900156
-0.408873252250383 -0.255647565314246 0.269443283285536
-0.416943910440692 -0.247351530991822 0.275908037766667
-0.420622198620897 -0.25046699598642 0.286699905989044
-0.426121780190796 -0.246505928176845 0.293030116782656
-0.426057261648591 -0.253172765736055 0.300487244579586
0.0145284123767328 -0.208278408488154 0.00807967708614839
0.00631506521445041 -0.205012274162536 0.00668038314233741
-0.00768100360942875 -0.211254922002956 0.00935489020346028
-0.0135829148961351 -0.206676990957599 0.00739358961128746
-0.0250781263406637 -0.2124223837464 0.00985506012434095
-0.029749650271298 -0.21571152542062 0.0112642109939088
-0.0380488400625545 -0.209298303237567 0.00851662560200678
-0.0481238794069639 -0.214770791609857 0.0108611770115609
-0.0559070992925449 -0.21559518689833 0.011214368650195
-0.0679505000008616 -0.212658772698329 0.0123059797950085
-0.084138999868515 -0.213959585278438 0.0162563963007115
-0.0889080580134859 -0.221149830985407 0.0199457638957626
-0.101972680755541 -0.211633186604739 0.0192134378312739
-0.106418238159381 -0.220285232485043 0.023375874876445
-0.112252683452493 -0.222582345180665 0.02547797718724
-0.124072919620573 -0.222437033987656 0.0279561057726556
-0.135900908176852 -0.218162448194297 0.0289038225457817
-0.132739509207876 -0.216802671051433 0.0277220971337628
-0.147908338527849 -0.21636031923773 0.0308073263089098
-0.155159444597301 -0.222933005062491 0.0347992483202359
-0.165803054230142 -0.219614249019251 0.0358478949293813
-0.172007728011417 -0.21855288791031 0.036783220284889
-0.188315342121676 -0.221460570439577 0.0413553447336849
-0.187003014073553 -0.218358709021418 0.039923353177767
-0.193752969176647 -0.222421190360425 0.0428765686582519
-0.214152489040883 -0.22226960112665 0.0471901581832228
-0.216255573393747 -0.227693175589067 0.0496529579500297
-0.227297469792056 -0.230839609532576 0.0531856827920453
-0.235179996079528 -0.223567548928294 0.0539970876305031
-0.241734135844778 -0.225669437499451 0.056879101526951
-0.254925405490132 -0.232030369415443 0.0676419015823094
-0.258897731675227 -0.229157322456091 0.06964552796684
-0.269242700402342 -0.223863125092232 0.07595748060653
-0.273650895568224 -0.226284267514015 0.0809856971437643
-0.276847476074052 -0.225528855514967 0.0833763283393571
-0.278002457364525 -0.234960967663185 0.0890926688513178
-0.285581622431993 -0.234292351107942 0.0953221550683797
-0.295477245631759 -0.233806478990503 0.103649140247723
-0.298178827983549 -0.233900832271694 0.106035973079769
-0.311076516786913 -0.235083638914227 0.117797187527255
-0.312874344894098 -0.233219135569468 0.118421905180795
-0.31693611813983 -0.236388247744696 0.123524096945929
-0.323785300773512 -0.237365768979291 0.129944470105055
-0.332800171115768 -0.233157414950649 0.135647441021764
-0.337479999273116 -0.236064850800675 0.141154048800516
-0.345962734708904 -0.235194401755371 0.148065138590067
-0.349192306684332 -0.230807358880648 0.148668512886034
-0.354270253212537 -0.237737370421924 0.156531206155528
-0.359598400015406 -0.233829598563197 0.15919164993371
-0.37075445500657 -0.232368149692053 0.168122417049492
-0.371685347850671 -0.234271698007199 0.171850977753805
-0.374479591886835 -0.240148598028189 0.184042361845289
-0.378984288001065 -0.235976842906979 0.188172573802034
-0.385043145046201 -0.239604074897646 0.204237297887923
-0.389918940557287 -0.233560471728778 0.206969291549689
-0.392993801264358 -0.23643193613059 0.216294590969052
-0.396342902871449 -0.242624344512105 0.229938189773184
-0.401587829669412 -0.241756804681527 0.23928585514763
-0.403170055423168 -0.243633302837673 0.244538188918406
-0.409432479059686 -0.235205757139163 0.247290395430327
-0.412596717674281 -0.235444085597631 0.253796325435944
-0.415974949974517 -0.236875122289903 0.262080743610628
-0.423204957944116 -0.234313581313748 0.273412695335607
-0.426532020807143 -0.240767455602693 0.287310315060289
-0.427734163106566 -0.240509128119886 0.289385136615011
-0.429648435735586 -0.240240486315314 0.292851403769437
0.0145312165689465 -0.196094940326998 0.00285997345093789
-0.00161516708025077 -0.199659060669724 0.0043869320856373
-0.00731512016438183 -0.202977679774377 0.00580871182645419
-0.0182988317054525 -0.197211096320511 0.00333816270047995
-0.0330748529986022 -0.197713489668701 0.00355340062380112
-0.0349342686105159 -0.20651681958256 0.0073249681729998
-0.0434810667615729 -0.202982426242417 0.00581074533252654
-0.0511154888240801 -0.202106066804134 0.00543529094751505
-0.0648767813920567 -0.206854099030102 0.00949385988169944
-0.0719912107950614 -0.206591559443225 0.0109204506844135
-0.0867289703389166 -0.204357601838368 0.01324860513535
-0.09713917906057 -0.202505701052308 0.0147914972819224
-0.0938662538721153 -0.206795727408395 0.0156821113388334
-0.102444463306277 -0.204814254953082 0.0167844916501863
-0.1161259089206 -0.206652728891864 0.0203973525585679
-0.127379071825994 -0.206119641295741 0.0226101314074336
-0.128794218481755 -0.206403594792213 0.023018628006337
-0.132322316243851 -0.213927830287318 0.0265660855472974
-0.148868946761215 -0.211231267715485 0.0291100839225467
-0.15513849485705 -0.210440025733514 0.0301595276667181
-0.167962593385599 -0.21161410279378 0.0333422248697805
-0.175540743268826 -0.214526465529057 0.0360461249842351
-0.181347838618895 -0.213107890241219 0.0367637479348763
-0.201509963853 -0.211623815827221 0.0405320965375629
-0.208742388502087 -0.208998414613668 0.0411072778828873
-0.210272290232215 -0.212988318098023 0.0429153640587295
-0.223392699201923 -0.215367398556896 0.0478671067900166
-0.227048444825691 -0.219850818430434 0.0501838920303473
-0.235369225114442 -0.218430707416323 0.0529669207824417
-0.24723912259182 -0.217203751966906 0.057108144273694
-0.249079910582507 -0.212361342159967 0.056753821399098
-0.261309576633358 -0.214311878321138 0.0643114863657199
-0.269414891986061 -0.22270707531941 0.0755285749071809
-0.275171982880347 -0.216644206319451 0.0774829414934532
-0.277432418904983 -0.224193664116885 0.083215306828316
-0.287564598300679 -0.222750547299036 0.0912685313546876
-0.293015793306849 -0.223848956381741 0.0965386473278901
-0.3004225523122 -0.220336057319868 0.101196672908591
-0.308669009049175 -0.215342540125714 0.105841588895524
-0.306839465699967 -0.224163357390571 0.108667586927479
-0.316524227616336 -0.221649167483087 0.115797793337218
-0.320687684147056 -0.224420971433741 0.120789390498982
-0.323849311260362 -0.221419702087258 0.122026814163294
-0.335294702328752 -0.216900530863355 0.12967928326036
-0.343510358600081 -0.219555917267579 0.13812200449916
-0.350528514878771 -0.22159818011052 0.145221088835156
-0.353443492821663 -0.218310332008111 0.146101616095599
-0.357035560413037 -0.229154346240404 0.154634506646398
-0.36613964361768 -0.228133319053346 0.162008413661246
-0.373092262626759 -0.222994944308469 0.165460395913379
-0.378146885541638 -0.223844001711977 0.172720128471774
-0.380055518811805 -0.228437102273129 0.181706046096301
-0.386226825311205 -0.220311118208525 0.184621774952041
-0.39046276210612 -0.225499638179713 0.198870758333909
-0.389994890095494 -0.229124450323436 0.202072484055092
-0.395425435584366 -0.224379506804548 0.207374922259084
-0.402152348416207 -0.227239521383681 0.223883187784745
-0.408122050763153 -0.223284461509469 0.23114655769733
-0.41196196448709 -0.22441972597692 0.240004198267414
-0.410677906356766 -0.231465715583422 0.245489676070291
-0.413637880797034 -0.231375625718386 0.251219512950963
-0.425126212564934 -0.223206818416307 0.264563174853118
-0.427165605790163 -0.226343656012299 0.272150083496864
-0.430191151084655 -0.232294972000924 0.284881879109369
-0.432810143810831 -0.228587775027792 0.285824992861046
-0.436852562141029 -0.226768659578088 0.291720718433067
-0.440033922203695 -0.232744246902332 0.304787142245439
0.00737686309860282 -0.19105048521683 0.000698802236969472
0.00102187581910306 -0.185819922418967 0.0
-0.0127306353641681 -0.186361636674973 0.0
-0.0227605874401297 -0.187571531270725 -3.67803984747923e-016
-0.0272583361894717 -0.194795828365061 0.00230340127127874
-0.0397669925776343 -0.194199734371217 0.00204801963893532
-0.054068151393186 -0.191077502786642 0.00132497208480233
-0.0559503315519254 -0.191252169958237 0.00179296494264155
-0.0685175570565495 -0.195440168621852 0.0060388830861289
-0.0762228598886408 -0.192124375964249 0.00645920699052974
-0.077814050023277 -0.19322005604311 0.00720658681158898
-0.0906974428009449 -0.193901318587648 0.0102191380833859
-0.103015579006424 -0.193823687977963 0.0128290344323805
-0.114875340180123 -0.199906334856112 0.0176263705262947
-0.121784289118613 -0.196819957638159 0.0179612247582653
-0.121766781724543 -0.20174998048451 0.0197866461654825
-0.129397692319054 -0.203567542751632 0.0220956477257162
-0.14540783833659 -0.203103670731331 0.0253531129201854
-0.149413180562315 -0.200791137553412 0.0253530951978196
-0.157906352732315 -0.197371760007497 0.0259037578114558
-0.175728587688287 -0.204116151892545 0.0322238559170313
-0.173669951614673 -0.198458743803469 0.0296838189347044
-0.189728747246857 -0.199592167869667 0.0335443455026419
-0.196990823564621 -0.201862933850368 0.035942488956523
-0.206946527731555 -0.199100680666511 0.0382805975475129
-0.21596854546135 -0.199898914925536 0.0417990017454145
-0.221958694625124 -0.205261874205442 0.0451703221683703
-0.227867928925762 -0.209005588720882 0.0481647584356472
-0.240225797738097 -0.205256790621211 0.051946822127639
-0.245787663456671 -0.208937317233186 0.0547988396211583
-0.252378145660067 -0.210628493184012 0.0576063577454218
-0.266555028266569 -0.208025173581038 0.0657108384743907
-0.270093094696395 -0.203178875872113 0.0663517496588875
-0.281385763711225 -0.204881384047944 0.0769828187975033
-0.279839901082094 -0.212867896659378 0.0796373379739971
-0.285777476667371 -0.208778297374075 0.0827346520025543
-0.29413867422685 -0.207069313053032 0.0891212154762335
-0.296847062252283 -0.20387540216027 0.0898697982715424
-0.306194517318907 -0.207474445070302 0.09976452476239
-0.317349251106066 -0.208110974457828 0.109743144381797
-0.319393134917499 -0.207335871880532 0.111125658384618
-0.327162135721492 -0.214942593454534 0.121657247318504
-0.336884436387915 -0.21143416427346 0.128322840245881
-0.339096000715554 -0.213217242008727 0.131129670282135
-0.346267408646004 -0.209723817850739 0.135593611902888
-0.345306911645034 -0.21694729031119 0.138373553414531
-0.356035843295894 -0.21607430020689 0.147228649703776
-0.366746892507319 -0.212536371589962 0.154735780351094
-0.367300068452217 -0.212792144086407 0.155342735405489
-0.376818166780273 -0.215109746852202 0.164744519662193
-0.383160756629253 -0.217021328773075 0.174837908954817
-0.386078068811591 -0.213894947383451 0.177029571464222
-0.390693394518938 -0.211154131359149 0.183005616913384
-0.393537831919896 -0.212007229949827 0.189580779739093
-0.396570542764866 -0.218282911232397 0.202695695231345
-0.400764591393107 -0.219405551694809 0.212236760872644
-0.405778406911521 -0.220136735482741 0.222947767839579
-0.407602474848184 -0.217395222453716 0.22342313521336
-0.412498055848129 -0.221794634944629 0.238074183541161
-0.419173394182523 -0.220937753181057 0.250252451829239
-0.421030341676029 -0.221460430238361 0.254505977244578
