ply
format ascii 1.0
element vertex 841
property float x
property float y
property float z
end_header
-0.203818269887454 0.22455226263042 0.0398659327373241
-0.214668423102627 0.223203703416106 0.0481688389657863
-0.210089615946579 0.22627484907531 0.0476424926854562
-0.221006438370379 0.230031167291577 0.0620812347199844
-0.217186495138665 0.232273820547368 0.0612619082466736
-0.22886837847964 0.23538680383642 0.0756336717768815
-0.227086334345864 0.238386090155263 0.077575652906046
-0.23178394702121 0.240610177758258 0.0845119720072124
-0.229147165774881 0.253774492511068 0.0977701455506429
-0.237359933171797 0.249783628043429 0.100520321091562
-0.239310603811439 0.254617536165613 0.108054056393825
-0.237534139011023 0.259334980280787 0.112045791587714
-0.241772958758207 0.264458798791701 0.122013934333644
-0.252720764638292 0.263775329650148 0.131197488472092
-0.252425392895228 0.267734522572265 0.135639330479926
-0.254284246324304 0.268674607447532 0.138455457098556
-0.256966748122805 0.276525926693153 0.150248268064625
-0.258516926914798 0.283142949374609 0.159538257220249
-0.267130350258944 0.280882956014948 0.164714077154324
-0.269690716792889 0.288246533640233 0.175814934097579
-0.275168470737293 0.288701935879029 0.181358844406995
-0.279683839940661 0.288565419230046 0.185319559410898
-0.283400208366357 0.292924121245169 0.193900118245772
-0.28362208097625 0.299426125401752 0.201840299550675
-0.288817815667121 0.302074314203034 0.209736168010251
-0.290072807244121 0.305929754492073 0.215470243356368
-0.294828239292184 0.311161512421554 0.22603857771349
-0.301172735334063 0.310573343618103 0.23113206590137
-0.295765055372839 0.320789710642773 0.238351868787141
-0.302411006000831 0.318267429604227 0.241418976258642
-0.307357190710669 0.322921763052862 0.251474342449252
-0.318119483526046 0.324925053584934 0.263685821432589
-0.314466164575823 0.331328442159695 0.267970046507902
-0.318099780042224 0.338880252852143 0.280274935280743
-0.319497290434596 0.33931680358616 0.282070569390572
-0.328126624022234 0.340966082516554 0.291913068982631
-0.332852393482681 0.346704170207426 0.303056864792147
-0.327150139323936 0.351901884875237 0.304035332647156
-0.333929679363406 0.351215729690428 0.30940947110909
0.0205034489150142 -0.0132119873146922 0.0124570036027859
0.00348205995022187 -0.00128239358108828 0.0124570036027862
0.00165482787593262 -0.0038474448554263 0.0124570036027862
-0.0118300425320853 0.00307656854294814 0.0124570036027859
-0.0157488428320081 0.0140629860057134 0.0124570036027859
-0.0177976232147613 0.0207188704758575 0.0124570036027862
-0.0257426521373242 0.033955924861508 0.0124570036027862
-0.0315981418820331 0.0267032730104534 0.0124570036027859
-0.0445641423481811 0.0371127901171339 0.0124570036027859
-0.0418851131289636 0.0437088307795387 0.0124570036027859
-0.0540613908649664 0.0554737576571364 0.0124570036027859
-0.0619438028417353 0.0654515150388809 0.0124570036027859
-0.0768994467532759 0.0729801368971531 0.0124570036027855
-0.0811672345710149 0.0808651117247186 0.0124570036027859
-0.0844674131613664 0.0824235392020192 0.0124570036027859
-0.0893541821266808 0.0945061258636012 0.0124570036027859
-0.102055434900642 0.106330229023072 0.0124570036027859
-0.115423807325669 0.108901010825386 0.0124570036027859
-0.112874910775498 0.118804050870791 0.0124570036027859
-0.117382345395546 0.121161338596553 0.0124570036027859
-0.132091479206718 0.125161151209573 0.0124570036027855
-0.138430028411382 0.142858385937805 0.0124570036027859
-0.151784184349075 0.147934295700159 0.0124570036027859
-0.162787630689427 0.160034386957182 0.0124570036027859
-0.173212293607161 0.170584401810394 0.0124570036027859
-0.179671010850878 0.177129679304381 0.0124570036027855
-0.182272477491881 0.180636493968934 0.0124570036027855
-0.187926552369983 0.190894778186368 0.0124570036027855
-0.19840852164528 0.196106849112168 0.0124570036027855
-0.205730616453423 0.202106521353837 0.0159045392157317
-0.209916434577061 0.203507648040705 0.0221652162272712
-0.213698935750013 0.208402432073982 0.0311361397217765
-0.211705556566703 0.213040707379066 0.0333690503862017
-0.21705670827913 0.220511289222656 0.0471456291204471
-0.217645515923682 0.224835123311055 0.0528287865204567
-0.227716764677795 0.22193833136537 0.0601779769203233
-0.228695838702027 0.226121230455646 0.0651626858329909
-0.230036090471902 0.226761497873745 0.0673422808232688
-0.238485818307049 0.232617790531466 0.0827453381576273
-0.235920968788518 0.240597862539749 0.0882750054519597
-0.236653706735064 0.244027519926861 0.0930254945672825
-0.242699513524796 0.249036974101925 0.104507576342758
-0.25106178154133 0.250070676333633 0.113648077368451
-0.25043382261792 0.247724232582594 0.110758150727816
-0.253606913995053 0.252741682752843 0.119115869895896
-0.256327327639328 0.262100374830774 0.132497546640393
-0.261162890489311 0.260605056162148 0.135288086332432
-0.263494768980567 0.262371963978163 0.139676529708227
-0.263982283535268 0.26619003484905 0.144354427629941
-0.27256742221043 0.268769347495808 0.156314979824227
-0.276293426223039 0.272024165536599 0.163721147940754
-0.276518154689246 0.27906507524811 0.171123144346757
-0.283362908833652 0.277961675039581 0.177555834560327
-0.284013684776159 0.285502848701828 0.185628772367406
-0.288088383221964 0.289325020210405 0.19389805004062
-0.288017184815513 0.294295595597846 0.199748169655334
-0.297198150440427 0.294639079591434 0.209249028214746
-0.296502013996932 0.30016344529616 0.214478941999124
-0.301721476482527 0.300757798632265 0.220219182172335
-0.307979461878979 0.303391066285554 0.230070920268357
-0.312678523760784 0.309816234425983 0.241530036736789
-0.316983861852086 0.309457003356138 0.246325489241379
-0.315292010365591 0.315225442822744 0.249579540378511
-0.3153072492491 0.321291109031338 0.256793348721836
-0.320464841041128 0.327687367119221 0.269114702225253
-0.327645367148454 0.32717704088465 0.275193913552406
-0.326583900132992 0.329537306727912 0.27690375661252
-0.333127678949908 0.338605902305239 0.293671057717608
-0.333064870111543 0.340627147098115 0.296019046282273
-0.3423360794032 0.337816519625725 0.302391658433734
-0.3575622052886 0.347842489312181 0.311425090069647
0.00610233337539193 -0.0187753243987414 0.0124570036027859
0.000412902685495228 -0.0197611412346732 0.0124570036027859
-0.00824895116243743 -0.00680431438068326 0.0124570036027855
-0.0180429931504703 0.00105735314560051 0.0124570036027859
-0.0194922501257984 0.00686792836470266 0.0124570036027855
-0.0308329739018518 0.0115731817084069 0.0124570036027859
-0.0316377740883223 0.0237212350441736 0.0124570036027855
-0.0489838793120981 0.0251923275462805 0.0124570036027859
-0.053718896238949 0.0417473780392357 0.0124570036027859
-0.0622137257530577 0.0446942004406262 0.0124570036027859
-0.0647671992254019 0.0537372338161282 0.0124570036027855
-0.0732159230673172 0.0623583047049307 0.0124570036027855
-0.0774832048134065 0.0639851786211852 0.0124570036027859
-0.091171390710725 0.0751760688113103 0.0124570036027862
-0.0919503484598648 0.080678611670427 0.0124570036027859
-0.0936914097553326 0.0874375876670618 0.0124570036027859
-0.117023510495105 0.102574282423098 0.0124570036027859
-0.109205482447838 0.100264303672909 0.0124570036027859
-0.130125275760527 0.108482587023154 0.0124570036027859
-0.129933282933694 0.118899966091034 0.0124570036027862
-0.142847072972829 0.135469613930189 0.0124570036027859
-0.147835456441299 0.132857323576018 0.0124570036027855
-0.149807274647588 0.139710715658532 0.0124570036027859
-0.162710350872603 0.153001827197888 0.0124570036027859
-0.172093737014171 0.163118070272741 0.0124570036027859
-0.180803543222913 0.161054461991338 0.0124570036027859
-0.197417661019176 0.176809828444153 0.0124570036027859
-0.202407902854167 0.183553162513517 0.0124570036027859
-0.212668895564073 0.190594752163197 0.0136494179838239
-0.214358633472716 0.195703709801165 0.0203254613335334
-0.20955741787017 0.204310650009069 0.022471230510458
-0.214327093146744 0.203176913913372 0.027112025021018
-0.219121204508436 0.20551439248234 0.0349516116056914
-0.229598700473646 0.206541474213413 0.0483580178519969
-0.230293497919592 0.21035172736524 0.0526641503942339
-0.230707578991036 0.215439372855945 0.0578026628048238
-0.232147324668314 0.22441368911279 0.0677108297515209
-0.233319134735896 0.224060602055248 0.0687829002259059
-0.240446203651332 0.227440870840487 0.0803509920059291
-0.245399930300437 0.231566238650071 0.0900131225862875
-0.2491122768446 0.230859689459616 0.0937857465407151
-0.250571755989177 0.237555672780394 0.101636955084832
-0.255305364787019 0.239898468755361 0.109409397350328
-0.258685106815525 0.245123529927548 0.11820261535054
-0.264518050028524 0.241802381703424 0.122111312414882
-0.26353659904362 0.249830665227935 0.128274320315377
-0.270684523191971 0.252994094361479 0.139669225024097
-0.268619961670574 0.257188288520288 0.141042230299726
-0.273337841604694 0.26154901858698 0.150638615407349
-0.279474940644383 0.261584701850906 0.157974531333709
-0.284812100414808 0.264889346978571 0.167343522366438
-0.286998437585869 0.268906194767631 0.173613282213202
-0.290926551151444 0.273064680820014 0.182085144108282
-0.292863129964506 0.275725713860127 0.18681963242761
-0.296207497492147 0.280418701815826 0.195084895232781
-0.296324274470022 0.289964809315285 0.203940816405244
-0.307089415508059 0.282380769269343 0.209826350723052
-0.309724424569216 0.291095434982406 0.220919819112829
-0.308596905238094 0.291451513551439 0.21990318761923
-0.315256438898648 0.296628141881426 0.23255523002022
-0.316677294438169 0.299893124882542 0.237227484328917
-0.3228257255924 0.299552480649383 0.244233245314317
-0.325641096958327 0.303247389800989 0.250957598993077
-0.327958916665697 0.315030587458801 0.264475608370321
-0.332303523903908 0.316808215834657 0.271269048752852
-0.330698788881196 0.320272389170079 0.272522648582035
-0.342059626632884 0.317858435503468 0.283838103624777
-0.342132480341129 0.329866180507011 0.294889579735254
-0.344703102908049 0.331573404182753 0.299507635622119
-0.351173826153356 0.333559889403707 0.309021933845984
-0.361512758401316 0.340624307406898 0.311425090069647
0.00512365047809338 -0.035978834660592 0.0124570036027855
-0.00515300564928236 -0.021129992704892 0.0124570036027859
-0.0121090565013668 -0.0166057792730729 0.0124570036027859
-0.0161377123439992 -0.0105356818278342 0.0124570036027862
-0.0271176734527568 -0.00969180677305134 0.0124570036027859
-0.0351194273301826 0.012075576822132 0.0124570036027859
-0.0344153605867716 0.0110066619122696 0.0124570036027859
-0.0429692696292802 0.0175885546733455 0.0124570036027859
-0.0582749359106946 0.0271102846173848 0.0124570036027859
-0.0606087752296522 0.0311600562850717 0.0124570036027859
-0.0745879147082788 0.0455505680425577 0.0124570036027859
-0.0808147602786312 0.044442173975821 0.0124570036027859
-0.0874449606017757 0.0532643580614555 0.0124570036027859
-0.095039800104346 0.0671700892029894 0.0124570036027859
-0.0973701626904189 0.0687917460663184 0.0124570036027859
-0.11073541584094 0.0771670879986747 0.0124570036027859
-0.111963325965079 0.0869998565633198 0.0124570036027859
-0.12361215819803 0.0901908484130016 0.0124570036027859
-0.136640701922811 0.105660061322262 0.0124570036027859
-0.144237097329488 0.106259632951997 0.0124570036027859
-0.15107650211853 0.121220493098192 0.0124570036027855
-0.158132117514847 0.124772859220046 0.0124570036027862
-0.165956029693045 0.141006480474614 0.0124570036027859
-0.176515788095453 0.143628962810949 0.0124570036027855
-0.188106182233265 0.152231081200834 0.0124570036027859
-0.192876101410951 0.158774606911527 0.0124570036027859
-0.19748710787677 0.168144520304161 0.0124570036027859
-0.204769380349748 0.175704516767473 0.0124570036027859
-0.217489799506584 0.185839568016256 0.0150442793081076
-0.219829525324976 0.186560854225321 0.0184872600832202
-0.224854883273144 0.187482940101028 0.025309582327773
-0.228036242604762 0.193648544694405 0.0347255688008336
-0.229913746733146 0.199167098252771 0.0419990788837062
-0.231431447484026 0.20201031115106 0.0464014458445246
-0.238254428538156 0.199114544350675 0.0518767513563629
-0.237445739630987 0.208681806657953 0.0596506576985445
-0.239932018981849 0.213189165629989 0.0667252641737058
-0.241878254397623 0.213788150091665 0.0695883006811205
-0.244721196334424 0.219065053634557 0.0777900499161098
-0.251918668284216 0.221254027646196 0.0883541019567221
-0.258580822077761 0.223694080347918 0.0985103798595219
-0.262168027647839 0.225484362219161 0.104414043966921
-0.26172253305655 0.23194585893849 0.10978415699839
-0.26116207117169 0.236543533822695 0.113315521234641
-0.265168666919377 0.239909767941768 0.121157340653134
-0.270471874643686 0.243219601519301 0.130490665524303
-0.274170877120293 0.243209205249767 0.134883096208298
-0.276905586495498 0.24742903083934 0.141990783018729
-0.283598113445715 0.246358889723328 0.148977899982608
-0.283575841101579 0.251465999823996 0.153614912689163
-0.287305524186561 0.258640511760017 0.164604696697631
-0.295594410687911 0.258290088287298 0.174148733946325
-0.296240174854628 0.266839092870141 0.182723669054064
-0.296159504707086 0.274062432671644 0.189223605147211
-0.299988081866383 0.273110695251162 0.192910655315845
-0.310112902312443 0.273423685169308 0.205245299781697
-0.313782111090476 0.277825189795454 0.213630967711115
-0.318104833553996 0.279856808175924 0.220630293532238
-0.318210453212388 0.286209430810512 0.226556831544893
-0.32333990770372 0.284484101852721 0.231085565743965
-0.327737566693073 0.293043049050373 0.244134447307241
-0.327963195559964 0.295175767870961 0.246350427865406
-0.32906146291206 0.296598247246492 0.248956324839959
-0.337846697251791 0.302767840916663 0.265044733341541
-0.340382224217448 0.303055797967325 0.268325032241428
-0.343989782781179 0.305040653133121 0.274430590097334
-0.346485712721936 0.318974619412788 0.290124513467037
-0.353608472421484 0.313514722460568 0.29361514926032
-0.354019018796936 0.324175137056636 0.303838185602775
-0.357611438857344 0.320506865872675 0.304763620272846
-0.360533615932303 0.322566477150214 0.310121816544635
-0.00326946428096258 -0.0304078031380872 0.0124570036027859
-0.0174911039874226 -0.024396572370847 0.0124570036027855
-0.0208507472526613 -0.0172227810045908 0.0124570036027859
-0.0221794416413243 -0.0180427247858237 0.0124570036027862
-0.0342035666659589 -0.0043956118783047 0.0124570036027859
-0.0409491609369294 0.00281068523034243 0.0124570036027859
-0.0511018639967568 0.00830011909573383 0.0124570036027859
-0.0540022287958349 0.0127321955657075 0.0124570036027859
-0.0576982135131935 0.0194513028403907 0.0124570036027859
-0.0749931622706026 0.0288066424579443 0.0124570036027859
-0.0754413042078059 0.0380353984461891 0.0124570036027862
-0.087318161339679 0.047923619923419 0.0124570036027859
-0.0931559447494767 0.0465844591017596 0.0124570036027859
-0.103081455776499 0.0593616006634836 0.0124570036027855
-0.110025550024235 0.0679839402619796 0.0124570036027862
-0.122539317178364 0.0759699407862991 0.0124570036027859
-0.129567570389144 0.0825694982023207 0.0124570036027862
-0.133106874481326 0.0923325183793063 0.0124570036027859
-0.140251460918575 0.102400199251505 0.0124570036027859
-0.150934639272877 0.107338872248679 0.0124570036027859
-0.162887505649002 0.113264917281108 0.0124570036027859
-0.158958223002144 0.121888001846307 0.0124570036027859
-0.178762310311856 0.126431996123922 0.0124570036027859
-0.177882373159637 0.128277981720134 0.0124570036027859
-0.191015923628091 0.146372808717403 0.0124570036027859
-0.201056280254883 0.157857804198801 0.0124570036027855
-0.209881653032309 0.164103977230225 0.0124570036027859
-0.212929980924391 0.169372982395445 0.0124570036027859
-0.225260436138503 0.172176096096856 0.0124570036027859
-0.225335107616982 0.179679252449696 0.0187551876394395
-0.231386907896745 0.178743094598347 0.0251021664024786
-0.230718676077295 0.182405928589894 0.0276516385657792
-0.239675761341266 0.189273921120428 0.0445822922569094
-0.236414326741175 0.195776100850518 0.0466385015419667
-0.243013141106426 0.1944238137845 0.0532564583598088
-0.248630597113834 0.200880458243745 0.0658372337523489
-0.24577523197837 0.204549370310971 0.0657895017798209
-0.249214927492422 0.208535055490018 0.0735223397760688
-0.257210886846792 0.211756599116677 0.0859794986226724
-0.259607738442 0.214401825872885 0.0912472919817735
-0.267713878398615 0.210877088059002 0.097675255156258
-0.265152399558443 0.222936487453338 0.105638964277778
-0.27069040647973 0.219703273955445 0.109276975208214
-0.271764358043005 0.228572076229146 0.118653486916869
-0.280778645807304 0.225462313079139 0.126541104090483
-0.281678807845518 0.233887456750601 0.135305677681779
-0.284086556706318 0.233673143150473 0.137975272303518
-0.288072827086416 0.239776385823498 0.148292181782379
-0.292013057928106 0.241049205309375 0.154143439845678
-0.295805651143259 0.23889448081615 0.156689169846664
-0.300764120183166 0.243074889923984 0.166407204543466
-0.303384137100446 0.249633078138386 0.175513661346543
-0.301116564050469 0.262063183696881 0.184165634599989
-0.305649139109989 0.257561782868972 0.185449116144569
-0.308583579620922 0.263875671100676 0.194706665850222
-0.317646421336976 0.265830339144809 0.207276609239841
-0.319648998141852 0.267824082152275 0.211480306499299
-0.318181753407741 0.275884503390658 0.217094551560287
-0.326819887264738 0.273806279604797 0.225476476361762
-0.330192251111467 0.279797081588043 0.234960144309827
-0.330075727626628 0.28126489770798 0.236161802623989
-0.334971331126386 0.286398965631366 0.246675851496402
-0.341843971497147 0.284082579875214 0.252739310333972
-0.339984276963247 0.297943718990508 0.263183408311659
-0.340355651502887 0.301411875984259 0.266792275470257
-0.352738440082892 0.298097101994143 0.278501305666761
-0.352523332677901 0.305269782565992 0.284794998311468
-0.35452056734616 0.307773668182686 0.28945817098372
-0.364833647270744 0.311285236050539 0.304937606203954
-0.361854794155667 0.314993035991757 0.304778429986367
-0.371632209762553 0.317043488857186 0.311425090069647
-0.373546812273968 0.327056913187796 0.311425090069647
-0.0103301696547607 -0.040004780622086 0.0124570036027859
-0.0167320831563454 -0.0329290348838545 0.0124570036027859
-0.0225552640069078 -0.0313230153165949 0.0124570036027859
-0.0379772389586554 -0.0253826298067518 0.0124570036027859
-0.0401802299953877 -0.0168681001666675 0.0124570036027859
-0.0534894939969602 -0.00264415280520014 0.0124570036027859
-0.0597614294590036 0.00130989948893146 0.0124570036027859
-0.0580716098675292 0.00442515722801333 0.0124570036027859
-0.0697795969557644 0.0112200701542332 0.0124570036027859
-0.0749936948491443 0.0151621741413316 0.0124570036027855
-0.0817506205864053 0.0211996992836507 0.0124570036027859
-0.0981149938372723 0.0339274357874004 0.0124570036027859
-0.0995604300709966 0.0408516105428623 0.0124570036027859
-0.104487157893835 0.04881627125907 0.0124570036027862
-0.114150216734451 0.0574884947495644 0.0124570036027859
-0.122049913451585 0.0669907639306392 0.0124570036027855
-0.12956795321967 0.0708116377825227 0.0124570036027859
-0.132702690453654 0.0741651835000889 0.0124570036027859
-0.146216971983473 0.0876526388141339 0.0124570036027862
-0.153782959015362 0.0948445734907213 0.0124570036027859
-0.167294089173217 0.103888215076305 0.0124570036027859
-0.16709330543501 0.107195280033266 0.0124570036027855
-0.183640447369195 0.121339441326915 0.0124570036027855
-0.188840252530385 0.132251901366321 0.0124570036027859
-0.196862586213894 0.139258436499919 0.0124570036027859
-0.210783726225788 0.148104806543888 0.0124570036027859
-0.213380695850213 0.149872327646649 0.0124570036027862
-0.226501622932699 0.159830515270842 0.0124570036027859
-0.228624080566728 0.171085079612465 0.0148214627468419
-0.234488896234732 0.168695859208413 0.0196190715563646
-0.233925747030348 0.175528602105913 0.0251881725982925
-0.244336443766741 0.173129132149423 0.0353861570047906
-0.24065193608719 0.180543481239537 0.037771836913341
-0.246433708410388 0.184534557449091 0.0482967393763772
-0.247033472084959 0.190820302558733 0.0547502549112797
-0.2543930390145 0.19013400509943 0.0628816732881783
-0.256658707746994 0.192740758276579 0.0679582232573444
-0.258349331649764 0.199821124680878 0.0764354973932831
-0.264059126716306 0.19909200840885 0.0825645380804025
-0.270096061539492 0.205675437676558 0.0957602784042265
-0.272101835455919 0.202653230361049 0.095387504692703
-0.270329964820283 0.212615212610902 0.102375631286954
-0.27637107158412 0.216254639762812 0.112888043942827
-0.276624747485101 0.214224335126794 0.1113359691506
-0.280333091844667 0.221042446376018 0.121974914948346
-0.288590073656918 0.224604911272785 0.13505400793258
-0.292702065497664 0.229651264461187 0.144555439393121
-0.287779202043234 0.234303239895407 0.142944998964641
-0.293975218675009 0.236774948243144 0.15257546576041
-0.302203413715995 0.23519348993737 0.160923168563699
-0.305359145255772 0.244028883215187 0.172746553757403
-0.307495024594935 0.245569283676121 0.176694918848444
-0.311823485147287 0.245716188757136 0.181980062025306
-0.316174229977982 0.248127951890499 0.189359861498831
-0.315049132902105 0.258471342687001 0.197465948256994
-0.32319285544114 0.254866824529084 0.203865785038066
-0.328076266603097 0.264404041709687 0.218386025813543
-0.325935167279155 0.263572343033068 0.2150785942504
-0.32995119204646 0.265645436598613 0.221750813348296
-0.334612415869234 0.269589004479862 0.230898847610934
-0.340229554943696 0.269865645786195 0.237836024517789
-0.343845948504673 0.279144160324741 0.250612244039249
-0.345115994859108 0.283752843605923 0.256332020245823
-0.346465407060748 0.286848954612441 0.260765050703271
-0.355793081802163 0.288394015242208 0.273276123548471
-0.356290986067727 0.291938929295226 0.27710565498376
-0.360593379745095 0.29364782274413 0.283786095203508
-0.362830327980047 0.299076484219619 0.291405270311031
-0.369308932645779 0.303974794034688 0.303587857413131
-0.373995643648251 0.309775077465342 0.311425090069647
-0.0229828519633887 -0.0563822024778822 0.0124570036027855
-0.0337778459348831 -0.0456506140273147 0.0124570036027859
-0.0361890556766025 -0.0388419091678774 0.0124570036027859
-0.0434854377610155 -0.0319746469817771 0.0124570036027859
-0.0467260767008258 -0.0249398932387745 0.0124570036027859
-0.0538069737494543 -0.0180460708018638 0.0124570036027859
-0.060288627394327 -0.0122606856858386 0.0124570036027859
-0.0710179387715652 0.00335440934920436 0.0124570036027859
-0.0724264038713722 0.00134859082504577 0.0124570036027859
-0.0889261065831198 0.0121338527521271 0.0124570036027859
-0.0969121511169962 0.0285561663615535 0.0124570036027859
-0.0965533534962277 0.0258001874433568 0.0124570036027859
-0.107892470472096 0.034566266203513 0.0124570036027862
-0.113197387209756 0.036725117962907 0.0124570036027859
-0.125571154780907 0.0482578962773951 0.0124570036027859
-0.137468886727202 0.0618570902747321 0.0124570036027859
-0.141243545206621 0.0617390348061593 0.0124570036027859
-0.146466400769822 0.0742421749076537 0.0124570036027859
-0.151524945689494 0.0861570101447781 0.0124570036027859
-0.166005734577394 0.0854729778299755 0.0124570036027859
-0.169405495175702 0.0937896147047577 0.0124570036027859
-0.180919283382199 0.108329063516733 0.0124570036027859
-0.189814758304758 0.117410606831454 0.0124570036027862
-0.193852067514253 0.123238971181223 0.0124570036027859
-0.206495634546349 0.131508431920592 0.0124570036027855
-0.220340793559123 0.136452736896076 0.0124570036027859
-0.218953058691535 0.140905086728233 0.0124570036027859
-0.232438362007025 0.152457220258392 0.0124570036027859
-0.236877980176278 0.159547957318839 0.0141088184041635
-0.244716524160632 0.160536191020525 0.0243393188243234
-0.241143226998838 0.171170021686881 0.0297971868940138
-0.252307392620457 0.165253428464148 0.0376801884075249
-0.247969902896196 0.173871736447252 0.0403881856908399
-0.251713074518266 0.179250492068732 0.0497542406929505
-0.258803138735007 0.179638134324886 0.0585456023674975
-0.261877416628419 0.181912791594156 0.064281170735698
-0.26206661749741 0.186229587869559 0.0684481740518289
-0.265411119338424 0.190293062645045 0.0761387616791968
-0.269418096229231 0.192514067029843 0.0829352771350709
-0.274487555344185 0.189258627217341 0.0859954063300822
-0.277599960462983 0.195529502523187 0.0954254623445713
-0.2804613276263 0.201245884245921 0.104050444199234
-0.283495331099418 0.205205991840394 0.111277140521373
-0.286034718363827 0.211510064960032 0.120055602415471
-0.293959159350089 0.210923524221709 0.12895032993801
-0.289144751743502 0.217805849251476 0.12950558143373
-0.296343661978794 0.218824742845272 0.13900289533642
-0.298918588340705 0.219174846519991 0.142386829401742
-0.304131738316859 0.223442006183483 0.152487157644108
-0.304073279808229 0.228762600677335 0.157276049325353
-0.31379762187796 0.233444229157475 0.173123300485572
-0.315527261609629 0.236135322314502 0.177638974247303
-0.315312415293976 0.243468469582017 0.184079506498602
-0.324296796319092 0.235232851825504 0.187250899892352
-0.32771059127394 0.240970583857469 0.196552783264671
-0.32580230335384 0.248617851621536 0.201264905849296
-0.332064207664661 0.250111003000717 0.210080219352634
-0.334013132077152 0.254563305855192 0.216465083263673
-0.34272711626735 0.257070536800701 0.229124444200347
-0.341113102352285 0.261248137189832 0.231018462178228
-0.344655058687697 0.265036460099919 0.238692773815462
-0.346755208209667 0.26624855914312 0.242298833491471
-0.354578984885806 0.267992186316456 0.253201541985579
-0.360185425411878 0.274979739877988 0.266254004100423
-0.361522280524201 0.278956914222923 0.271476627310155
-0.36427911854567 0.282906323589492 0.278363719424215
-0.366641629681961 0.285040928346623 0.283124376139872
-0.374976621857434 0.282859867426091 0.291051648321335
-0.372232160790358 0.293976688484247 0.297936895099134
-0.382024000577088 0.293740290386394 0.309373613236936
-0.0224439942326895 -0.0540564536120194 0.0124570036027859
-0.0330445863273656 -0.0562667894235168 0.0124570036027859
-0.0390269313319944 -0.0440639086434822 0.0124570036027855
-0.0459996465861605 -0.0306037726815369 0.0124570036027859
-0.0572907376918821 -0.0236536191579378 0.0124570036027859
-0.0619689308296973 -0.0212210881356537 0.0124570036027855
-0.0641100866162607 -0.0197080476408551 0.0124570036027859
-0.077453733749737 -0.00546474018780941 0.0124570036027859
-0.084158638984884 -0.00721439061338617 0.0124570036027862
-0.0950498536103192 0.0121726121335308 0.0124570036027855
-0.104445311431025 0.0139199400839211 0.0124570036027859
-0.106336483891797 0.019174769731673 0.0124570036027859
-0.114800944695669 0.0243587927714771 0.0124570036027859
-0.128031242574934 0.0417843614154482 0.0124570036027855
-0.123557584625594 0.0370620247512995 0.0124570036027859
-0.140866228242492 0.0552260665669296 0.0124570036027859
-0.152215092321626 0.0634754096366511 0.0124570036027862
-0.148667382792123 0.0603895365975793 0.0124570036027859
-0.165597437419627 0.072902149314635 0.0124570036027859
-0.172020830567279 0.075754796119413 0.0124570036027862
-0.179581847880874 0.0929964381684259 0.0124570036027862
-0.188132170412262 0.0928895273189047 0.0124570036027862
-0.200410854180653 0.104253588950887 0.0124570036027859
-0.205467378782582 0.109238684751349 0.0124570036027859
-0.212294117271967 0.125926195525405 0.0124570036027859
-0.216275226207979 0.126660077489664 0.0124570036027862
-0.231872579054762 0.14286880060517 0.0124570036027859
-0.23967221600369 0.14516144519944 0.0124570036027859
-0.244628550096129 0.148067965983228 0.0128493653110639
-0.247716895865524 0.153694593225839 0.0216624999203181
-0.253104292910293 0.156163168937967 0.0303278245989269
-0.254314566414947 0.164169795724743 0.0390792747366886
-0.26098289718536 0.160169824191667 0.0433622458932956
-0.257749701936152 0.168138888661119 0.0467915351285664
-0.263194212161085 0.170780918557341 0.0556832145310282
-0.266737831908354 0.178050842924328 0.0665387026955031
-0.27033117914157 0.18037158554882 0.0729340616356207
-0.271949200788073 0.178105992279045 0.0727907472578052
-0.279578748657115 0.182957834485739 0.0863005597806374
-0.282781538028031 0.183794902293803 0.0908763371416559
-0.285057054093147 0.186148634830585 0.0957335619222692
-0.290755401919216 0.194916613399871 0.110521177590233
-0.289242148578794 0.199974710566931 0.113339122390966
-0.297945850111959 0.197981070382047 0.121876311545497
-0.300289936836897 0.196793795663168 0.123581694513504
-0.306405438749967 0.204471994499777 0.137870612262922
-0.302237747874269 0.21417227872616 0.141768673377784
-0.312139977108675 0.209753130712631 0.149517313047374
-0.312453936125948 0.219366404691564 0.15866921930728
-0.315616765180118 0.220441292609254 0.163414606256819
-0.320848637685 0.224203563228882 0.173076179406491
-0.322311575371969 0.227320594905317 0.177663412143801
-0.320282839521127 0.234738324913441 0.18202259747767
-0.324459667822618 0.236955336437672 0.189017595160316
-0.33300294336017 0.237405821225759 0.199595706082449
-0.338284507034103 0.241030150903435 0.209190453527132
-0.337250092444799 0.244489979986593 0.211118784867811
-0.344394327776115 0.242463051071246 0.217769765099191
-0.35002102082067 0.250216471863886 0.231545673963879
-0.350264083416522 0.251910601784452 0.233381907174412
-0.357041713033933 0.251276003326996 0.240868011223045
-0.357499237065546 0.262432271523592 0.251599737205806
-0.36224398608483 0.267200469202215 0.261600173179698
-0.365004551791616 0.267335737593655 0.265008848485464
-0.37300237137547 0.267082136844247 0.2742949202764
-0.373459382083452 0.274301449625456 0.281431035481715
-0.374253916187448 0.274938751273548 0.282958501902789
-0.379754870744645 0.282314595639717 0.296239997246645
-0.382710142497372 0.286764350323126 0.303820117851102
-0.387230287813683 0.288378279464187 0.310672973144394
-0.0310390417978973 -0.0619306692833493 0.0124570036027855
-0.0398140754189351 -0.0631575771609251 0.0124570036027859
-0.0486708196934277 -0.0479167399244371 0.0124570036027859
-0.0566338634154644 -0.0451876001543511 0.0124570036027859
-0.0623593195703276 -0.0317371133787914 0.0124570036027855
-0.0669927177438322 -0.0291566624006105 0.0124570036027859
-0.0769525870271207 -0.0188341269191381 0.0124570036027859
-0.0836122185487835 -0.0140225196015524 0.0124570036027862
-0.0933511422325911 -0.0117778972811434 0.0124570036027862
-0.103983520049437 -0.000517149524280284 0.0124570036027859
-0.112111402497925 0.000868791528216765 0.0124570036027859
-0.113282931372492 0.0178143698918773 0.0124570036027859
-0.124159895739206 0.0228674764062743 0.0124570036027859
-0.13571276478492 0.0310304349176197 0.0124570036027859
-0.12941906146695 0.034378395167194 0.0124570036027859
-0.149667049513234 0.0416239474902068 0.0124570036027859
-0.149426429229175 0.0514381495100017 0.0124570036027859
-0.162597863530729 0.0525257213876595 0.0124570036027859
-0.169196187569372 0.0688591031177502 0.0124570036027859
-0.17830961836247 0.0763894901102123 0.0124570036027855
-0.183025264430258 0.0793172769129915 0.0124570036027855
-0.19761134638936 0.0863158412342516 0.0124570036027859
-0.202007299120914 0.101857762060982 0.0124570036027859
-0.211356029680724 0.106013383566361 0.0124570036027859
-0.217723942139241 0.108628048563743 0.0124570036027855
-0.229686333757526 0.123667640972268 0.0124570036027859
-0.238558499779047 0.124254513601556 0.0124570036027855
-0.245708451498571 0.132971589231848 0.0124570036027859
-0.250325145989383 0.141407004555889 0.014603544518074
-0.255685106012381 0.14769910329991 0.0256701746021694
-0.257635815605566 0.154105193975705 0.0338412489309414
-0.262706814617758 0.148219214983059 0.0356726799566074
-0.263832112049439 0.154040196020358 0.0411556752804455
-0.267631990213244 0.160172083163683 0.0512769289012126
-0.273539583055903 0.161165350076984 0.0592141355517109
-0.27642920388785 0.167355362914429 0.0683052326512696
-0.277211034990624 0.167242414331031 0.0691324970151126
-0.277263962356151 0.17066495319838 0.0723207466460509
-0.283215404164563 0.177483162825785 0.0856291355575188
-0.285604579326434 0.174606675889724 0.0858456842537539
-0.291119553701458 0.180151020392637 0.0974714438905898
-0.298443566592049 0.181443185479717 0.107367169424607
-0.298131443131176 0.18702704968402 0.11209459486781
-0.300285840655104 0.188830060367664 0.116304797616134
-0.308551403931184 0.19021408127171 0.127404873782822
-0.308007875450742 0.195999970737431 0.132041398088428
-0.313413741562256 0.199410572333117 0.141588905045287
-0.316456661195125 0.203718736391309 0.149144036890452
-0.318811360138615 0.205924062840685 0.153959975819878
-0.324695736565746 0.211612245841034 0.166156679978506
-0.323713678499943 0.219224446702832 0.171939022820002
-0.326549955013508 0.216841060184579 0.173137906314943
-0.336702457817345 0.218519551816642 0.186752390779325
-0.339918099789812 0.221938333459599 0.193700934827035
-0.339329898726767 0.232869603217332 0.202982761007734
-0.342035766743246 0.234130126962086 0.207353862505862
-0.349262864808429 0.237373769916815 0.21891623317227
-0.348653920614249 0.242670961271222 0.223028659974477
-0.354536482869529 0.243086261308868 0.230408313563101
-0.355287600797305 0.247468901254771 0.23530413967298
-0.363579597041933 0.245082002960051 0.242992286625327
-0.365944898891691 0.25090691620566 0.251126040577155
-0.368098116682428 0.253636359434257 0.256180804007496
-0.375468548715593 0.254016381497069 0.265298853477866
-0.375634227822688 0.259799539827853 0.27077686218186
-0.378629851879009 0.269155390087086 0.282884965868971
-0.37950836963514 0.2757506528892 0.289952840775623
-0.388557791498878 0.273666516206681 0.298818811332927
-0.385398451205964 0.279039598044802 0.299965489038108
-0.39039710410659 0.27913657469699 0.30600258946966
-0.043568968737865 -0.0737404358004159 0.0124570036027859
-0.0556262962502392 -0.0655992823404698 0.0124570036027859
-0.055602520267918 -0.0542030665961353 0.0124570036027855
-0.058241478899238 -0.0587489421585875 0.0124570036027859
-0.0676708493839398 -0.0404180573811039 0.0124570036027855
-0.0754350007224837 -0.0341801047983212 0.0124570036027862
-0.0794143717366205 -0.0327242422096336 0.0124570036027859
-0.0886910519455045 -0.0204347198035368 0.0124570036027859
-0.0964245053489476 -0.0129376738492192 0.0124570036027862
-0.101180899901489 -0.00488456496274425 0.0124570036027859
-0.112258128077887 0.00122257581497668 0.0124570036027859
-0.119177766758364 0.00489162398787616 0.0124570036027859
-0.133772413048572 0.0138449025533635 0.0124570036027859
-0.13995102714047 0.0203702875098975 0.0124570036027859
-0.150048461018217 0.0318667845829191 0.0124570036027859
-0.150735887324019 0.0333281202650929 0.0124570036027855
-0.159089387542552 0.0383200838345978 0.0124570036027859
-0.16574643823032 0.0543564203155189 0.0124570036027859
-0.177481978679412 0.053139439856517 0.0124570036027855
-0.184415549355344 0.0733160782332631 0.0124570036027855
-0.191293546151827 0.0668122042142327 0.0124570036027859
-0.200295262808815 0.0780657373193714 0.0124570036027859
-0.213668775535743 0.0922494191359861 0.0124570036027859
-0.225780784245158 0.104664707082106 0.0124570036027859
-0.232587119155681 0.108811914827782 0.0124570036027859
-0.236923375169366 0.111032988437735 0.0124570036027855
-0.243439966007289 0.114571529326758 0.0124570036027859
-0.253639943616715 0.135376421695593 0.0157355488193278
-0.260042422559929 0.134218286969322 0.0239434292404979
-0.262622803661813 0.139221767909113 0.0303914950593795
-0.260519829040648 0.138929662849501 0.0273094765943167
-0.268696893719066 0.139379497428738 0.0388996269941012
-0.269435878516613 0.151145427252626 0.0466776660029952
-0.272019080657358 0.148586819488997 0.0487888121806651
-0.278741356965764 0.153967130020647 0.061193105972661
-0.278591144005861 0.158806521232006 0.0637628702128841
-0.288099339496582 0.161292029683587 0.0783662553785065
-0.286727835807831 0.165343815029871 0.0787914257835894
-0.291167968154978 0.165314838950702 0.0849280138811977
-0.298615318404477 0.166157100877915 0.0957321751095127
-0.30113106063967 0.169455011946453 0.101111623140782
-0.298894150333855 0.182016281112883 0.108426695374477
-0.300422864904561 0.181594954939486 0.109861180905916
-0.311119049900261 0.185417215623261 0.126080229361831
-0.310930886883919 0.181153629803095 0.121963049830652
-0.315424849498158 0.187536263300329 0.1331392518403
-0.320513328547401 0.189992689820997 0.141437761194845
-0.32646951348545 0.193363101134581 0.151603464630242
-0.325545989645795 0.201754662924146 0.158167132265645
-0.33211734092785 0.199544476670355 0.163969023287062
-0.334470316616813 0.206235741965095 0.17287921130481
-0.330986412886819 0.212347646365277 0.174314298797573
-0.336219297234815 0.212059936983174 0.180278868650952
-0.34373575162432 0.213550769135929 0.190585016614128
-0.35092800321487 0.220232368481672 0.205245261798161
-0.350155053946253 0.2246434273669 0.208353352737581
-0.355991196743874 0.224609885317544 0.215267909153099
-0.354908866944589 0.231136290297501 0.219939439643591
-0.364731227754166 0.229522806393857 0.230155003630029
-0.362640074625462 0.240070318364902 0.237297846340422
-0.36875813920006 0.241137145954849 0.245552692022226
-0.368201501093607 0.246029874255257 0.249358032378458
-0.374752070429372 0.24352821540743 0.254869036350823
-0.377239090914105 0.254641304800402 0.267976495633577
-0.381617628260772 0.257268707461763 0.275586278575996
-0.383132567809363 0.261008848916099 0.280804382887474
-0.392834116121803 0.262809646009753 0.293993900245112
-0.395534311876477 0.26591631710023 0.300044046525975
-0.396756503777812 0.264856345129677 0.300530586489821
-0.399183369127281 0.271644948354787 0.309617588787416
-0.0454385874288245 -0.0759161488644801 0.0124570036027859
-0.053826565889389 -0.0736001418016062 0.0124570036027855
-0.0616410479874519 -0.0610010235162662 0.0124570036027859
-0.0658089479509353 -0.0604449507945583 0.0124570036027859
-0.0730193247168648 -0.0453996245995731 0.0124570036027859
-0.0852844475657707 -0.0424635831070987 0.0124570036027859
-0.0931143888009033 -0.0438790675901173 0.0124570036027859
-0.10068348203652 -0.0257477691700896 0.0124570036027855
-0.106580975513766 -0.0262991232315823 0.0124570036027855
-0.118163417890555 -0.0137548635086047 0.0124570036027855
-0.12350318332033 -0.00792730756426225 0.0124570036027859
-0.121656178757348 -0.00753572677265868 0.0124570036027859
-0.144178743242227 0.00927773714850336 0.0124570036027862
-0.151624704905176 0.0213410715228858 0.0124570036027859
-0.152847260781528 0.0204407180216903 0.0124570036027862
-0.163016744261344 0.0205633045408818 0.0124570036027855
-0.163108084036414 0.0335393534977927 0.0124570036027859
-0.180948058736303 0.0460079649705558 0.0124570036027859
-0.181200910925475 0.0482049471020523 0.0124570036027859
-0.195390582579884 0.0578074180231115 0.0124570036027862
-0.202598855769374 0.0685891365759795 0.0124570036027859
-0.212669513234976 0.0759204511426537 0.0124570036027859
-0.220365745633604 0.0743463244265562 0.0124570036027855
-0.225190539855757 0.0871987818818876 0.0124570036027859
-0.235883710293004 0.0959086565800909 0.0124570036027862
-0.245423498723413 0.104711516794584 0.0124570036027859
-0.253100306065986 0.108307697917273 0.0124570036027859
-0.258956217851212 0.118220995311124 0.0132552980722875
-0.261751533728209 0.126096825289233 0.0216500252339017
-0.266646747069977 0.123495142468274 0.0269404749867278
-0.268773771569283 0.129013911066725 0.0330560585513432
-0.271584581474031 0.134377476061798 0.0400301543555501
-0.274854240572568 0.134346722186311 0.0445436575367452
-0.282572214274856 0.143867200730095 0.0607043685510931
-0.280594971683431 0.145531702631186 0.0589197335605828
-0.28834745116541 0.147627516906111 0.0708663193404983
-0.290485965797063 0.148830563053527 0.0745204929312175
-0.296127173768363 0.154511062308775 0.0855989372350206
-0.298718312160354 0.154950451358492 0.0894420071889519
-0.302116474600453 0.160503950917404 0.0973390946880506
-0.303573104597427 0.162137070727951 0.100295172490863
-0.30709975410261 0.171081218743297 0.110316637328275
-0.310289005016996 0.173959724927998 0.11638869773431
-0.314351222579149 0.173757084314053 0.12190187641921
-0.316032474420099 0.182282192308011 0.129125414049101
-0.319551417304898 0.182509977554926 0.134132787470312
-0.323184993273007 0.189888677023597 0.14452214392737
-0.328880340846872 0.189387785656998 0.151009024568975
-0.336289941345708 0.19344676526018 0.163607348306083
-0.335288889015246 0.194201397111167 0.162864269568969
-0.342618172837726 0.191393120888066 0.171198290119019
-0.347500283498493 0.193390318908174 0.179110455181599
-0.349084371930541 0.20144221486197 0.185927706272651
-0.347560000824559 0.207569371333851 0.189674121519608
-0.352889620704403 0.210231757651814 0.198447666270088
-0.355829990255434 0.215558246338606 0.206810635574443
-0.364128772122397 0.218652720782637 0.219512130073069
-0.367467175651951 0.217410486746783 0.222350594209941
-0.368657171944593 0.229279701040176 0.234605005292178
-0.371788638525157 0.224089661336201 0.233592300519524
-0.375946377069388 0.229148191466765 0.243159291209155
-0.378914546296141 0.231702245474317 0.249023716016152
-0.383572383387915 0.238062205483148 0.260374229454211
-0.384234142410466 0.244490554614892 0.267031739056136
-0.388200205240687 0.244210536667477 0.271495776658652
-0.391681452375687 0.247828097809157 0.278941912758252
-0.399431831249685 0.249711588507391 0.289884990944039
-0.398414735045571 0.258672365322359 0.296857078886003
-0.403611046219667 0.261095805107481 0.305253790126807
-0.406590141227348 0.260309376498486 0.308080881484152
-0.0593874270639007 -0.0866765723123638 0.0124570036027859
-0.0632718257572354 -0.0749363169086858 0.0124570036027859
-0.0738269512379115 -0.0690217701078869 0.0124570036027859
-0.0734257611680156 -0.0635488626973417 0.0124570036027859
-0.0858770785041554 -0.051694273212757 0.0124570036027859
-0.0894694841908245 -0.0502447226664557 0.0124570036027859
-0.100237347195833 -0.0465556187925727 0.0124570036027859
-0.10011317017678 -0.0412542064238746 0.0124570036027862
-0.116635221141651 -0.0307300206808831 0.0124570036027859
-0.119932318361044 -0.0201928423818325 0.0124570036027859
-0.135031620010467 -0.0123616504818215 0.0124570036027859
-0.135034143520546 -0.00240603567571295 0.0124570036027855
-0.140667008338178 -0.00232860683678168 0.0124570036027859
-0.156507910357789 0.00953741092036129 0.0124570036027859
-0.15743408659639 0.0104837497686922 0.0124570036027859
-0.172691390241086 0.0202839941165373 0.0124570036027862
-0.180352555529368 0.0268572018332226 0.0124570036027859
-0.182918105274411 0.0348831267916649 0.0124570036027855
-0.197359794602081 0.0418013009675824 0.0124570036027855
-0.200818560279708 0.0492579583719929 0.0124570036027855
-0.212597880395883 0.0645687497578868 0.0124570036027859
-0.214820484844865 0.0646325170737381 0.0124570036027855
-0.222955583365444 0.0744855031441328 0.0124570036027859
-0.234213384213084 0.0823912729619382 0.0124570036027859
-0.246628285236455 0.0885796684334477 0.0124570036027859
-0.243444273133811 0.0951146306125015 0.0124570036027859
-0.263078865408014 0.10690980547347 0.0124756351917096
-0.267483242426148 0.108691145319361 0.019601839732134
-0.267508451903649 0.116460927204681 0.0240968257134732
-0.275143706883584 0.110227839301438 0.0310999602061029
-0.279339610767567 0.115344623353045 0.0398518875096078
-0.276905479141238 0.124477274475077 0.0417209923430602
-0.282158121878291 0.122011318797299 0.0475846854433478
-0.28928906710549 0.126363435395846 0.0599651113346272
-0.290369291345989 0.136564833412577 0.0673179659460553
-0.290270238944688 0.13445987878536 0.0659724003241689
-0.299628456944916 0.138655936467375 0.0813498420651846
-0.299046980960294 0.140432919983206 0.081564054650568
-0.301212281930985 0.147170584114216 0.0884323591770567
-0.304761698889301 0.154151800014212 0.0973586031913007
-0.311616298839488 0.148989864712915 0.103894759409477
-0.317649845781071 0.150849762939674 0.113323793557039
-0.320214688327213 0.156932696842772 0.12036995889311
-0.321155668048428 0.166080740834993 0.126925194062074
-0.326563906600107 0.164431195703863 0.133473155030392
-0.327442999593841 0.174097127169007 0.140239906811649
-0.329876844245378 0.174366792479753 0.14376757037001
-0.336390509099276 0.172633460339745 0.151799356591092
-0.336981321135428 0.179111733436203 0.156336806989259
-0.344434316572401 0.184668244062083 0.169854888736867
-0.349884472366964 0.183179357784693 0.17655316165171
-0.353260001358155 0.187163663463087 0.183518126530149
-0.356920617360092 0.192381514807013 0.191586256723805
-0.354052391312538 0.201283482308165 0.192721366931092
-0.362860088528633 0.198873073109762 0.203543608212681
-0.367169289507004 0.204671578759528 0.212843870157733
-0.36714754759044 0.212172662355586 0.217187349032641
-0.374941069511966 0.212480381058907 0.228096601774262
-0.375221699135051 0.215696100605231 0.230331407612004
-0.373824319144824 0.223622022718786 0.235587801019095
-0.38473816846237 0.220723803012665 0.246405542083207
-0.391543426391764 0.219839411985083 0.255328737163865
-0.392945428974168 0.226828404937729 0.261283517117322
-0.396814357998381 0.229244831504939 0.268081060863491
-0.399524909273155 0.233553503679507 0.275241128370479
-0.404267132920387 0.235060762759768 0.282260858614269
-0.401538907659018 0.240612383349868 0.284083607403623
-0.407172014124831 0.251448732215863 0.300682299981276
-0.407602298081182 0.251402301797664 0.301151953230745
-0.0608481060918066 -0.0915402294577506 0.0124570036027859
-0.0668371808608107 -0.0905253882948416 0.0124570036027859
-0.0813372464727457 -0.0819902802964292 0.0124570036027862
-0.0820357849343016 -0.0738649161982747 0.0124570036027862
-0.0906789356871436 -0.0695819200272114 0.0124570036027859
-0.097582735050445 -0.0513003536334738 0.0124570036027862
-0.102952263993908 -0.0521208649883066 0.0124570036027859
-0.121092880455144 -0.0427383127894155 0.0124570036027862
-0.121235555036583 -0.0391912135280984 0.0124570036027859
-0.131249072281225 -0.0336992473397262 0.0124570036027859
-0.135556562356731 -0.0235091180580667 0.0124570036027859
-0.142565518119642 -0.0234030212014776 0.0124570036027859
-0.155582657698723 -0.00985334005223005 0.0124570036027855
-0.160134352022257 0.00383520822274259 0.0124570036027859
-0.164297015766962 0.00393350412454261 0.0124570036027859
-0.177258769762085 0.0109750656252914 0.0124570036027859
-0.178026260046381 0.0195471761812058 0.0124570036027855
-0.197551263225057 0.0350500474602509 0.0124570036027859
-0.19493215321298 0.0348974218378292 0.0124570036027859
-0.204436720928282 0.0452533650980981 0.0124570036027862
-0.213413752097509 0.0457517491213498 0.0124570036027859
-0.224318105328235 0.0541581922099222 0.0124570036027859
-0.231561353118343 0.0634462231606763 0.0124570036027859
-0.235417425551231 0.0669536883062789 0.0124570036027862
-0.24765705116301 0.0806114190254511 0.0124570036027859
-0.258139420571122 0.0947623683068035 0.0124570036027859
-0.271791558138266 0.0974009318733985 0.0190915203407166
-0.270665236066146 0.103861568350679 0.0212392092901288
