ply
format ascii 1.0
element vertex 855
property float x
property float y
property float z
end_header
0.362735085780201 -0.018125832036213 0.126926864202416
0.363834688720278 -0.0309540774631209 0.130897133183858
0.374712050145386 -0.0275190642722825 0.145740589199788
0.375125491046825 -0.0316417762035724 0.147273368037902
0.377650380548121 -0.0339859760022482 0.15402624207694
0.383266970161513 -0.0360958519923184 0.168073794902412
0.386759830051389 -0.0362951677899109 0.176460582790886
0.389152172451905 -0.0459568690417083 0.185193483689479
0.390817031584586 -0.0508538335918211 0.190697663970804
0.391640388161434 -0.0539528270622611 0.193632233483647
0.395523250909644 -0.0563442069648385 0.203636258691567
0.398554623406923 -0.0588445927593528 0.211645197211582
0.402078598842446 -0.0554286236461922 0.218971820128054
0.406013867969886 -0.0513970871733261 0.227745460046678
0.406646811273551 -0.06354563402044 0.233853697929095
0.412388326718418 -0.0587984080066104 0.247853864785307
0.414851315852005 -0.06372782241009 0.256368997549263
0.414422377248554 -0.075161668034587 0.25931418814473
0.41744340210379 -0.0695905274958106 0.265573578338003
0.42072209750841 -0.0680508021906023 0.273990281955629
0.421575323398656 -0.0777150698855311 0.27980634467227
0.427717313415811 -0.0796928347765561 0.298868150810356
0.429997599272445 -0.0797546891783445 0.306769252449553
0.432288807162008 -0.081670428574758 0.315550742644017
0.433829011630677 -0.0817272687580928 0.32089433706301
0.436933820800963 -0.0798988138040026 0.330782978133746
0.438571853484185 -0.0855467973658231 0.337855823364956
0.439928386852728 -0.0911246807528272 0.343411573939667
0.442974142772374 -0.0885972118727052 0.350620418520909
0.444233449424881 -0.0957339066365992 0.35584451115325
0.450446874985723 -0.0941649312429123 0.365300653610109
0.459607352407335 -0.101377538120116 0.375880200884065
0.46289504149996 -0.115092543023945 0.380011209639756
0.469204853177889 -0.119370134300965 0.386231964345106
0.474786777952801 -0.119399902692702 0.399187301821038
0.475651826865852 -0.118413928446293 0.401760927987992
0.139759311532048 0.189076048288701 0.021390625266634
0.150980320411738 0.171159544100079 0.0195403165880614
0.160017451307428 0.168334042773314 0.0201563038201994
0.15827417902595 0.162252159649398 0.0190440093055716
0.165669027262191 0.161263119972814 0.0199000734966833
0.17711952255096 0.144418234932154 0.0196789441803418
0.186081980308266 0.137044567962461 0.0201743271223876
0.195797230109487 0.133485510184578 0.022057386121372
0.20183721146015 0.131436150673886 0.0236619753147144
0.208289618938848 0.125120905689188 0.024351207297834
0.213764296733244 0.118425689492548 0.0251060876242305
0.222062367009052 0.110992916152435 0.027713642592198
0.226809428401383 0.111176175416516 0.0301231847693824
0.227382976549315 0.108431330674007 0.0298417098302751
0.235548743077085 0.0978790988509838 0.0317376256960982
0.247015111498692 0.0840746475852539 0.0346094989176587
0.251297835742707 0.0912926759950991 0.038242834200211
0.261781430277772 0.0736840149453699 0.0398364734441698
0.261694485956386 0.0747563831352813 0.0400149521045298
0.27511154691824 0.0656365634478334 0.0459324961117921
0.283515420577131 0.0617881266361808 0.0501664614185618
0.283669147620606 0.0579403207926184 0.0499772886339504
0.293917591031057 0.0470921360455945 0.054706124465104
0.294492197627737 0.0479205426919153 0.0550726622169353
0.296988671219245 0.0477315268105842 0.0563977647667737
0.306348554014449 0.0354184170080011 0.0605468138727312
0.315071407374708 0.0311062638882228 0.0680319252282329
0.318948158728568 0.0286867683607965 0.0714256239944566
0.322569049196895 0.0230506423362162 0.0741713947350811
0.331167087035119 0.0198202345451327 0.0822975035367931
0.334089932462765 0.00703715045787109 0.0840629202930648
0.341294864204054 0.0125969645788972 0.0953635866824031
0.3432367266711 0.0122849473913453 0.0980699513882403
0.34893842606338 0.00990026017000927 0.1057411070414
0.351600537101727 0.00140115466255867 0.107938312758448
0.359977741400519 0.000306694333276041 0.119660742484187
0.359957881420635 -0.0104637208499056 0.121536387325512
0.364205814950216 -0.0129849514236644 0.128057258150556
0.37084524564396 -0.0148131453221183 0.137853268460913
0.374287797442755 -0.0150423717381085 0.142797791822276
0.377538988451319 -0.0197833054763257 0.149304586148407
0.379908622298358 -0.0225890649698566 0.155832269393436
0.381928771887253 -0.0249837414123426 0.161398074905748
0.386844279370419 -0.024724859795895 0.173031581494293
0.389108506901888 -0.025652260783521 0.178718710659534
0.389843781955627 -0.0324501482068412 0.18260391562934
0.393791745769047 -0.0398372525453942 0.194330533352511
0.395347438073169 -0.045562809413299 0.199834521592976
0.401145409884919 -0.0419690163500484 0.212524783159938
0.403417994240385 -0.0477461023977922 0.219753450024011
0.404600274271993 -0.044069885262913 0.221417644608588
0.409185566258453 -0.0484715876243208 0.235370186315046
0.409399998052796 -0.0478494797134655 0.235732822305741
0.413596303099961 -0.0505187542860953 0.248176577507697
0.41760837402003 -0.0506683199619598 0.259208531033353
0.418561557338412 -0.0521986841671747 0.262367981450333
0.422503609713957 -0.0589753355911555 0.275595658429101
0.422703685061167 -0.0610240249104226 0.276881127783883
0.428342238073622 -0.0630630812539247 0.293466772097311
0.42868698946588 -0.0663803111319159 0.296164910052327
0.431043233817815 -0.0692686145943584 0.305613023732378
0.431259539845635 -0.0735154922121981 0.308290256290528
0.437149023359966 -0.0671992126337703 0.325753421116607
0.439939486581238 -0.0673069612126993 0.335109171965986
0.44222029890396 -0.0753783130439472 0.343993124804066
0.443188192253327 -0.0728652795475568 0.345685846161308
0.446795112421511 -0.0787053699581535 0.356385107240296
0.451833581481809 -0.0872270887691477 0.365957054248266
0.456668919350006 -0.0899989122152603 0.371592246368201
0.460241307376312 -0.0898818236055034 0.375030155612872
0.470426863192693 -0.0933440854350936 0.384061016532768
0.471517819027019 -0.0995343691560314 0.385938029300665
0.473544310458413 -0.111919586833062 0.38989302328908
0.480885215611552 -0.117871223045486 0.402552689870483
0.143973568186146 0.190256517184384 0.0229338927613334
0.15561299977611 0.182747898831223 0.0234312671948025
0.162145746111303 0.171644976585382 0.0213020479171112
0.167163151264358 0.169629758829475 0.0219435133369759
0.168891800149603 0.168546640455007 0.0220566594539449
0.178522665929923 0.160520358115552 0.0232705542828894
0.186494358468043 0.152915877883929 0.0241506741457212
0.194392241967355 0.149348678513581 0.0263646751595838
0.200206375897967 0.141168286006152 0.0261660837940818
0.205822359878794 0.133440583664958 0.0260315061965408
0.212040444185748 0.131025691105585 0.027904182486504
0.226335275232742 0.127800798328705 0.0333265974910091
0.226272235068857 0.116641703714157 0.0309858405379417
0.237117147696954 0.111358316363194 0.0353105845679905
0.238948557400032 0.106116387618268 0.0351407873333496
0.250061383221812 0.0946264602945314 0.0383149990903881
0.258600537440054 0.0961613086351462 0.0428987579256116
0.263611673459884 0.0870822715765122 0.0435234920860843
0.268371687066909 0.0787576662977225 0.0441788882556699
0.27238833653573 0.0798365844119532 0.0464088662708131
0.287735396586015 0.0711424029559257 0.0530891895007091
0.289419103275363 0.0606197281318727 0.0532491558922364
0.296632553060334 0.0621853572620242 0.0572270376458467
0.300428625654628 0.057698705926652 0.0589455576390042
0.30882913335621 0.0564386172647973 0.0652591381606536
0.312825720023213 0.0461142999780944 0.0677745598862848
0.322087754664859 0.0448900254727147 0.0764546230422212
0.32430499885587 0.0435023395098435 0.0783951041364899
0.326199259737451 0.0378594023376671 0.0794932235389036
0.331638424955322 0.0378912211494453 0.0863559848746103
0.337541644211486 0.0292264057094392 0.0931368653431634
0.340458753305314 0.024073521474313 0.0963243859319825
0.344378408773873 0.0196932980197243 0.101084180869287
0.348654891887321 0.0209221989727236 0.107403455453497
0.357092180357507 0.0138366281492017 0.11808840781194
0.360346098379622 0.00799085128366421 0.121625599988907
0.363968282555251 0.00468741058072936 0.126163692551076
0.369342513237061 -0.00143272367866541 0.133205513167088
0.37274715834855 0.0012438580156021 0.138017693606643
0.377675830542116 -0.00585357072030543 0.145899293343081
0.38173685239848 -0.00694197071417827 0.155279960843131
0.38487387911284 -0.0103131058670163 0.163813900047895
0.383575641320842 -0.0180930089754151 0.163160911972528
0.389468083086693 -0.0134870090188513 0.175758729387609
0.389674580336499 -0.025136886710107 0.179906085702776
0.394854326965168 -0.0255098246357684 0.192367569793835
0.394349944821492 -0.0291479199955187 0.192306993594177
0.401504211685836 -0.0253591231265454 0.208168419981929
0.402522807458615 -0.0299390676195091 0.212032945740322
0.407252350063964 -0.0259753190245934 0.222060830114672
0.407998799325169 -0.0388310085396927 0.2286500016116
0.411830771836351 -0.0334211787548078 0.237186466425108
0.413726265922032 -0.0374358659344479 0.2438192670676
0.415337952917362 -0.0398838765156878 0.249111124583921
0.416513597346883 -0.0410899577651973 0.252762468464918
0.420930668550085 -0.0499691360894821 0.268047326236208
0.423766495579434 -0.04633604597572 0.274498121613941
0.427574741554333 -0.0513395142862326 0.286720905550889
0.429142112993505 -0.0484716346918359 0.289976531011337
0.432383204807002 -0.0481198166980998 0.300626315864844
0.432915993330583 -0.0610945100503428 0.308363452625186
0.436591703071893 -0.0549943550428865 0.318281512150129
0.436808921892575 -0.0657623406720472 0.323926049642033
0.44203638851751 -0.0665708960859505 0.340423445525479
0.441540899399517 -0.0664004010342298 0.339047218830804
0.450697429215587 -0.0624727499362246 0.359368995955569
0.452316607907007 -0.0672250147532046 0.362975034758726
0.459241816569883 -0.0766704157150474 0.372383026938775
0.464974664977597 -0.0803533737517951 0.378051210560623
0.468909278755951 -0.0841390249173736 0.381535220161114
0.471317391001606 -0.0865697066498583 0.384059700720859
0.474094241218023 -0.0944104144588995 0.387811022586441
0.479910142215481 -0.0977439592958836 0.402552689870483
0.145241431295506 0.198150596356695 0.0266249804820673
0.156180226523772 0.186059386986304 0.0250386689921961
0.156779437569153 0.191882007534294 0.0277339103514535
0.172313149504358 0.184173457707016 0.0295404389256348
0.181573277468227 0.170506158555063 0.027830075261372
0.185780952676503 0.172233480081706 0.0302038498125674
0.187643946047331 0.160967096393007 0.0272942750588515
0.195777981849413 0.162249381663777 0.0312060093914721
0.202219073115622 0.150492542730562 0.030099047081769
0.213582439084198 0.140726846911081 0.0317592808439996
0.220388695682169 0.13868422587236 0.0340068406915744
0.229210171778474 0.127721590292948 0.0347464964125606
0.234103403525462 0.121288507463554 0.0358598795144296
0.239625112191424 0.129721234609317 0.0403635776008878
0.242419131026956 0.113895077068308 0.038484397608957
0.251982228345789 0.105050309406041 0.0414317585220502
0.262307537857725 0.100817636314872 0.045714345032893
0.269485320102011 0.0958576602422868 0.0482739277465623
0.274338010689008 0.0895914522711836 0.0494015896705308
0.282342534040211 0.0874105568214458 0.0529493126666205
0.288249070860538 0.0816365780395279 0.0547053350784435
0.291012804546144 0.0809728272297961 0.0559487321067341
0.29840231737174 0.0653338169772747 0.0583980970027332
0.310439827813143 0.0635225453484282 0.0676848553598925
0.312901615154317 0.0654796608610804 0.07027856386963
0.314931530335847 0.0568651910950704 0.0711329438982254
0.321874622341425 0.0559625691111666 0.0776416728618813
0.324534578087802 0.0521551771769773 0.0797005648458445
0.330878123325058 0.0427396495987276 0.0861822881690286
0.332836416088584 0.0498399566281234 0.0903014773648544
0.338374807939216 0.030341657414867 0.0945321884586014
0.345881028599838 0.0290059272130012 0.104969273320839
0.351799925795372 0.0317399574124306 0.113909175458926
0.351630912589017 0.0323489210138914 0.11378268146201
0.356803605860549 0.0213838178197348 0.119092242413835
0.361163323314781 0.018261701431694 0.124714434563909
0.365201299098303 0.0216708741526681 0.131102808138209
0.373860593147332 0.0182985626224798 0.142799901014499
0.373702271869989 0.0135868563979274 0.14169127751447
0.378791425881629 0.0105727705171863 0.149399551478269
0.380193187691128 -0.00212240872488834 0.150088899036949
0.387076838017074 0.00426769805379764 0.16716724662036
0.387817851274346 -0.000160173278652618 0.167644480002992
0.390893743943628 -0.00213025235164292 0.175593132529682
0.395387314838567 -0.00902173558455241 0.188464547115298
0.397160881855523 -0.0126636773917444 0.193834030236751
0.401575165941357 -0.0117004293638833 0.204052011801041
0.406524699086479 -0.0124869222096219 0.216094602326976
0.405409704262241 -0.0213062951464545 0.216204463137693
0.409127674672321 -0.0178140898064535 0.224167856386852
0.411175801748089 -0.024822614757241 0.232296787855063
0.412898826710423 -0.0260750190541745 0.237462595150799
0.418050438976834 -0.0245451464869668 0.251007638118121
0.418968935685642 -0.0311493508111267 0.255899954959767
0.421884428581856 -0.0350320289996844 0.26527618459264
0.424046193824995 -0.0322236853055829 0.270179673805706
0.426245293192656 -0.0403700278920151 0.279131587389687
0.429717716996537 -0.0420871868670121 0.289251628341439
0.433387709798337 -0.034368706439138 0.297843968140123
0.437014447191379 -0.0429817568099126 0.314280795053325
0.439215659637378 -0.0460716056645828 0.323285252708612
0.439232653577735 -0.047364305768298 0.323931520126562
0.440980870825637 -0.047682354375326 0.330112037575291
0.446818194470509 -0.0482986176947513 0.34673738252248
0.445963841467647 -0.0484663289824567 0.344525915099089
0.455077414998777 -0.0535641816175716 0.364309580802746
0.458308849659053 -0.0543045191982903 0.368635326540915
0.458233899150098 -0.0568998727631986 0.368893132323511
0.466649664412662 -0.064294435604531 0.377706032318392
0.473508991896584 -0.0779038430721557 0.385094481542684
0.476833609329366 -0.0684160559482343 0.387138526133843
0.479478072606985 -0.0817885174150994 0.392962361379806
0.483258931900726 -0.0779408087193782 0.402552689870483
0.14659450725407 0.215370979578181 0.0344581873871409
0.16095812273319 0.199044732333591 0.0321824159789055
0.161487318717347 0.203299898536329 0.0341821492151809
0.172195229611696 0.193762226718172 0.033615334939526
0.177155310959477 0.188565334307555 0.0330186246953001
0.191525098739708 0.176653250994568 0.0341231294982978
0.196876877467444 0.170381676685198 0.0343545526446424
0.202712814687673 0.167384080953448 0.0358714602249757
0.212859691131708 0.15840790668961 0.0372697088290166
0.218226428876814 0.156151057756631 0.0388291726657044
0.222344811969584 0.153114465077877 0.0395963882142374
0.231353936564941 0.138126928705543 0.0385276218613627
0.233391014186501 0.135569880185557 0.0385597915846786
0.244968368725156 0.136770970213598 0.0444919253305383
0.250952767558926 0.135189820898532 0.0471545112239214
0.260600977644974 0.118128780094475 0.0484441192427513
0.262476685084199 0.11117478547712 0.0479421582397407
0.268737979176707 0.109422799912012 0.0507077273837447
0.27693262716662 0.106158942578223 0.0541263280574271
0.291862792070005 0.0942977972728197 0.0591308518578575
0.287363015123496 0.0965404243710503 0.0573468650495142
0.296464227088526 0.0854314160205727 0.0595949075283981
0.303100260670904 0.0847763689707722 0.0642171683829203
0.306774201835568 0.0755022189172678 0.065692947187164
0.315424550754326 0.0756602642886612 0.0739631783476726
0.320644057965505 0.0732491545298164 0.078638601459012
0.325136627839407 0.0722847951976715 0.0835456638179691
0.328928767948539 0.0614708051270812 0.0869178991263261
0.332400110223357 0.0585608991914998 0.0913149883974814
0.336216901331338 0.0493054592975584 0.0950144704139616
0.341844149011314 0.0459927031417703 0.102405655292295
0.349910407876647 0.0433005777586244 0.113385876109101
0.347335408281118 0.0445280920253042 0.109949650349893
0.356171355057552 0.0463310904264179 0.122868369238807
0.358171802879835 0.0318652254828185 0.123005027769747
0.362539554428831 0.0252372269528723 0.127981485808909
0.369145140093415 0.0238390396930564 0.13712452601029
0.374982124674226 0.0196133098387864 0.144643201564113
0.375829046227753 0.0174043487131631 0.145434993782317
0.379739890850356 0.0223769935447266 0.155363606498466
0.382034079660707 0.0194906470686863 0.159925550849903
0.388844663521269 0.0156052538717971 0.174937597507216
0.390565124186126 0.00914581188814429 0.177011138921555
0.394232390957928 0.0125567510292189 0.186821245251734
0.396842407028468 0.00400796514135669 0.190359246494334
0.399036191766824 -0.00282476706217841 0.195216280271874
0.403304572594862 -0.00248846722519433 0.205283251615658
0.408071178583225 -0.00670542253361812 0.217966217451851
0.409156852849122 -0.0118081197017325 0.222154623166234
0.410521198936297 -0.0142532073622681 0.226698146212285
0.416038957859718 -0.0106867308080891 0.240511404784471
0.418857824820573 -0.0103989053429162 0.248120876541464
0.417210902370724 -0.0208681638693543 0.24738586634622
0.423859158595092 -0.0113762901373321 0.262157921744041
0.426922479592541 -0.0190768751135179 0.273313993802379
0.426820043876411 -0.023028967046904 0.274457387286366
0.429209121734875 -0.0258827120129768 0.28202254937102
0.434552120112708 -0.0272988914189114 0.298650680609217
0.435520792405627 -0.0232420729856525 0.300151131987757
0.436807909104784 -0.031339416916037 0.308275698643904
0.440098731353578 -0.0311517421260522 0.319552386790241
0.44371359543513 -0.0282037883963078 0.330693193933629
0.444800355204882 -0.0366214818364997 0.337290813600097
0.445861315193969 -0.0375267322098989 0.340426607421197
0.44887592899493 -0.041669744057425 0.349886165223171
0.456168323636206 -0.0460443750995143 0.36444951853129
0.459751733053289 -0.0394761776206679 0.368143069865325
0.467431903785444 -0.0479993085761128 0.376650690943234
0.469484393400905 -0.0603535095288341 0.379526153461887
0.480211138321875 -0.0634572171653162 0.39031641997907
0.482005344410055 -0.0643589027182452 0.399019213873143
0.483441121263399 -0.06909957582921 0.402511087092128
0.487208983957144 -0.0755849352522218 0.402422552128073
0.150256571914607 0.220521000909194 0.0378731470769073
0.161098898568128 0.218802674564069 0.0407051890003705
0.163639855820878 0.219200777749311 0.0417124483757946
0.177117685663738 0.199905861040967 0.0378714814902407
0.18576873995388 0.189464929692713 0.036240051756491
0.192325060112669 0.186563251370105 0.0377286355672255
0.19844421603944 0.184384825855307 0.0396367137201962
0.207302222642437 0.17632803116232 0.0407846734744304
0.214947329373552 0.169007637100685 0.0416547009973883
0.219645469595059 0.16899562892893 0.0436663151127082
0.232885173836119 0.155274448696667 0.0448294026425783
0.239161999855722 0.156006059998097 0.0477630897863621
0.242964671813341 0.150907297025299 0.0477160070300236
0.250789830348408 0.145888191023887 0.0494208492362289
0.257834716307882 0.130849060819141 0.0496944368701508
0.261430544326108 0.134081781860686 0.0521598815005706
0.270041545737464 0.118553304898778 0.05324845163832
0.273463870303795 0.122118892673576 0.0556960978509111
0.280574691705103 0.116357308117165 0.0580563423118245
0.286899593204521 0.111614578451025 0.0602347851608308
0.295430476862715 0.101912918348484 0.0637091562784675
0.303999999353392 0.0932919207490543 0.0681517316368616
0.30522062487648 0.0904726638122582 0.0681987038653743
0.311654296842555 0.0883922653828938 0.0731508570796749
0.315987857778225 0.0846686913088643 0.0756315861039262
0.323607053688094 0.0772994998614592 0.0823078340103653
0.3291489422021 0.0748327046619812 0.0897360575815605
0.333114137757354 0.0762074918731925 0.0956394626220165
0.338285612326037 0.070087661948239 0.10185552871065
0.34036113968581 0.0603557838832139 0.102986466426022
0.345523929901381 0.0637721043409874 0.110977706929957
0.352814854813504 0.0639548235366176 0.121392882002487
0.352861979918173 0.0563589960848056 0.120036151164861
0.354793162776002 0.0530191678075374 0.122159750730586
0.363734459436937 0.0469296930271572 0.133749034200832
0.366253763832981 0.0423387550897143 0.136475490816221
0.372043839316732 0.042334077384079 0.144718607401951
0.374017661201624 0.0372422107800927 0.146574499665076
0.377344409200731 0.0406815653522916 0.155397831782716
0.38186386952451 0.032490989603657 0.163598848337813
0.384809721625154 0.0275358174866555 0.169064741173829
0.388455948411828 0.0237498397591729 0.176566623163199
0.390231891229504 0.019789395572365 0.179556468211257
0.395362356243144 0.01706203656273 0.19092776423038
0.397360757487276 0.0175075801044631 0.19583018501
0.400002526324725 0.0129220050750071 0.200687344326278
0.40644089955344 0.0144445000228574 0.216509092966048
0.407532271314904 0.0137005700519727 0.218876658174046
0.411148204955946 0.00675245712229049 0.225711760977478
0.414558090516894 0.0103545669653606 0.236339707438104
0.418688035951254 7.37423119133135e-005 0.243936798083097
0.418307105312705 -0.00305418687398259 0.243968134655825
0.425679632513689 -0.00274749230509955 0.264030813657768
0.425346029359163 -0.0120696043178364 0.266476145244505
0.427480300626529 -0.0153979256680908 0.273515049227851
0.433503303414073 -0.0085338716311608 0.28752288212104
0.435150828175446 -0.00870524388482219 0.292266102535459
0.437834693655827 -0.0126505015706975 0.303325807022418
0.437252488700106 -0.0175044197339408 0.303522004489017
0.441039880798748 -0.021496682496937 0.318413145343138
0.444689216281909 -0.0147778333556382 0.327958918407222
0.446059694662797 -0.0187123084256217 0.334372082950588
0.450027366591211 -0.0263057783356701 0.347571086665053
0.450595075723751 -0.0256194773386993 0.348839488387216
0.455431066899658 -0.0282265833224043 0.359749399015676
0.461984986672486 -0.0377324937812841 0.370079692841753
0.465168149093302 -0.0346889911948297 0.372769031718325
0.469205818834036 -0.0400862989054194 0.377210186438902
0.474130014202267 -0.0410008347240523 0.38117486165354
0.480836531223959 -0.0481065143389907 0.388447485812816
0.482801441189662 -0.0513400079070289 0.391786220355511
0.159525952776562 0.226587924552719 0.0435273647741543
0.162832549199238 0.229358894766724 0.0458046606594575
0.166271511814221 0.22073672779218 0.0432377172612517
0.17911825849237 0.216989357744749 0.0458591141996205
0.184723421644788 0.201551204299315 0.0410811183197449
0.189902304574046 0.206792378654002 0.0450345112240583
0.196716589094745 0.196716589093757 0.0429550789814842
0.205306437770824 0.182999007287631 0.0421244987446041
0.212724275346413 0.188077615794357 0.0469787005475161
0.219545670921245 0.174491387634575 0.0454326702896614
0.226538851728887 0.168686035107247 0.0465217549916577
0.232302155001584 0.161176071981674 0.0465220578272644
0.248442084622024 0.161498411052884 0.0535524229086416
0.252344016341147 0.153587078106912 0.0526220431116749
0.25742762384843 0.144226944774773 0.0522594729992624
0.271865949451887 0.134284346836798 0.057415299327995
0.271836183969537 0.135133142519924 0.0575760782964621
0.278537614999171 0.124106346592402 0.058642210003864
0.285143002396261 0.11924076313368 0.0609450530191437
0.291729558493714 0.125451558870533 0.0690853957885512
0.298609619708596 0.109131624457844 0.0691921570653548
0.300148618490547 0.114214388892927 0.0724311303023582
0.307311967700263 0.108581452851691 0.0767239684471659
0.313194946629168 0.10204479571579 0.0795461621103507
0.320645356484168 0.101369697021885 0.0881987554404582
0.323881617896599 0.0912372627918893 0.0869240739991958
0.331580296387329 0.0858676553480793 0.0952663424627923
0.335254185857482 0.085827484484962 0.100489749575367
0.340776114479567 0.0777740184778933 0.106842339588997
0.340899749988727 0.0769463870728054 0.106863235159671
0.343927456677568 0.0805706653229665 0.111853494209801
0.351772496259273 0.0656153285750354 0.120220016349732
0.358848441796753 0.0649343301317239 0.130167197893411
0.359734192012395 0.0680294641614446 0.132008520849262
0.366505905751251 0.0627403427923716 0.140658745935655
0.371797516284177 0.0541548237529051 0.146583673047177
0.373049200211863 0.0526653153449744 0.148921389469434
0.376751814518025 0.0471295959904927 0.156008661991614
0.38017103260103 0.0490869516092819 0.164771542210733
0.383236867476065 0.0434425702061624 0.170307136229592
0.385277364201918 0.0420666364808664 0.174738378938135
0.389772741903401 0.0369095245708759 0.183833771159647
0.393848924441861 0.039306153135573 0.194300166631832
0.39376957804357 0.0387499160881769 0.193936543618386
0.399638230411948 0.033150669469806 0.206166027810175
0.400140315262726 0.0291555947465004 0.206109124362446
0.407028950694404 0.0170210509413629 0.218718958124324
0.411833490659165 0.0179352031627548 0.23161530547129
0.411344292592668 0.0272990936489843 0.233649938807451
0.417848994768152 0.0155339236645089 0.247210270472534
0.418520177326836 0.0237389787804295 0.252002554674124
0.421153260260312 0.00865646131787975 0.25377409740123
0.426929583447808 0.0163669217529597 0.272357210018152
0.428723631536982 0.00571635821310388 0.273429481887756
0.431752607598508 -0.00197048472105437 0.280368154905839
0.433079021937267 0.000426257031313395 0.283441285357477
0.437816079822693 0.00292415589252368 0.298840454132995
0.439762418839826 0.00339840632723984 0.30577601411612
0.441202962764085 -0.00828839937106141 0.312972415027778
0.444318766191293 -0.0100028250151835 0.324509422759412
0.446125466626829 -0.0154355336871646 0.333216717068243
0.450941105295908 -0.0126836954513341 0.345233752786002
0.451500526078594 -0.0163814718589456 0.348013765632498
0.455119939889616 -0.00818256155166242 0.354762920804595
0.458216660275965 -0.0176929317449838 0.36211387687401
0.466177251553886 -0.0167806200378199 0.371465593845219
0.472382180981217 -0.028224789076807 0.378479270706941
0.476397140795842 -0.0330515223714529 0.382134146019155
0.482931870119198 -0.0377942649259431 0.389293897851203
0.486041641413067 -0.036021050292938 0.400872078699293
0.490015238981651 -0.0406751471414035 0.402552689870483
0.157276526228565 0.241153692710276 0.0490357832876351
0.171815435810244 0.239244644375568 0.0530028953546289
0.171546177917205 0.232803727706373 0.0501510149699301
0.186763517729276 0.221554364504512 0.0503343378656368
0.189519952272167 0.221422164510219 0.0511850236501519
0.192931018406026 0.215833736694895 0.0499104129578683
0.2011777423851 0.212732378546992 0.0512946585680955
0.212270525368264 0.194056465160816 0.0487522362136124
0.223887008182289 0.192684531696287 0.0532842358868353
0.222742123533487 0.190004231453227 0.0519107260742152
0.23819099779072 0.178179927485707 0.0546460181716296
0.238816325344988 0.171870151796919 0.0528371527352331
0.250072941482451 0.17156685338088 0.057566552756005
0.251979168878602 0.160437956721298 0.0547207858870722
0.261140060535624 0.15814733748776 0.0578968772499485
0.270324926743168 0.152847898374829 0.0604869487837492
0.280539016569922 0.145854477664022 0.066650731333486
0.27710933896003 0.141505488071117 0.0620015181319552
0.288931526622119 0.129318328200101 0.0680221085280218
0.292830302474504 0.131987560091702 0.0724698560949303
0.30134072573939 0.125768301235577 0.0777440795991287
0.303138648487703 0.123173880163015 0.078386904804346
0.308732644089719 0.116295115883351 0.0808263169562018
0.318066577096455 0.106568085400049 0.0876341605740359
0.317446995265394 0.112642923043262 0.0901506693406477
0.323125942632697 0.0993728284998028 0.0903925343933128
0.332402920056528 0.102613626386759 0.104482130006403
0.330362524999631 0.102156452628885 0.101523716867746
0.338790193988821 0.091834889113732 0.107032971241515
0.343966182328083 0.095944710059374 0.11615903123221
0.346820549815255 0.0907633609788184 0.117883330065916
0.353012301674864 0.0806833601712339 0.124809752731751
0.358270723914961 0.0752698090130083 0.131282007236644
0.3613775155153 0.0803812343835743 0.136663632376338
0.368192516847925 0.0704515182571879 0.144505617350786
0.371118935668721 0.0646860857650649 0.148092743883348
0.375536346604868 0.0652936185286274 0.15881102053637
0.377543896000885 0.061919059034516 0.162536660151779
0.381531858673963 0.0597115901106925 0.17134824154617
0.382661020258143 0.0528847898950989 0.1718973264268
0.387307994721734 0.0549819029067034 0.183630069213689
0.392784583513362 0.0475027828791581 0.194335356888645
0.39442041016359 0.04779153844277 0.198324489596844
0.397648180019701 0.0394030365893339 0.203385023804395
0.401048867129965 0.0464407395291293 0.213697734052934
0.404609362296623 0.0359752440383643 0.21889955482248
0.408072774076948 0.0346525022347557 0.227347168964245
0.411085746074397 0.0395048544016007 0.237339438023723
0.413152059080464 0.0293268160449023 0.239326918278378
0.416887678468493 0.0326631518859585 0.250750416355874
0.418228783345634 0.0293755666257576 0.253235724425172
0.423200515901609 0.0163641154173775 0.262152495634807
0.424246952602014 0.0257954117836548 0.268413309049577
0.429051587669371 0.0199648108314341 0.279459656061723
0.43378602968579 0.0202285147578712 0.292791830880529
0.434471188098847 0.0159124967405918 0.293195594894051
0.439372390178373 0.0147371856986102 0.309583402936251
0.442497741986451 0.0145174074780698 0.320274190157807
0.442146088087813 0.00447751656900189 0.314496451575128
0.446617330677877 0.0105266862101502 0.332683637802334
0.449461119371014 0.00332129243953611 0.338026073797846
0.45389788616092 0.003007536408641 0.349705429088886
0.454396192828628 -0.000394219194179503 0.350115311438266
0.458611959265632 -0.00546974544836048 0.360061940556947
0.461187381932765 -0.00409788950481188 0.363751543054864
0.467922258891206 -0.010489248828384 0.37235164034572
0.47778341484168 -0.0110963889907991 0.380951977730325
0.475714996552628 -0.0213017796862523 0.380382297420366
0.484574198845963 -0.0336554933517058 0.390965747642717
0.486170124088906 -0.0341912705352458 0.400190401805839
0.488344873156846 -0.0260576739885499 0.402069864437957
0.158864344323649 0.253532000889054 0.054868948708784
0.17022300303178 0.249845743074839 0.0570266941724967
0.181553875802409 0.240938161802021 0.0569352726987251
0.183371729437618 0.239212396652831 0.0567933218918489
0.192767598700607 0.221943082974661 0.0524776102378898
0.19980323638868 0.225566226044134 0.0563480776651871
0.208006598855978 0.217974462680227 0.0557916029889931
0.21564960440722 0.207775488565503 0.0547181265405084
0.225322469396 0.200706420072175 0.0565408252422278
0.23285864832463 0.200073973750236 0.0595657527657315
0.231829534383893 0.196214594569924 0.0578537646057398
0.248490797150052 0.18983507334977 0.0644428861663319
0.248726311768711 0.17957404166097 0.059624747444421
0.261244315838915 0.173136457528885 0.0643972621129532
0.263676907034021 0.170414919687383 0.0646600181803794
0.272706616894261 0.160400490530469 0.0656868040036752
0.278174874509051 0.158564546990163 0.0692286335690536
0.284030276140614 0.153947195757477 0.0727328886872078
0.288356917186337 0.150603383356479 0.0753472726040625
0.29567140787018 0.14402555367712 0.0794265880197576
0.302960327000867 0.133990853453258 0.0826622135363872
0.303490818589911 0.132326859972933 0.0824515772022055
0.309852074233857 0.124177304393079 0.0864128221242811
0.318035768183334 0.123526033521619 0.0969128952788152
0.322905439215789 0.123407166064231 0.103308570154197
0.324812034034191 0.125301328694589 0.106879187971554
0.330264430041792 0.118483512692227 0.110366459194323
0.335428162828752 0.108177005538829 0.111553450141847
0.343150465904511 0.102769075940839 0.118827231425684
0.348587717123449 0.0984434260185205 0.123664033191197
0.353504388801232 0.0950710951316015 0.128334055743751
0.358055477917708 0.090733431907344 0.133874173410656
0.358452073122118 0.0854938558500227 0.133456699510041
0.366886249621776 0.0910543866948166 0.146507716756359
0.369163895449274 0.0840047424060355 0.149494813686698
0.371092827589608 0.0801485385146059 0.152881971944901
0.373989679609617 0.0805177408622176 0.159901645413536
0.380674100663248 0.0757230727146564 0.174327727252658
0.38418930223366 0.0667026063674256 0.179874991134964
0.385498321951659 0.0728850217629774 0.184934446959169
0.391519713586317 0.0703528048389413 0.198490243674878
0.394022116469608 0.068545074215636 0.203886830863362
0.395719329217806 0.0623679150127052 0.205993535528839
0.399635427016999 0.0641912466963934 0.215898538174293
0.401865002922487 0.056359072941774 0.218754708975005
0.405145345540467 0.0501872698312492 0.224933136354176
0.409209709375173 0.0509497746763722 0.236328979496963
0.412702763004139 0.0468081699268503 0.244394933528636
0.415842975104172 0.0476353965642229 0.253285371084036
0.417927126340168 0.0511674089810812 0.260260510344271
0.42352184040706 0.0363118439964715 0.270217606280542
0.42569583792053 0.0384907435186817 0.276951148945613
0.429044287827824 0.036548114791038 0.285413578940561
0.432202591761411 0.0334085338760262 0.293315748698207
0.43406184436861 0.0240153899684062 0.295465431923864
0.436753109871759 0.0273466568022952 0.30627159794778
0.437677728914378 0.0255513922808025 0.308647933399198
0.440119629697577 0.0322637158209423 0.320129985935313
0.443640941510919 0.0197189058481668 0.326585564516778
0.444118090535062 0.0204807173308065 0.328579263589936
0.451134636605193 0.0229636865663694 0.349344130918222
0.452874188364441 0.0110332476102806 0.349792867955046
0.456983681555699 0.00632433100535646 0.357499763817138
0.461470003903851 0.00334570033063145 0.364006150744383
0.466048844790659 -0.00227298588253929 0.369495451968666
0.478215938551984 -0.00608854614182843 0.380773752450597
0.478712642954667 -0.00270196497251447 0.380813718736752
0.487274648992322 -0.00543323046616824 0.389432772611661
0.488344086969514 -0.0144444523587441 0.395772629343494
0.488163306067627 -0.0181411887665769 0.399463614441717
0.169354578160677 0.257646648938204 0.0600875105156422
0.168038365429936 0.257456752704353 0.0595727532157308
0.176479493907818 0.256253428987568 0.0625459778563556
0.186105035402346 0.253440300439767 0.0660359488747305
0.191371164766223 0.242395561429297 0.0607923088410976
0.197846018050537 0.239990773042652 0.0626470673475131
0.203991065572503 0.228645851879722 0.0590478875218474
0.218189705341464 0.218189705340367 0.0592361615060489
0.224588402518376 0.222419993908901 0.0652830894354563
0.228311721378287 0.208122465419952 0.0602645725035436
0.241399588293661 0.204536420567434 0.0676403394732274
0.246842134793559 0.192969972281866 0.0650204994747154
0.249210884914146 0.193221817239901 0.0669758177028123
0.255338189963895 0.189726639620901 0.0696053194479527
0.264970081802382 0.177519270182008 0.0698074514762396
0.266601228531776 0.181037310187851 0.0731125940353447
0.273743483755212 0.177379290230288 0.0764213419671929
0.286002160878291 0.165665701588313 0.0789174083776636
0.292683083580132 0.162640305834553 0.0847714659873519
0.295266779910645 0.1590660728399 0.0862351747060543
0.303001506631911 0.152770294026118 0.0930375025176356
0.307105113309687 0.155578611632376 0.100025474152786
0.312969199877138 0.148656904175016 0.104001873956555
0.315144447496036 0.143094542182081 0.103831039707302
0.318975025326541 0.136114670563472 0.105077447486001
0.325818150575366 0.135636651608366 0.113894090063536
0.332601562645922 0.120033133577271 0.114318957155291
0.332697943174174 0.125501121589247 0.117451885753585
0.338480137422374 0.119176654723802 0.121647858783724
0.350867693088931 0.117748099553112 0.137298374355195
0.353444237209409 0.106903473635708 0.134756990110924
0.358115814658559 0.106809503845523 0.140903520668599
0.359635810017691 0.111163264121518 0.14531293025913
0.365448853648351 0.101218177891359 0.148039970263898
0.371160452735613 0.102542911026446 0.16194293530668
0.373802500400242 0.0974554838321011 0.164769887948747
0.379915579262676 0.0943629780705421 0.178368401018106
0.380369359206735 0.0818113809066352 0.175511709479023
0.383588803723655 0.0882483399782753 0.185203991415785
0.388797484204397 0.0789433342069231 0.194697910799311
0.388226813567192 0.0853449144439821 0.19534641668908
0.392983692362388 0.0793495438642216 0.204802014033334
0.397035944889606 0.075735935091064 0.213325626343585
0.400575024350801 0.0732166071741058 0.220969572717959
0.404626391229225 0.0749914769199017 0.23244850119604
0.406933978249063 0.0683142352252293 0.236357281946202
0.409931141154607 0.0677443780852358 0.244353020146047
0.41240007742136 0.0629453520680864 0.249379894837209
0.416222091333376 0.0590952716632932 0.25845098764044
0.42026134403432 0.0562099766872544 0.26846405264664
0.422144872073902 0.0568746819575778 0.273857328174721
0.42331513022855 0.0439718984995134 0.272411417859942
0.427056209310231 0.0544779017014615 0.286432624812992
0.431080895372691 0.0528626653279191 0.29828577183084
0.433341357745623 0.0445891582823421 0.302329612518586
0.436422212789856 0.045303571631529 0.313291403279362
0.438861696550537 0.0427023616287419 0.320531667264778
0.444009773620524 0.0356928228407838 0.334865264430631
0.445935581384498 0.0350377483789227 0.339753248807679
0.449067538975248 0.0372211042891678 0.348839080292251
0.449905114579267 0.0354246417457817 0.350436199352399
0.453458387216941 0.0259057087427254 0.355898401348641
0.462258381648652 0.0227501515691248 0.368437498523246
0.461660069934009 0.0257448760991769 0.368240279966145
0.469350208660278 0.021842232939257 0.375176409690252
0.474731240116299 0.0115658853198956 0.378601775102479
0.4833475858765 0.00521519662048949 0.385359354155551
0.489222849739408 0.00357789995370529 0.391983280134878
0.489599409844266 0.00853695810519831 0.400504711456953
-0.0961896039640959 0.481676404457341 0.402552689870483
-0.0646657265100767 0.456526256442259 0.368230821220185
0.178694327745428 0.266360901375894 0.0715570683517038
0.189612020666035 0.251643522936079 0.0667184234636386
0.192008968155937 0.262003177792506 0.0760286299956747
0.201065056208212 0.249884789562534 0.0720833348004458
0.215762145314294 0.237917688583346 0.0715570103588877
0.218583559573884 0.23306091631997 0.0695026077701349
0.226531065338906 0.222139986178799 0.0666017516083238
0.237508528637727 0.214986985363837 0.0707907865863304
0.237376744548231 0.212878092055063 0.069455189366507
0.247998234361738 0.211580584069409 0.0768016650000044
0.248592992420693 0.212469723717853 0.0777762866749771
0.262583181944318 0.192665317275115 0.0768556636498483
0.267401545051267 0.196473047180692 0.0834868180770972
0.268700116061904 0.191848132811587 0.0810455486014353
0.275540085908671 0.184043859685026 0.0818932184314619
0.289701393683462 0.17355518138608 0.088858044716571
0.289893742968376 0.179297528682627 0.0940973997358726
0.298323349337344 0.163303239254822 0.0926192093113607
0.304709032721733 0.167485833407395 0.103390267311125
0.305295426264448 0.168065341072625 0.104486765936845
0.313682087553585 0.156500642764971 0.10925842002646
0.31815183899804 0.151324564962844 0.112344187424241
0.321608096451892 0.149558263528236 0.115959184537722
0.325535569994202 0.140817245319633 0.116366275339073
0.332117111603633 0.143702265787021 0.126684084864041
0.338196682400663 0.134546912179178 0.12971883655269
0.346858789721877 0.128270326180321 0.137762145837945
0.352568956775158 0.122750220103831 0.14230460841913
0.357039170315606 0.121554315784933 0.148070663567079
0.360191934494776 0.112290346850917 0.146670200235018
0.36254683893303 0.115448376402461 0.154685349522564
0.367320763470385 0.111402979717696 0.161566000755035
0.367074566623129 0.113218941984338 0.162689727593445
0.373529844747471 0.108875576739365 0.17303024262466
0.378477350914706 0.105646341873233 0.181047162862037
0.38226169636497 0.0938896833174384 0.183811213210174
0.385114704969546 0.0939322250806516 0.190623906231503
0.387855484777193 0.092274061002955 0.196635525431222
0.394254807274047 0.0935570746399542 0.212289068727711
0.393407023975974 0.0910559747817111 0.20948387815351
0.398374930735439 0.0862353967271711 0.219811000537805
0.401723634738562 0.0860073159854544 0.228474098629837
0.405236245272644 0.0741105513163363 0.233799880450615
0.407706456032977 0.0774830377209498 0.241773912515064
0.411341629787736 0.0793401375369797 0.252389691547733
0.414431114633171 0.0731045434822259 0.258597046327978
0.414169708495478 0.0743759084931893 0.258339761805053
0.418738096790892 0.0736648737000363 0.270583926106911
0.42415959890028 0.060322650511315 0.280612228510358
0.424553543963296 0.0677867531153362 0.28437900096055
0.429954171409624 0.0680934007261223 0.301318702451969
0.431431093874428 0.0598229475319389 0.302658657002096
0.432983603307465 0.0563922424471524 0.306459480912785
0.435807476010742 0.0637049662931626 0.319533252043978
0.439729644489892 0.0598933514138977 0.331342492885656
0.442927620810953 0.0471258607064699 0.335989328384107
0.443529060443416 0.0499367008335714 0.338570723885277
0.448263450131621 0.0420201909880233 0.348381315832274
0.449536271437304 0.047472194345113 0.353670596434991
0.455669386907855 0.0490683020756952 0.364309689164904
0.465841514930209 0.0360825173532123 0.373597177890296
0.468395002183601 0.0312714896404192 0.375453009050585
0.476180833082646 0.0214160693262108 0.380760235512136
0.478151606755581 0.0171728120066411 0.38187007050984
0.485520817523583 0.0150387265132733 0.388773297173575
0.49374265007693 0.0133387925517009 0.402552689870483
0.495249011006838 0.00941669280555488 0.402572964889848
-0.0348830695370535 0.452828982258837 0.330139293956139
-0.0851009830174135 0.485794277267282 0.402458832773248
-0.0804409028931158 0.486125124079824 0.40252217772541
0.184870513152441 0.275036103702705 0.0820417094741435
0.193870538025024 0.260595024967527 0.076044107686462
0.202799974757976 0.251700822777372 0.0744853432989673
0.213658577026071 0.249809860489935 0.0794012227731367
0.220853219065451 0.235331672396169 0.0725648184352293
0.225051782218801 0.244713806859132 0.0826226283551085
0.235949288209795 0.229932949382187 0.0783534954410387
0.241041585486818 0.227838769575326 0.0810135371633154
0.247654722558783 0.221476272446699 0.0828474539947729
0.251042520442192 0.21886145908951 0.0844213099639393
0.25790004885704 0.207452484286327 0.0822601212169736
0.267064787793109 0.214047544293372 0.0984675130052498
0.275736837177037 0.200377174639342 0.0963966640451336
0.280058601290329 0.191466013227815 0.0935300847886277
0.285447167136509 0.198592380622145 0.105899641373204
0.289973890901762 0.188106446519368 0.101889846458579
0.295713896463484 0.180061143905514 0.101396090205982
0.303382567406906 0.181444175454559 0.1113423817435
0.30599347000117 0.169385480238163 0.106138430489517
0.313499123464822 0.1610258251178 0.111502579205399
0.317905400248671 0.167178905802239 0.120730316403809
0.320814549505185 0.16361214937013 0.122629939731058
0.327966589536892 0.160926232774367 0.130643047003683
0.333461241571034 0.15304293967849 0.133600826589663
0.337060159643086 0.150724763188144 0.137101808500117
0.346636314881974 0.142874827519167 0.145493193099311
0.348821907828786 0.146670274252691 0.15292558755065
0.356304416065504 0.132311484526806 0.156334310219786
0.354298257809261 0.137239101040829 0.156411877083176
0.359825890393867 0.130002913220596 0.162031196811467
0.366506704294655 0.12868779268958 0.175658230203456
0.370484323141595 0.122875217136205 0.179144833077111
0.373523520262865 0.121688167944375 0.184802350233218
0.379538147715536 0.112695469404553 0.189887397806303
0.380074986034953 0.116738002470091 0.19479829100667
0.383926706990315 0.110396027783221 0.197518310895288
0.391388159481134 0.104484180545162 0.208885671827182
0.392831976978736 0.110808995402484 0.217675079765675
0.397155580095848 0.0972991104571389 0.220376335685992
0.399346754431744 0.09876679304899 0.226566751300575
0.400995379781242 0.0998607559004761 0.231471905554511
0.406490673329135 0.101011598205412 0.246923039376837
0.407292137890224 0.094949250331232 0.246932182107738
0.410157368868082 0.0907948262142627 0.253275631284216
0.414891544752495 0.0905205058121697 0.266130753849234
0.419460662654225 0.0864797582406416 0.277177433323298
0.421465147384202 0.0749763841415164 0.278518302082615
0.424875110740886 0.0743071763754837 0.287607780570359
0.425998961697736 0.0744281869885319 0.290726522855637
0.429485871430967 0.082555461854873 0.306275529227678
0.43100037760648 0.0824113267431355 0.311439044100835
0.433790885537746 0.0750198106664397 0.317713843366988
0.43845771088136 0.0692313109155106 0.331195521568624
0.44000112432602 0.0625977220474958 0.33350907754451
0.443908513457306 0.0648868117532155 0.344808819684479
0.443909002094896 0.0562628269669859 0.341793282634474
0.447325708211298 0.0665071170631689 0.354455600507759
0.453500098315153 0.053518776655809 0.36211387687401
0.455253547753616 0.0579997402315223 0.365363662681745
0.464031220135225 0.0469076093401577 0.373224925562076
0.472209603243301 0.0444251682311092 0.380019874742869
0.480719836509873 0.0379621149941241 0.387017283284773
0.482120273534767 0.0395520594881982 0.388602623379034
0.486885102659667 0.0255265384289884 0.393122278563835
0.489819120787302 0.0293942720037815 0.402552689870483
-0.0246086953472253 0.453918572556918 0.329231056124789
-0.0732787481668183 0.490208697786084 0.398870715036152
-0.070976983447642 0.489228732647278 0.402120644849874
-0.032518088352302 0.463471005244748 0.370852459005982
0.192198707761629 0.281604525122007 0.095931962946415
0.201236971334708 0.273683370720864 0.0948087484274473
0.20763436443765 0.260105794243289 0.0849322118638539
0.216239389514636 0.262020426267188 0.0946364990679134
0.219047757135791 0.262177925652486 0.0972711383077624
0.229478737042951 0.251076094269781 0.0937416386478504
0.234547599518595 0.247867969241335 0.0945179245977952
0.244051818034743 0.245392641538779 0.100006689567736
0.247100509786658 0.235254689155537 0.0942616989518292
0.257100917925315 0.232265967486398 0.103042647689329
0.265307982672637 0.221140795857181 0.102667145961632
0.268155886851335 0.222125777809021 0.106772976515751
0.276860665338191 0.214148165576801 0.109716268107937
0.281025376964457 0.208205989672659 0.109266367085032
0.289785103634577 0.201880953645787 0.113717015617418
0.299490079680111 0.19090262634779 0.115176514467175
0.299598199832016 0.196344485085307 0.120057204370321
0.310040983014504 0.177577973101898 0.116010969286794
0.313787058554012 0.17970086729976 0.122147884933676
0.316859068815883 0.180080290466642 0.126432298970906
0.323813969942272 0.175753167960502 0.133281884897443
0.331566271984562 0.169930015216807 0.140367273360975
0.331839431919356 0.160002569417874 0.135273852485264
0.339407674279942 0.154945662081002 0.14253614045862
0.342984881540021 0.15331336427484 0.146385256453168
0.348204416682645 0.15402963540134 0.158324049373438
0.353239785351532 0.145557944664967 0.161713621306807
0.356610351380049 0.14931629424039 0.172656259399348
0.357906617701063 0.145308824269042 0.171848591710762
0.360941771871694 0.148712121636532 0.181719736463706
0.368037407752594 0.140352499516829 0.189787854589787
0.367945733228941 0.137709447160396 0.187152950171696
0.373177586464635 0.133597233312919 0.194989108275963
