ply
format ascii 1.0
element vertex 832
property float x
property float y
property float z
end_header
-0.284681640200323 -0.334618710802595 0.289009897259749
-0.288057026535829 -0.340094168097296 0.307485080855958
-0.285541262992921 -0.342659098962717 0.310686118294621
-0.294523357047101 -0.338966888906722 0.326829559743696
-0.294728232521764 -0.341042879000391 0.338095670885111
-0.294259357121742 -0.341659347499538 0.339390618567323
-0.290329294994319 -0.347338223369747 0.352826193760682
-0.295264879262993 -0.345866953267916 0.364509716344528
-0.294529160993135 -0.348885308358678 0.376888829522263
-0.300915840438885 -0.345561283215165 0.387417366557989
-0.297042410864949 -0.348533470263282 0.398309582375828
-0.302151937110915 -0.348333995949069 0.407382177842815
-0.305919677486253 -0.353221877146384 0.412544001277514
0.0485392498386806 -0.00669094908089625 0.0196121187733073
0.0408968500960281 -0.0200760149840773 0.0192229720940048
0.0325300990204149 -0.0208672628646268 0.0184563782370122
0.0286092198888434 -0.0334271970134365 0.0190542609497801
0.0165922870443162 -0.0402805457051463 0.0190132828893641
0.0140734105077271 -0.0456485436580176 0.0194536394293806
0.00901749355739565 -0.0534846474061531 0.0201859795237886
-0.000647926622828271 -0.0533214491016503 0.0200477430404319
-0.0121201266144567 -0.0646702633970333 0.0214528834709407
-0.0133827592244969 -0.0716925720832076 0.022238386262684
-0.0276772291375431 -0.0794436802533712 0.0234685973925767
-0.0216686702910981 -0.0812126858109484 0.0233978641498415
-0.0316943437667577 -0.0852954052149192 0.0242338795369734
-0.0325143449278367 -0.0957136768320548 0.025329304355929
-0.0481978282850737 -0.107334254229998 0.0271740546827907
-0.0540300979095584 -0.112192671177907 0.0291891867873935
-0.061873646481403 -0.117684443745271 0.0319894202865828
-0.0643822692965565 -0.125774793852969 0.0349142061327518
-0.0651828948531509 -0.125028624538262 0.0347814009726618
-0.0683605592797223 -0.135262237362769 0.0384816020476023
-0.0791571861804408 -0.142883214727133 0.0423558405393088
-0.0926900421053618 -0.150779934613864 0.0471234504945176
-0.0952228363603901 -0.158902782105545 0.0498927607287328
-0.0979376488961453 -0.158648698642454 0.0503959481137832
-0.109884025508325 -0.16564844009682 0.0548434588254269
-0.111782799753041 -0.165259297205704 0.0551372277127103
-0.115684156453981 -0.178997562970322 0.0597402734467072
-0.127949251640021 -0.184664591532227 0.0638884268452278
-0.131703728486142 -0.1886709508411 0.0658073619345071
-0.138355850136469 -0.190471172833344 0.0693261537375402
-0.134739116000073 -0.204315852422476 0.0749675052698072
-0.147068153291952 -0.199871589652346 0.0775238906628061
-0.14612441038658 -0.210106832118102 0.0823710425490063
-0.150106962798436 -0.210283617783753 0.0840185326402569
-0.158253334641912 -0.218842995814088 0.0915663394163699
-0.167570594891423 -0.223047590193613 0.0973526902841775
-0.170248353921504 -0.232534876049227 0.103234863683533
-0.177096491991878 -0.232708392680011 0.1060012875227
-0.179186501215302 -0.241347712198107 0.111221468055257
-0.188377455551268 -0.24637977166721 0.117380129099342
-0.187290754367308 -0.248141140311667 0.117852819619586
-0.187687975747859 -0.257211243888958 0.122630569417025
-0.195227972738043 -0.258531260681355 0.126251840822468
-0.204353837290145 -0.262783331717616 0.135544764913022
-0.205331371281734 -0.266845997494392 0.139710478150354
-0.205024460418186 -0.271433164445605 0.143477093386092
-0.216770924748428 -0.276616132722071 0.155764842205822
-0.21389948438743 -0.283403920281824 0.159732948665812
-0.222746825816919 -0.286603966874187 0.168378868777511
-0.222583833864549 -0.293481174392935 0.174223230761288
-0.230490681751491 -0.296134871205908 0.18177161078476
-0.230984004374365 -0.297215464721651 0.183034573908123
-0.244613212172833 -0.29730653470656 0.192165447045057
-0.24945664131278 -0.303434589192176 0.200686465485186
-0.251045952865187 -0.305377409179737 0.20342365264096
-0.248707945372806 -0.312779330169595 0.209731220076494
-0.257513256027623 -0.315131375295925 0.22433628136426
-0.253960710503135 -0.320334915210914 0.228308917847305
-0.256550349211102 -0.326718338973391 0.241730523753441
-0.261709057326203 -0.325540789309949 0.246189467308162
-0.2672568662074 -0.326649278100052 0.254792663377707
-0.266345706266345 -0.332749762050545 0.263453349182783
-0.270897823594657 -0.334131112130258 0.271269001662453
-0.271310063248444 -0.334984554854801 0.273144646534021
-0.270688065813093 -0.340378609131091 0.281028391044141
-0.279202689906086 -0.342517836298751 0.294934562939873
-0.278702405188547 -0.34713256163726 0.306780519613119
-0.278631251736817 -0.349905539292898 0.320494300156129
-0.284213064805651 -0.346188629749521 0.323350516286913
-0.285488686259003 -0.346022986344838 0.32745285287497
-0.280701463454818 -0.352156503344617 0.339863915696712
-0.285323766599222 -0.351573560220379 0.354816178999073
-0.285078253551083 -0.354671018774106 0.369491959749956
-0.287693686089757 -0.35413609664044 0.376917806621791
-0.2931968155918 -0.351484299301213 0.38784863033988
-0.291897011279629 -0.352481674229035 0.390117847954056
-0.289456437135839 -0.356349697709142 0.404969140836413
-0.294956008742409 -0.362404391236828 0.412895414972407
-0.298448991420931 -0.368151028146501 0.414694462269013
0.054460712602194 -0.0121710856733047 0.0203380028866666
0.0507082334209593 -0.0186598903714494 0.0201622869336127
0.0433462863774819 -0.0266178744940754 0.0197879684413846
0.0357831532294027 -0.0411212156647969 0.020208348583618
0.0247874675469466 -0.0401517597073159 0.019385832249083
0.0204020505607865 -0.0472403278887263 0.0198826473447074
0.0139582864154591 -0.0518043302566775 0.0200755961408831
0.0024115857699888 -0.0642244859749169 0.0212645068109398
0.00305251740762558 -0.0660851637173332 0.0214770463574387
-0.00734533596225315 -0.082957174808199 0.0233824335022424
-0.01268168297417 -0.0797852391129892 0.0231125991231197
-0.0205503727742808 -0.0944159475955291 0.0248245176448914
-0.0249278014818863 -0.104942925811504 0.0260377902578613
-0.0357462459669091 -0.106954812617802 0.0266102445442011
-0.0435127667306479 -0.109745706203488 0.0272219975030608
-0.0370975674797894 -0.117920158473956 0.0287771305482003
-0.0524677435079952 -0.12288905827877 0.0324086417179511
-0.0527810543797962 -0.128957036369811 0.0343942045766474
-0.0598267443454338 -0.137895275872441 0.038192699473595
-0.0684185695673528 -0.142550078209097 0.0408240913598947
-0.078620344781836 -0.14793847164766 0.0439041440235318
-0.0796727252573733 -0.153147716945094 0.0457126714573732
-0.0868425170886965 -0.160244520274243 0.0489376974685445
-0.0854562948454026 -0.170400568901994 0.0520074180966989
-0.095451580448419 -0.170307817224192 0.0533040856980522
-0.107750681735 -0.176820887695842 0.0574667279223767
-0.107672574845097 -0.184107090423006 0.0594547199201908
-0.116357801848603 -0.194757175532781 0.0642180459081261
-0.121830206348245 -0.195761429947424 0.0656495278647734
-0.121763556881752 -0.20340418702158 0.0694287425393222
-0.131746528276005 -0.203774157014022 0.0735211755146511
-0.132753167216869 -0.219180639917151 0.0817664621065758
-0.145282286255618 -0.21427658855304 0.0841667673766514
-0.144040387025571 -0.218007300943427 0.0855824075344868
-0.146937754455816 -0.226591564959663 0.091090250966978
-0.15352545280047 -0.230430825000233 0.0956230087090026
-0.164861132086068 -0.235201416120235 0.102487121159051
-0.165984326270637 -0.241849389518632 0.106314370837499
-0.165694647968887 -0.247152043813462 0.10890349296748
-0.174510038531105 -0.25042201775019 0.114017273061854
-0.17939873004893 -0.256244839510277 0.118896513227565
-0.186927659609683 -0.260042573330312 0.123776180447005
-0.186487982459562 -0.268181390132157 0.128351211723287
-0.191898046671711 -0.268378149408345 0.13211469501881
-0.198582077578444 -0.279082334860951 0.145819079787982
-0.20649485554075 -0.274872688950273 0.147430783550638
-0.200863782987961 -0.282512512425598 0.150303523781546
-0.211997420602932 -0.289392267112369 0.163652919834855
-0.213823212684866 -0.294130679990744 0.168966914340698
-0.213095656304581 -0.294030050199317 0.168396595812791
-0.217583431126523 -0.301062104481225 0.177463864410601
-0.226772187692023 -0.301709549660898 0.184127118411101
-0.226301963252089 -0.314130566165174 0.194565910294361
-0.230129807421024 -0.31937232312237 0.201645271348003
-0.235684187055784 -0.320330866995772 0.206163971982419
-0.239212165852665 -0.323125052863371 0.214636702359945
-0.245443475452469 -0.321416929805677 0.219564591347019
-0.244839391124119 -0.329358476517916 0.231555118736393
-0.255685775559708 -0.326980791690276 0.241087612946055
-0.250745586208213 -0.334940185071208 0.247771784495808
-0.249765974574543 -0.337497968317309 0.250667753115388
-0.262339517231594 -0.336800257235045 0.265019006226313
-0.265071097141079 -0.337454892566229 0.269429500363255
-0.266112680061652 -0.344498469482838 0.282004953662881
-0.266059370571288 -0.348923186995602 0.28903411898434
-0.272236284395588 -0.348751119486105 0.296358049666979
-0.273452927513986 -0.349965841302504 0.300753018684762
-0.273437683928783 -0.354237472677377 0.32224369118589
-0.271970495237638 -0.355939073759554 0.325148445385866
-0.274648041602977 -0.355816745689202 0.334896206812985
-0.276066270139913 -0.355433272695267 0.338451666370461
-0.279500006238248 -0.357544576247515 0.362394973664714
-0.278212729216165 -0.358554871799103 0.36250864972552
-0.280955112372589 -0.359586391855566 0.378328371815618
-0.277829611173355 -0.363275969981275 0.391188593242308
-0.283159064690317 -0.359520949102112 0.400620127932834
-0.280166940976193 -0.363796061510883 0.405479487043126
-0.28814310237192 -0.373246203258057 0.41443988500724
-0.301033077613889 -0.373592761943635 0.414656340352318
0.0653452749804202 -0.0171584369340601 0.0215991235534388
0.0538016480378316 -0.0329644740365587 0.0211279958041437
0.0532231778453781 -0.0361488267005191 0.0212910669142657
0.0460613223531414 -0.0461481403123733 0.0213375047199307
0.0350358865590094 -0.0486083727032781 0.0208128809112609
0.0245873817847756 -0.0591832772102372 0.0212752626891774
0.0210358072566822 -0.0569860305816779 0.0209017326230851
0.015430338870153 -0.0653490077038185 0.0215746712303966
0.00750970370296767 -0.0825282725480058 0.0233379312514629
-0.000141971645782556 -0.0870041008276742 0.0237210207719534
-0.00691288236961178 -0.0946616077394346 0.0246551740761393
-0.00653100908767584 -0.0918538339504702 0.0243428706361063
-0.0227297412040536 -0.105179526612379 0.0260320229780459
-0.0210052401192826 -0.111879538850084 0.0267393353964574
-0.0346985776743031 -0.120804741695388 0.0293829109891303
-0.0347748935875984 -0.128626162843814 0.0318987715489356
-0.0403538892812314 -0.13151971109283 0.0335661090597429
-0.0529426268861857 -0.140754244003301 0.0381950936846538
-0.0524301305439052 -0.147883550806191 0.0404110870765909
-0.0599417909021799 -0.150044570843461 0.0421002120823184
-0.0656750443685847 -0.157953186965775 0.0453946871955379
-0.0734875157978088 -0.16471522650254 0.0485977496750588
-0.0730699244647866 -0.16246769404864 0.0478222974048474
-0.0816664343571552 -0.177740532126247 0.0538559902694691
-0.0960879627070544 -0.181794635510007 0.0570685436067494
-0.0995069923257699 -0.181637513169438 0.0574719145544045
-0.0953519595879133 -0.19256541022061 0.0604214874164338
-0.109338770525325 -0.192478089312563 0.0622495734196346
-0.112153483871803 -0.204335671025427 0.0669905853125207
-0.111884345142967 -0.210325665307312 0.0704793594614319
-0.124307445187453 -0.215579202555419 0.0766511573845524
-0.128318345681332 -0.222153039613027 0.0815470357069956
-0.132394733533562 -0.222954935795356 0.0835497968525558
-0.134970201073529 -0.233532456789857 0.0899475873878322
-0.143222594442382 -0.232503126241115 0.0926501420141432
-0.149705269104473 -0.237562828808415 0.0977638063023609
-0.146876342599516 -0.246292395452722 0.10110640841401
-0.154624518531622 -0.249971733207771 0.106011474463443
-0.159353033239253 -0.254214603795376 0.110022883180113
-0.165263747355554 -0.263866350319157 0.117253132159126
-0.170236691423911 -0.263057337672342 0.118785524896909
-0.175057296069849 -0.270772839356214 0.124602709570489
-0.18154347230851 -0.275193244081301 0.131136399414308
-0.190223824103238 -0.277898980047497 0.139243556748631
-0.18831981475719 -0.28493315641704 0.144067460893604
-0.193125611569509 -0.288647429234807 0.150474219462103
-0.192206750622192 -0.292513515480012 0.153210262185331
-0.20520192402903 -0.298577638331727 0.167090049813283
-0.203170567476132 -0.302327038929757 0.168986213473634
-0.209558926014774 -0.303634564121171 0.174360877202545
-0.216410035523352 -0.312633341358092 0.186700101644677
-0.217595809222787 -0.312229585063346 0.187138177272833
-0.217934434596288 -0.31875859183288 0.193014308457752
-0.220865386410104 -0.32132921692581 0.197185967665292
-0.225910498770234 -0.323308730392806 0.202250138097085
-0.2306045674713 -0.326797740620515 0.209935177268233
-0.229636585936606 -0.334919457855183 0.221766872009508
-0.238626745613641 -0.332669334935729 0.229220078277347
-0.241755222562199 -0.333828524620541 0.234927919862498
-0.246772041024965 -0.335652146790875 0.244024477586327
-0.248420659969693 -0.338396970061355 0.250454023864118
-0.250944181931875 -0.344157394609683 0.26279534243448
-0.250400502167495 -0.350022461548601 0.271530684974688
-0.254510441027827 -0.354898171244057 0.284405283634851
-0.262123875897759 -0.352085981493717 0.289263383557837
-0.260996966532457 -0.356653674610976 0.295200886479687
-0.262150956360809 -0.358891005455637 0.302028639191649
-0.264595263114918 -0.359918647451766 0.316674931711363
-0.259143512357853 -0.365380372151496 0.323124498702597
-0.266376812700298 -0.36381735333424 0.343239712665319
-0.267827083386647 -0.363761590546394 0.348572452977291
-0.267404478029071 -0.366493455598009 0.360718343114302
-0.267455799320295 -0.368444600352114 0.370760215715815
-0.267458425943103 -0.369296789117048 0.375069536289937
-0.267333383570738 -0.371330008692733 0.384956653731935
-0.273078144860224 -0.36822649570228 0.403861634663634
-0.270188144374511 -0.369860558924903 0.402570827929006
-0.281419637477755 -0.371575751736997 0.412316874971366
0.0682115847341898 -0.0285677791043374 0.0223624513869835
0.0638575619422079 -0.0366941564489656 0.0222618517416392
0.0530348549783803 -0.0397708669688107 0.0215176184765738
0.0530271923655303 -0.0520346844843083 0.0223397809637095
0.0467503954862557 -0.053344717718871 0.0220129992918141
0.0318714586874469 -0.0613637675145277 0.0218045132407474
0.0268004565024502 -0.0644861502785254 0.0219085685991723
0.0289756377212629 -0.0746920860512333 0.0230395301148432
0.0125453051873465 -0.0890754712630339 0.0241257954898052
0.00857909748805551 -0.0931152684355558 0.0245101731112673
0.00725065823838671 -0.0957135775072549 0.0247749836690099
-0.000501395348743824 -0.10101596496744 0.0252572898317764
-0.00822180337771525 -0.109959921946037 0.0263456749083676
-0.0165901423008508 -0.118205141566705 0.027465906417652
-0.0205157436225385 -0.128617584781781 0.0312233554856536
-0.0261728117995673 -0.132205631909601 0.0327129651500171
-0.0323559584596944 -0.143077414980193 0.0367305144925384
-0.0385428607512645 -0.139205825847715 0.0357881696805474
-0.0499317736547655 -0.151260331893784 0.0411613658938249
-0.0526390263931155 -0.156287749075379 0.0431312442633794
-0.057996087397461 -0.160744776939121 0.0452700197687332
-0.0664986285007953 -0.167940811713818 0.0487036932422693
-0.0671072095959874 -0.175644328454768 0.0512524130069303
-0.0757864134700868 -0.180590207607818 0.0539886518189219
-0.0740768946104977 -0.186044086150562 0.0555090457086838
-0.0864787589532396 -0.18573789481108 0.057056688958459
-0.0953211192049187 -0.194489052601463 0.0610336684161282
-0.103713230642605 -0.204898719665831 0.0654822328699661
-0.103113774197313 -0.209277265557057 0.0677011127065077
-0.109524905711682 -0.21258732260247 0.0712415915152819
-0.113215137510392 -0.221313025472221 0.0773272715757898
-0.115890096364848 -0.226218594790198 0.0808962011056538
-0.125366886756489 -0.229047422300869 0.0849047021601408
-0.12931216961754 -0.234370547730293 0.0890337224634969
-0.137140370872394 -0.241782620678636 0.0953570155735518
-0.137682327911845 -0.251301211132254 0.101139326672933
-0.149245591164057 -0.251427165316229 0.10464975620429
-0.150162897728364 -0.252891289724902 0.10575463752084
-0.146919096926299 -0.261633308866771 0.109541857179057
-0.159882311473847 -0.266257469935612 0.116367289191488
-0.166900747463722 -0.273702036173906 0.122905868022909
-0.170944119500796 -0.276420293910525 0.12587235728155
-0.173559875190188 -0.284107475553186 0.133549747314738
-0.17459401023878 -0.288995436579474 0.138467393147183
-0.180555487978527 -0.290660426364071 0.143867943468342
-0.186173306921272 -0.290506475475355 0.147465850584167
-0.188670550132178 -0.297934525615464 0.155553834174418
-0.189069532973667 -0.301747278397519 0.159118979855161
-0.196872745826741 -0.308314571400209 0.169985969932445
-0.199982545367406 -0.310646698405655 0.174069979888344
-0.206995363117922 -0.316403819241214 0.183710766719966
-0.204789811040662 -0.323097975455365 0.188040089797725
-0.213435335868115 -0.325261631646013 0.195654915287264
-0.222269549261727 -0.32932203608311 0.205036805027434
-0.217539973792761 -0.33463160547013 0.206491320439659
-0.227034217389308 -0.332924097635378 0.215365586692765
-0.222425360480779 -0.338727605330444 0.219000589954894
-0.228363523067133 -0.344200763997989 0.235082534373481
-0.230619989719179 -0.343254804252246 0.236342014817113
-0.237010236116928 -0.349166909099175 0.253684007736688
-0.239392589346889 -0.348411518398179 0.25540393947175
-0.240752224193458 -0.351183170843049 0.261520950050682
-0.244821870445753 -0.358669797933682 0.278532415502337
-0.244075530071335 -0.362171897584409 0.283229543579964
-0.245634431410861 -0.365678228204394 0.290769733832688
-0.254265362491598 -0.36323712707306 0.297474737959828
-0.253483886707734 -0.366071042907128 0.304700187746783
-0.254125397601432 -0.36925011601645 0.323221404880205
-0.259046595314001 -0.365669388546119 0.324207369440532
-0.259306032571702 -0.367649087048476 0.335198916059178
-0.256625306298378 -0.371060163887726 0.342030044250706
-0.259423564768062 -0.371115318646002 0.353140458762841
-0.261030250375669 -0.372160964977223 0.364635116045318
-0.261620507098378 -0.374486719613998 0.378653074277138
-0.260415288469953 -0.376638449768971 0.396219922620266
-0.261399524863183 -0.376313789228215 0.401105229154028
-0.269308659048349 -0.375965850535124 0.409485759325192
-0.26946069955047 -0.380621872369732 0.412250472380368
-0.284317564873713 -0.393611107515978 0.413115178769492
0.0846735590361354 -0.0281573687861441 0.0240213802264516
0.0754379374323718 -0.0440059878850751 0.0237606746183577
0.0712044844182185 -0.0477929687967696 0.0236445905436319
0.0610544695006966 -0.0536200701028157 0.0231480485829343
0.0539968777456223 -0.0646028342082501 0.02348359576952
0.0407021833620066 -0.0755991207324154 0.0236264823074723
0.0433921923793517 -0.0782835180449766 0.0240132779748376
0.0281870750857894 -0.0830823848055846 0.0238606120062147
0.0220888200641148 -0.0908785158990298 0.0244601088302189
0.0208915532151258 -0.0986063899871476 0.0252873220559243
0.00667011697185971 -0.108449897722747 0.0261583498187742
-0.00257822176314383 -0.113063842823538 0.0266036573626282
-0.0021990556803592 -0.116907150800312 0.0270181670347034
-0.00742545039994965 -0.12121268013801 0.0280850797739082
-0.0153164060033633 -0.125514051981106 0.0299210382119231
-0.0160001206061966 -0.136973699317632 0.0338917796611703
-0.0287175217175187 -0.139032777441042 0.0351752971239992
-0.0340418058848682 -0.149472245648447 0.0390053441680188
-0.035417243898405 -0.159035526702049 0.0423554287155677
-0.0454375785437738 -0.166173012602855 0.0453425289794818
-0.0480404337737816 -0.167182870517373 0.0460114561219237
-0.0554238908992443 -0.176284744278899 0.0499071961742102
-0.0573318796814457 -0.179461791583479 0.0511782122128071
-0.0705663416493196 -0.183822460949711 0.0543314548494181
-0.0713755969642677 -0.190389607347193 0.0565427474993725
-0.0826929716539174 -0.198600461947281 0.0606750674479175
-0.0814477624762752 -0.205143654085058 0.0626060568617279
-0.0929092408487652 -0.214464615178625 0.0682711454205656
-0.096327991332608 -0.216033299173012 0.0700425477332279
-0.0961790463876772 -0.223783947424472 0.0746057798958047
-0.103310050329567 -0.231224009185609 0.0807742938231113
-0.112968025278715 -0.227649562977292 0.0810271265537923
-0.119591575198913 -0.234650525112056 0.0868102981580478
-0.118837368085201 -0.239830881759894 0.0896993264581091
-0.124098803108427 -0.252302244023523 0.0983942208994258
-0.133197628986013 -0.247826544116149 0.0979747245357041
-0.131051844503499 -0.256809896049851 0.102778663266463
-0.140036112418479 -0.261498628219099 0.107769903305275
-0.152174847038672 -0.26845108927081 0.114880072091289
-0.150947230788799 -0.273758113330838 0.117727898069747
-0.152829384933275 -0.277215170026253 0.120242272959646
-0.162423713228229 -0.284694947836224 0.127141724811802
-0.166299344443459 -0.291889142265988 0.136011325026302
-0.173760541472817 -0.293387146814735 0.141715107954243
-0.176652128159735 -0.296938834445036 0.146709787824826
-0.176049958428567 -0.297707232884483 0.146974940286525
-0.1763804490308 -0.303112358733114 0.15187288556291
-0.18149453831049 -0.308074262972231 0.159564297486265
-0.184978701180512 -0.312133345604394 0.16539172522508
-0.192193248684071 -0.31841784945865 0.175622974058253
-0.196302618022673 -0.323137844904019 0.182437699995413
-0.203074672915699 -0.326980201227519 0.190261242533098
-0.201488770844476 -0.331820648002445 0.193397624333266
-0.206975019597131 -0.338063482083347 0.202444929543514
-0.215566539576719 -0.338538999214767 0.210259350425744
-0.217269057077096 -0.341643179056282 0.217331416927285
-0.215480291612377 -0.346402139005273 0.222761282614076
-0.217421638029947 -0.350530100316857 0.231768763711766
-0.225212562308645 -0.351550266215652 0.242990179925138
-0.22445563992735 -0.355775155413905 0.248833235731647
-0.230710007848665 -0.356691022719397 0.257996897663214
-0.228633000647401 -0.360778122756262 0.261994837180342
-0.231030529444418 -0.367546037115016 0.275796585061325
-0.235155650287172 -0.367228263927068 0.280362441083747
-0.239240405210022 -0.368959210904444 0.288163625930165
-0.242823605745436 -0.373714715499259 0.301994900891962
-0.244021317289771 -0.373501891465464 0.305557626630124
-0.245951902899753 -0.373192183127453 0.311468571034531
-0.250195857729706 -0.37322996984277 0.328087713666472
-0.251338051134746 -0.374482589047081 0.338828447761151
-0.247520844814451 -0.378302990229814 0.343325191626437
-0.254594764297601 -0.375477711408946 0.356455540975679
-0.249060015870144 -0.382623309560462 0.371078686656411
-0.250311531075981 -0.383895926052188 0.382343492751537
-0.246838680393145 -0.387056147551519 0.389018376705222
-0.252145964008665 -0.383279140813937 0.400423392322184
-0.256156969378778 -0.385419408071166 0.40893345698021
-0.265656045703277 -0.388913326982842 0.414003070786883
0.0842756401350622 -0.0364429439857848 0.0243303249760655
0.0821778401707702 -0.0463947967913269 0.0245364585253319
0.0719551128862091 -0.055604619508674 0.0242343421552095
0.0658276960363439 -0.0617722067493652 0.02411237690122
0.0625039752177848 -0.0694978865983405 0.0244823922764455
0.0559043301035617 -0.0765946521371177 0.0246601278009128
0.0454300653794073 -0.0776188323368791 0.0240469174436587
0.0416941156681137 -0.0932526795328492 0.0254658910738894
0.0360856354465627 -0.0923437174719454 0.0251367858182182
0.0289680207636656 -0.097386483321431 0.0253500634915387
0.0201881862340602 -0.117226447823547 0.0273118465151922
0.0111641757232038 -0.118286648218208 0.0272978779882852
0.0052191953305418 -0.12884174302714 0.0306080716628789
0.00407993410475901 -0.126109995861689 0.0296173395044661
-0.00246304723680316 -0.13277108279505 0.03183421976174
-0.00899989814200187 -0.140816171524932 0.0348959686235089
-0.0181242331489292 -0.148232665136341 0.037858722311796
-0.0185283857163788 -0.155804399790275 0.0404801565743556
-0.0263651096632632 -0.162706149400544 0.043207663134659
-0.0297196094451189 -0.165468763329159 0.0443092728140945
-0.0466004144768124 -0.173158598274221 0.0477347966268575
-0.0463360212480121 -0.180099883627313 0.0500915000040636
-0.0584548052554835 -0.186213666571882 0.0534903102902329
-0.0559511203582734 -0.190442710450979 0.0545129198382727
-0.0623874687240803 -0.193077887276566 0.0562112547771811
-0.0741323853514629 -0.200980455611741 0.0603015448106955
-0.0735689893042519 -0.214055178093315 0.0644155049507834
-0.0764765409243925 -0.220102974269604 0.0675777909940991
-0.0875743198875039 -0.222724159375103 0.0718615434745795
-0.089051008746857 -0.226549313585276 0.074494702171222
-0.0999604633437494 -0.237146707605939 0.0834658718013016
-0.107809276800789 -0.234948531375694 0.0840907510189664
-0.106044819850472 -0.242970799283393 0.0884180471976388
-0.111057716916528 -0.247036825505997 0.0920634539843568
-0.114243774909991 -0.256740991919626 0.0986058920393345
-0.115283565044505 -0.257883907269993 0.0995397968173204
-0.126848615043778 -0.261050280617269 0.104261974920077
-0.129045578775426 -0.271162528385502 0.110803454563998
-0.131958933811523 -0.276325204113853 0.114583575574136
-0.139960318027424 -0.284181509433024 0.121213084316273
-0.147162028365166 -0.291796996355086 0.127928390865339
-0.155349332507027 -0.291120848477625 0.13066515489154
-0.152896784802945 -0.294180102694368 0.132724801079087
-0.155285141716405 -0.304063602351199 0.143684165749996
-0.163184639400581 -0.303665400882318 0.146580926767535
-0.169127192871555 -0.309047494660885 0.154486961729456
-0.171621338010738 -0.31149811471428 0.15799842990961
-0.17466645977726 -0.314792712881194 0.162590635647628
-0.177719606020339 -0.320501659423878 0.169619764457479
-0.184274074722046 -0.328716202302001 0.180636283857315
-0.187337675674422 -0.332051081043588 0.185276806183738
-0.193956497025774 -0.33515880426802 0.191284314195945
-0.189799361390744 -0.340557599536018 0.194878841039024
-0.199724407293638 -0.343072678056127 0.201965069441628
-0.200800846107355 -0.348343168067963 0.207956603166778
-0.204384515058723 -0.348904156861115 0.213121306383766
-0.203955372183993 -0.355860730698013 0.224433537012326
-0.208458194103734 -0.358010897372078 0.232735483218217
-0.208904132423332 -0.362266829948307 0.240222826850317
-0.218563950342627 -0.363918843599823 0.25464222417356
-0.21767881210817 -0.369427697219784 0.262386284169231
-0.225651640210219 -0.363774495295793 0.26313118361569
-0.227370992780799 -0.37051696990708 0.276057739304438
-0.223958804241284 -0.376608900648834 0.281627544069629
-0.233940381671042 -0.372650176352465 0.287560917018853
-0.231809295140094 -0.37954302339282 0.29599115766897
-0.236029404174067 -0.380028988480593 0.307548754886589
-0.237384121288209 -0.380630542507639 0.315827659317461
-0.238001405409364 -0.383512186754013 0.332754613744431
-0.238794683665098 -0.38566237617004 0.346672778458525
-0.242838930664687 -0.383173463290595 0.349772058450604
-0.239213623755928 -0.386510999901312 0.352575679709805
-0.239627494006802 -0.389002661781544 0.366747813906689
-0.245070304899762 -0.388250596901959 0.384023103167633
-0.24247159335078 -0.390407131297978 0.385867304872978
-0.241998253202293 -0.391013605862969 0.4001603176349
-0.244742971366494 -0.393298001170436 0.408172047532144
-0.259198637062198 -0.397843396436893 0.414657258024135
-0.259389846863934 -0.408718625904971 0.414221158919722
0.0976155140503693 -0.044686494795455 0.0260363465754733
0.0879049827028443 -0.0563802862594211 0.0256810259804142
0.0883445478942066 -0.0557094075737987 0.0256744489808323
0.0743649073737304 -0.0681561195517599 0.02528718658661
0.0610430854595051 -0.0728096863874209 0.0246739554005592
0.0605820756982212 -0.075545414856347 0.0248822336813901
0.0554914945830761 -0.0879628910413937 0.0256264565555398
0.0493687609862488 -0.101257057750342 0.0266046315086419
0.0482799326735556 -0.0966450062321897 0.026089086055959
0.0325871812491761 -0.1057002971103 0.0263492629618729
0.0236872020255224 -0.118590222560719 0.0279195216743438
0.0218637558014373 -0.127926831418342 0.0310468897880514
0.0198772885169519 -0.127929412717042 0.0309578662110513
0.0110569624331617 -0.138430965054092 0.0341690475477201
6.18995441845641e-005 -0.141902364564773 0.0348648491963242
-0.00160619703426496 -0.152839347404519 0.0386948515279382
-0.00193982056520027 -0.155915706960195 0.0397675958947123
-0.0129699537858383 -0.160591281136754 0.0418742887959553
-0.0269286874022914 -0.168619870243469 0.0452662926623605
-0.0226414191088589 -0.170689911755141 0.0457839179146903
-0.0323618355645896 -0.176792183727116 0.0483218255085096
-0.043340575869902 -0.187466964491698 0.0524887030433233
-0.0399110616657632 -0.192229865034876 0.0539709493097301
-0.0498317505221129 -0.200529429651659 0.0572733447699909
-0.0576806502045192 -0.207576241237025 0.0602314655198469
-0.0622955675452521 -0.214100830334895 0.0629341385203387
-0.070731967390002 -0.215316751156682 0.0644431975994786
-0.0736956204084123 -0.224174290764617 0.0693104063038581
-0.0784084239879758 -0.227336363481244 0.0723455645863724
-0.0851199125623422 -0.237715770574706 0.0801553899754183
-0.0900163812836981 -0.240896677538787 0.0832468758470009
-0.0958723919903178 -0.242989655495833 0.0859285800860414
-0.102217771559655 -0.246045977004133 0.0893023085794389
-0.103678824978299 -0.253018367663827 0.0937994423558556
-0.106072509509281 -0.258597042206528 0.0976987008556925
-0.11147394761848 -0.266769987178658 0.103876991510145
-0.118275314944384 -0.26822700006881 0.106413658070547
-0.119242922827336 -0.276002887672723 0.111266348140238
-0.12319197617817 -0.288653778209687 0.11974516993108
-0.135885495673674 -0.28395264193124 0.120075554727037
-0.135050326177869 -0.296753772059707 0.127867857064477
-0.141638203902725 -0.29563314857031 0.129488826977395
-0.144454932824962 -0.302134294868963 0.137217756465756
-0.152480817968493 -0.302842368710953 0.14128236982333
-0.149846449993401 -0.313822556754402 0.151250108610592
-0.158378848589351 -0.314360849061506 0.155355063861797
-0.157904546793111 -0.317490175425386 0.158311281082146
-0.167446687394024 -0.326713313280839 0.171591814608084
-0.176581741241045 -0.32531428279238 0.173995636678656
-0.17489876664782 -0.327166897300225 0.175160341046351
-0.179514162847912 -0.339306096129753 0.189323181113579
-0.178233751176534 -0.339099431785924 0.188580284261976
-0.18775185332904 -0.343775280246054 0.197267284013886
-0.193433793134139 -0.347013123336481 0.202903185302212
-0.198472663546686 -0.349951492239699 0.209159031027984
-0.19316913176489 -0.359224614580024 0.222372245510712
-0.20401494784363 -0.357270201883681 0.22711143851699
-0.205826579609159 -0.358835148894912 0.231434755773204
-0.208911265742768 -0.364272728366967 0.243973841366682
-0.213623474742728 -0.366962770117681 0.253444402725041
-0.204345641476332 -0.374251318147362 0.259075059011815
-0.21430748866868 -0.370931067602656 0.260648900867453
-0.214161549177761 -0.378459716089559 0.274525140442932
-0.222119121820822 -0.379701306573992 0.284322549380748
-0.22319216336964 -0.38111444549691 0.287908656247769
-0.223068079047706 -0.386713187185316 0.296825005145254
-0.22417448596337 -0.388599476532978 0.305158450857903
-0.228167860969425 -0.387252683873908 0.313558774942548
-0.229992224286597 -0.389234621258904 0.330619506231537
-0.232490143182345 -0.390813653617088 0.348255007557903
-0.23380714046991 -0.389669196459267 0.347579556464105
-0.229896388966578 -0.396218477866875 0.365480937286892
-0.228427176056483 -0.398696967581445 0.374828210671391
-0.234307725376151 -0.396671487521209 0.387393234453934
-0.237879557704386 -0.393930724179218 0.397661446389519
-0.239049663245983 -0.39385716440976 0.403091498169713
-0.235828956587053 -0.405514672869524 0.411784799476554
-0.250006138144703 -0.41212183034452 0.4147110141677
0.10158177161273 -0.0534476152383969 0.0268097303310403
0.0956923046087456 -0.0563943675434472 0.0263628865534056
0.0834931253829904 -0.0624328275078999 0.0257013486384953
0.0749511170875389 -0.0725093566143973 0.0256305216708372
0.0773997233874336 -0.081299294156443 0.0265137158887846
0.065636651345575 -0.091271510516095 0.0265964413968802
0.0547553767283964 -0.0951109823653557 0.0262060006767251
0.048768966783811 -0.102085280610921 0.0266636675434438
0.0487662418606814 -0.114790871686467 0.0293230493516639
0.0383923736616181 -0.116596496107173 0.0285248932281525
0.0308373267838999 -0.121875923367933 0.0293727638829643
0.0273562908170887 -0.126962405133279 0.0309639245198498
0.0224468521869033 -0.137922028174405 0.0345096029866976
0.0221533317770759 -0.139696005798702 0.0351062063749504
0.0113075748411017 -0.15395109773399 0.0395161697483158
0.00555361922262907 -0.157786010375859 0.0405741679930327
-0.0043806904115968 -0.162904639069904 0.0422808496653076
-0.00855996622082562 -0.162283263350883 0.0422563838077535
-0.00851797462157528 -0.173694148096755 0.0461775140666967
-0.0160436378087921 -0.176757293663393 0.0475712399271876
-0.0288247233868061 -0.193128357134754 0.0537780611630949
-0.0275627019040074 -0.188332838425803 0.0520722536632142
-0.041992422673261 -0.203522138826753 0.0579474081401101
-0.0410857736445704 -0.20780309894477 0.0593781539474681
-0.0416518433408445 -0.209279065454632 0.0599112084996342
-0.0491209996312143 -0.216842350361778 0.0628495123184441
-0.0626690784354102 -0.222584552731641 0.0657016172417866
-0.0686398068879965 -0.230306659937176 0.0717069828408431
-0.0717869933133284 -0.235480828730536 0.0755514068228919
-0.0708539970510358 -0.242424831696507 0.0794431709419218
-0.0800141565644369 -0.242224167221333 0.0815758957342288
-0.0860754972703895 -0.250414962191887 0.0879270018927234
-0.0922628919842754 -0.256036422847955 0.0927842496140873
-0.0922786423211499 -0.258089652822233 0.0940066703141793
-0.104076949753586 -0.265692315317638 0.101419033783639
-0.102364636329246 -0.26942144328343 0.103211259915552
-0.102643204247782 -0.272702576526549 0.105227023070818
-0.116621862397052 -0.280614945477048 0.11335917998587
-0.11908844993446 -0.285611110455092 0.116930652831075
-0.128621896373244 -0.293297879822092 0.123836167876795
-0.126457768415539 -0.302867325585993 0.130442596178218
-0.133193713394082 -0.302387094783082 0.132770877759679
-0.134899295026063 -0.311184014406246 0.142349943733181
-0.145597073425773 -0.310091187279766 0.145714863206631
-0.142091361716986 -0.318439605651594 0.152666080453899
-0.14417983431172 -0.32337483274754 0.158512566439511
-0.147649706889693 -0.325907872513099 0.162514488284399
-0.160061195538465 -0.328043092974616 0.169848653037254
-0.160147193122104 -0.336256930568589 0.178163798770784
-0.168612566657825 -0.334444056058336 0.179870882157652
-0.17120098097947 -0.340795522251806 0.187353615673786
-0.174166036958604 -0.347746424133965 0.195597810240111
-0.173538960561166 -0.351004272110388 0.19861978724071
-0.179831631468785 -0.355635788956223 0.205915446906945
-0.179575579037198 -0.360211850416528 0.213701898620255
-0.188412241958843 -0.361590423957356 0.223110629665448
-0.18844964298686 -0.364921014312631 0.229358574480148
-0.191563872373466 -0.367169530437894 0.235965757578171
-0.192675079218875 -0.374372036879232 0.250274026909527
-0.200011446175299 -0.375243871539367 0.257576169724653
-0.196417152228514 -0.378371397636938 0.260636057672237
-0.203919841224936 -0.381405052949377 0.272103481939652
-0.208126948993515 -0.384409169009269 0.280966825245311
-0.212050745947506 -0.387573490083006 0.289910187016876
-0.216714500712524 -0.385880783984042 0.290356615354459
-0.214254314618705 -0.392086043443593 0.301501349979109
-0.221112713317561 -0.391817000000361 0.316610244067087
-0.21838053606882 -0.39397185098996 0.322621060022113
-0.217177513912347 -0.397352417102802 0.339553854059006
-0.222215576719621 -0.396342134622211 0.345878417666952
-0.221100264868817 -0.397437862207166 0.349601596875401
-0.220258360718174 -0.398666475056261 0.35477077563574
-0.228401746696879 -0.397934310358826 0.370285843595208
-0.231495047044766 -0.398829731513385 0.385934443930646
-0.220780238970005 -0.403569082962699 0.390911953851228
-0.222187664431927 -0.403474931542936 0.401804827764846
-0.233533716143395 -0.411922302171251 0.413888370652702
-0.241797441797518 -0.419130891797719 0.414644223898257
0.116255700397224 -0.0577165992371447 0.0309800531332024
0.105762186115688 -0.0614376369223124 0.0281415130473284
0.0970057894348711 -0.0718223815820615 0.0279247563075354
0.0918467558070317 -0.0776235905306799 0.0277300885111671
0.0785449962853731 -0.090954677173725 0.0276791775831432
0.0736709626632915 -0.0921293690177135 0.0272105083595213
0.0644482436829224 -0.10335905317703 0.0281159245541314
0.0618442328297166 -0.111468848528767 0.029994239003245
0.0560288879984566 -0.112154529825381 0.0294422085366027
0.0512304770997767 -0.118097735892915 0.0307094689200079
0.0495451534775594 -0.129938600752711 0.0342792598366943
0.0437902941563353 -0.137022138464593 0.0357849245768315
0.0356830576528359 -0.135407048532351 0.03424405393954
0.0294227915411612 -0.147534540701529 0.0381301017694549
0.0241818417070858 -0.151957509602814 0.0394134916915341
0.00761680460487261 -0.160296812198003 0.0415307581888942
0.0135807895195342 -0.167548626134663 0.0442938524256067
-0.00288657840223654 -0.175533873856291 0.0465551197895549
-0.00434284811262142 -0.185358531698264 0.0499987235454002
-0.0108361078360705 -0.186647685642958 0.0507358275471722
-0.0159644699794889 -0.194788866701422 0.0537668619970185
-0.0214516349897218 -0.199172874940784 0.0555224307903893
-0.0276175604112834 -0.204991051995692 0.0578017847842272
-0.0294270934704207 -0.213454471343378 0.0607933878034917
-0.0408204891375253 -0.220690013213922 0.063796632475745
-0.0438030406452899 -0.221993692030693 0.0643798292296128
-0.0538292910068751 -0.229976039197062 0.0691321869984976
-0.0598658062492086 -0.231637335049093 0.0706963792829793
-0.060241857754301 -0.242953537111027 0.0779349886958149
-0.0619138858252221 -0.243889376712414 0.0786712021141158
-0.0712502225228416 -0.249016089647679 0.083452346958099
-0.071492967831448 -0.256140114330939 0.0877399792588088
-0.0818996927541318 -0.263459679935412 0.0946422420570406
-0.0868703945469725 -0.265084227279603 0.0968283096975256
-0.0840889596710312 -0.274162640854321 0.101532405456892
-0.0910103655910093 -0.277947879373167 0.105480333733333
-0.0971762490327646 -0.281723356771017 0.109236741131632
-0.105571326558497 -0.294012692769937 0.118593940885376
-0.112633035745494 -0.289687825510997 0.117763182153187
-0.109413371972146 -0.299154690146601 0.122590086939216
-0.116854593877441 -0.304900322387713 0.128482342518801
-0.118961992273719 -0.307197015946828 0.131677187242816
-0.12458456997467 -0.31422045844752 0.141104046609849
-0.129977670021324 -0.319875360939479 0.149055659272985
-0.132834373540587 -0.320502594683862 0.150880594717271
-0.136523027103121 -0.326730291627702 0.158697936287048
-0.148138083546243 -0.327638341101463 0.164462638822604
-0.140384082485032 -0.336790982388047 0.170450771886165
-0.1569240649326 -0.337969512949845 0.178544323758414
-0.152573971100627 -0.345607523462153 0.184426937017162
-0.161998120108967 -0.349292079677139 0.192075524761843
-0.154789794372016 -0.355661568846947 0.19548617057114
-0.162128134781826 -0.360787278007109 0.203716536900483
-0.171691276944383 -0.361841557461224 0.210646945765937
-0.173580550179969 -0.361389029185108 0.211263199640816
-0.174757714318149 -0.368119581579585 0.224741230457381
-0.18304773272605 -0.367793995512986 0.230545088452409
-0.180708267005282 -0.370296016259583 0.233407537089393
-0.182531510418754 -0.376314887029216 0.246056387771837
-0.190554175908399 -0.37814567216923 0.255679931583431
-0.194065723545238 -0.379295306933992 0.260542538072709
-0.19316922229107 -0.386382972580886 0.273083536402335
-0.19967971143903 -0.385824514887176 0.277076213220841
-0.198090807223976 -0.392261611284615 0.287866911483766
-0.198386920546994 -0.395671934631679 0.294463834700492
-0.202481177480223 -0.398012313878851 0.307668032640371
-0.21020384881809 -0.396342771915047 0.316652380090346
-0.211296950919913 -0.397212685687566 0.324422976056925
-0.206357135934362 -0.400890736003231 0.334010191634883
-0.20504622204356 -0.402712998667988 0.341525660286124
-0.205562267143592 -0.404135389766751 0.351137738317919
-0.212434796578885 -0.403604016919423 0.364739876355573
-0.209271869523928 -0.406018759573807 0.371229310835707
-0.215024092016437 -0.405953357097879 0.386747892403963
-0.213594323228769 -0.406545586720789 0.390569946709334
-0.211527369754001 -0.411928430962957 0.408723992273429
-0.221529251865222 -0.412049243934591 0.41190007047436
-0.227714213529609 -0.429570739933822 0.413579905738504
0.119863697758199 -0.0575697409283233 0.03211645196953
0.115051506070334 -0.0645535110023182 0.0315015313326667
0.112871279259546 -0.0742071392539863 0.0327928660276889
0.102439808549372 -0.0778135873204575 0.0306844114365806
0.0959137195972072 -0.0883622324725196 0.0311158251618563
0.0821482627082943 -0.100134918464319 0.0309653563805762
0.0818740442843445 -0.106255780690983 0.0325913574425981
0.0781883661750637 -0.108519280518116 0.0324360268127648
0.0628124995952223 -0.120331229164587 0.0329619522965474
0.0597603837757283 -0.125739088815772 0.0342894395297271
0.0503695936646864 -0.133847291322828 0.035640883243332
0.0483920494935645 -0.142136127513028 0.0380339397933842
0.0462548910967831 -0.144240279213684 0.038424440150419
0.0391538565865973 -0.157498043638456 0.0419959719507711
0.0280256970525551 -0.159588862412051 0.042211109539809
0.0206859375979981 -0.164456348683029 0.043552327481069
0.0181268652511303 -0.168513330890195 0.0448312786970319
0.0164508514638553 -0.173251282225784 0.0463843140225197
0.00506858725128587 -0.184616320579436 0.0497764016349763
0.00431314152399827 -0.191776171122672 0.0522037458017413
-0.00484381985387701 -0.198677444877073 0.0546004042259135
-0.0113508799057294 -0.20486175990833 0.057021075807948
-0.0168545070823305 -0.205031303048174 0.0573284681681003
-0.0218227309551672 -0.219290663914495 0.0624556679111373
-0.0285607286767365 -0.229100787897638 0.0664560618981096
-0.0283537580155909 -0.226914596628543 0.0653723608924823
-0.0348179545427629 -0.232436092746321 0.0691049053056493
-0.0456436371841097 -0.236604815292457 0.0726675884616428
-0.0513209834936954 -0.246684583991081 0.0795632342715201
-0.0483247644625313 -0.254866935862483 0.084523197928912
-0.0607867377412291 -0.25367261526853 0.0848074567666812
-0.0626395667355394 -0.266022640801433 0.0928283125210661
-0.0760067050561932 -0.269858353467746 0.0969910645813073
-0.0750082048665251 -0.271815202619378 0.097906955079152
-0.0800879885289744 -0.278489082688708 0.103116510854448
-0.0895490404183375 -0.281203197592344 0.107053063437833
-0.0870042546803206 -0.28622191328706 0.109405988577721
-0.09349841640715 -0.294649313257352 0.116003913943739
-0.101935932866782 -0.305045470613405 0.124247984595586
-0.108743712237742 -0.305138076859339 0.12597648073959
-0.104837474617013 -0.316385499725531 0.135041682595232
-0.110163914997711 -0.313694725364521 0.134553334296498
-0.117192909256793 -0.31836939503909 0.142199914057257
-0.12555503356037 -0.322015726164593 0.149366564538545
-0.127295922594934 -0.325174811931115 0.15327764634674
-0.131321094691462 -0.334149944430842 0.164004800525934
-0.13209963696773 -0.337317630125871 0.167522759650471
-0.139024607521671 -0.338668257559866 0.171775398179824
-0.138201179082679 -0.349859416151209 0.182711875934106
-0.146883478164245 -0.350675305901549 0.18715922422927
-0.143579901202908 -0.359328869726936 0.194502410302009
-0.157455560398667 -0.355003560956277 0.19593591192389
-0.153487074862303 -0.359064710541433 0.198372509253595
-0.159490265317642 -0.365968029541036 0.2089153545952
-0.161682752838591 -0.373279261575386 0.224262943239994
-0.169039197520404 -0.374160130594873 0.23159748424152
-0.170837980156028 -0.379029938281313 0.242081837453753
-0.170143663218334 -0.377862761532581 0.239365425937646
-0.172171440662214 -0.382488941260111 0.249571979873092
-0.174657984369389 -0.384989016170092 0.256163408797092
-0.180456522778188 -0.390147458608047 0.27028027147053
-0.188286726523255 -0.39100272851789 0.277933435472658
-0.179872182652917 -0.396299116811082 0.281314954516749
-0.189689881746267 -0.394418461818108 0.285396687403876
-0.193264920114901 -0.400663682774668 0.300817210379442
-0.191400184948023 -0.401852988190003 0.303266469692755
-0.190851597889843 -0.405221727014309 0.32172230684392
-0.192920474754035 -0.405303028082989 0.327234418557531
-0.193507701525345 -0.407990312545812 0.344450754141956
-0.197413678767115 -0.408002802913043 0.354029082044662
-0.195813508500871 -0.408718085847806 0.35433733886686
-0.199038681984919 -0.410469615261544 0.372475543518429
-0.19441969992627 -0.413490531802562 0.37898293241796
-0.203477358758754 -0.410736170614316 0.385019540389079
-0.201738577471332 -0.412037380126476 0.402346249307827
-0.199174549702269 -0.417418942411984 0.409100774573269
-0.21409099832031 -0.423749910834317 0.414657525561819
-0.21160720419735 -0.428534739297832 0.414960019390866
0.130640097689798 -0.0599772383367071 0.0358883429170001
0.126670638897268 -0.0701350539531782 0.0359646053119362
0.121251344711501 -0.0820806792260255 0.036760351098673
0.106615829880651 -0.087221711544122 0.0338192829090105
0.104896390381742 -0.0937313457970936 0.0347204151189573
0.100844978355505 -0.102104341473866 0.0354539676600502
0.0850611210169794 -0.110712610844404 0.0344902400258331
0.086089746783786 -0.112817601219275 0.0352864753525847
0.0788275512851087 -0.124212839050391 0.0368883529516426
0.0692862211759851 -0.12472328959532 0.0352280960509047
0.0565970622993033 -0.138367055401592 0.0379152612053743
0.0546382071114076 -0.143840580347178 0.0394088620475281
0.0474816842436455 -0.147650325262646 0.0396797063429928
0.0436725116330031 -0.160905638092456 0.0434208047520299
0.0312451291526182 -0.165963486117701 0.0445484048700013
0.0308696639563644 -0.171117621150757 0.0463033881369617
0.0347799709855244 -0.176090921205476 0.0481901824605423
0.0198238657387397 -0.186971144395643 0.0512538335877175
0.0176472568894098 -0.187599793675169 0.0513714443217745
0.0146814422271193 -0.196549275811337 0.0543140137159535
0.0079292044980141 -0.200606810529962 0.0554033648071472
-0.00787478432728607 -0.206852899169339 0.0575482897937893
-0.00518242683961809 -0.222095630973472 0.0626668383150455
-0.0182494641877836 -0.229966801126295 0.0661430407438132
-0.0124093194432454 -0.231074459048301 0.0663588086979627
-0.0256726227457878 -0.23479146331016 0.0698381881259965
-0.0289979924161419 -0.243132426657992 0.0754292149009697
-0.0316166541129437 -0.247722456551774 0.0785720865638099
-0.0367867322534231 -0.251316480592042 0.0812945493076238
-0.0453817825438539 -0.259730624492357 0.0873740304684429
-0.0501921887432607 -0.262401622635579 0.0894784777637417
-0.0550022130884895 -0.265390263760931 0.09178519394887
-0.0630950785490887 -0.273876956706764 0.0978687735423926
-0.0629350030337711 -0.278776515435921 0.100975789509259
-0.0709788667736915 -0.284859824741036 0.105524590116295
