ply
format ascii 1.0
element vertex 863
property float x
property float y
property float z
end_header
-0.00234248794399426 0.281294598447658 0.0124570036027862
0.0131712278036179 0.278477526614852 0.0124570036027855
0.0217783176623361 0.27812099539503 0.0124570036027862
0.0282655542771216 0.28705769088594 0.0189638510196871
0.0336478894596079 0.282502368538001 0.0132431281939723
0.0473316792932377 0.281123483639589 0.0138716351467216
0.044229859511744 0.286519423780914 0.0212889977472706
0.0570937277143243 0.286178088688789 0.0232999829631853
0.0735873118928642 0.282109702739175 0.020478879555769
0.0814015538582644 0.282544310267774 0.0248088464148391
0.0826313554131702 0.291738143786355 0.038255775354779
0.0901314597758927 0.284135403583038 0.0320249997784439
0.091107770245774 0.291553545890654 0.0428656313118408
0.101414650076181 0.291936015794229 0.0493120737111238
0.11044933928028 0.288582334311166 0.0498506160024434
0.109595548189626 0.29469579732809 0.0578326734759527
0.120435351871396 0.289476074878771 0.0568214012901341
0.127262500747258 0.28697254274292 0.0572709132888118
0.127412374996169 0.291226630271767 0.0632523414729265
0.139456001374576 0.296920493956195 0.0780563520722734
0.15172334764815 0.291938628402482 0.0781941519110488
0.141379980165472 0.297718469062867 0.0802666135862803
0.154561849943458 0.295585769668881 0.0848778023650709
0.159101938556691 0.29629126866418 0.0884616215286463
0.170169232028777 0.294576436583563 0.0924704466401899
0.174509034238872 0.296549730270871 0.0987815816400406
0.181823433190527 0.295492342158283 0.104202343990607
0.186078280241442 0.30043869540216 0.113973932949434
0.198411068547236 0.295520406735724 0.119382610585427
0.19393770795732 0.299541530641086 0.120083054630713
0.20812408288865 0.296424546344626 0.129327926589339
0.204576732536394 0.301575027194537 0.132217918264463
0.216415025530162 0.29624936317303 0.136690262493232
0.221667556831613 0.295774370256685 0.140921314359513
0.230845116873682 0.297515074695548 0.151373221730095
0.231720792846535 0.299940378224443 0.155059022348772
0.23471790141451 0.29980664177899 0.157636658107297
0.242443169813551 0.297635680046927 0.162107416639746
0.248134311884827 0.307160316026687 0.178638840964149
0.251866648810485 0.305551739066442 0.180132740247968
0.256168508373815 0.308861996392544 0.18800025507105
0.26468783282933 0.306913486141832 0.193460823591651
0.271633233996852 0.30040569946432 0.19205850065356
0.281133388682986 0.303981213249754 0.204988460974759
0.280006623477498 0.306152500051424 0.206543460635037
0.288324580009104 0.305996371485164 0.21395313961262
0.292140012359265 0.309892889602627 0.222074145183266
0.301290073355691 0.304972918878419 0.22457453868254
0.307101460199156 0.306141953498405 0.231538022966257
0.314272045431719 0.309167181303134 0.242833697587629
0.315392790616436 0.305408437558295 0.240735150671416
0.320180947686505 0.315483381732119 0.255633057398143
0.326189636418292 0.311892582758948 0.259504667441059
0.332560192157114 0.3133967254356 0.268459316021323
0.342026370286078 0.309173499366465 0.275867946373621
0.345253349762123 0.308456324683326 0.279053266365745
0.350782794916907 0.310745628987958 0.287723932280888
0.356673005941766 0.31550646449102 0.299080779704456
0.358172161518263 0.315116736592496 0.300508942862154
0.366878178372083 0.312265383543221 0.308265673554242
0.370973184175381 0.313318273747755 0.311425090069647
0.384704589664011 0.311836200777971 0.311425090069647
-0.0283302241543525 0.287768148817627 0.020033082487316
-0.0171580197660703 0.286612411107687 0.0161269092206313
-0.00344875131923602 0.28859785113162 0.0163954627718415
-0.00487161511005873 0.292406271128686 0.0223378019149035
0.0146147089942426 0.290617682148238 0.0215854643019602
0.0195939137617104 0.291242395758614 0.0234893929080881
0.0192034883753564 0.293329403677517 0.0265166817148123
0.0375106538373026 0.290651577280802 0.0261186527809374
0.0429896028541008 0.293099007057407 0.0308311098231134
0.0488333660342643 0.299215814026784 0.0410719713140346
0.0559149123406459 0.296302792347977 0.0381263116638528
0.0590294252824873 0.298174092857536 0.041519036847663
0.0716592719124654 0.29806522946839 0.0438299274594239
0.0758838989319884 0.29761937236449 0.0439940000751829
0.0830977064422072 0.299788228167778 0.0496794348659757
0.0959374402880961 0.294818325635725 0.0501623781522631
0.0948265846202867 0.302728470459573 0.0604867504154639
0.102004606953855 0.301195782441077 0.0624830871167473
0.108891605228361 0.297608001699382 0.0614643815327326
0.108530055797503 0.303922986814546 0.0700082713109973
0.119768477423276 0.306198391035266 0.0796127070357429
0.132256274327521 0.297978055839103 0.0753891173515591
0.132249880203862 0.304081300103379 0.0838434406502982
0.13647478736683 0.307614858620552 0.091165517198541
0.140670301530106 0.308481995261635 0.0947755425312314
0.150978533717906 0.309376654729706 0.101932563400772
0.159907826092866 0.306841958840246 0.103545571302617
0.162259480948376 0.309984853683462 0.109250964658106
0.177621331934031 0.305589598889609 0.112381266775354
0.175537030478497 0.308764365199736 0.115181235504812
0.18646759392431 0.307959382529957 0.12327927506149
0.190850607116436 0.308973498348023 0.128488417380354
0.197073296086965 0.305952332399988 0.130575338780645
0.201915260154647 0.312079778077962 0.142288584472333
0.20586643111901 0.310158696159392 0.143610420060511
0.212302283777927 0.307936416324489 0.146842688657687
0.217869150729705 0.309560733469345 0.153859015627531
0.222325952514075 0.313256014550176 0.162326204545312
0.226668359240325 0.310330963867861 0.162810541037322
0.241847584779014 0.307848619373691 0.173717267138285
0.238195710707264 0.31702844946953 0.181306860325325
0.246984404583314 0.315818498491514 0.187892309114987
0.251353671055727 0.311989370619315 0.187325293385468
0.259102895850849 0.316973873527907 0.200333145173783
0.264528283666374 0.313126711890212 0.200709057629184
0.266702844778016 0.319019737674747 0.209707618559745
0.278360271418922 0.315426574768491 0.216076534419635
0.28396020187035 0.318245405294729 0.224544559836135
0.285826455724624 0.320228164144521 0.228608257415677
0.294717937429485 0.316923830024707 0.232795187311572
0.29638775696101 0.321128415640148 0.239323552961694
0.307190854684538 0.315422029929658 0.242397546526927
0.310817350033024 0.321930229159497 0.253454004660295
0.312665876153131 0.324622033380189 0.258345299568795
0.325286619580286 0.318885960566321 0.264815998305322
0.331148122180083 0.325365191017709 0.277707820688029
0.339773465307629 0.318656274559791 0.281846043505092
0.336761511465248 0.328358439427017 0.287121183666183
0.345269518143672 0.318451970027798 0.288199952240655
0.347679579600609 0.31908423073172 0.291645341595846
0.355070239030247 0.319613377304249 0.300923634149505
0.362679954041651 0.328749393541756 0.311425090069647
0.372658002519522 0.323002156905334 0.311425090069647
-0.0483984931741854 0.297451256205574 0.0383626351895912
-0.0318021395401394 0.298398136423989 0.0365214162130351
-0.0367239765682033 0.300438335194556 0.0405191760629247
-0.00637566680501272 0.300108139621505 0.0340862460361438
-0.00318746745262881 0.299159418646644 0.0320511239507819
0.00512305307579189 0.298391140056764 0.0312875320923832
0.0228231859807972 0.2978717390657 0.0339805923518265
0.0172417450471711 0.301545039399244 0.0383506181135397
0.0350974865045118 0.300258463232757 0.0399332270325331
0.0447563211700217 0.299933772344851 0.0413414537292662
0.0447161881645109 0.305874593342236 0.0501685907919782
0.0493633636685453 0.309637729663387 0.0566748712290397
0.0697584558225482 0.303649655393432 0.0517627436105899
0.0664165669668576 0.309678914152748 0.0600749539920826
0.0771963720176221 0.309281548509741 0.0615945751640403
0.0807909639779514 0.309420836564573 0.0625055024051104
0.0947867206397015 0.308853246563567 0.0689517004136282
0.0948898306438904 0.31040785380027 0.0711652928597258
0.0968338740673106 0.310221188019981 0.0720225376338934
0.111216289945869 0.307953342168521 0.0771355814974741
0.106476953923187 0.313861586309494 0.0826028421854244
0.118915898337628 0.311462391725286 0.0864182589444078
0.124255791415846 0.309887914944731 0.0873015515539056
0.128642180976981 0.3173612729209 0.100176173183293
0.140752430921528 0.31019290063403 0.0971936925507702
0.138939674296575 0.318718981510211 0.107968732080911
0.154836752100567 0.312346916476289 0.108263523831813
0.15751953496531 0.316134154767706 0.115051936577544
0.161815183035582 0.319318117829698 0.121930144057059
0.173146494481641 0.321119254965914 0.130930652396216
0.174655417700863 0.320999825520059 0.13163130464037
0.182521942542148 0.321168346664005 0.136380427584472
0.184207273871239 0.32431905589861 0.141714163813125
0.196807032515858 0.314833664169074 0.140901253630443
0.204071033732079 0.316257150268432 0.149228310449181
0.205094105637349 0.321378289515039 0.156256829912816
0.211224973436998 0.323883886517046 0.164836919303431
0.216571694897045 0.326709063096482 0.173081280912539
0.224976488334145 0.322866016009961 0.176182710642994
0.228681857292944 0.320395253685534 0.176625957881815
0.233226923332982 0.326370863179806 0.187887403856858
0.236391036491544 0.326899278082821 0.191405518521336
0.243383173791656 0.329449937965538 0.200825695570147
0.249560745054982 0.32475265825505 0.20087679241235
0.259595038834271 0.322086761993987 0.206867032387234
0.2598981488145 0.329711176323905 0.216217096748907
0.268468854679043 0.326949422668835 0.220756799742509
0.279713573599536 0.325262854042674 0.229017759200977
0.280561781258995 0.323426722658562 0.227607241911081
0.288212371875767 0.327756425371454 0.239745794790634
0.297218449452996 0.324850824385882 0.244511871402963
0.300489500688106 0.326970716445576 0.250021541309255
0.308980520743274 0.329377906257354 0.260639677679878
0.306495440036462 0.336004724295532 0.266256558095593
0.315386682309136 0.332703277522788 0.270446705385532
0.321626273202668 0.334911930824657 0.27877270250057
0.328349053108462 0.330961711193476 0.280210676245191
0.334859105779339 0.328551163181349 0.285033247990063
0.336854498535887 0.335392413356201 0.293654859101937
0.347665328214525 0.333588852266271 0.304873163217621
0.349470428661981 0.336959877869921 0.310099512467501
0.359419946879894 0.335527072864689 0.311425090069647
-0.0584061605291306 0.30315013364937 0.0487972133947362
-0.0442848162126289 0.301503491732384 0.0435835734400663
-0.0370232004010636 0.306395237173675 0.0494366706695694
-0.0275203599945686 0.303709477945083 0.0435819430301555
-0.0122564399385249 0.30389473702678 0.040868942232112
-0.0135792366497569 0.309144724634 0.0489355415119914
0.00538927440395729 0.306982510614645 0.0441164606644171
0.0222297001152565 0.306817560848357 0.0471683277323515
0.0201661151367141 0.307093997406256 0.0471754073052302
0.0193774186369902 0.316896913224849 0.0615995647510775
0.039777259624198 0.310053735681479 0.0554166852837446
0.0368040202361777 0.311240258851539 0.0565991153097151
0.0510591056901609 0.314449657105529 0.0641630204563659
0.0605707140841888 0.312702107748603 0.063426393249824
0.0691488482091764 0.312381207819926 0.0646286681474039
0.0759615260608257 0.313887078676006 0.0682019993788295
0.0806014237457711 0.317293017756922 0.074175642844378
0.0788881092290508 0.322307350509538 0.0812973458756635
0.0929836434790019 0.318307225232037 0.0810181948675121
0.0929197511771175 0.324435776765127 0.0894745840674751
0.108655600790689 0.317612119295879 0.08905100127037
0.115104930472739 0.316825718660021 0.091663269521405
0.113682812596589 0.323672208589647 0.100334935969587
0.125487000196235 0.318854284286527 0.100434064030695
0.135488439853299 0.321311321376901 0.109580151333158
0.136812617910072 0.324527185417043 0.114796869287939
0.142035884328687 0.324958708597723 0.118393168721441
0.152125166723972 0.322213639675682 0.120380501058523
0.158946113783068 0.329517909944 0.134418294908602
0.161490999006992 0.327411021982959 0.13295935703055
0.165775327888758 0.325204435263578 0.132360739093213
0.178480094814518 0.326047186191691 0.140821495315268
0.180901106056049 0.32917955912296 0.14655211951191
0.188682758884534 0.332824625026963 0.156070386607773
0.194130436128631 0.33096962161262 0.157659414273043
0.197176381401972 0.333297967790153 0.163211597094916
0.206828488997802 0.327409629309508 0.165018043810815
0.208045447311187 0.335649745828747 0.175935285681055
0.214685684789459 0.336622104706098 0.183155902610364
0.224311250207338 0.329794638617936 0.183820522508418
0.223920509600912 0.338195201751671 0.193460643027221
0.237984779850354 0.331821575820238 0.198718514776041
0.238963712732637 0.332686858191678 0.200642131636041
0.243958625236181 0.336239547815063 0.209431004015782
0.253075011430246 0.334231023784401 0.215365356572951
0.25322804587947 0.341479990195982 0.224131586352377
0.2631474831309 0.336802095938759 0.227622607994848
0.274716933133391 0.332924711009032 0.233572955940997
0.278036878553199 0.333881393582296 0.237743018990634
0.276402330925472 0.340528998393729 0.244161293889307
0.29009354183704 0.335665235785151 0.250875292100538
0.289432660242609 0.336112746385752 0.250804364309495
0.297146069665327 0.342562603627806 0.265523327204626
0.298218637636529 0.342901429103576 0.26690594670538
0.309372093935765 0.341827532355769 0.275812668340043
0.308632610680401 0.346110715065459 0.280234530979864
0.321674871267509 0.347171266053819 0.293406056272379
0.329155850105167 0.342494733939407 0.294672039762852
0.334743501188515 0.344334435159919 0.301963659112949
0.342428582711233 0.344780370396349 0.309511907241739
0.344437729698114 0.348452446891864 0.311425090069647
-0.0686365635686347 0.309255348636625 0.0598796927652153
-0.0637744536183213 0.311605385032977 0.0624226409820682
-0.0544900860851868 0.318768623508912 0.0712577952368027
-0.0400083681973112 0.319300724003427 0.0692137524492697
-0.0250878774067089 0.313391849378097 0.0575049951001641
-0.0343228767177144 0.321230333903451 0.0709702468484257
-0.00831083026502621 0.320832551019854 0.0652857970916175
-0.0102070202597568 0.322396994665461 0.0679836402012436
0.00669931865921127 0.318504170363811 0.0615075888260464
0.0195600761173506 0.31814878425852 0.0634970687843183
0.0222628729754735 0.320773827254613 0.0679301255417146
0.0274011258222711 0.318789072436971 0.0659844779622915
0.0376306058405298 0.319711204119486 0.0693586646522621
0.0448670275036785 0.327565158995473 0.0824556233046366
0.0554091637840285 0.324389838065692 0.0797974272358778
0.0579189502253947 0.324526254076769 0.0804916899668794
0.0640022899467424 0.331095444693292 0.0914522281417989
0.0758638521645516 0.330697436505065 0.0931826902074015
0.0865270783871022 0.326938729021011 0.0896806088501094
0.0844450613386067 0.334124230560956 0.0999590150811512
0.103335802292961 0.325628801497735 0.0971069760548808
0.103807238002652 0.328265255378561 0.101031240676525
0.108309384063075 0.330236674966906 0.106347617049138
0.110429037989741 0.334184206691193 0.113034917355273
0.123794362249902 0.333413661570842 0.119639113300747
0.124619912308609 0.337687467658132 0.126035722750783
0.132798814811288 0.337770519547389 0.130845713385771
0.137452278297408 0.334017623327218 0.12831608244647
0.151722911018607 0.333429377248353 0.135692581745611
0.162274498741256 0.332357269905072 0.140263711408847
0.161325232288612 0.336500166961897 0.145460115286511
0.157415743490876 0.341758215593575 0.150502675666281
0.180442681477319 0.333621252664777 0.152444356904466
0.179521917144075 0.33816687959603 0.158215232547623
0.185994660560615 0.343562820690219 0.16940854935215
0.191467365738751 0.340679453265706 0.16855419353266
0.199939016909747 0.340815233145223 0.174680047373181
0.206657612003592 0.33700634694325 0.176282390811886
0.208625800795817 0.344013507250783 0.186418357998362
0.212165245452284 0.34744474855285 0.193733654201324
0.221151670664603 0.339112017409102 0.192023337652259
0.226035801514888 0.346093231662467 0.204791097836881
0.23115369781713 0.348389987423703 0.212197672919103
0.238120132113773 0.350359593999358 0.220902908599164
0.245887525784168 0.344775953662019 0.221350943535941
0.257582831708894 0.342773430863749 0.22964735803056
0.252067803478583 0.350646374836212 0.233980392928518
0.259982116354337 0.349306458957941 0.239612745445715
0.269009288923463 0.347389034819878 0.245574044888318
0.270548765478099 0.34617673340852 0.245537130748096
0.278861108442737 0.345448816074214 0.252261237947499
0.281518742369398 0.352174343878468 0.262691615411054
0.293980735271445 0.350857115899673 0.27250364549672
0.300193786393839 0.348401967060563 0.275255343517749
0.306875419662451 0.347886161168397 0.280742799951579
0.312376121285326 0.349086215254148 0.287193822798508
0.316061453572376 0.349433783575698 0.290972671755985
0.320354921742904 0.359216973936212 0.306535508611155
0.328828098474681 0.350207417725267 0.303551081102632
0.33518211213259 0.356670787173562 0.311425090069648
0.340695230171018 0.356018866300373 0.311425090069647
-0.0905391853631621 0.320160112997695 0.0821827820585459
-0.0855862081284847 0.323601140849649 0.084532844568945
-0.0770540329164773 0.325184511751059 0.0852170734720563
-0.0500682091894488 0.321814002835268 0.0749210276323774
-0.0467365438006305 0.325977709435783 0.0804608515069698
-0.0324781825559086 0.326348823588735 0.0782211259360027
-0.0372800078587664 0.329957210884147 0.0845275474575598
-0.018670902388647 0.329156789099512 0.0796937228431431
-0.0167442964415341 0.330957802186696 0.0819949217916993
0.00216122567988415 0.329852263943206 0.077495592429768
0.00670676212465401 0.333505516582076 0.0838185576095291
0.0258761664964497 0.329601232985656 0.0817653987856693
0.0211364163447746 0.331420401987435 0.0835428151147882
0.0440016724208442 0.329962981941934 0.0858521599069435
0.0449537394212013 0.330652844323698 0.0870645051975688
0.0599186625636434 0.332355834115638 0.0925271075668274
0.0599360251982311 0.332593177109265 0.0928834757218194
0.0602187762748199 0.335895145868133 0.0978494152914742
0.0784054748921337 0.334344806738996 0.0991045624263781
0.0737199325732115 0.341588652802062 0.108959994364031
0.0888633681011492 0.336021490254217 0.103645614778177
0.0937667202446973 0.339915949176312 0.111413487287968
0.103536114288132 0.340969740182926 0.118481729068804
0.104047396414136 0.344786403390739 0.124064423397413
0.115161588373884 0.343232460901125 0.128290765596814
0.11397113370283 0.343452603603867 0.127912492683366
0.122817952728731 0.340650291336716 0.129107290867893
0.128856312275038 0.345483793568595 0.139271821777017
0.134060886373564 0.346049310119692 0.143043081947333
0.145526279470433 0.346849819472407 0.150733867232756
0.146775914294979 0.350566254028519 0.15660149577901
0.162583070658607 0.343833329875547 0.156344584830434
0.167733616268096 0.343665792453365 0.159068950946098
0.175940952159676 0.347651817899903 0.16930407913963
0.172965758659365 0.353388721467664 0.175546554928025
0.182086611887338 0.353973559039857 0.181592633251282
0.19074951851369 0.351508877161296 0.183149755801696
0.199179266226641 0.350989333395182 0.187268649207208
0.1993998571529 0.353605099318379 0.191020252843846
0.210869721374003 0.348030815358994 0.193248093654942
0.218067402168349 0.348958482269086 0.200924550786513
0.217869058809894 0.356454237718696 0.209663609042953
0.22344046613843 0.359861401219828 0.218805722690129
0.236644605336096 0.352786348374997 0.222443453449555
0.234716724995199 0.359632853484243 0.228830571209245
0.244593032160363 0.35994331381404 0.238218500613545
0.246405640261683 0.35570228526272 0.234826718209342
0.253465817409247 0.358926122294225 0.245110126319699
0.260845227744024 0.35493707457781 0.247101490395063
0.264072796521437 0.360730243635495 0.256942764500985
0.271395597971752 0.35868302278038 0.261193268858267
0.277192893819823 0.356614352832617 0.264025244696027
0.284427953770482 0.358646990026948 0.273050782109401
0.285404103758114 0.360890512008794 0.276612004288969
0.296022019587884 0.36005436955242 0.285312636093321
0.301381537517572 0.360641584133058 0.290905440757359
0.30637828120766 0.363258147026306 0.298581966368273
0.312802095107187 0.369106643051503 0.311425090069647
0.325746526058526 0.363698564445928 0.311425090069647
0.327286413866269 0.362576815891421 0.311425090069647
-0.122032122737308 0.327352685202029 0.110228125481483
-0.0937024060162674 0.326106564380394 0.0922392573491578
-0.0757624988054199 0.328524135314535 0.0899307838589951
-0.070790484320957 0.327222337948693 0.0870213262181444
-0.0544051391780167 0.332368741428341 0.0914668140802458
-0.0550547533928289 0.335874696927641 0.096807943931031
-0.0399021306719972 0.333611524381123 0.0904755065247142
-0.0487031664312198 0.339455252280147 0.100889256047712
-0.0212920360248244 0.337355345936859 0.0923995383029912
-0.0296220211083882 0.34173338514618 0.100541336869764
-0.00143061333547087 0.340518779028306 0.0932154387136432
0.00471339198348586 0.340830383639558 0.0943215797947931
0.00988107862623787 0.342207698538243 0.0973816551530809
0.0236696752483405 0.345109773221473 0.104397185220811
0.0217518600552534 0.34336042588464 0.101420125407216
0.0427528770660998 0.340507190975765 0.101288661948934
0.0375616916640181 0.347698273225627 0.110966625769983
0.0470691279587647 0.347321695332394 0.112268045630247
0.0637615027062002 0.346102875808719 0.11372364527205
0.0603621140068867 0.350186470436242 0.119131069741943
0.0667086280039256 0.352329367757844 0.123560496007731
0.0859734412163813 0.350755092265194 0.124991129055047
0.0922678390123801 0.350994557861034 0.126579630121699
0.102452822696362 0.35013886584083 0.13056664374146
0.103415536095758 0.35146703114614 0.132959862555609
0.114747401015927 0.347288230293231 0.133673575132065
0.113921990488864 0.353737222340284 0.142136906368055
0.124350550755652 0.357608234330965 0.15348768534678
0.130796599765143 0.358973619785618 0.159080057100311
0.138778175476024 0.350488214250341 0.151902443534745
0.144629410434697 0.35569437481653 0.162475997336187
0.144920992281525 0.358981518831011 0.167198760262221
0.153977792190471 0.361696851391097 0.176160551439656
0.163008827918181 0.356029288536517 0.173490375083942
0.168416879575476 0.359023570577894 0.180744266578767
0.169366995665256 0.363132726025663 0.186984204029492
0.188959184477524 0.357215824319208 0.190030856549115
0.187722096678134 0.357687672365403 0.189974633169805
0.191763921663497 0.362958736192442 0.199599484333975
0.195569122081352 0.367813116186066 0.208511058547799
0.198739093225172 0.36829792448251 0.211002558397938
0.212886324187232 0.367605474404388 0.218383970378516
0.220875916147671 0.361532598797939 0.218452699285742
0.227268524026103 0.364568713995807 0.2279031271471
0.233401613709024 0.360500861003884 0.228662642668086
0.231130796269846 0.369993965493392 0.237886142798874
0.23793398075169 0.372098061854364 0.246602355073749
0.248331713499661 0.368174771561058 0.251428129854217
0.25745169561615 0.363948147639696 0.254726160563618
0.261282564067673 0.364876195020675 0.259328692227431
0.26817782854263 0.366971399347178 0.26811840483672
0.265446393579872 0.375363733688329 0.275611346183549
0.276648825970316 0.366582389802885 0.275390696553476
0.277506713429042 0.377274838830479 0.288898404974332
0.291301284466095 0.368249125982868 0.290753939985707
0.294661191980182 0.37300046864749 0.299476253495895
0.303003056509023 0.37119238544207 0.30494188827684
0.301890696077323 0.372754331464028 0.305784907728691
-0.153699434921109 0.335953600103498 0.140325272919401
-0.118422573538881 0.331865680173501 0.11441034899337
-0.103662745404623 0.338493652505907 0.115123008426005
-0.0911783286947594 0.342352225455141 0.113513721590822
-0.0746463812443198 0.339488227156692 0.10601769877082
-0.0706067922978312 0.34260932579228 0.109868386331982
-0.0606258882672373 0.345710374628168 0.112526010634758
-0.0401664785693864 0.344601739235845 0.106871551076079
-0.0326361402722831 0.345218868911013 0.106314966567874
-0.0270817189494631 0.344334933512113 0.103912910556454
-0.0168953774127485 0.344808926919898 0.102623441489004
-0.0104458146841804 0.348875110097797 0.107407780818036
0.00527249228214474 0.349744621164592 0.107688008125263
0.0100525229160536 0.34674876285274 0.104168544428237
0.0172697318105564 0.35268556099111 0.114410608632373
0.0260244172341613 0.351940718561438 0.115016976961866
0.0287122874411588 0.356297440426937 0.122022407415794
0.0291246796002227 0.357004908518322 0.123155272788815
0.0427713038963049 0.35981384303653 0.130004491188871
0.0651599637876691 0.35280750932839 0.123968360647657
0.0528148205571666 0.360355130176859 0.132775888698942
0.0705734431246515 0.359433972519898 0.13488292123489
0.0850938241990171 0.356302231959966 0.133068434183771
0.0914280574670344 0.35822297142318 0.137165070113694
0.100990782491001 0.357535169892831 0.139977336790205
0.0940394402240439 0.365197833231635 0.148049137233425
0.111369459373987 0.357985558377936 0.14655911538429
0.12074621729573 0.359062849077111 0.153434540484513
0.126183766695011 0.359545679022355 0.157224945642312
0.121673830743752 0.368966783133801 0.167692076881285
0.13334852657163 0.363192686457696 0.166391791281439
0.139556579429543 0.367659638682023 0.176145758344535
0.142116414083685 0.365803326031531 0.17504265391654
0.151441672701436 0.372525247766847 0.189710955745441
0.155388649429693 0.372310866756361 0.191679526306573
0.16499748248604 0.368820832641871 0.192358681499896
0.178000760720943 0.366233293294337 0.196237028256161
0.180519725810185 0.370767662709752 0.20396679420932
0.183762379713127 0.367215724572526 0.200905814679051
0.185437191838472 0.37464679720109 0.212165322817295
0.204501049117117 0.371059009969221 0.218136431537764
0.20810121157113 0.371485961326787 0.220794692756175
0.206288266094318 0.378729627807638 0.229792429262534
0.220388941361632 0.373812280800431 0.232621212187369
0.222065047545158 0.376173053699231 0.236961125977948
0.223968644732072 0.381492570038646 0.245029764878505
0.241570546015671 0.373846581866523 0.252003847362245
0.241550288395018 0.377219362587683 0.255999059551901
0.242552982920339 0.377082020149828 0.256751220557288
0.249574896497214 0.379404381872844 0.265926905917918
0.25703102561286 0.375662583343754 0.268282559098263
0.261301074922055 0.38388175447995 0.281962781390359
0.267690123755838 0.380518853962675 0.283794938599778
0.276658864845954 0.377655876633233 0.288577645122184
0.277993670062159 0.383608147238654 0.296879892669175
0.283189946941713 0.388346251997146 0.307263318932458
0.287790591653113 0.387151536612447 0.310042614344043
0.299781318300682 0.380908126992311 0.311425090069647
-0.142760719485794 0.337604707260886 0.136334311329764
-0.14784678644456 0.342571129860044 0.146136405955038
-0.115043791228075 0.345848550803901 0.131848574947269
-0.119134797537641 0.346364628650004 0.134912106090622
-0.106345013816991 0.349867636429826 0.132424984375492
-0.075909841339216 0.345758521858553 0.115590047915823
-0.0769817737271295 0.35482012751876 0.129276044346602
-0.061894988986681 0.347957441395805 0.116116251161343
-0.0486049387192941 0.352918620281303 0.120892304646196
-0.0375456335360047 0.3518768429364 0.117177713961985
-0.0386168082206416 0.357495035630323 0.125742630906063
-0.0220538642800665 0.357839495911969 0.123012053963564
-0.0164569031518315 0.355994144873967 0.11917188322137
0.00615913454728514 0.356694111372565 0.118196657717152
0.00938182877969956 0.35738894000218 0.119860953138973
0.0213947718523768 0.357886357333538 0.122952701499622
0.0190688190718803 0.360271095632945 0.126043809659042
0.0352956832246018 0.361289734408319 0.130735742112491
0.0332472560728176 0.366032089832604 0.137387357892571
0.0368646787790091 0.369189920384394 0.142791832820298
0.0533716831928723 0.366320862920273 0.141756959047265
0.0654311914183127 0.367587148352598 0.146001259857704
0.0665001721119885 0.366365194971307 0.144393305725878
0.0785082159788702 0.369790312843328 0.151838075359533
0.0854859083080734 0.373164251380667 0.158221843813008
0.0894267418077228 0.369108149371354 0.15296131455782
0.0984957887327097 0.375098012015444 0.163644864609321
0.101342436901428 0.375131691077714 0.16456479391456
0.112815357351368 0.371606654768752 0.166265475434299
0.115138910742409 0.371278068614316 0.167143892480624
0.125478030485832 0.373483605850194 0.176135283292822
0.137814659851363 0.371888839738957 0.181006761142978
0.138548776585476 0.376580646974962 0.187930159624077
0.138873636650821 0.381633793935596 0.195119386048898
0.153724846084615 0.376795506652381 0.196939361860184
0.157048386124485 0.37913714621797 0.202092246726025
0.165407780421532 0.377999674810694 0.205314419451156
0.166322979176251 0.382394295003235 0.211929916025859
0.178852073664793 0.378403888537284 0.213591949060371
0.187887580071725 0.377721298597794 0.217832610656523
0.190514189161614 0.378716419972739 0.220719408735539
0.186382512972934 0.387118104184853 0.229990938820873
0.20288707404387 0.387578117234055 0.2401024669026
0.212034773022496 0.385093699706656 0.241910522412011
0.213602768994539 0.387631531449083 0.246327567738463
0.225259399812023 0.382209006078461 0.247060988126899
0.225401271583233 0.387278983701669 0.253223962744026
0.232533508360445 0.385295055561649 0.257375774697639
0.234158127928686 0.392129265173007 0.266992197827709
0.245526265766812 0.392357287142382 0.277644276567562
0.25179720374021 0.390786100039458 0.281500774505937
0.258700111210253 0.391239593559723 0.28834378112826
0.257285868796147 0.395003401481407 0.291531421159119
0.267575402430013 0.393116728149952 0.298682030072975
0.279213259760459 0.390635141469302 0.306355885438123
0.278780104923363 0.392254966800563 0.307887994257573
0.287365370852087 0.398468555565301 0.311425090069647
-0.177828922207738 0.345386622544112 0.167248669987391
-0.173096455085491 0.3496648087759 0.170460907888276
-0.140618179746853 0.347812227451512 0.149250218110571
-0.1519043990198 0.354708590146496 0.165285904319272
-0.111522955302904 0.353327164101388 0.140191533217982
-0.105138786875956 0.360704619120634 0.146750679529807
-0.0873341026346397 0.358642803256954 0.136987877781958
-0.0859225140094553 0.359995606395501 0.138723348429864
-0.0734920870253977 0.364795295732107 0.143427544970468
-0.0437268546411549 0.359416165560399 0.129600164853877
-0.0384440876364835 0.361056423562148 0.131005193712361
-0.0316947312871252 0.363189770289042 0.132856385510895
-0.03254259606297 0.366835879897441 0.138444763304837
-0.0236999859414453 0.36963284121285 0.140873024347599
-0.0118468207850248 0.371565790760555 0.141426920921716
0.0027985458740569 0.366059706422335 0.131466897081153
0.00934448969423844 0.373358919587992 0.143603673840899
0.0145687433539819 0.375139358006555 0.147274336528613
0.0274110200778238 0.371160218970168 0.143871071323435
0.0322806515788864 0.375069246253585 0.150637870529129
0.0379502564948736 0.374203576834325 0.150460523194681
0.0448271098852685 0.379350218122765 0.159460854014074
0.0544884091196987 0.379592270081771 0.16171240467194
0.0552425867580712 0.381552098215633 0.164774656873772
0.0787136537297853 0.37743923614158 0.163253526419222
0.081270811608163 0.37870090846846 0.165630508358212
0.0901152614242741 0.378539129906726 0.167121565107811
0.0887048751098516 0.382337681433124 0.172494508162307
0.110886724022158 0.381405715285513 0.178738118574917
0.102731940811808 0.387126120815242 0.182362067802554
0.109568131863078 0.388268192827472 0.187491367329928
0.123750384870581 0.387723248028194 0.194877142199697
0.127769091665158 0.38729709697523 0.196593412611037
0.138833000230693 0.384634392211574 0.199254346720494
0.132004516623384 0.392008590767839 0.205553932075665
0.149131708017937 0.383971179646876 0.204246971216571
0.156807944066339 0.388500298030477 0.214929863416936
0.158943027896987 0.387370459304921 0.214589702919617
0.166959109804012 0.38784896606081 0.219854259423968
0.16912844756124 0.392694851832994 0.227815035875022
0.180015232654898 0.388654325429287 0.228464884838181
0.179322281806732 0.396405436294882 0.238808752649051
0.196042600729663 0.39647793816192 0.248507110689088
0.198225592632313 0.395991546423375 0.249086151882249
0.209484912962085 0.393337258332063 0.251870921245664
0.214194596165727 0.401061802256624 0.265279219891076
0.212346471939553 0.401406909158986 0.264696605913043
0.229245132262124 0.397607666875776 0.2691317986382
0.233198147043519 0.401580377780078 0.277362706458929
0.238597110093598 0.401797887026274 0.282551569681745
0.241615197766362 0.401047938114247 0.284415051016958
0.248294112251744 0.401226759019685 0.290726651550444
0.25502566767512 0.405002752123459 0.301367063611616
0.262982675441847 0.400799446009093 0.303630882320528
0.272789969892931 0.401368389585853 0.311425090069647
0.278943153613435 0.40725635298392 0.311425090069647
-0.217476463297424 0.352920115423873 0.205099401943769
-0.197280669455868 0.359412316078295 0.19785153886927
-0.172933914076976 0.355961757257421 0.179094037990751
-0.169315972591024 0.361974711408524 0.185350116497041
-0.139194622253448 0.364358575641675 0.171363308954999
-0.125112569355637 0.364803057710093 0.163895828276848
-0.124337845760841 0.366669305931408 0.166037400251649
-0.0938107074534981 0.368059907035246 0.152260736355255
-0.0681672158761232 0.366144711720014 0.144391799558302
-0.0737203595554831 0.369650804335874 0.150693191868522
-0.0552784579751746 0.370389669344648 0.148181280956956
-0.0527836654741913 0.370493483346387 0.147847216096501
-0.0345953546386908 0.37279854195504 0.147714147431165
-0.0266824636665046 0.37477216280125 0.149099992508499
-0.019120427255854 0.373739019883086 0.146082970425415
-0.0081487045106959 0.376787512039347 0.14846844246228
0.00485357559230787 0.3786547133612 0.150600132249945
0.00509370626966392 0.382884659484021 0.15693778478541
0.0203870179733687 0.378019559845566 0.152696834345162
0.0194291884108989 0.38092564859914 0.156831141718925
0.037673755467689 0.381361802240787 0.161051865949034
0.0347690704163084 0.386637605704742 0.168329162080937
0.0380372564876461 0.388695282367256 0.172029147336101
0.0558284248299375 0.381985027092486 0.165533195358382
0.0514467162523932 0.388570091700078 0.174468396454833
0.0690295510925727 0.390184047591339 0.18031114958733
0.0741180687119828 0.394162198597253 0.187223602889563
0.0822835278702197 0.39473790254464 0.189678480407507
0.0941549140409147 0.38893078964097 0.183366622285716
0.0889822409723361 0.395364426854253 0.191921763139434
0.103985221686008 0.39779943176358 0.198480445713352
0.109227559187042 0.399166493585993 0.202398945563901
0.11715629125916 0.39977087099188 0.20778779504221
0.125608267208622 0.392705679907663 0.202848363638136
0.1358983975642 0.399162879202922 0.217703668643425
0.134180127993395 0.397970634692085 0.215065103245833
0.142325621316754 0.401475476722032 0.224597898984997
0.147852129680492 0.400451998112006 0.226351897359793
0.159120995554636 0.395265640165313 0.225633154834322
0.164925904728264 0.398366591445806 0.233262676814063
0.175232264656747 0.396510592339506 0.23660670722299
0.179086089218168 0.401326255652439 0.245492538594763
0.185727130918247 0.401365115372863 0.24935851609367
0.187125283516976 0.403326953490704 0.252879843971609
0.20051396691256 0.408344367979094 0.267518514774539
0.200677777880812 0.407940352897143 0.267052654492363
0.209825990407849 0.407704744518878 0.271977447909591
0.219922018989514 0.403264614152976 0.271619603865812
0.223136510112705 0.411611279610803 0.285031772682117
0.230625936128339 0.405682677917036 0.281114920921353
0.238867896035761 0.407282408059882 0.289325580360272
0.238045733029628 0.41372306022685 0.296516587914212
0.249948511704108 0.408806142172476 0.301257046825023
0.259026850059337 0.408342894755535 0.308995581841837
0.265031770505804 0.418552314326609 0.311425090069648
-0.21770722259275 0.360384800681916 0.214193317456875
-0.193097230076558 0.361122609255766 0.197820296750012
-0.194612080488755 0.364098323330945 0.202813660975894
-0.188832180959377 0.366385540722338 0.202665523291421
-0.153305196162008 0.366254383212737 0.182090379957679
-0.146468984630377 0.373253894472913 0.18786628040402
-0.126268552697708 0.373425898664028 0.176509091190658
-0.104265633064624 0.371899637582261 0.161763739917727
-0.107981740597024 0.37938006422866 0.174263398705622
-0.0875158157219588 0.380191352579043 0.169069753001173
-0.0793312772061899 0.380692717074327 0.168212920908648
-0.0677808259224515 0.380961074070935 0.166350558019865
-0.0642441438993695 0.38175336748646 0.166836386416798
-0.0451179543342643 0.381665571775617 0.162961116463832
-0.0374557566393931 0.385655457345505 0.16739456754871
-0.0360249800358832 0.390120201175638 0.173754257807355
-0.00639083631572273 0.383958411772866 0.158788598237745
-0.00149675524044177 0.38588011341544 0.16068828141492
-0.00481415806079481 0.392335458535799 0.170937971474184
0.00876241829092973 0.387882347208281 0.165088477020593
0.0174380665792375 0.392445501944236 0.173573250496688
0.0233793354817476 0.397024689881663 0.181546505831628
0.0337301186286301 0.389980609742221 0.173097352711583
0.0352644817141017 0.395007968327199 0.180874287821168
0.052489894435043 0.392599384212571 0.18066487160354
0.0525321339064962 0.399426993799254 0.190826939299871
0.0691179307568983 0.395780894097215 0.188651900441133
0.0662106901287471 0.402128328284486 0.197522390379361
0.0777109935982526 0.400807449106606 0.197809658301128
0.0878340836594997 0.40022805649227 0.198929997154619
0.0984236403348277 0.399110930474665 0.199341965645321
0.106872123686959 0.402095605607365 0.205434799423081
0.10970462129225 0.404771806274693 0.210440741709334
0.12082085366144 0.403352245557503 0.214854484008693
0.120601809371166 0.406324800263009 0.218848170754962
0.130193052294608 0.407302851338203 0.225709187454031
0.130708675892678 0.411349806613007 0.231613517087577
0.146253880471042 0.407183092141516 0.234762542127833
0.142694992832281 0.409916804959526 0.236508083102813
0.149970690945484 0.413610384915179 0.245803151177114
0.165381873600297 0.407420855413035 0.24607198815548
0.168978756331303 0.41057042274291 0.252501420487961
0.179848588776775 0.411476663660106 0.259996863824542
0.188624321098578 0.409154565306916 0.261816346162694
0.187732611780783 0.411706306677805 0.264840735026326
0.187692651824162 0.418984114859574 0.274903524037311
0.194248668950785 0.420717483029819 0.281068977804494
0.209526806714129 0.415652816469637 0.28282030044271
0.220565355781703 0.416180517311646 0.289888003221805
0.227993821915393 0.414968382360084 0.292472329589094
0.224290928904598 0.422497443286854 0.300780693812426
0.232690406268015 0.41922536025236 0.301067689237314
0.240839984171889 0.420978893076559 0.308175831532981
0.251260879758559 0.424291932261551 0.311425090069647
-0.297527457307168 0.358419263953282 0.284741489986026
-0.302599478145134 0.364592893814543 0.296719770774179
-0.212260528606923 0.369710711051715 0.220722069244168
-0.201471881560433 0.373936550595019 0.220385364513281
-0.178616316383829 0.3774703751754 0.21216293761959
-0.156222225223984 0.375717080311317 0.196878416255895
-0.139919738026739 0.377203999406748 0.189580979798955
-0.134677224237226 0.378803952673808 0.188788891156783
-0.120305719414626 0.383564202740781 0.187136132375905
-0.0925915968805024 0.384893856311128 0.177056946323074
-0.0876978446557078 0.385635072847974 0.177201115047649
-0.0828265813443829 0.391666468800937 0.18521706865737
-0.0708185171994188 0.38846851645264 0.17811012819025
-0.066276068224076 0.394544136094547 0.186256228148537
-0.0398173922327151 0.390459177358207 0.175000885783931
-0.0443079619242433 0.394863182197658 0.18242958317934
-0.0306880673584867 0.399191664957124 0.186200131699307
-0.0257235099093708 0.393657553272321 0.17699797464122
-0.0139193743887084 0.401840731487965 0.186856606335686
-0.00164737717880133 0.398769725047831 0.179886780404096
-0.00642980128385729 0.403524092801712 0.187893668034117
0.00878861967173626 0.405756462156967 0.191675406096515
0.0147299801458505 0.402871755211817 0.188548619019448
0.0312212885814356 0.406520341799883 0.197203499197705
0.0321529940121036 0.409098685828862 0.201220346048486
0.0464467687894979 0.405398563914807 0.198516213752482
0.0445637562006235 0.406169472206824 0.199294009654857
0.0560530590434989 0.409832717517216 0.206991350690281
0.0651774655066459 0.408505169737187 0.206803526101029
0.0690760604994496 0.412715456723277 0.213828230336059
0.0848910601255222 0.415872337934592 0.221619448340176
0.0900743808818182 0.414917282692831 0.221213960104579
0.0954259667986383 0.411294089194147 0.216873448438623
0.101542841504001 0.41615726523085 0.225303423321308
0.11790576111478 0.414445022251646 0.228553731596222
0.118317615485725 0.413840163972304 0.227951922086154
0.126445240653086 0.413214949407399 0.231750948920271
0.129203005933495 0.417787069252251 0.239670107462289
0.140500970889591 0.421006300979967 0.250616696929969
0.145098466532031 0.4226274699225 0.255502422256192
0.146686145103017 0.423547701967535 0.257689065011102
0.166204325770778 0.417783323932766 0.260904605242322
0.162311141730417 0.419655175361573 0.261263867529695
0.170272907977508 0.425032794361994 0.273286529774583
0.179547072691095 0.423512848660373 0.27650376346557
0.187290423807184 0.422934745413169 0.280147495103584
0.192825027173295 0.426164622687268 0.287800522882063
0.195677386343111 0.423989409554233 0.286423396439537
0.207025516163411 0.428983289298538 0.299858123270753
0.21478733748414 0.426136757683502 0.300368825460717
0.216627572282648 0.429617243949848 0.306248491551289
0.229629449159121 0.425850430627468 0.308491773259698
0.22895503801715 0.435417371472985 0.311425090069647
-0.315994748182335 0.37014977179675 0.311425090069647
-0.307412643218655 0.368466759196557 0.305724890707484
-0.2928614383555 0.37395161397775 0.298964714100554
-0.228127354417393 0.380559257520373 0.247716588048945
-0.207688951997373 0.383781772225776 0.237597817430918
-0.20988048443983 0.384080859825851 0.239270293534952
-0.168101395480014 0.385699005618462 0.217530503456228
-0.145355760339029 0.385388513777666 0.204043651280528
-0.138402090787171 0.392631382341545 0.210089377117328
-0.138289991025512 0.390284437621941 0.206772587749422
-0.108715142054755 0.399109507059768 0.202025832215609
-0.101918545524763 0.398615425504198 0.199289331860107
-0.0897818111597088 0.397418106130954 0.195132475066083
-0.0836154316461158 0.400133177714148 0.197962929663672
-0.0684602730064048 0.401627584932864 0.197218145475768
-0.0571107011002649 0.402315094197098 0.196018462160171
-0.0467656204951078 0.403535020992914 0.195807241420216
-0.0318883596659035 0.403491721780858 0.192830039938224
-0.0314049705034811 0.40772853835139 0.199036252544282
-0.0221494460251429 0.411556785000399 0.202917363195894
-0.0141405123562859 0.411088717325196 0.200653204835553
-0.00369768205737293 0.413651280822503 0.202419571140201
0.0041539334614769 0.412560152539907 0.20088620998459
0.0241339424987609 0.410800746431937 0.202181550517604
0.0279179261823613 0.413091087859816 0.206328534849263
0.0245259542677266 0.416181283155033 0.210260060451187
0.0501555349465827 0.412315044442516 0.209528314055945
0.0462883642252724 0.413391231260006 0.210371633287687
0.0571071099318453 0.415211920700615 0.215197497595275
0.0616556437773081 0.420035473126257 0.223261481198777
0.0789670329980127 0.420358277247481 0.22713092950513
0.0810246519861911 0.424330192955482 0.233440692390243
0.0903477724611224 0.423629540356979 0.234224071885454
0.101024694257195 0.422040281117825 0.233951004446387
0.0990419199639044 0.42535246101118 0.238488564081404
0.116024906335406 0.422745866097145 0.238977543249239
0.120920873874939 0.428173993090283 0.249310354886653
0.123497562819621 0.4258640163792 0.247588228834964
0.134929366841939 0.428426621482266 0.257701679443989
0.141223587762867 0.426575300266045 0.258749123873461
0.146675365206782 0.431579831740052 0.268813957528518
0.154133376845944 0.431928211319051 0.273577834911431
0.158220573844177 0.434704313025087 0.27977116409505
0.164213795639334 0.433608696598198 0.281693097737866
0.173837223523981 0.434405194529586 0.288320989563632
0.174324002293642 0.438284405208538 0.293976297842071
0.172814582366914 0.439118505157017 0.294265764650113
0.185719176774649 0.439098023456329 0.301644942435875
0.193333585070867 0.441473729693123 0.309308103840365
0.204486174630013 0.443154612537533 0.311425090069647
0.221582960380146 0.436199471896827 0.311425090069647
-0.321495692617395 0.373235815778685 0.311425090069647
-0.315847466833246 0.372795381857939 0.311425090069647
-0.29083271262937 0.376163987441375 0.299744989958403
-0.2846953421349 0.37778645366556 0.296071481807249
-0.266049268071764 0.38760426796765 0.290728459425516
-0.204636489755688 0.390199895017051 0.244739985765203
-0.178364572041133 0.390728553878462 0.230391869949082
-0.198568272036435 0.395026446320697 0.247945404130571
-0.180652819475447 0.399674115310288 0.244102313193007
-0.152327676286854 0.401861430957125 0.230874192902423
-0.138221147665653 0.404340505623465 0.226212240230846
-0.116508559209431 0.403973153689832 0.213239585017841
-0.0988945992388858 0.401854038080414 0.203513634263851
-0.100688095194063 0.409435081901545 0.215139061971003
-0.0884252916818971 0.410953135547134 0.214995736127738
-0.071926128601496 0.40785661277153 0.207160329339184
-0.0517198428180901 0.410684549840487 0.207409770538817
-0.0506669467685141 0.41406824343548 0.212235743211413
-0.0444642234494194 0.409443257141693 0.20414318808471
-0.0251640990854705 0.412069091078568 0.204269484816114
-0.0273010634187504 0.417975452195338 0.213471626610073
-0.0119067656719368 0.41955577387334 0.212807790720343
0.00182322530347119 0.421850769634428 0.214246584159062
0.00356859753294799 0.423081107949335 0.216418028245841
0.00998333694915204 0.42388542849595 0.218870124720221
0.019645355799901 0.424192174561312 0.221218027230215
0.0280306316802645 0.426915410490177 0.226909681829256
0.0376126617676792 0.427720692431429 0.229983329644746
0.0441494513558096 0.422851939258105 0.224022512553685
0.0484204852443429 0.426228263341327 0.229879893983119
0.0575944735906289 0.431509184371062 0.239529675659963
0.0712689614993567 0.427949627817595 0.236913337835335
0.0804870570627302 0.428583844701178 0.239661328810785
0.0797357962801078 0.43216607551517 0.244841616495985
0.0838648608947592 0.434920474405485 0.249746295057322
0.102156212196684 0.434217334590491 0.252281859176716
0.112772979905822 0.430924134657927 0.249462969344928
0.1173439198574 0.434556407600703 0.256101966526656
0.119579084381776 0.435074765206956 0.258103357149198
0.129517694871279 0.436322953205997 0.265538132529354
0.134738378021902 0.438808681649432 0.271979706398815
0.139058964808183 0.438705514375301 0.274316860671132
0.153196607173203 0.435420866849523 0.277880294998954
0.148365499309726 0.44426765392875 0.287367165856447
0.156760193853479 0.442364379736185 0.289548337532036
0.162476626909297 0.44599753548133 0.297864611213113
0.179241547509492 0.441332437791732 0.30102311484215
0.185316169504397 0.445502172601556 0.310288599605341
0.195788023177446 0.446584953934753 0.311425090069647
-0.301203750649707 0.383431276046738 0.311425090069647
-0.290411641204345 0.388703093453291 0.311425090069647
-0.283564237819177 0.393372339152747 0.311425090069647
