ply
format ascii 1.0
element vertex 863
property float x
property float y
property float z
end_header
0.306301097863653 0.218866057971723 0.150890269449527
0.314462176002859 0.218913526002283 0.160645542411876
0.321604810715021 0.217140394316611 0.167526370804752
0.320711503159464 0.219729816953864 0.168827818942531
0.330738788255455 0.221591150108543 0.182460250876622
0.339292832938532 0.219693446558164 0.190906947672356
0.338549906176112 0.222410839997378 0.192504208999373
0.343379092974909 0.223791217662673 0.199511567236091
0.355058151555928 0.219244116942069 0.209257848142372
0.353843631505196 0.220212081731218 0.208696422276132
0.360991631115882 0.227974416149673 0.224290871016972
0.363238006778454 0.227157023208082 0.226217729527372
0.371489006470283 0.22073302717841 0.2301706452723
0.375895123796767 0.22940935892813 0.243336781292091
0.384132888922866 0.228919445704513 0.252692608599931
0.387186195559931 0.224654808978631 0.252431915607927
0.393845847740761 0.227102813948553 0.262688852494241
0.397483226865534 0.222513842566433 0.265095417702982
0.403892655602481 0.225216412620972 0.275529070917731
0.408160302806907 0.225202156740428 0.281435075540006
0.410633071496267 0.228689323662028 0.28686360762129
0.419719201479157 0.231903814044599 0.301300540222042
0.425249044324268 0.226945495719747 0.306117703742978
0.433468983541943 0.231303355898793 0.311425090069647
-0.0243110955695836 0.209087829760498 0.0124570036027859
-0.0089500476640369 0.208067496965898 0.0124570036027855
0.000669417115701927 0.204999448123879 0.0124570036027855
0.0100164340858871 0.213681797692443 0.0124570036027859
0.018681537241029 0.21555382971582 0.0124570036027859
0.0255553141962773 0.213267081300473 0.0124570036027862
0.0409888560918769 0.209095198502866 0.0124570036027859
0.0536132243665873 0.212903495722547 0.0124570036027862
0.0591027108758993 0.210677008029039 0.0124570036027859
0.0684625086247457 0.218050225646116 0.0124570036027859
0.0781576662654144 0.21523814653368 0.0124570036027859
0.0871477328796927 0.214097508330985 0.0124570036027859
0.10153184495526 0.216501656226264 0.0124570036027862
0.109231851757915 0.219002301002664 0.0124570036027859
0.119466775800779 0.217469075536276 0.0124570036027859
0.140598588628387 0.219892914324368 0.0124570036027859
0.148697193860866 0.223593206891484 0.0124570036027859
0.163909639931287 0.220673124492853 0.0124570036027859
0.163154741769023 0.218022164258178 0.0124570036027859
0.176593327159274 0.224694355408756 0.0151747848479795
0.17735274750102 0.226451091652822 0.0179588124175278
0.189506565438261 0.221741642627834 0.0234525901082504
0.193224892252011 0.224248971504671 0.0298317476347123
0.202301750069849 0.219704631275928 0.0327123077890164
0.202876133115684 0.228766238155342 0.0440203852839696
0.20761317452281 0.223847889801552 0.042492995285591
0.219766960012685 0.219920574883148 0.0489175064062766
0.223827636728507 0.220894644325876 0.0545967633258387
0.224856751434992 0.228904514917675 0.064256367708728
0.234497413451409 0.22172488608678 0.0680522465719397
0.237943046399974 0.227124957155001 0.0770836856560401
0.246861810458621 0.221850423614647 0.0828808836787645
0.250646115439866 0.22359985486863 0.0889817995802832
0.255945580467617 0.226680531604342 0.0981014177604857
0.255726111507364 0.227694461978492 0.0987661056666492
0.257262329966243 0.2316580292065 0.104213552009845
0.270032510619915 0.224633734903908 0.112996271070278
0.270591184681308 0.234178424473191 0.122376768261852
0.278893155220875 0.231940807688752 0.130213100162795
0.284780787823613 0.224966370187387 0.130850906840685
0.289935294010566 0.234959671915426 0.146110228852854
0.292102339439362 0.231087996756074 0.145153688193105
0.293611898613668 0.234605938902178 0.150162490145109
0.305259508980107 0.234156925554708 0.163613483020471
0.309016041036878 0.235416409078172 0.169233956387532
0.312194658946662 0.231547832685374 0.169484046952224
0.323863348400585 0.22929530937575 0.181313263621597
0.324089159254747 0.230032392159123 0.182255046667488
0.327574699385894 0.237841139681804 0.193533440477148
0.335951480437206 0.234776029515748 0.200703180051932
0.338104920111738 0.234870298034783 0.20335191844783
0.347282396982935 0.238058651496711 0.217184811259145
0.350837515049601 0.232947083042066 0.216747919873736
0.359109150140651 0.23532171196535 0.228759787612524
0.364659800156539 0.230543674208276 0.231002200069582
0.368009820873163 0.231080980946979 0.235479462685053
0.373008621449412 0.233921561280756 0.244022039001783
0.37599125399857 0.236836460238191 0.250233178327504
0.382842035928981 0.239166611505816 0.260513573742879
0.388883917436825 0.234057320210201 0.263038084851206
0.392669045775773 0.239848543154319 0.272830710900665
0.399164978051492 0.235300698773815 0.276408236888557
0.408547757329556 0.234077195498618 0.287066512936424
0.414289309371887 0.23354026019444 0.294715052193819
0.417118256947231 0.233771498465924 0.29876819892207
0.416380595961983 0.243548439215277 0.304426698236112
0.432254282307649 0.244347724993899 0.311425090069648
-0.0286846199517578 0.219345169706814 0.0124570036027859
-0.00468808651492917 0.218715051617123 0.0124570036027862
-0.00136969624615938 0.218275472484371 0.0124570036027862
0.0042388391368501 0.218277583071985 0.0124570036027859
0.0195924664590784 0.219716150976908 0.0124570036027859
0.027046283730685 0.220552503850336 0.0124570036027859
0.0420440555698281 0.225843875585514 0.0124570036027862
0.0425931044937477 0.226679347748431 0.0124570036027859
0.0603389780080097 0.223781112791888 0.0124570036027859
0.0685849991437251 0.225144520009509 0.0124570036027859
0.0767448289604436 0.223448190671882 0.0124570036027859
0.0910561870845591 0.229915087255948 0.0124570036027859
0.101992180586758 0.224057037501924 0.0124570036027859
0.117499093331367 0.231506894585925 0.0124570036027855
0.120961643726615 0.226397439622354 0.0124570036027859
0.130419816995339 0.234353789546548 0.0124570036027859
0.14161167081305 0.233217046702049 0.0124570036027855
0.162238897085548 0.233773835093852 0.0128720031059647
0.165164147648805 0.236970164461877 0.019346900546801
0.170916927509854 0.2335455467333 0.0205246084089956
0.175239886718336 0.235601360167285 0.0269185643292501
0.177483889208718 0.233804882739047 0.0268297955206912
0.184515985608117 0.236140897532429 0.0360310268091773
0.195151229790693 0.234728536845769 0.0440617648761534
0.19746400927176 0.235194824636047 0.0467285577528983
0.205801200292975 0.232683944319841 0.0513535753039892
0.205708901825242 0.235760307749653 0.054930258487808
0.215869542951242 0.230894204359466 0.0584175590368598
0.224562389151781 0.232912985551134 0.0687577734522407
0.227242525872036 0.2351771563517 0.0738995504433105
0.229124423711834 0.235450812575668 0.0759436497896802
0.238617901514743 0.239074172710362 0.0889244517589285
0.244902361529888 0.239861032338108 0.0969953265053695
0.247107999150247 0.235823742812422 0.0959334822542772
0.256905196356431 0.233214460720823 0.105209795505652
0.260191166995417 0.239928934780844 0.115251468415192
0.264273421283484 0.240306691302793 0.120454418928404
0.265167967470656 0.242826425969102 0.123819831651137
0.276951420907633 0.238291295922194 0.13370127649558
0.278617935592091 0.239988593009707 0.137234352483591
0.283537325245229 0.240388465294603 0.143453714039218
0.292969103287653 0.237516099585069 0.152054934780526
0.29319353283917 0.243897086720266 0.158148760952422
0.298572837039022 0.24039163262488 0.161349316518867
0.308615813094163 0.236970603093595 0.170176873179366
0.308332507145389 0.247419700345163 0.17938124166026
0.31615369681078 0.247646926629251 0.18889618197551
0.320337069344874 0.247183026268879 0.193450913866474
0.324580450128284 0.246397282090756 0.197783168221377
0.328806133819066 0.24665022673777 0.203042833045188
0.333664484069129 0.247339770773156 0.209454067362494
0.341603173674593 0.245498487958951 0.217219993300764
0.342138751153136 0.247766493618242 0.219928358122367
0.357233088865631 0.240492014191038 0.231248439250806
0.351792837724894 0.250350176897444 0.233776280953844
0.362741631888966 0.248179813327702 0.24482382414491
0.372738893233179 0.244990319601677 0.253808404028998
0.370194473678621 0.252868700646875 0.257974550154957
0.379062520182349 0.249077870184969 0.265066224574665
0.38215466679605 0.249149036558768 0.268810956856754
0.388510982047228 0.244921361501696 0.272514694497763
0.393520957865933 0.24732970711043 0.280675877945065
0.39841789324348 0.25100753300322 0.289861755822726
0.405744567225049 0.245256504988952 0.293329211689127
0.4082517324917 0.252525602499901 0.302950532880121
0.418431499257163 0.249389744537234 0.311425090069647
-0.0225122370187454 0.232799249140147 0.0124570036027859
-0.0107776162523538 0.229615705208745 0.0124570036027859
-0.0109773045251004 0.230918097769873 0.0124570036027855
0.0108773857216795 0.232666346725289 0.0124570036027859
0.0154987445283294 0.229065981709795 0.0124570036027859
0.0308403431111654 0.233369226656127 0.0124570036027859
0.0339310929035572 0.228819543436198 0.0124570036027859
0.0496583080824964 0.237618973540031 0.0124570036027855
0.0621521853613812 0.234994849049938 0.0124570036027859
0.0660475174001414 0.238834158276466 0.0124570036027859
0.0822109773838146 0.241387981598507 0.0124570036027859
0.0870268595263929 0.236521377469382 0.0124570036027859
0.0979598427533708 0.236425513287357 0.0124570036027859
0.113729287609002 0.236763616617553 0.0124570036027859
0.120524858556616 0.238226171741592 0.0124570036027862
0.13164707837843 0.242612065923652 0.0124570036027859
0.14562607625996 0.237874030876693 0.0124570036027859
0.157126087445427 0.237517582161277 0.0126584525135312
0.159272664829198 0.238899215947791 0.0162627684563489
0.16178953400932 0.246820223969856 0.0279872650335961
0.166971150602461 0.243523073291894 0.0287951092606127
0.171935367725914 0.24502557346404 0.035116165421127
0.177094085301715 0.243284960416343 0.037755426082756
0.189861174034897 0.243296237191333 0.0494270125556549
0.198216584886404 0.240138416939081 0.0532987894627875
0.192071011832304 0.247835985151817 0.0568473448915882
0.206331428868593 0.243387478435836 0.0645752761778502
0.208555738989011 0.24233497818451 0.0653538806039773
0.220567734955321 0.241319233870518 0.0751137741319413
0.216271884373289 0.251551066150401 0.083367239398071
0.226264579102118 0.244722801985126 0.0843661508063569
0.229330602426873 0.251875630878238 0.0956779469595083
0.236907303867383 0.245450839993565 0.0949508583901125
0.248912833963926 0.244924549776946 0.106391620225721
0.249009494009404 0.245069959169697 0.106639428025235
0.254645530002842 0.245168465678233 0.113436430441684
0.256856747653972 0.245866708955297 0.116705441168846
0.266553267204537 0.24751448718809 0.129749246178332
0.272216199617794 0.251046514096975 0.139713548319711
0.270018271391165 0.255259324834723 0.140944842796517
0.276185434628983 0.256545078331292 0.14945802783267
0.289390133670595 0.249291751967691 0.158548697987718
0.289132530946063 0.251184582854738 0.159970566668258
0.297618081853234 0.249747838533708 0.168756675113897
0.297358680228637 0.249434388713506 0.168161755155168
0.307555062837456 0.25331592127103 0.18384014741725
0.311811627723397 0.255955631688619 0.191316018201865
0.313740553876132 0.249663924302577 0.187866275042687
0.318437836111098 0.259351654643893 0.202302456719436
0.322006713997344 0.256750551319265 0.204174351442303
0.333123574404331 0.256950537161153 0.217586364448788
0.335101749491264 0.253647322588549 0.216924147732825
0.341441145689983 0.255316806867154 0.225992695910078
0.342088472871018 0.260273349223929 0.231289062394159
0.355835447935522 0.258848640463092 0.246347413661894
0.360282783842219 0.25738996772311 0.250307901304885
0.366979757670126 0.255463302093804 0.256518181556629
0.368429045132606 0.255908293336251 0.258649217387702
0.375413631510844 0.256768489254865 0.267746565933258
0.380671319354664 0.257523649684852 0.274692941066646
0.383479351062473 0.256870521276889 0.277438183994761
0.390715792263569 0.259430076639055 0.288387004062677
0.394708760277 0.260078447737006 0.293730810803548
0.403021127926969 0.262839458169349 0.306143972749246
0.40277810085325 0.264453145193315 0.307328288866197
0.413158769511546 0.259789386951596 0.311425090069647
-0.0266247714347639 0.243007704633919 0.0124570036027859
-0.00987217551270141 0.242511802386317 0.0124570036027859
3.74765586802821e-005 0.236461982549299 0.0124570036027855
0.0116294055449751 0.236694219802893 0.0124570036027859
0.0183703127275369 0.237766204135625 0.0124570036027859
0.0272423319724988 0.242217984338642 0.0124570036027862
0.0369113012816182 0.240795524883465 0.0124570036027855
0.0544346331536204 0.239919350112826 0.0124570036027859
0.0642047799349953 0.243035007112798 0.0124570036027855
0.0659344812886702 0.242492475485057 0.0124570036027859
0.0777674641349071 0.251357116532913 0.0124570036027859
0.0851954767094126 0.24214632690898 0.0124570036027859
0.0961006262330806 0.25142721399485 0.0124570036027859
0.11395230066731 0.252428564504656 0.0124570036027859
0.124422681984609 0.248556159193601 0.0124570036027859
0.133744436253589 0.248923918159626 0.0124570036027859
0.144981598874412 0.247554702371897 0.0135132824569241
0.143442388378783 0.254397890103635 0.0214159934118318
0.156164656608961 0.24969857301129 0.0262762741670518
0.163441720823995 0.25118739409202 0.034693009949091
0.166159833596583 0.252339677919594 0.0385462856079167
0.17220588914116 0.248141302220746 0.0390710006509729
0.171399283581446 0.256497535267102 0.0482786232205733
0.180031430970126 0.249460450926412 0.0477866592387972
0.188554267444412 0.254034049869589 0.0610119404038207
0.190435747249334 0.254862572819221 0.0637159660802615
0.197773151864002 0.250563274024206 0.0652997648680199
0.199318957252792 0.260021621649067 0.0779670224369219
0.206099962752169 0.257101264471127 0.0806837316508548
0.215538485657741 0.255703120224205 0.08763861107569
0.222645724629352 0.253490171306924 0.091495054881557
0.219933121966074 0.262704978162434 0.0999839597695488
0.227101626847641 0.260351532139364 0.10372915228749
0.228928835647451 0.262590086495063 0.108061600510871
0.238313655084361 0.261817943448565 0.11571240125029
0.246675070099771 0.261482577275371 0.122948465869677
0.254174935630659 0.256296695918429 0.123625554711287
0.256013134338839 0.258544962829251 0.127979596515228
0.262789359946159 0.261112445006136 0.137686951933733
0.266759704613314 0.261237212746675 0.142525711921464
0.274882182376474 0.260965225581061 0.151943341275313
0.282341701422959 0.260927599916359 0.160786035223938
0.285816419080725 0.265656094394397 0.169238841097739
0.289171716715286 0.267807486330164 0.175196272620578
0.295994095041298 0.262789611613619 0.17873307469654
0.297463912183833 0.262148284854202 0.179896578714224
0.302484722372754 0.268666918275377 0.191823932410735
0.312966448404415 0.266234097272288 0.202075989564045
0.311323855938921 0.267139434795396 0.200947957081644
0.318535378274623 0.269442750974477 0.211633140155019
0.328180810028885 0.263391459154299 0.217585803822512
0.333117046453956 0.271782609304406 0.231122386141566
0.338035616163008 0.264690426661726 0.23049946084324
0.34008110323351 0.269852488059566 0.237647347652869
0.347071649243831 0.266719308072206 0.243105268504818
0.353515803154234 0.26494088758127 0.249150054350913
0.357112334677253 0.26940530030652 0.25750667820225
0.369364897823576 0.265406981234776 0.268436562403524
0.367845627373484 0.273836924787362 0.274326321699247
0.370453514205818 0.27429135336935 0.277844743182979
0.380437183431998 0.266393637299733 0.28251387179574
0.387493066637788 0.269511830401732 0.293757938093815
0.387207419672931 0.276069288270697 0.299405900767707
0.394401566173622 0.267198420474679 0.299866787768934
0.39848435835421 0.276326617888103 0.311425090069647
0.408271508855892 0.270131090210641 0.311425090069647
-0.0295068237819064 0.246534495610897 0.0124570036027855
-0.00724275795459767 0.253014910063702 0.0124570036027862
-0.000137231812310499 0.252381039612346 0.0124570036027859
0.00662096888231939 0.246681526505403 0.0124570036027855
0.0148061126856368 0.252082808402254 0.0124570036027859
0.0248330529778161 0.248815290575936 0.0124570036027862
0.0402558624829916 0.257453930099332 0.0124570036027862
0.0439659894746462 0.256542334576315 0.0124570036027859
0.0612597705628433 0.252036239156791 0.0124570036027862
0.0674565284718505 0.256611644267276 0.0124570036027855
0.0880623951104075 0.258513044536396 0.0124570036027859
0.0950321720235714 0.259309214536653 0.0124570036027855
0.100163448577381 0.253487893358821 0.0124570036027859
0.112248841693283 0.261879845450209 0.0138787512537553
0.116824638281924 0.260257008376478 0.014256414634743
0.122838551280424 0.258272283323188 0.014958081655465
0.129168196775342 0.265121933535475 0.0280838348049272
0.14519310469597 0.258931239386939 0.0287033515307239
0.140914580351164 0.266316341997854 0.036481788679712
0.150436545139609 0.260149943260059 0.033483138427869
0.155492187310516 0.260072221744959 0.0380071674212198
0.157256653457524 0.265599533327867 0.0461960424815506
0.172436678817655 0.26010669327008 0.0535209188661867
0.17852808869688 0.261780252966 0.0610748282027229
0.182324139864868 0.261170328124588 0.063815333637753
0.179152530911603 0.269848613729379 0.0712466241486272
0.190344531727055 0.263906162488718 0.074394816451505
0.198315387866179 0.262039367275141 0.0794517987845229
0.203002063712068 0.264101144230913 0.0861849764645837
0.207055913930531 0.266525494479653 0.0927717674943644
0.207715040688205 0.271778271633102 0.0996246063654549
0.21999798673183 0.270328002579672 0.109114818347595
0.223444165752925 0.267266749554776 0.108618686676681
0.225281202038231 0.271823197664892 0.115718471919994
0.229054910722986 0.272324774179216 0.11976129546196
0.238954635774449 0.269095876037216 0.124958665926019
0.249441767510328 0.270953740397321 0.13674582222247
0.251780516979327 0.267134858951073 0.134336849398396
0.254410336046378 0.273965786634842 0.144867256961143
0.258934239979473 0.275079510743739 0.150323589408592
0.268695339393975 0.268695339393974 0.151639505153002
0.2770792551427 0.267447631737969 0.160477282055476
0.283635456084198 0.268435170525036 0.169181121215137
0.282766336432582 0.277445431881619 0.176374492115818
0.286252884364111 0.277725890402116 0.180779687281737
0.294157122646605 0.273516605337643 0.186342292461118
0.298943503380816 0.279836755019463 0.197809424203986
0.303906159571012 0.279810615738934 0.203691265123148
0.305126407426959 0.280366315163468 0.205650829255564
0.321757824075043 0.27231854288634 0.218093954155222
0.317855244101965 0.274717992317002 0.215640805265496
0.33162007392237 0.273450992938779 0.230864415312272
0.330241009899897 0.279997770317034 0.235201426067498
0.337353467277228 0.280191863364841 0.24384269833619
0.338519811793395 0.282461625914351 0.247303299152663
0.350381805649416 0.275967970705691 0.255489797588475
0.350949943765065 0.282430313273985 0.262066936341099
0.354934890751606 0.278550357364832 0.263266191589462
0.360302508811761 0.284162161910841 0.274778193397729
0.370025677716906 0.276754583926435 0.279584884552476
0.374015382084593 0.278625795744551 0.286041434853355
0.38192981342849 0.28039224787432 0.297072867552328
0.383707355369296 0.283303487095144 0.301846571029078
0.390884228428893 0.282082218262311 0.309272073311275
-0.0283549730429863 0.258984852572913 0.0124570036027859
-0.00955604756585935 0.260084800039695 0.0124570036027862
0.000912554743412169 0.264679935666728 0.0124570036027862
0.00864885078556478 0.256416874132407 0.0124570036027855
0.0160048943619322 0.260431673469395 0.0124570036027859
0.0241786917091481 0.259207918900471 0.0124570036027859
0.0400573015420613 0.267580805048575 0.0124570036027859
0.041504262991416 0.26676488042744 0.0124570036027859
0.0623526316051189 0.266932576297266 0.0124570036027859
0.0640478982303365 0.263886846710512 0.0124570036027859
0.0808795812406937 0.271055425470658 0.0124570036027859
0.0934527464690131 0.269111372955103 0.0131109102763738
0.0948615725960239 0.271836404528766 0.0176960132477401
0.102480744183014 0.272622358362753 0.0231587993408517
0.10290239860562 0.2721570909629 0.0227560630416203
0.124867293309407 0.267106728850738 0.028365575706
0.118824753171716 0.272332423313988 0.0321388739424881
0.130837961192551 0.274207632306435 0.0416334582721363
0.13297796506825 0.276874591636872 0.0465577980239211
0.145911678057818 0.269765759730139 0.0441305180959913
0.146272111908108 0.275454412188419 0.0522208605511088
0.157006702496155 0.269993514629695 0.051196771339386
0.159688939681603 0.27505010636594 0.0596635310689757
0.166677859567515 0.272250993663926 0.0627143802364461
0.174414670612323 0.273338842752834 0.0710737615204849
0.176272717987433 0.277097290699973 0.0772430887331029
0.184026710342054 0.273001881528629 0.0794499261136686
0.187669468782684 0.277542695834122 0.088179987659804
0.193426830066288 0.273189431238393 0.0882567613710031
0.19918351542781 0.282043053945963 0.104049510104647
0.203302720722697 0.279624576514146 0.104932869333763
0.214408185270005 0.274573257287621 0.10906251556334
0.220770028564433 0.277144077963593 0.117931136541766
0.222714571288469 0.274650799224634 0.116739703929199
0.228870641637805 0.276766663568606 0.12487901327095
0.236350080153727 0.276113329383993 0.130931316503119
0.242267277803723 0.282075135831236 0.143429287637461
0.245098276753268 0.283979182436713 0.148280264688321
0.249966979487556 0.284789625637182 0.15369053406955
0.256586010848695 0.279704575022095 0.153683287718095
0.261117174648869 0.279344818362422 0.15739276312173
0.265613320815177 0.279794303005886 0.162033283884534
0.270978283654 0.283509919177556 0.171353952302596
0.278733832061603 0.284962884340189 0.180164942547288
0.284183078668029 0.28957633100707 0.190631019259149
0.293454207142652 0.282228417845872 0.193460925064262
0.294585748852543 0.281289840718067 0.193950439326756
0.29781103880637 0.28578986196569 0.201897790212081
0.307005055812147 0.286856047314432 0.213812525140154
0.310961118837736 0.285116802965406 0.216932181550821
0.311157380467509 0.288468727009973 0.220226521887098
0.32446675854735 0.285788035502932 0.233617228833522
0.32417683308198 0.286761752129298 0.234161350516316
0.332564022314765 0.283967412243348 0.241590727893382
0.338494951255202 0.287285743037353 0.251678819016395
0.340932062174578 0.291955285853896 0.258843010485939
0.348348906046804 0.287118155173819 0.263252289398954
0.354167408603267 0.289100744155218 0.27198686760913
0.361263439867674 0.286488386415246 0.278045903822471
0.364114916342253 0.29588570777884 0.290020336574508
0.371269606858494 0.291535382920294 0.294562168037912
0.372477362125033 0.296232694954428 0.300288746629954
0.385578551111124 0.288109016532166 0.308461481568093
0.390474030623912 0.297946999619604 0.311425090069647
0.394166918283914 0.29132116361943 0.311425090069647
-0.0230622385843714 0.266926751472376 0.0124570036027862
-0.0134479001841878 0.272785476922436 0.0124570036027859
-0.00595373061839267 0.269087530397275 0.0124570036027859
0.000844052399201895 0.274126754565621 0.0124570036027859
0.0127792725830419 0.267324781816192 0.0124570036027855
0.0306726959728014 0.27548525530709 0.0124570036027859
0.0297666704872733 0.268896793240834 0.0124570036027859
0.0454768213648732 0.270251009333112 0.0124570036027855
0.0647828827302591 0.279655266394441 0.0151049091835366
0.0655688202710081 0.278727237901411 0.0138786537143774
0.0805735537817878 0.274225288121526 0.0128048921108023
0.083726887087676 0.277518729932889 0.0191790999516882
0.0917260104206799 0.277891634075118 0.024287575668058
0.096563776838364 0.280859791180127 0.0311779046524996
0.103915760214085 0.27443798896291 0.0264986705563846
0.108466079079863 0.279281130496693 0.0358223870234272
0.11181469770808 0.282890657332338 0.0427467302771734
0.11987175592334 0.282976243435926 0.0474902911901036
0.118747646639566 0.284365518654704 0.0487703086009834
0.12682501486108 0.286302435525367 0.056091137873683
0.134048728145902 0.287386339619964 0.0617398261773748
0.146309092244613 0.282012152695076 0.0613299315446936
0.145513613711322 0.286429684799075 0.0669952081041004
0.160995317592113 0.28029698797152 0.0673832858569292
0.167008910225851 0.283575243989227 0.0764928742770181
0.169133114808921 0.288918748432208 0.0847915056513139
0.173373463165735 0.288325425384928 0.0879574742069496
0.179427988381792 0.287635160063705 0.0926646798932757
0.1866386759477 0.288239145171035 0.0999678229969903
0.194761238664659 0.29104897646862 0.110728660895566
0.202120199885266 0.285180090169114 0.110464287694326
0.20302251027451 0.286866130050538 0.113294663394963
0.213597048945702 0.28724549686855 0.123402178202235
0.218639100918782 0.290845747458362 0.132290694595607
0.219932524512037 0.291107909693098 0.133783755114961
0.223448311455703 0.292802604329807 0.139010905817047
0.230769960648049 0.295094067232682 0.148423521876819
0.236202984675636 0.294805300310561 0.153041003779783
0.244402038166285 0.289628177713811 0.154366973801168
0.252599350407157 0.28896465992384 0.16106267898932
0.255209978518888 0.295235477021189 0.170909014074988
0.258816589047221 0.294619170828365 0.173468939278569
0.271997714066797 0.289262548886698 0.179130639167709
0.26922171439487 0.294547959690411 0.1828855543508
0.280985347324389 0.295446155333617 0.194696303110222
0.279426685867935 0.299031302736079 0.197539456647633
0.291803084856059 0.298699482102743 0.20844599163687
0.299199127035202 0.294324994883645 0.211343446429394
0.299665921208686 0.298947046720265 0.216119535826057
0.305801984925981 0.301585674694301 0.225831078199736
0.315634255766151 0.294011932539172 0.230615872424331
0.322712054947424 0.293233176840389 0.238327551209832
0.320635002459085 0.29915085011178 0.241259473271106
0.326243928619353 0.300268992128641 0.248955286326176
0.332739288271419 0.297672438949033 0.254313937104543
0.336067228332798 0.301215593706782 0.261509689580808
0.348549824226945 0.296097188453455 0.271690521758607
0.346784397953603 0.302079236599674 0.275052071778952
0.358661891889931 0.298248534014453 0.285688670042135
0.359772246555663 0.300781832698366 0.289323287206972
0.366010278356332 0.298511132921466 0.294673260594274
0.368646335277037 0.300843587423953 0.299940109943181
0.370594748367107 0.308812033234704 0.30953510368119
0.39021372153664 0.304379589472938 0.311425090069647
-0.0298523576617242 0.273571973409841 0.0124570036027859
-0.0138012973746215 0.282863047281604 0.0124570036027859
-0.00193925400411483 0.277095471317309 0.0124570036027862
0.00393037379518494 0.279158023339751 0.0124570036027855
0.0133975024854548 0.280006177613495 0.0124570036027859
0.0260731554813481 0.27836572932049 0.0124570036027859
0.0388124714383909 0.282379207329911 0.0140711367037982
0.0504236223428156 0.281075970472915 0.0144063444485353
0.0503921387900586 0.283394106997733 0.0178476371243881
0.0496290892628344 0.288056517524838 0.0246320246385616
0.0640782345672333 0.290095648381617 0.0304935412291227
0.0745939962625854 0.285585098283508 0.0258444721525947
0.0826451517331468 0.285323595197749 0.0293742895624335
0.0878138467732049 0.287274480769186 0.0350448253751833
0.0943604408317269 0.291026208633102 0.044001951879644
0.0996811763459156 0.286979842811446 0.0414486560280364
0.103873438846865 0.293105682028279 0.0523444263407254
0.108603949477753 0.294603235473669 0.0571351968738846
0.113906436898602 0.294649434426665 0.060242981403953
0.118549536652408 0.292258675488701 0.0595950775549235
0.132329399752357 0.295163436949134 0.0715305400080211
0.134221848960019 0.292423932060095 0.0688203947012715
0.141985538037542 0.293029034214632 0.0741155097207557
0.156140449682684 0.289119648325843 0.0768230825695261
0.155300769918226 0.294421261322936 0.0836881628739651
0.158955531208942 0.299362522960653 0.0926337835045804
0.167992253045087 0.297596803531977 0.0953741210384894
0.171734973615213 0.299066127109658 0.0995587537398131
0.184274541491677 0.292142069107128 0.102453628804669
0.184505805552307 0.296937049058803 0.108370975806647
0.189225501072745 0.301223753410692 0.117782035515525
0.194229493162143 0.301811895971838 0.12305129887634
0.200521474886673 0.296182546085809 0.122097677251599
0.203393411299852 0.301992566760936 0.131634262388622
0.208856722314526 0.301799888137254 0.136393748574688
0.218375015012033 0.30157006739848 0.144811809194913
0.221163650128925 0.304565430391021 0.150922801296304
0.233028687675579 0.306040348509271 0.163512463938174
0.241171241448122 0.299091417425843 0.162678336413967
0.236328152953142 0.30576369719034 0.166196121362219
0.249352245762966 0.301153646286509 0.172602870462695
0.255953700524542 0.298877273171046 0.175921984691632
0.260054375050898 0.299925307149131 0.180913675304358
0.262699490378107 0.308145555756549 0.193111384120164
0.273040608340732 0.301789534162411 0.194990438298868
0.269305698170312 0.310888087376355 0.202407485796171
0.281196012605907 0.309698489532843 0.211849375872805
0.291727130141073 0.301283061452879 0.211451171146624
0.290503816306019 0.311886472727053 0.222952489358366
0.303089540685007 0.302866008390488 0.223772314807088
0.309488415701654 0.304311149183815 0.232706787071629
0.313493834570408 0.306092817188701 0.239100271870827
0.319128613897278 0.311455484456699 0.250702705856039
0.321638261925732 0.31190733704492 0.254101867966493
0.328529042391204 0.305732966503297 0.256664025564514
0.332086829985694 0.307732713489346 0.262723952822042
0.33834203753365 0.31347095482915 0.275407667522645
0.348651140790052 0.307241369270524 0.281987312668255
0.347476514542703 0.311561671130316 0.284534521883737
0.349703501431315 0.317756662078053 0.292841610427095
0.36277433747023 0.311798016364826 0.302955207055891
0.366757888332084 0.315288997823515 0.310883514421751
0.373733504590397 0.317290745479956 0.311425090069647
-0.0351082547155093 0.286155105744478 0.0189612833680933
-0.023507651593569 0.29198935426632 0.0253665131140847
-0.010641198054825 0.287973422698573 0.0168750372576941
0.00145200606095806 0.291959403090488 0.0210037115625386
0.0104052464178531 0.291024071405714 0.0213656654314391
0.011351274625343 0.295271309778166 0.0278672416100203
0.0173285266548653 0.2950174296798 0.0286599613526547
0.0297791224995516 0.296438195314328 0.0332105708337255
0.0345573323616894 0.295612041993615 0.0329174649453324
0.0566354046755465 0.290100758690731 0.0290439147460335
0.0551023123950077 0.296834853088881 0.0387584766300619
0.0686221855576906 0.292833040410123 0.0354541580500921
0.0729241247827819 0.29968429043518 0.0464853866164074
0.083830961068553 0.294599175753518 0.0429092524837923
0.0860496490402443 0.301294353769639 0.0534611420797421
0.086807900672464 0.302828749256011 0.0560227924625189
0.102438369709163 0.297330500014437 0.0573754948647755
0.105902932226262 0.297541297991195 0.0596563687826385
0.107973422741991 0.300320616771319 0.0646965160114167
0.116649684677135 0.303839481662917 0.0745534194341066
0.12412420920272 0.301077082351069 0.0750157982079699
0.127356966848096 0.300072161924906 0.0754788442752735
0.137662126680074 0.304626898793466 0.0877063074318863
0.143305931380411 0.300677324868091 0.0854725974956791
0.142984158199401 0.305677324603913 0.092216987725383
0.154502532015439 0.299834836127576 0.0907321906828304
0.157694617787193 0.308954924497379 0.105203322661472
0.166385208118456 0.307385476482345 0.108016968719696
0.172599384658673 0.308141586586446 0.11263189430555
0.178773567154737 0.309455637673394 0.118034123488837
0.185513052700919 0.308339001787568 0.122859401551788
0.194366036648006 0.303793570914995 0.125534235140992
0.192514344944134 0.309532518571039 0.130672897348412
0.198615784865066 0.311828420615033 0.138976571609704
0.209485288733321 0.310768126107576 0.147640191387109
0.214809064076216 0.306000162368983 0.146827535077703
0.218315265158106 0.309547411044626 0.154250527427706
0.228093038763692 0.306437738502621 0.159478420929078
0.230388796217211 0.313426603584927 0.16989173299801
0.233829965073216 0.317907592608338 0.178366520717669
0.240768215837073 0.313018123341985 0.17888351473034
0.248720560108721 0.315549974138125 0.189158113853863
0.252796813670311 0.314894671837913 0.192100483365434
0.257381370308356 0.316138202493056 0.197766674039474
0.265744374737691 0.312320201322707 0.200859749857688
0.264776646573552 0.317074241537077 0.205633527013472
0.278127167943681 0.31297447541192 0.2129456059897
0.284930877902822 0.316523895630974 0.223382276865957
0.289941388637879 0.318800388543681 0.23066668026333
0.2937032911233 0.323547698130867 0.23975127284014
0.3002896195044 0.32216663749573 0.244122023253894
0.306283256068402 0.320927581128989 0.24812055113234
0.316136669223853 0.316478039780865 0.251823030205082
0.319558516664261 0.315423187869165 0.254837380249202
0.327023403863142 0.320874788479064 0.268698906306897
0.329577364618498 0.317481554432571 0.268639691240591
0.331121304177242 0.326876791788026 0.279056212827372
0.336896244887358 0.327969775112237 0.286926614716399
0.342571441552562 0.32770010778295 0.293434024460023
0.352758026021946 0.318865074491413 0.297488724444594
0.351047308688457 0.329959276233142 0.305583502637377
0.365418686924301 0.323946772654665 0.311425090069647
0.372187537162417 0.324501826545429 0.311425090069647
-0.0356006742570603 0.292374145321075 0.028306446086038
-0.0377981671522505 0.300765825291485 0.0412165236335325
-0.0172307946698294 0.294465799756831 0.0278204604980951
-0.00733989640821151 0.29843720259765 0.0317900689749707
-0.00244964013205843 0.30075911858962 0.0342856866970814
-0.00867683856234226 0.304362662658759 0.040863978321161
0.0113373018085208 0.303225042249344 0.0396930366630951
0.0183294695187664 0.304587395672932 0.0430880756547569
0.0357185935873213 0.300392318574194 0.0402538984319053
0.037707135125366 0.300739417153417 0.0411594272185956
0.044773270027716 0.303027609115503 0.0459458249863412
0.0518018862614613 0.302109603123851 0.0459567242719915
0.0542163889596867 0.309512500098061 0.0574388042834873
0.0630638640980967 0.310236637981254 0.0602479593191817
0.0838902076632224 0.30471067095452 0.0569559667080354
0.0823146337198682 0.304740397530826 0.0560927433042847
0.0903396411897687 0.308590387008012 0.0660346891268247
0.0952556970421 0.308098054445798 0.0681743448516003
0.0925590198834838 0.31431855968739 0.0752468805569185
0.111080729809229 0.306064309853452 0.074439909131685
0.116082083536894 0.312594623868188 0.0863606471367785
0.121196679587652 0.313553597955438 0.0906255186917026
0.13268344054961 0.308090727703563 0.089648657337514
0.136103710033698 0.312482662459582 0.0976984059800071
0.143166028229383 0.312185985251634 0.101341213231097
0.14358462409191 0.311686048028065 0.100888675130672
0.151413026723715 0.314725952858542 0.109595133894775
0.159406064596715 0.312326090136667 0.110857562572804
0.164387420822714 0.314422695341173 0.116622502274701
0.172361528071653 0.32153908741325 0.131061873843884
0.178810767767283 0.316252198217162 0.127437226539808
0.186798947425257 0.317013216545272 0.134356182095346
0.188245253160398 0.320909344091504 0.140313373519013
0.193143513621523 0.321507930095732 0.145498516884828
0.201502897112428 0.318358467863059 0.149383867670544
0.207134624566529 0.324409783454555 0.161727682506168
0.209911071123773 0.32287217900382 0.162433177426243
0.22159787262279 0.31811489557332 0.167443578347418
0.225951512381009 0.320173588114959 0.173868976195135
0.22756089311769 0.32509624852968 0.181196683195464
0.235041068646295 0.324287896929854 0.187065184048732
0.244130151037756 0.323898122381594 0.194900964816504
0.246488553113263 0.325513068020986 0.198976354919099
0.251604684633098 0.324514360088162 0.202459617809893
0.256583444741641 0.323471601752225 0.205765019774046
0.265171216224033 0.32530626277586 0.215790177510584
0.267645995483441 0.327214156430195 0.220320453453622
0.273045589068138 0.326824259093242 0.224787060381687
0.282586747878935 0.328498481001367 0.235491868904576
0.286664348854801 0.328083167209184 0.238721062323624
0.291399486903612 0.328945698797345 0.244071354906208
0.296912536689844 0.331938113961992 0.252666616854919
0.301047683903262 0.335688715165287 0.260905922034221
0.307804419905175 0.335240111586687 0.266541930708837
0.313705956649133 0.331482923352623 0.267459705867842
0.318265311080624 0.337692032745776 0.279012071062386
0.324394334156736 0.330803634829498 0.276411340087546
0.334562992553614 0.335438880206043 0.29121285171655
0.341449457266065 0.335022478505608 0.298785194785137
0.345847732189714 0.336170228528962 0.305067332854973
0.353943877434547 0.340537260792297 0.311425090069647
-0.0623741609055945 0.30309226769952 0.0494880490165973
-0.0537122275851334 0.307425482883648 0.0542363511475178
-0.0398891436538733 0.301679354905368 0.0429844857967957
-0.0261658074727916 0.306659459263704 0.047703851885155
-0.0240210767072489 0.311689341558871 0.0547642130071964
-0.00236101490608304 0.308262533737797 0.0454271684142823
0.00288816781658652 0.310775458903379 0.0492675194211197
0.0123553411186388 0.307010639027134 0.0455221735639745
0.0132002319463001 0.312558990980243 0.0539389216873441
0.0256789756024041 0.309415764592528 0.0517076225516739
0.0381705360151509 0.311969543882825 0.05795123330669
0.0439353132116347 0.316949689544367 0.066486224668914
0.0531708698885853 0.312733539958599 0.0620243279756373
0.0567147760979173 0.318445041593771 0.0712121452706499
0.0624065247778971 0.312966677270104 0.0641792844579081
0.0712613368405376 0.317251215889355 0.0722847875060698
0.0752721256520397 0.321571485692368 0.0794950209370342
0.0881747624028432 0.314424917603569 0.072877599358141
0.0929009972544743 0.319762862928182 0.0829880046675309
0.0980837907014847 0.315762331950938 0.0804190454122626
0.106328360685757 0.324171804348465 0.096805645063136
0.11035705383707 0.322414042800659 0.0966822763721914
0.11848878069623 0.321197242897974 0.09966382730259
0.121432131193789 0.326221851711778 0.108316584372105
0.131793735962071 0.322062950085213 0.108500919952641
0.130971987344421 0.326793819401939 0.11458534557939
0.14533407253223 0.323330613812632 0.118030166521517
0.151692288124429 0.325283466461414 0.124386243059658
0.159106484438807 0.322050485603004 0.124161850934251
0.16696364540585 0.322169654306188 0.128837205214202
0.164848512890341 0.331914005134336 0.141126975389391
0.180571596888332 0.326138829484476 0.14214907114762
0.190611424466168 0.325350208833111 0.147758786571886
0.179890579388632 0.332149818090235 0.15008829399072
0.195284218782332 0.328274400465172 0.155505587788365
0.198131102498207 0.334997859977158 0.166106315880233
0.207920090877293 0.327411704816922 0.166017301407024
0.206973546785217 0.335858296860241 0.175204670123324
0.212650903521879 0.334567749506074 0.178853113741978
0.223813865855134 0.336158235139763 0.190939210730181
0.229013717514201 0.333620707262564 0.192667680093904
0.228798408997079 0.334984035210009 0.194093473984591
0.237901716767857 0.334423119502089 0.201738581429707
0.241104147110154 0.333584025323316 0.203664308282601
0.248825845736431 0.3349026071874 0.21228446870724
0.262468986000271 0.334796343564401 0.224616138151625
0.263261891852205 0.339897138085067 0.231410272457528
0.267965346251464 0.334382945933091 0.229143140745417
0.276938788592277 0.33298756832282 0.235676627887083
0.287338082053946 0.335526417522885 0.248193967749744
0.285425174544986 0.338039954534318 0.24943839576262
0.296176729735631 0.34080952264096 0.262551963078358
0.290742445413726 0.345225629103689 0.262844988264126
0.303133218837435 0.33873573119057 0.266436352386754
0.305676170969144 0.341226137427311 0.271722087307054
0.309940106999518 0.347288972171738 0.282830622287821
0.321820923491727 0.338997790371527 0.283812741361962
0.330223420065865 0.33990389585283 0.292563707809905
0.332894057587468 0.34586843873111 0.302100364504617
0.333823286556687 0.347269700837901 0.304616426596952
0.353485022141987 0.34624963646375 0.311425090069647
-0.0799809924598951 0.315509186997589 0.071401314284607
-0.0596368880929727 0.309532882069505 0.058530391352466
-0.0623236134443481 0.316005667148717 0.0686825376552941
-0.0431863003293611 0.316260122559384 0.0653140745039923
-0.030628033172962 0.313761109604844 0.0591388499863535
-0.0347091668601285 0.320338915365004 0.069720189826582
-0.0138008203732601 0.317297837376001 0.0611039678299081
-0.00685769620344219 0.321619700704313 0.0661719122725351
0.00865296117979676 0.320468286299998 0.0648110600829156
0.0136080982042842 0.319047855054537 0.0636688039456474
0.0158223874725641 0.323024594775875 0.0700164153082536
0.0265682618734469 0.327178840491231 0.0782984007607477
0.0299775407838315 0.327306675211846 0.0791560126676178
0.0394086409433368 0.328602174418268 0.0829291451026991
0.0635805485978293 0.322009829043622 0.0778578252808111
0.0682837103393539 0.32255690282423 0.0795922442039488
0.0683680991649769 0.328205061001812 0.0880085227341466
0.0728911067817136 0.329793446493159 0.0912562741264536
0.0867519149158922 0.327390580708004 0.0903966084838301
0.0903034393835879 0.329843382044358 0.09546671905762
0.0936129111121817 0.331881728749665 0.100191219260032
0.105425673880794 0.328620963881743 0.102453211280335
0.107071389545085 0.335622021511345 0.113100094233878
0.108984676176268 0.333163313785542 0.110791044260113
0.119441288281114 0.335428985941066 0.119933214774705
0.121252960787388 0.335897215321085 0.12162204166532
0.133328954693976 0.333649125752926 0.125438519952498
0.14502201833919 0.331071937375852 0.128579115158911
0.150905165484788 0.334937767041342 0.137313530929273
0.155083238614321 0.332136223340621 0.135829416651297
0.160705697339692 0.335327330649522 0.143479147449443
0.165640063776595 0.340272376698353 0.153164538124135
0.181309149802187 0.335208249430397 0.155141022258235
0.18008010592345 0.339209032944225 0.159979883166824
0.186346792944711 0.339398835046672 0.163840150531623
0.191619718552374 0.343379932401466 0.172384023981387
0.191310757136305 0.344641762433203 0.173955340768376
0.201476545351703 0.347081425835317 0.183540986742773
0.20765302300412 0.344177673293861 0.185725436118447
0.218433261395221 0.338354904867719 0.188640056939545
0.220425685773804 0.343805338269195 0.196945602925038
0.225254998472797 0.349052838151859 0.207600134214824
0.233020492460308 0.347387176381298 0.212708946545813
0.235078128659959 0.349113980385855 0.216642809463299
0.243291045750061 0.349407608598449 0.224491796564346
0.249962342998737 0.345253078789552 0.225639624082175
0.25290360058891 0.345997423662745 0.229211203079902
0.257610685116645 0.349151289627682 0.237262635482427
0.265614993013584 0.349961984578094 0.245536457673074
0.273738492577604 0.349553462834544 0.252468214343052
0.276832413368322 0.34876750458828 0.254358089905745
0.286797551719861 0.346474435546777 0.260728856725081
0.292045562451764 0.349673374908937 0.269327870336527
0.292109895355071 0.35614617916447 0.27708944673752
0.298129374550673 0.355602985692628 0.281939670340059
0.311364219614296 0.348550639851207 0.285632461935249
0.312299069916191 0.353571460395666 0.292461040268707
0.318884485480243 0.355607983198828 0.300897984005494
0.326745336509768 0.351143498257898 0.302763187303582
0.335701152402645 0.356912992416458 0.311425090069647
-0.0829557210393235 0.316364529032426 0.0732557709738832
-0.081163982485863 0.3189215019057 0.076707614181446
-0.0646305835696287 0.321971309179144 0.0780061253981155
-0.0638936530931529 0.327682727033359 0.0863556761286565
-0.0435588897713542 0.322767676594563 0.075064845038115
-0.0413417708562916 0.326025424065188 0.0794755723876991
-0.0320643785338567 0.329955908560806 0.0835044463311656
-0.0203517130616998 0.325160661865889 0.07407989785188
-0.00617416211455915 0.331096717107783 0.0801319924412867
0.00388602830966642 0.331625298597155 0.0804700894542058
0.00800300079745691 0.33036282233959 0.0793986351704114
0.017100107336748 0.331294944802542 0.0825659732246991
0.0307408458603977 0.332830821281537 0.0875207889767474
0.0283871024663637 0.337391811166228 0.0938429062086508
0.0401165458636625 0.336327547879517 0.0945566680337776
0.0483238569893066 0.336335841903043 0.096175906238679
0.0568471031201546 0.33602462287918 0.0973818317799441
0.0612135673407821 0.33648187705038 0.0989167521497849
0.0719484885794543 0.334408770164001 0.0979354779850162
0.0671619136573686 0.342945030122147 0.109693164493764
0.0887487355991761 0.33868565664361 0.107585232077109
0.0928528021203944 0.341991981722373 0.113765881268103
0.0907565287085216 0.34519051867627 0.117652154515441
0.103523528151607 0.34540291754729 0.124618087056307
0.116085392298973 0.341731427051607 0.126740890605377
0.120404907457058 0.343449106290737 0.131600793974327
0.120158202750414 0.345132376918414 0.133791888189332
0.133676545908951 0.348230748596857 0.145845540395768
0.13866109815705 0.343431771974286 0.142056284322536
0.151859301939597 0.341686396873796 0.147213610711528
0.156181054523743 0.344760263908087 0.153954229638593
0.1601475804049 0.344399036919337 0.155730519914497
0.160223771665461 0.352464154668804 0.166951051438197
0.173285504203086 0.344537265198488 0.163463577991242
0.172389614051055 0.349304596464662 0.169555974185918
0.181760706545013 0.3499025113329 0.175763818910239
0.195995952907774 0.34686522040266 0.179726071931139
0.201886541587542 0.353293700518886 0.192016129779881
0.205545487076279 0.349652364579528 0.190316003171589
0.204818899776379 0.353093919022367 0.193748078756639
0.216229407236855 0.348694709870047 0.198932303084221
0.21902929232524 0.357201364428284 0.211612170368141
0.22595054727755 0.359187522993074 0.220295848248679
0.235113974105933 0.351824798172916 0.219901495970099
0.233991246931126 0.358915686778596 0.227314656712537
0.244233347293493 0.353771687524825 0.230545636705854
0.247445816984093 0.361194940303631 0.242312971746938
0.25473656963829 0.360620782157104 0.24828719982831
0.257610481165884 0.360131251023166 0.250328932820457
0.261267201091459 0.363380415428255 0.257534641042422
0.267117926178358 0.36354454473264 0.263072503487189
0.278266205834041 0.361805858768518 0.27118337899243
0.283138788244423 0.361060227427939 0.27474541566708
0.291835152279233 0.357740352663765 0.278735681562338
0.29057378114232 0.36360818212947 0.284566763578926
0.298293040863081 0.362927278276872 0.290805248927863
0.308887622604808 0.36761470677535 0.306057788594093
0.31320612106292 0.367449636393187 0.309804752824284
0.323249828770429 0.360740575947237 0.310992102336622
0.335892635966555 0.362674660329369 0.311425090069647
-0.104116028442055 0.328623016334611 0.101704286191612
-0.101132258720068 0.328140494513871 0.0993228392824596
-0.0856640501483402 0.333417588034653 0.0991467843803938
-0.0789053194457053 0.331838683493729 0.0954754021155615
-0.0595263333443509 0.332212031946161 0.0922364358252186
-0.0589531457845796 0.33751926386369 0.10001695355994
-0.0409681203995969 0.333697426297125 0.0908119664146514
-0.0376852352771445 0.335821535608881 0.0933281185660623
-0.0252881541373038 0.334705027802762 0.0892404689817321
-0.0210025709019212 0.341084629906627 0.0978889332752267
-0.00186831171819976 0.336450370668363 0.0872507315248466
0.0169582457479552 0.336746519934905 0.0906456024722511
0.0185538194262505 0.339371175504063 0.0948613006225788
