ply
format ascii 1.0
element vertex 842
property float x
property float y
property float z
end_header
0.0277779312751584 -0.0263386974680545 0.0184079555295951
0.0328657508445209 -0.0346695633225909 0.0194484812934196
0.0499440033938371 -0.0354451268628473 0.0209571248503882
0.0578806075539621 -0.0270482789512368 0.0212464123691153
0.0683160250998097 -0.0348236052087918 0.0226369395757919
0.0791619104753637 -0.0308713932725995 0.0235746272826694
0.0892336307608746 -0.0291052091091269 0.0245256863559901
0.104786060985439 -0.0280962692650061 0.0260667566333243
0.103111370762548 -0.0333186863277117 0.0261164986807441
0.119489161972353 -0.0299449544341651 0.028511811512767
0.124881142121195 -0.0262940605142171 0.0302003135846599
0.129694356359022 -0.035999868983161 0.0324035418138861
0.136852951600025 -0.0325626855904879 0.0345999178929074
0.14633902939897 -0.0352185653016706 0.0379814152277301
0.155929160408807 -0.0281885941093602 0.0409602870392129
0.161287515817759 -0.0368469555299364 0.0431943676713068
0.177170320110925 -0.032689019182874 0.0484666366688145
0.183064879672683 -0.0327343057283211 0.0504952198251036
0.186686014714114 -0.0291256651708334 0.0515768226687741
0.197324186296322 -0.031955871219519 0.0553622970039842
0.205671866084274 -0.034050836523853 0.0583270282480343
0.214057982325708 -0.0279047454138395 0.0609319690598298
0.23036587310705 -0.0331738171897293 0.0676485648944382
0.229557857571241 -0.027220871725525 0.0666348180498049
0.239866609410157 -0.0348448822178785 0.0738395209669073
0.242150094906939 -0.0296395670652204 0.0748573802069833
0.255187576829873 -0.0375305427440545 0.0838223447974727
0.261331803003464 -0.0351159631328059 0.0875330328431543
0.266431706443366 -0.0339195992364991 0.0906807549300475
0.275458123742277 -0.0344361370202861 0.0964728223740589
0.281178866406827 -0.0364659602803713 0.100286451617079
0.288449979758093 -0.0370690008350324 0.104967851625613
0.297814580143319 -0.0382056261106615 0.111027294079758
0.300630982709981 -0.0300593039981888 0.112137963599489
0.314044980096456 -0.0279220052609187 0.120501882889998
0.316272068491259 -0.0377254155813677 0.122742260874488
0.324710659169285 -0.0331403994446549 0.12831751285913
0.331805595264998 -0.0297843258840576 0.135514019184191
0.335037794296345 -0.0384559755709126 0.140245105220076
0.341530444416172 -0.0332300367508515 0.146523853549897
0.35300364477724 -0.0321555202126504 0.158781134128698
0.353366460360472 -0.0390980739691569 0.160162241166869
0.363302894432675 -0.0296901953891167 0.169570520429836
0.363826686565623 -0.02922224997591 0.170070456369766
0.370696064894602 -0.0340103509144303 0.178182757164335
0.378834148567255 -0.0392999566788206 0.187738804463057
0.384877644425711 -0.0367221110657523 0.193908815933531
0.392339931621877 -0.0330043458930935 0.201451170646754
0.396557152298851 -0.0318186822419975 0.205843996498696
0.401724280811499 -0.031622518118733 0.215525093467229
0.404874415334612 -0.0308160100759247 0.221624563598618
0.408322742586097 -0.0366553766667819 0.230074765884058
0.414534891866516 -0.0390484017512984 0.243153945346258
0.415210856885113 -0.0393726558959044 0.244593982032768
0.420903117893303 -0.0313819691848848 0.253892136609092
0.426052660076715 -0.0358693228781666 0.265394561062789
0.430311719867769 -0.0381506550517525 0.274530680025267
0.430948541812913 -0.0370172024774069 0.275507731733652
0.437533158700847 -0.0288890474935205 0.286557721768031
0.437758507313882 -0.0366933214947304 0.289068080528565
0.443243934655489 -0.039092665859421 0.303553303176444
0.445539153378263 -0.036709594691728 0.316045505261341
0.446658851890575 -0.0326933690117004 0.319771150248247
0.44868764208016 -0.0317571137326171 0.33178451725051
0.450235284999887 -0.0291756785294029 0.339399003542058
0.451272239790087 -0.0397179816325103 0.354686571615904
0.452549003598082 -0.0387240790032694 0.361910959108448
0.455668480857465 -0.0364972446463149 0.379729355836861
0.456589169438129 -0.0343291430921509 0.383734290527591
0.456455078492994 -0.0366831610553977 0.397433472072549
0.458517862183075 -0.0373286330097496 0.406073474084117
0.4618522782928 -0.0389290711676332 0.410319121351331
0.468215892314479 -0.0303595595397105 0.413276987849752
-0.0280202831780653 -0.0217987543294305 0.0181245421442217
-0.0151614313858221 -0.024540009018834 0.0173749037106579
-0.00815768315662396 -0.0246030253494824 0.0170611725905875
-0.000118125422860652 -0.0250235174916719 0.0169479618867298
0.0151021768358018 -0.0160836996349852 0.0166315166583793
0.021810692829937 -0.0179710443487548 0.0173247640483994
0.0357846419773403 -0.0225001781822782 0.0188505116280216
0.0415155711755586 -0.0222613284862527 0.0193781438236636
0.0482510011196144 -0.0187362240395412 0.0199152990548013
0.0544945732953195 -0.0202317676282748 0.0206141280616016
0.0718452464038306 -0.0159732083374196 0.0222923351042831
0.0740587209629262 -0.0180977056466728 0.0225647677049378
0.0897491706184629 -0.0245686271977675 0.0243868405859163
0.0967861087102388 -0.0156705454467588 0.0250133082897554
0.112330949956599 -0.0159964223477708 0.0267166055692689
0.119251375873632 -0.0243777433749795 0.028178079491648
0.131975004205012 -0.0221568057670439 0.0324519044464518
0.137631384599519 -0.0247690282879415 0.0345147863177747
0.140985790456933 -0.018341776623925 0.0353771130790524
0.152243796419544 -0.0231552316333673 0.0394654501272877
0.158253077042534 -0.0182438775992704 0.0413091277561434
0.171127240292283 -0.0264189401299441 0.0461052475443153
0.169582690324243 -0.0218552743612606 0.0453676759233106
0.181251166043313 -0.0216454497356918 0.0493697688327881
0.185924943764109 -0.0228510773074293 0.0510311696268134
0.196569889137579 -0.0179493188110431 0.0544690103911855
0.208884746012949 -0.0221803490117321 0.0588943283077515
0.21429669974204 -0.0227472366655722 0.0607806014907744
0.224619182031078 -0.0267418512341126 0.0645102459007218
0.233444142554568 -0.026384572254867 0.0690397994465937
0.237435968051899 -0.022344391362276 0.0712433617016745
0.250342556812797 -0.0173070056556403 0.0790409582059777
0.252814152821961 -0.0187135840166806 0.0807330091463712
0.261267831931221 -0.0171575075604624 0.0859865277482117
0.271802419950028 -0.0259988923642649 0.0934371347444736
0.274709850216871 -0.0195349503564284 0.0947468406833608
0.28607989755202 -0.0231806803438667 0.102293895969112
0.290334508663506 -0.0222079497846331 0.104922018084902
0.295051149493674 -0.0174793863480611 0.107529482914181
0.305901198512715 -0.0239409116910782 0.114981457013507
0.316118789557 -0.0178760669918033 0.12098033150552
0.317609290908453 -0.0266595471746597 0.122666072792838
0.320798191667354 -0.0230655378152065 0.124395677372972
0.330073619390722 -0.0184838892271979 0.132031336434113
0.339397258804195 -0.0216415516994711 0.14256617175877
0.343991580949327 -0.0199594608044593 0.147296205654746
0.353513884237985 -0.0209935540586669 0.157743523228202
0.354998158948383 -0.0236600514253698 0.159728752987025
0.360079486202099 -0.0233845242673643 0.165185871529998
0.36657566663792 -0.0265529131234947 0.172663836837881
0.373145730948004 -0.018323047982814 0.178598546732402
0.377214019350009 -0.0275698835204333 0.184315921081067
0.386660347209952 -0.0178705843202995 0.193152563802364
0.386491683196771 -0.022796609894837 0.19367161687681
0.396079590505348 -0.0203675978021263 0.203696731612029
0.400512056864187 -0.0187230435873444 0.209693097683905
0.406682603113473 -0.0278526208920061 0.224466048682259
0.407759881573107 -0.0243506104278028 0.225700848736818
0.414294415488029 -0.0250947345559285 0.238991033471073
0.41924641138851 -0.0250863575985988 0.248911619389485
0.421905636990856 -0.0196834952472425 0.25281486672128
0.422400625061457 -0.0275839872156626 0.255890911059717
0.427584615743432 -0.0271510802110258 0.266164374372459
0.432432593748099 -0.0205181371337897 0.274128936424272
0.437543809171761 -0.0209778081269067 0.284492039335547
0.438871420592707 -0.0269571676141922 0.288729687871297
0.446403932005098 -0.0209299107478448 0.308400343611367
0.447448174016946 -0.0216932485997579 0.315617312640081
0.446864683979992 -0.0273068640464882 0.316598014577084
0.450649010955387 -0.0180272080683222 0.332754098380623
0.45081943860363 -0.025955150443205 0.340408747555137
0.453672198898862 -0.0184639619882437 0.35217621970597
0.45371806805166 -0.0281521439518376 0.360506591704739
0.457149399418599 -0.0204872742502696 0.375777495806763
0.457651832575209 -0.0247500280725504 0.382483159213275
0.458852044109277 -0.0184763996174415 0.389955147201985
0.45966961968821 -0.0243307651583951 0.404952461208999
0.464048859474379 -0.0272681918514854 0.410730066206838
0.477243876611803 -0.0247281590497853 0.414984390160101
-0.0206296418675607 -0.00862110389933835 0.0166761290451052
-0.0193144333371722 -0.0143031271682848 0.0168603971541997
-0.00750789749336084 -0.0113320651116262 0.0157065053810482
0.00651776263650516 -0.009539934332831 0.0154833707962981
0.0144937169855731 -0.00548678897972537 0.0159191423399773
0.0189338138445475 -0.0121838712798657 0.0166849261255968
0.0315079781622049 -0.00786904233689082 0.0177680328299786
0.0390272946446912 -0.0083777801647958 0.0185969990089411
0.0506857607667246 -0.0130152192661671 0.0199376515623872
0.0616467049355608 -0.00743563169007438 0.0210551039210407
0.0644003989969008 -0.00892167174331182 0.0213773823898717
0.0820617830694878 -0.0113801543858372 0.0233426370340117
0.0869896253495358 -0.0125065598271523 0.0238973144398785
0.098882792133203 -0.0134885436233517 0.0252110261788878
0.108435783847946 -0.0109612316087256 0.026218539014397
0.116242381857206 -0.0155542894997443 0.0271376534176153
0.123728645688906 -0.012813494905027 0.0291939342461957
0.134743032258956 -0.0146149595621781 0.0330621876084829
0.14149565618841 -0.00924797604335565 0.0351408020311269
0.150327776244274 -0.00890927224589952 0.0381619303452554
0.161896702982347 -0.00915798526051564 0.0421505528122207
0.159493639800814 -0.0124190204398864 0.0414719864987203
0.169981257801886 -0.00982272943964418 0.044960088077876
0.184500056197998 -0.0129695190863429 0.0500940403994665
0.189799075530125 -0.00719334955535993 0.0516543890669689
0.20055696801485 -0.00787459667287118 0.0553837574404948
0.208360139317161 -0.0124789316787665 0.0582748666689427
0.212809660914404 -0.00812029799725394 0.0596073205236261
0.22718657034355 -0.0154339390611136 0.0648810908677305
0.235734439328604 -0.00795260696640309 0.0689529813716729
0.24626166969603 -0.0158724831814029 0.0763216366611164
0.245183640770492 -0.0099505403495257 0.0751385227893576
0.257443261084058 -0.00879139146156108 0.082849255750323
0.261492287023528 -0.00643172190161922 0.0852301537821245
0.269071015907012 -0.0112129739461552 0.0904577990130055
0.27619348771937 -0.0102181178486484 0.0949105531064316
0.282052098009595 -0.011447255841633 0.0987448525967155
0.293014462025917 -0.00981656180678928 0.105589849492252
0.296704205261705 -0.00555011197027261 0.107582049195433
0.302805337767373 -0.0142263144664576 0.112195220792148
0.316453735421319 -0.0123042230481105 0.120726469747045
0.319407525075994 -0.0129364117690419 0.122660690582427
0.329682009418392 -0.00622853747959574 0.129862511583425
0.332772132202931 -0.01300762552096 0.13417040584066
0.338216529150645 -0.0135681246667199 0.1401393032751
0.342077593722316 -0.0167128037300667 0.144763547799142
0.347486127052259 -0.00943690792716349 0.149577706746207
0.354639502564029 -0.00891745885201248 0.15724137653674
0.365764607972679 -0.00559310391667313 0.168801741459596
0.366011956641774 -0.00659291259069028 0.169211671081234
0.372734499078276 -0.00936083584184615 0.1768774584731
0.378266197473509 -0.015851106975818 0.18378521994516
0.384026713764935 -0.0126576588268548 0.189561473731092
0.391423482687905 -0.0143984859309283 0.197810292319781
0.397478636352614 -0.00917042321563814 0.203615508316173
0.398717070799861 -0.00995807089311876 0.205067259798074
0.403248804245775 -0.00625000287578146 0.211886535153452
0.408166891924549 -0.0148986368036146 0.224022937878065
0.4137813859839 -0.00922411967354536 0.233776280171618
0.416317045122331 -0.0148998984521392 0.240354525327115
0.420541444546524 -0.0160503488798372 0.249122859780389
0.426923192137165 -0.00785576873390673 0.259748817589244
0.433861381744687 -0.00867832726754429 0.273868537874569
0.436660327429047 -0.0167668252123754 0.281610843059521
0.437310015548513 -0.0171868354952296 0.283023487107405
0.443283954166775 -0.00927077920825516 0.292905754378642
0.44312900633079 -0.0160610790869752 0.294386584802182
0.448974865427529 -0.0105784473372688 0.316017016817669
0.449606522886081 -0.0167027896375713 0.325082490159988
0.452104897453822 -0.0101463297130298 0.335391570707997
0.452339344567533 -0.00879978677119841 0.335752006247673
0.454989850852045 -0.00778302920644655 0.351618150498381
0.456177896834498 -0.00932546792915164 0.360388381918798
0.456499919201897 -0.0157896938805425 0.367783871717355
0.459819925451401 -0.00672121706785813 0.381187935395697
0.459028401611443 -0.0171368313950602 0.391321414428264
0.461619455650516 -0.0113802910307193 0.405443138454221
0.467947141464043 -0.00931618019390299 0.411707586692301
0.476717461803934 -0.00970855781333698 0.414710797872542
-0.0271014828932406 -0.000873139432173841 0.017185885972333
-0.0172970691680558 0.00113137686496495 0.0161182572338209
-0.00780741618344982 -0.0023158412080737 0.0151045685910244
0.00418344918289546 -0.00220638635449203 0.0147309420234939
0.0198738680320086 -0.00342055036919354 0.0164327598640134
0.0181460122613417 -0.0030750321579104 0.0162389837640696
0.0290933620954334 0.00279739237776497 0.0174312238092842
0.0409437405573617 -0.00436050711857324 0.0187486200784891
0.0458666789452751 0.00400736067204995 0.0192814769790929
0.0691238870288301 0.000519022266004085 0.0217726458879013
0.070912126181181 0.00386765549013812 0.0220162226136335
0.0793165184826658 0.00286890878341119 0.022920215934726
0.091062066378948 -0.000657386603202903 0.0241718557463189
0.0958935550356581 0.00240718411806011 0.0247249724809577
0.108146591064005 0.00197330164834971 0.0260576392225798
0.122404507570945 0.00315155970307734 0.0283013829287774
0.126577450737769 -0.00117410762770171 0.0296465263660752
0.133289368248752 -0.00282950505993893 0.0320289914077418
0.144509378291812 0.00317841003636792 0.035902192137403
0.149617242178923 0.000246516652522519 0.0375255590530189
0.157660687657154 0.00453948245660658 0.0404851807635966
0.166813208479456 -0.00472907961665546 0.0436403738174106
0.177514166432844 0.00311296888801263 0.047246185778511
0.189755647833079 0.000998172507892157 0.0513590540806052
0.191774128275666 0.00235324477073179 0.05211433508534
0.198198927163509 -0.000157137344314677 0.0542237636144996
0.206222345968567 0.00020642220304208 0.0569844237094102
0.21210851837094 0.00472389883668768 0.0592125426113773
0.23212388731751 -0.00516333815613825 0.0664196160548055
0.236929957595076 0.00427110285716562 0.0694057015446018
0.241074999250066 0.000582985713422185 0.0717363638193268
0.2419580738313 0.0030409022962356 0.0725048665929808
0.254940162681103 -0.00417303991977988 0.0808678438887281
0.258203123546137 -0.00197913904010508 0.0827620109064206
0.268448406231494 0.00380880937437748 0.0894404533045781
0.275082371942391 -0.000424120873067237 0.0933817066061486
0.281209479837764 -0.000253763216330203 0.097269663677602
0.293300895878383 0.00349197332251925 0.105241975943946
0.300639250448539 0.00441661205389596 0.109993165685105
0.305645605383964 -0.00147674456038292 0.112935120876343
0.30937265744361 0.00129809744434579 0.115293831980489
0.323218135791987 -0.00343009240403997 0.124290521053893
0.325149312061918 0.0029540643817638 0.125480537765948
0.331466675501999 -0.00559282470341793 0.131702414957716
0.342332284547778 -0.000899670492428834 0.142787164091124
0.342907153941855 0.00527767582095698 0.144032439105421
0.354357479617209 0.00312138917160772 0.156110926662527
0.359273416521726 0.00283241671467337 0.161387231574584
0.363442975002735 0.00155582086926444 0.165715553079182
0.368272644614398 -0.00528361158320044 0.17147055375292
0.371890503184389 -0.00368140736062168 0.175155745700717
0.377634009382015 -0.00365912310303979 0.181365191195004
0.390783287929225 0.00339623778626018 0.195551027836529
0.388838536951369 -0.00507587894214967 0.193686625433306
0.396971642572784 0.00131938967721697 0.201949074524986
0.403398959294206 -0.00464923337340221 0.211765124567456
0.40820736592795 -0.00376817096887512 0.221167767998162
0.410101186963705 -0.0014784799487485 0.224358569652887
0.413741513588515 -0.00174245569319125 0.231722684255857
0.416446334723412 0.00461384201943259 0.237900083247474
0.420628758569816 0.00533919328025974 0.246472163904172
0.426350554686091 0.00501675636600399 0.257852422823481
0.431403858329306 -0.00532948254314983 0.268060717503496
0.43603038428844 0.00209875983053325 0.276479057002997
0.439385232914268 0.000576724051769758 0.282799972959329
0.443127318608552 0.0025697540102668 0.29082412510396
0.447110196914725 0.00247983463139646 0.298781284553951
0.449354108359607 0.00205541973529686 0.311333831838711
0.451048889029845 0.00331921586510048 0.323067486540734
0.452332918433142 0.00284178923092714 0.330766354879756
0.454859563527627 0.00403721304508029 0.347687729785809
0.4556805050307 -0.000683322147152567 0.350079606273096
0.456727496216052 0.00409104404420732 0.359508746157416
0.458398179487854 -0.00164407463229216 0.368010543991787
0.460646482835624 -0.00399928411542668 0.384139742165191
0.460573718536559 0.00539898400564914 0.386169236737123
0.461810278619065 -0.000173604529639941 0.402391869220854
0.468332775396068 -0.00535920432184189 0.411621409108122
0.477809470072976 -0.000271798830308981 0.41469436729397
-0.0310748172273268 0.0100857651679586 0.0178014833272165
-0.0198209365147961 0.00691492970882673 0.0165218209665079
-0.00265132099567954 0.00981601051426118 0.0153232431154513
0.0067816375957937 0.00815475061265796 0.0153799561997589
0.0216779573282462 0.0100859154466188 0.016844655384757
0.0212019635573811 0.00854622147691347 0.0167312473067134
0.0298193660528956 0.0140647786506017 0.0178414709998893
0.0355697027216129 0.00907698234661873 0.0182292411362601
0.0524222772030382 0.00713489199783023 0.0200428097889348
0.0638641291388467 0.00875444228018901 0.0213163775966948
0.0689911467569652 0.0152169667728606 0.0219695839493826
0.0786660470811351 0.0137827579427283 0.0230061431767271
0.0896487378425036 0.0108310922591946 0.024163776776925
0.0954304752528757 0.013228598371694 0.0248300465428614
0.10711643010545 0.00574254901663566 0.0259992958375685
0.118833449642126 0.00561918739013997 0.0272778583281836
0.132572387992677 0.00858487780091687 0.0320429939055233
0.140696441637943 0.0152388074860341 0.035137189881101
0.144127882966794 0.0151905802481124 0.0363147271466953
0.150464841878214 0.00883810341384586 0.0382058319070705
0.161356998826751 0.0142609921288389 0.0421959751145738
0.167917455090777 0.0137954646863341 0.0444303713864275
0.177078233840809 0.0149346794195146 0.0476313848629677
0.182975351605104 0.00525056179121926 0.0492204774924768
0.193763227615973 0.0158233979899562 0.0534078649254119
0.19843152297064 0.0143342932591873 0.0549454125500035
0.213333411232228 0.0133323334945596 0.0600232903850981
0.211803476323109 0.0145664769300301 0.0595531624735657
0.227811735523299 0.0150812297427979 0.0650800566943891
0.232145382757642 0.0162543195786834 0.0673632519193795
0.243044158522797 0.0128537664480021 0.074019353217128
0.248328417687824 0.00747766493600546 0.0769340294637095
0.252521588915397 0.00596287720308621 0.0794775717777495
0.257936639553426 0.00818245596257276 0.0831124218894211
0.268976162269419 0.0123055215031712 0.090488995359987
0.277378232081792 0.0158732473091397 0.0961392605470872
0.279932933976453 0.0134200677976363 0.0975606108577112
0.290017269402936 0.0149920296721406 0.10411494085213
0.298892371173297 0.016542596861337 0.109897338541926
0.305778967519578 0.0100156013201697 0.113736014493098
0.315625243961863 0.0143964597638929 0.120374246774795
0.322369937595795 0.00777957752574803 0.124115010795553
0.330924653453115 0.0117399424766053 0.13199150543854
0.335322806107857 0.0146815857582545 0.137167792411687
0.338946537648155 0.0140048554383846 0.140991129578058
0.346356636691571 0.0106532234372533 0.148529172936075
0.347577194272738 0.016784461962282 0.150722544076136
0.353585698115193 0.0146648334116139 0.156919958109312
0.363158342955197 0.0088023054262416 0.166439612281438
0.366695389020451 0.00665260866024495 0.169959425254767
0.370730187716125 0.0129782355113794 0.175224578412313
0.378884888736372 0.0111456927251944 0.183784367285728
0.38029747761147 0.0125066780662086 0.185506144045921
0.387728798093813 0.00694680961639823 0.1927526771619
0.39844058102812 0.00606617536830033 0.20421395987934
0.402370544641683 0.0169512957680764 0.212949734613963
0.406140346600702 0.0091455891717244 0.218444469684456
0.412091554551889 0.0119324929037163 0.231104682749494
0.415582435097101 0.00752963649213075 0.236938204454834
0.415688022243892 0.00705714596177121 0.23702513436643
0.421010352629106 0.0165199553082903 0.250186340993185
0.425259788445596 0.00807403253940696 0.256473272899511
0.430213079594211 0.0130621310830101 0.267714549019972
0.433136179101652 0.0171551623782479 0.27465160956109
0.437565956687301 0.0129061099095043 0.282407064816288
0.439729136818091 0.0145128637427734 0.287165508784287
0.446659069248202 0.00897291721950037 0.300084545586638
0.448698971013772 0.0145109508327118 0.317541625032675
0.448870430213601 0.0105229315248981 0.315312529402668
0.451041061886181 0.0122320850270219 0.330415821906429
0.452545474678566 0.0158957155557317 0.342941169458901
0.453817573197665 0.0168638397032597 0.351764626974685
0.456346494951252 0.0130110940098641 0.364510374331938
0.45670336004334 0.0134257517364306 0.367104387622455
0.460311581952187 0.00739010904448865 0.389017656644094
0.460063454399633 0.00927482492228115 0.386474925660326
0.460014587304606 0.0137064533812589 0.402303241127507
0.474539020630439 0.00734218587608161 0.414409055003356
0.470711643594903 0.0173609138657172 0.413546678615003
-0.0209049145838199 0.0243963961156903 0.0177477014394859
-0.0155196962377285 0.0204304666736066 0.0170396068904608
-0.00588654824512771 0.0237734923410652 0.0168943534847915
0.00185807109140226 0.0195657220339277 0.0163766106337285
0.0121179033420189 0.0211778448605276 0.0168794351520772
0.0224205189256258 0.0242434899378431 0.0178360199159967
0.0286470734740924 0.015900815345064 0.0177995414140369
0.039669314100332 0.0188248264298357 0.0190452066730286
0.0513514506300041 0.0234292833279098 0.0204289423516617
0.0576109677107642 0.0236078182041969 0.0210738471372753
0.0655961289648149 0.0188436177629794 0.0216859944638508
0.0774165219997306 0.0175880537339726 0.0229243481170774
0.0845344070466373 0.0208888197404814 0.0237496150213941
0.0942429997937533 0.0195970825346284 0.0247919054518412
0.110317575908229 0.015813604177197 0.0264939710205304
0.116768858785737 0.0238397529214582 0.0273143760249909
0.122792019423577 0.0189797160175389 0.0291510187720133
0.132193237626953 0.0220668706263978 0.0325228618748233
0.140320417114739 0.0188646582440642 0.0351720260956079
0.157032876563496 0.0229475334337645 0.0411025219556036
0.16249281290668 0.0178706992144671 0.042749846602369
0.166923110242864 0.0184391625711991 0.0442987003295183
0.178014446823418 0.0159361820351042 0.0479985820966955
0.178978467131 0.0243042851135463 0.0487087647700109
0.193431090174349 0.0241044731420162 0.0536684930824381
0.198009993514167 0.0203435687011849 0.055072482307225
0.209904459156761 0.0220632593773214 0.059239603205475
0.219536521039891 0.0248635697634342 0.0626778266556031
0.223152368141897 0.0237916275855442 0.0638724269725235
0.232684347018676 0.0208283817758147 0.0680900297489605
0.245370734298384 0.021313488661924 0.0762104286110558
0.243094002312932 0.02654040431599 0.075198681694554
0.258225237550876 0.0182845324458737 0.0841432536655298
0.260672291114258 0.0182573476325068 0.0856994571991261
0.266474735566803 0.017195029016394 0.0893058538879499
0.275779217815494 0.0247788134926796 0.0958675833505739
0.286857416631875 0.0244796535867151 0.102897998453771
0.288225840967865 0.0217064964682168 0.103537001480968
0.298506584818454 0.025575048636168 0.110408982615805
0.305273200543723 0.018175864679854 0.114098114735513
0.314407031752073 0.0224270166630741 0.120271728398089
0.317761090073516 0.0229794863648477 0.122454188699597
0.324777946355044 0.0252774071118723 0.127270562616177
0.330247561121269 0.0261320767395484 0.133308629076969
0.334433559086247 0.0213386013196929 0.137153909847623
0.346050903459177 0.0249466291589236 0.150233927707255
0.351209118856223 0.0199059075651491 0.15509562455931
0.352051158550124 0.024893700414297 0.156716728646403
0.364920890365831 0.0251400295567207 0.170672700934189
0.36628058611531 0.0255665606234345 0.17220419299829
0.372985665209813 0.0265672693634949 0.1795994296516
0.377542723250905 0.0173801752159387 0.183220402182027
0.382866585592624 0.0170191334767665 0.188927687620278
0.391809630309867 0.0261945590934742 0.199907804881059
0.398067192705046 0.0187988578885295 0.205623278144245
0.39804892044611 0.0265991693036737 0.206835232349722
0.406588366235371 0.0232864106792211 0.223072628394165
0.406666617896347 0.0194180330081119 0.222208931820805
0.413635049084595 0.0197061938256763 0.23624827335936
0.417178242236383 0.0256638111223822 0.244919762792816
0.419549564728701 0.0236551116107341 0.249141507496898
0.425935190210429 0.0194497981920621 0.260827623977235
0.428591335020436 0.0271951132658582 0.268193251834282
0.434739442135025 0.0200101719839036 0.278617389191342
0.438830035591151 0.0214200024181585 0.287186029333063
0.442289610930532 0.0214048940401113 0.294114331243338
0.444879967564874 0.0270648304347695 0.303884529844997
0.446438645730267 0.0195337360462751 0.307460370453253
0.448156338392362 0.027279923467969 0.324718858028347
0.44933261614275 0.0214506480091624 0.327296374142514
0.451591702947683 0.0199304207316659 0.340276943850536
0.453948153176024 0.0192975975659291 0.354607884329058
0.453739380751255 0.0225149949628549 0.35596212344513
0.455573704503496 0.0251326675468558 0.36969924160353
0.458049226831145 0.0194513442756539 0.380590614176581
0.457686563048529 0.0273291071779285 0.396281246648321
0.461488898926694 0.0191203851842894 0.407105196663525
0.466035755326317 0.02737560139393 0.412004489189524
0.471855043889145 0.0228761534579508 0.41418940599178
-0.0326175404574713 0.0291029965716265 0.0190165949845159
-0.0146561060277048 0.0321854292745829 0.0181073357053851
-0.0118075021528395 0.0252784188597403 0.0172838838031409
0.00201204777354662 0.0309226726815687 0.017619817584831
0.0144253354162123 0.0295855462259113 0.0178328696142263
0.0209050697409245 0.0345322931472095 0.018633984756726
0.0284031418110905 0.0312174694561955 0.0188472178683528
0.041847665495701 0.0274645904847235 0.0197137403333075
0.05259459770409 0.0256676395809079 0.0206499333907129
0.0608184397841098 0.0356436085733156 0.0219212919109305
0.067745353293974 0.0356447646972832 0.0226134652299665
0.0793636588166258 0.0343738865112602 0.0237428958294783
0.0919812306848415 0.0318286873824783 0.024920329263954
0.0930366718231063 0.030340642627616 0.0249650378080706
0.113748129323035 0.0325086225377184 0.0271654192483366
0.11760424674683 0.0303907091608002 0.027883958475795
0.12934890526512 0.02943991131014 0.0318787050648079
0.133539410794343 0.0358803386148117 0.0336195126001665
0.14212484692906 0.0327068170615142 0.03641890469014
0.149814449255153 0.0356874425659811 0.0391974772541399
0.155894189353909 0.0336245329367005 0.0411943042859141
0.165241722862208 0.0366716181609387 0.0445458771266551
0.17217725754075 0.0321964816283338 0.0467277423340219
0.18509652177667 0.0362545104471018 0.0513530234947874
0.191036498327128 0.0350581097382433 0.053341019927369
0.196337653832273 0.0316631632883468 0.0550098813707979
0.208234898972315 0.0290536303755348 0.0589820095410318
0.210475061326077 0.0347839512554484 0.0600115356644413
0.229334269683146 0.0377342645392121 0.067373935813506
0.235287812854205 0.0330551305119183 0.0707733052463555
0.239246165367375 0.0353032175329805 0.0734828017498337
0.250563776661547 0.0295871796723071 0.0802115050950557
0.25352730536808 0.0363382168072296 0.0826649757994733
0.262526209072973 0.0290622148427893 0.0877861390566944
0.264947016652132 0.028825750522754 0.0893080795466724
0.27496348822266 0.0346755945099092 0.0961778760104161
0.278341693388767 0.0337541458824219 0.0982521313182402
0.289922721064319 0.0313132797410116 0.105423213068732
0.297532534091132 0.0281100751873984 0.11000118226453
0.304483954770845 0.0307550844721014 0.114650188964028
0.309988890338315 0.0323837669238998 0.11829274021675
0.31553376805593 0.0347274939177219 0.122020684240982
0.326306566642558 0.0342414870081319 0.130200570272102
0.333498571252296 0.0321605492187699 0.137683659711784
0.336055610355375 0.0380180350225638 0.141283688365048
0.345005420800567 0.0293236128669347 0.149726359593544
0.347301782485309 0.0305402953188994 0.15238354360459
0.3491121860212 0.0387547742768935 0.155511602449759
0.357470747140257 0.0347148945399996 0.163977565223147
0.362038319784597 0.0359267084811957 0.169090772723735
0.371384261894744 0.0377573755251879 0.179460760934252
0.379253910938496 0.0345411903616346 0.187515177358102
0.383987827745282 0.0341841397484374 0.192584900603122
0.387314948239497 0.0305048471554134 0.195659819064228
0.398319143510471 0.0316055879559307 0.20869742242437
0.396099470703893 0.0337256498630308 0.205620495468632
0.404701008072691 0.0295760449658378 0.220949981714251
0.408612752064945 0.0370861311996405 0.230769521244495
0.414198076100796 0.0391006168468143 0.242492809437627
0.41627509816287 0.0316393489900735 0.244686421426219
0.418346707833916 0.035224096187062 0.249783181126428
0.422950221385479 0.0395242600669201 0.260142093312966
0.428497699477436 0.0338999995640402 0.269774407140084
0.433302300389831 0.0397630900588671 0.280948565349118
0.437848394098766 0.0319367763633683 0.287993395444538
0.439145424905879 0.0376021778804559 0.292086942975004
0.444167280663731 0.0359196081205563 0.306740877922031
0.44479899186797 0.0386902550413878 0.313023122937768
0.44823186534316 0.0295132419766998 0.327048670232725
0.448825584756014 0.0382752708369487 0.33806424392448
0.450982769797391 0.0308791331434064 0.345525370773299
0.452413818595124 0.0311646168637794 0.354784334937646
0.452547826714159 0.036076019616053 0.359705650180711
0.455689473421868 0.0302601905014233 0.374684948013241
0.456240710095174 0.0383114506947728 0.387661835116956
0.457378318246838 0.0296704588980987 0.397610604444441
0.457690263502445 0.0355123054917232 0.403935977994363
0.469206211556408 0.037768098956963 0.4139527804772
0.480860942739341 0.0322661032918024 0.414511927407112
-0.0295965071765356 0.0442706043150047 0.0200686392311278
-0.0127164363086454 0.0352243539414605 0.0183349639529647
-0.00570652322449826 0.0434735005747812 0.01904441455502
0.00239183665583787 0.0410298090622808 0.0187297038712295
0.00732565964811907 0.0350680261507783 0.0181492278379272
0.0196038188079254 0.0376436359366606 0.0188717979634378
0.0357180912291623 0.0366902182301109 0.0198165412179628
0.0398113970786717 0.0394503310562916 0.020339866132695
0.0508888517553749 0.0358363412275053 0.0210659897273502
0.0524683871283617 0.0381067014506699 0.0213564310286567
0.0679501790060627 0.0358464052844268 0.022642826232804
0.0792207367550704 0.0439231206975047 0.0241311032703317
0.0969121677152152 0.0403122459474526 0.0257802346083957
0.100652760313365 0.039016403336659 0.0261064649787607
0.107972498170267 0.0376046905402828 0.0267922543563132
0.120998493203034 0.0437542608618666 0.0306466790741575
0.122675850194702 0.042270173502985 0.0309871110872719
0.134353666865609 0.0378943479744162 0.0341476348521476
0.140306517586807 0.0391175504931258 0.0362170579192453
0.149328096036776 0.0419951151834596 0.0394891384434874
0.154880118235247 0.0453017114720839 0.041706616856394
0.161632661223988 0.0389290595308805 0.0434072674223933
0.175166794586984 0.0371884310398881 0.0479814814232529
0.17848646076217 0.0376390610556373 0.0491431698586826
0.190350612461875 0.0414187003413373 0.0533931058215887
0.196934239406315 0.0470315133865682 0.0559105845438545
0.204479409046451 0.0476362824390011 0.0585319660842472
0.215889546223861 0.0462388808382144 0.0623914910788241
0.22123970313084 0.0410578209224317 0.0639963564173285
0.228805198843147 0.0480106239739631 0.0678986226229969
0.239750009034645 0.0440724290568071 0.0745389627252684
0.250643145547401 0.0387270221389184 0.0810284022800861
0.248378881226337 0.0400629914601608 0.0796983515049883
0.259068470395576 0.0389834975669642 0.0864158396671712
0.268797556297956 0.0399574458183637 0.092693776182931
0.273984959396952 0.0402761267295497 0.0960242571780598
0.284011036837472 0.0395856743925679 0.102351787039385
0.28886700059995 0.0419044834732098 0.105638885286436
0.293519976838348 0.0423975613843219 0.108643622424335
0.298111381544198 0.0416632371233218 0.111506231775343
0.310261208231471 0.0408506455758192 0.119176097020556
0.32022675677586 0.0450610539698685 0.125875999755713
0.326562948950574 0.0387814538673109 0.13112440932223
0.32718467647153 0.0462656616618921 0.132862709970641
0.334885169791012 0.0457596437192444 0.141120097209556
0.339311233017336 0.0459058025618657 0.145928482086267
0.346551210540786 0.0468961973219133 0.153900837331968
0.351193130414784 0.0427070785916384 0.158325342080889
0.360671118201521 0.050284821038109 0.169656576138991
0.363894309724496 0.046778268972916 0.172643676214989
0.368177162732916 0.0483434807752584 0.177499234811356
0.380934044301274 0.0441942088226823 0.19070718186321
0.384306519542426 0.0460275490256814 0.194616188668611
0.387031752157642 0.050293137176875 0.198171453425889
0.392067561864409 0.0451269691436363 0.202882882589584
0.39767849137359 0.0509740616785195 0.212523183965201
0.400547614548722 0.0498558948890304 0.21797734721967
0.407639302762325 0.0465565414521261 0.231317266959884
0.40867702181729 0.0431635189043929 0.232501549535772
0.414488714195007 0.0411796580300333 0.243623650533049
0.419409952295525 0.0406540832746388 0.253346164735884
0.42308096116848 0.0453471875849891 0.261940186221786
0.428502600231425 0.047675826869419 0.273418358188343
0.430065780752864 0.0493410006558312 0.276989936055746
0.437368469744706 0.0483119379684025 0.291351572431386
0.440027158506823 0.0495919534752827 0.297016720059606
0.441684378832117 0.040782010833458 0.298013347444617
0.444653895267005 0.041305816262319 0.314279280725214
0.444489494533603 0.0513914779707249 0.32161391947929
0.447184844546957 0.0442412069506273 0.332671963770417
0.448367573459705 0.0464053814850245 0.341924714576666
0.44919855592902 0.0506616668519035 0.350696340393563
0.452607762627841 0.0432092743451955 0.366004116130062
0.453978875244788 0.0460614253946103 0.377015547969404
0.454279107986625 0.0494394697676471 0.381712134888395
0.455660513293255 0.0427184829391398 0.396386034154873
0.458256532590936 0.0501809460195639 0.408032014425861
0.471601226385338 0.0486635380519435 0.414712140276361
-0.0335311235302628 0.0464068458323635 0.0205194205059517
-0.0195162323045181 0.0509933294424169 0.0202274349565577
-0.0130084054748936 0.0471769495580545 0.0195643502144432
-0.00258752019872034 0.044936772157294 0.0191594389533498
0.0173535142480903 0.0456113403095548 0.01958819696716
0.0253860348888097 0.0520888686097701 0.0205865602660374
0.0270864555074406 0.0458431230815097 0.0200377285213473
0.0430986994590619 0.0550537254928181 0.0219174251950899
0.0430534508022175 0.0548389466535033 0.0218956092159152
0.0666847176995565 0.0543013912528587 0.0236860647492801
0.0697560581179998 0.0488544387848018 0.0235891601740466
0.0842007172728058 0.0553213629386326 0.0252860808997084
0.089009224937285 0.0492773623836286 0.0253536422657526
0.0897940766679793 0.0527441671482245 0.0256022435664203
0.102882290338158 0.052264503848419 0.0268922551265873
0.12068276034549 0.0500918120390006 0.0313865263913588
0.123063462083442 0.0543316945293776 0.0327118628924828
0.130603321284088 0.0531295949000552 0.0349678732526505
0.140395034608777 0.050445285269166 0.0377486152740877
0.1455907861357 0.054812280753313 0.0399926717583031
0.159012010915376 0.0548104395514098 0.0442921589315571
0.163419122819514 0.0512199393612914 0.0452275945384347
0.17182042573358 0.0575386453477107 0.0487576007650647
0.182516280951027 0.0488727866789731 0.0510370692624038
0.190268863125941 0.0535280838424888 0.0541356858564238
0.196492097741579 0.0527670062945267 0.0560284157540858
0.21196668653523 0.0554919486346958 0.0614616328826069
0.217251636886481 0.0584125915864111 0.0634282822764765
0.23036823843601 0.0571173891150859 0.0696576686496776
0.236547175631899 0.0526415404965206 0.0732176322217684
0.233904350832734 0.0489360480608315 0.071223771739433
0.24847663653543 0.055198312886506 0.081029661747087
0.257503066295172 0.0531724830275334 0.0866085671588353
0.26533523754279 0.0569490038452231 0.0919133813911254
0.267910619559537 0.054089269549276 0.0933138140768776
0.278387919802104 0.0523978079760409 0.0998447876996525
0.280126921332058 0.0495164598591628 0.100710732955398
0.293568977178122 0.0502560063916272 0.109333737079879
0.296650081721198 0.0592429179054617 0.112049561067057
0.304205436330864 0.0547763448748619 0.116486917019123
0.313540050068545 0.056045990997919 0.122538414937781
0.315970458895531 0.0555502555482411 0.124044731170515
0.324624661080959 0.0552609391486443 0.131374576917152
0.326359680358914 0.0536534207201816 0.133022388024033
0.338195021152129 0.0595738648810236 0.146667508381713
0.339709082194837 0.053400620053778 0.147426129545564
0.344682861360936 0.056264677279493 0.153214009830823
0.35191701623936 0.0567552436610001 0.161108888551581
0.357874786339143 0.0592790478223932 0.167912675353377
0.364269088821334 0.0569854237356962 0.174502621005776
0.371937832853389 0.0574298496920654 0.18286101419462
0.374812587681523 0.0607791705229338 0.186447532206012
0.384819743813027 0.0613042826124263 0.197346822266428
0.384955098908368 0.060369135778794 0.197360062728182
0.39189584838171 0.0532430745680459 0.203852921995678
0.397469522930811 0.0598898180632108 0.214456473914772
0.4027045991093 0.054547607117104 0.223537203703605
0.407563137570527 0.0522748551961894 0.232673166620187
0.407950640481676 0.0606026077637085 0.235646545936369
0.413271303101722 0.0615830922265211 0.246566731717525
0.419433148650483 0.0591440767149319 0.258270396648682
0.420748745499793 0.0617113605043634 0.261583848084376
0.424588032540356 0.0536258636049491 0.267144007113952
0.427856565361529 0.0622923793257436 0.27597975364486
0.43417278721999 0.0622551448825062 0.288626359048915
0.439178977517915 0.0579484176771335 0.297521613636826
0.440624733123055 0.0548549190421597 0.300123280344128
0.442605811941477 0.0552618208710278 0.312950672555691
0.444840294196601 0.0591553697003624 0.330269557640755
0.445818181193741 0.0583135444614308 0.33573590771209
0.448376751194338 0.0546885115402475 0.34885757332943
0.449125609405367 0.0598099827098684 0.357829552954329
0.451556674516584 0.0523689187845656 0.366980061334285
0.452521031359282 0.0531813280422661 0.373734125505051
0.453215159267413 0.0612927908379958 0.391198312781721
0.453223937454909 0.0612261138842217 0.394830392497333
0.459728982064673 0.058470842021914 0.410595066084905
0.459614297756553 0.0594966166848324 0.410608033938026
-0.0345766775782722 0.0577448412726453 0.0215809544583089
-0.0255190120672954 0.0585194883103673 0.0212469660595613
-0.0128785397104652 0.06177648542519 0.0211475862364287
0.0016382947365448 0.0645439798804542 0.0212882939440289
0.0147890546839183 0.0648371242200873 0.0215095114824739
0.0229590852954244 0.0587917959843716 0.0211667230813538
0.0265795430267314 0.0593136075085111 0.021372557446668
0.0402511379694738 0.0639993798307841 0.0225085692448407
0.0458120923727823 0.0631415585520575 0.0228066706475775
0.0525470510927127 0.0622936882512989 0.0231844111755424
0.068221095045368 0.0663096882138992 0.0246260925999421
0.0741776316403382 0.0612680470595831 0.0248086608390188
0.0840479776054654 0.0585598575496978 0.0254900100870229
0.0992257431448523 0.0575793248881438 0.0267513508650005
0.105107460015594 0.0641088241747041 0.0285252719858932
0.112227239063979 0.0572965970711145 0.0296337282457614
0.122527285590539 0.0673164970476473 0.0342631826041832
0.131656797389777 0.0588053516842704 0.0360585507269532
0.143327478968464 0.067014168889447 0.0408867806424447
0.146487361650721 0.0580366771644836 0.0407077858446877
0.156542673088227 0.0657794240247002 0.0449566548891601
0.168937084132888 0.0644013165453056 0.0487445521373839
0.167087748033443 0.0639964663326457 0.0480983600102415
0.181474619588534 0.0680150888648734 0.0532407282552969
0.190193900307818 0.0647466738624861 0.0556003858998883
0.192209231056058 0.0612885944684753 0.0557871436052399
0.203929919925491 0.0678116764581593 0.0604076958672703
0.216174862527141 0.0628008025436239 0.0636656372349048
0.223453827379102 0.0666898780459273 0.0671606254847137
0.234210542232956 0.068409713263318 0.0739672917079834
0.235990686885952 0.0647895130033307 0.0741338270191606
0.247828372564386 0.0622597982263742 0.0812088790334352
0.25208188150857 0.0605313566894781 0.0837729350806377
0.265056136834902 0.0675541832272522 0.0926248401033111
0.266548190840506 0.0701255975066118 0.0937907069897668
0.274874933249852 0.0680351119802346 0.0989185733567271
0.277594834305286 0.0692565081439414 0.100753238185926
0.292191507093765 0.0665883877765894 0.109825873626696
0.293823874436486 0.0662727427976221 0.110839032132212
0.298957740012136 0.0669000779480666 0.114161295814844
0.310591805055797 0.0648006526540521 0.121394784878534
0.313360652188619 0.0661098976404596 0.123267988416633
0.322996992469687 0.063065804852488 0.130725420817254
0.323674703100096 0.0686296255520226 0.132250803452416
0.335122158151216 0.0673385591497712 0.144449398031325
0.340083667400121 0.0628363020462038 0.149175002653152
0.344276759048944 0.0651108707196488 0.154034484756319
0.348293689950027 0.0693773896013695 0.158987082458295
0.35620618239585 0.0644259888370215 0.16684073738557
0.366281223388437 0.0718436669991591 0.17879499616744
0.37177760323807 0.0725510942666007 0.184841045685011
0.37713209604319 0.067142372427311 0.18986264605269
0.37853012039521 0.0660106431981364 0.191213692471412
0.389731445634311 0.0632321807601952 0.202934240722989
0.389264693002185 0.071285349474073 0.203576180516625
0.397041335801934 0.0724426369906123 0.216909969032024
0.399207350039355 0.067072020117246 0.219833427299306
0.407587405802232 0.0643151365503979 0.235898080617618
0.406454096059042 0.0709696148794778 0.235382641743218
0.41314717973743 0.0657274370373568 0.247411312185044
0.41623639576942 0.0683288287489954 0.254287734711015
0.421527510293112 0.0716799226220297 0.265774090508192
0.426853689576831 0.0720594858385892 0.276546804587488
0.428547440927665 0.0666826794253982 0.278522310947134
0.433875140298336 0.0707408960198455 0.290268517808691
0.435890500196479 0.0724290140380904 0.294752224271799
0.440139650502405 0.0713547278691644 0.310759929972562
0.442393132555384 0.067057010260961 0.321399847682402
0.443688265778765 0.0636206394760867 0.326712796142612
0.445281052112503 0.0638978240102602 0.336984542382476
0.446472128522331 0.0690681791123208 0.34878504965416
0.446679882037664 0.0728417651148308 0.353226903069617
0.448776644602062 0.0734557374829692 0.366955489218878
0.449591061893852 0.0734928645904137 0.37212077891774
0.452783839165829 0.0645689922735084 0.390305480803716
0.452071376198099 0.071447209706394 0.400150285780053
0.454069820871646 0.0668252099873318 0.404941843044765
0.463601196539101 0.0701781055558416 0.413492725874013
0.480264474060146 0.0742681130181838 0.412943383315863
-0.0321998362316287 0.0729005833499064 0.0229930983746574
-0.0251237806750518 0.0685446893381202 0.0222511113359949
-0.00699311841576125 0.0684546847365588 0.0217926566419604
0.00416215260924093 0.066460324479148 0.0215340038378704
0.00409134953451614 0.0733131309596506 0.0222818022172246
0.0132371278095014 0.068609101530907 0.0218993555497376
0.0322160468762567 0.072163555688226 0.0229187343302059
0.0413472166652625 0.0711664334254768 0.0232087900450621
0.0498159913790222 0.0683726029150313 0.0235327069239491
0.0521346172540567 0.0751326642157477 0.0242793666885127
0.0680506571262081 0.0726085784284952 0.0251265389744355
0.0790703613665325 0.0747364492108369 0.0261401296189282
0.0897847608633548 0.0730848511856612 0.0269661733682197
0.0980107227519201 0.0715984019820391 0.0281539384656999
0.11072078715546 0.0685730229263692 0.0310119100949115
0.112381347485917 0.0718204212565098 0.032154254981289
0.126200195772544 0.077526277084298 0.03716039286646
0.133200222152528 0.0683311536935296 0.0378170961279293
0.13686962778128 0.0742047741704201 0.0397720904891262
0.139219922650152 0.0762870636845319 0.0408013713132375
0.153899871455833 0.0729792028468726 0.0450654020275009
0.162412475879539 0.0782939935572889 0.0484978453527272
0.164385879998978 0.0787106087029004 0.0491853461243666
0.18107350224055 0.075678204495374 0.0541291245578562
0.191828110951042 0.0693477973944514 0.0567345074815577
0.192394754026455 0.0705994988090641 0.0570821435779963
0.207727974677911 0.0724416920993809 0.0622388779547834
0.217168973931193 0.0730709530097684 0.0653469758174785
0.216210493129964 0.079904902823283 0.0661104693112714
0.227672376803159 0.0807516870687687 0.0731210188695515
0.239101251051024 0.0783185408247657 0.0793056824088145
0.242757726217925 0.0784303198576487 0.0815032018892402
0.256006633990335 0.0708334364784527 0.0874986308383982
0.262518511916785 0.0715025482915338 0.0915277793208578
0.266295386867454 0.081004493891342 0.0961051104383489
0.276659195596 0.0736027449522581 0.100521766329769
0.281186665563769 0.0755182107215768 0.103594094628445
0.288496146514074 0.0783403859517861 0.10862588496072
0.29017398695781 0.0795495574941511 0.109918895071132
0.304077466850733 0.081597239074019 0.118673693718534
0.306858182570036 0.0823869933546483 0.120518133022277
0.315988550475285 0.080356987619252 0.1261362240944
0.321385425199872 0.0807648474174208 0.131502666238069
0.324955050991097 0.0815922156679935 0.135481670345493
0.335458476439666 0.074812607141918 0.145877531248769
0.339404531804463 0.0794569627439219 0.150807270531023
0.345193304520862 0.0734008940964666 0.156206435778989
0.350856114409566 0.0773404414225328 0.162892780481076
0.360738882932252 0.0835528270703254 0.174467422276257
0.361448207615772 0.0779715644490712 0.174439880095484
0.370856595884172 0.0770879568293408 0.184490887278959
0.374741217672991 0.0760743546606569 0.188548451042687
0.378824008335946 0.0777906139420364 0.193209116779233
0.384401628659851 0.0795834918887869 0.199497616386141
0.392906314592452 0.0813744041992318 0.210980468951762
0.397421039878046 0.0743415941642719 0.218171773251084
0.397912139604716 0.0805191034605845 0.220785494841821
0.40457949589748 0.0761737755408172 0.232999206235111
0.405452761494832 0.0742292275580718 0.234236072131106
0.411283682600083 0.0826333995550266 0.248137117713051
