ply
format ascii 1.0
element vertex 847
property float x
property float y
property float z
end_header
-0.167244339184803 0.454508856984168 0.389599331408443
-0.165944469080754 0.459109447737925 0.402126919112373
0.134425180218087 0.10340996955262 0.0132556834256059
0.12889574258786 0.111992592155202 0.013323084084514
0.123176387142821 0.111378216839988 0.01292803876031
0.118431805492939 0.127287633603544 0.0135357609202844
0.112665673573063 0.133037864763308 0.0136203577395395
0.104458782683687 0.141156159788863 0.0137365544237184
0.0992440130935855 0.146720807032002 0.01383630600311
0.0913878469378914 0.152185668790261 0.0138003552594197
0.0885893548415236 0.156478331046015 0.0139691361121342
0.0798814253693895 0.174593228572624 0.0150472292768382
0.0678992017603238 0.174047751227585 0.014637876830848
0.0601138229920533 0.183412763151754 0.0150941582484255
0.0550224007846062 0.194519140682796 0.0157627624761117
0.0546867444413665 0.200977901442808 0.0163575975119667
0.0410163609632463 0.211830414660422 0.0175932627944483
0.0367848151708024 0.209872097689835 0.0172416731794905
0.0331984497576532 0.21638212395614 0.0180856122350918
0.0190983572844326 0.230823584811382 0.020228273168403
0.0139429762167437 0.240241988882811 0.023589039833096
0.0109353589408744 0.240675225160245 0.0236090247312752
-0.00307390981962142 0.249566867683735 0.0278212475444658
0.0057296460535372 0.256246137014519 0.0315896805084741
-0.00637925667648295 0.258347372154987 0.0327620754310631
-0.012580607574342 0.263884839021667 0.0361686108614641
-0.0168935211365796 0.277204517474566 0.04361416087821
-0.0152404260337067 0.277616530674884 0.0437183740884663
-0.0205354160394259 0.286125704320156 0.0486541680344091
-0.0311725653308882 0.284826975714488 0.0487086814059653
-0.0381381443160611 0.291272706225435 0.0526561094778497
-0.0393530622753963 0.305114584373349 0.0601629614840834
-0.046845983833251 0.306172289487876 0.0615206355264522
-0.0467273997477042 0.308797828056433 0.0640098880515309
-0.0544442454120271 0.315500250102307 0.0713713811421416
-0.0639438743723064 0.322757364021744 0.0794857748145039
-0.0653694887044288 0.32669484930736 0.084468016682217
-0.0735342550531282 0.329957259769155 0.0906435591159082
-0.0714081608943871 0.3336271332361 0.0954702445024449
-0.0734924941829232 0.340429474759039 0.105546222617794
-0.0746906878609735 0.342700614756919 0.10900450456164
-0.0811238457912888 0.348404040262956 0.11833101179706
-0.0903028640301679 0.351600085423819 0.124602182586632
-0.0833197973314562 0.351982435219628 0.123837610752036
-0.0869059252373367 0.359270361872078 0.134886481515384
-0.0931174664289541 0.3651702061514 0.144451110870544
-0.101494968237614 0.367017184618488 0.151777546666525
-0.102467922545416 0.367927701969069 0.154694639163771
-0.104298842864542 0.368995134269789 0.158749442377842
-0.103038576996941 0.375533894615279 0.172111462422639
-0.106328831544194 0.37641793171818 0.177101404840572
-0.116650216120291 0.378025080913568 0.190165093989824
-0.111847433875641 0.382418448260789 0.195503891065273
-0.114625023665163 0.387087025888379 0.208426972758653
-0.116898542353539 0.38796609327902 0.212470594958869
-0.12057965418031 0.388790939242442 0.217688630335865
-0.125100019655352 0.39096086636111 0.227263636627394
-0.120515476430774 0.397564266047318 0.239258917403067
-0.126754242214483 0.399045365251057 0.24962452789896
-0.130266486990258 0.399495652446142 0.254482149070727
-0.126372226335793 0.404924864990587 0.264212546687893
-0.139101148318443 0.400423861623607 0.266179680741022
-0.139594000893654 0.404425892880236 0.276904548630315
-0.138378861181614 0.410965544385349 0.292522540331314
-0.14079297966339 0.410250709367704 0.293439886325
-0.144200575859455 0.413654877505179 0.308933439765763
-0.147158946778444 0.415255948248036 0.318027148643155
-0.144975198751751 0.416796531270904 0.320073521578019
-0.151948400029688 0.417439913261282 0.331436447488749
-0.147277055741974 0.425108337194929 0.346226945971008
-0.153453987759374 0.425731312998577 0.354104644571822
-0.158449001235602 0.427937912935278 0.36107888410132
-0.156284882875351 0.434140925570856 0.368075201954948
-0.16417936328516 0.438973799639175 0.375373132936386
-0.169090966063874 0.447957888474064 0.384042432980117
-0.173049604049537 0.451765980982881 0.389067886146846
-0.175895872633907 0.453314697716171 0.398030576966193
-0.174809592458276 0.454636604695384 0.40147001132149
0.128167510337795 0.0988817391800786 0.0126346470579235
0.114162575694646 0.105434163773064 0.0120618027361516
0.11846551407758 0.106779951714519 0.0124022771526507
0.113999319008765 0.118565932755496 0.0127621782122627
0.0977324126149366 0.120709953640598 0.0121024902260424
0.0883658323400458 0.133554110125635 0.0124634692348915
0.0818514231108659 0.146312231311535 0.0130062920137471
0.0872592913604864 0.141687678087842 0.0129283060365088
0.0684104656020508 0.155146643472798 0.0132490632712447
0.0602967277424899 0.162082965644203 0.0135147605495636
0.0569114486210516 0.172891055203128 0.0142137146379972
0.0563262872073607 0.181647638739021 0.0148464090926218
0.0491399499356668 0.184190738861688 0.0148185261281578
0.0470278531507037 0.192057428113789 0.0154236809334068
0.0343434402146063 0.20810926148454 0.0169503488004462
0.0237882162616763 0.205946952459752 0.0164538803719072
0.0220464290675013 0.219972470621396 0.0183822348928907
0.0135829508705037 0.226911160596593 0.0193592607675809
0.00859631267145204 0.233985880773068 0.0205616883626118
-0.00183520236971874 0.234150783093764 0.0204258222429883
-0.000772056416060176 0.247122845540657 0.026348452075225
-0.00854609547131174 0.251494886861002 0.0292411690635458
-0.0146350577408197 0.256950793071139 0.0325960443008987
-0.0257894292900585 0.260885689722358 0.0354929884611933
-0.0209600056358092 0.271139873828363 0.0406497264335911
-0.0276687210997711 0.275838139646377 0.0436421492934059
-0.0378205351217203 0.277413748100291 0.0452034353826591
-0.0396868604631712 0.279776911279664 0.0466021385942463
-0.0435117888921762 0.292287302370886 0.0535793586569877
-0.0544477716539084 0.291931956389727 0.0541607440288964
-0.0552302417845526 0.299895175431852 0.0584853244481786
-0.0613417989551359 0.308494833790236 0.0655559651132226
-0.0596849859872764 0.315042891469671 0.0715932245554216
-0.0743277096058524 0.315442609018857 0.073813078987012
-0.0714942225608948 0.322870579461075 0.080541817539764
-0.0790295321838897 0.327078859815565 0.0875753342772053
-0.0847070599936807 0.327874580723158 0.0897725386456246
-0.0882355933721113 0.337251502622337 0.103784955105302
-0.0844200017648129 0.337485123916052 0.103402360671308
-0.0865411584288441 0.342275804857367 0.110621009781513
-0.0954335138469922 0.34159932673898 0.112737786295852
-0.102361340822446 0.350347319216194 0.128151820719807
-0.10100296001823 0.355165308944627 0.133797723989925
-0.103071754485791 0.360638413872649 0.142196302720761
-0.109929557441382 0.357751352119771 0.142134651371244
-0.111931372596709 0.361985898256997 0.150204357873739
-0.116863351519354 0.363409794343514 0.157903425918299
-0.119544681355912 0.366698345839352 0.167673187689149
-0.124646309333369 0.37098975930726 0.181896516222033
-0.122516164535342 0.374952850568981 0.188738281195499
-0.120118180095249 0.374768814719203 0.186123695224899
-0.123418925490626 0.379595899527197 0.199880035487815
-0.123196503852924 0.383045144061595 0.207335538381834
-0.13491824628453 0.38220126091287 0.21624413090281
-0.131144594673991 0.387780374698239 0.22553807485238
-0.129645158901933 0.392677934137996 0.23644218104689
-0.137829282867904 0.392433640178223 0.244463006437707
-0.145218350189087 0.3914912712141 0.249864182383358
-0.142252491934383 0.398092679706582 0.263563972245309
-0.146641506535981 0.397820956079914 0.267506624675995
-0.139535167604678 0.405250357662666 0.27894462319995
-0.149145472477211 0.40331423014146 0.284157900458007
-0.144812071428503 0.409799613987236 0.297344665508458
-0.148477144225903 0.41020166523537 0.303522518473049
-0.158377062554214 0.40775730569859 0.30885146596147
-0.158151594273565 0.411814500941476 0.321604368624106
-0.161738521040266 0.415643824365777 0.337624175159827
-0.163409176467014 0.415509628111793 0.339005351327636
-0.161634734616945 0.420144100692197 0.348660688007928
-0.172318695452847 0.420015174075872 0.357648636637985
-0.164963911329669 0.427849863958528 0.364638282402302
-0.171365255685108 0.430364292639587 0.370299706550154
-0.177106769122529 0.432888415476165 0.374715041476201
-0.185708270147206 0.43702146672484 0.38069703187213
-0.188347820872803 0.448082255137563 0.396354380135597
-0.186049620419735 0.451571562005115 0.402552689870483
0.120269874438742 0.0868865239332899 0.0115433437657123
0.112931116355452 0.0947014932851632 0.011457700516956
0.101705877706913 0.105133118654642 0.0113030623982441
0.0980886328194724 0.10699905681844 0.0112450145708265
0.0946775990945325 0.120202429445677 0.0119205265575959
0.0862850534178958 0.129781412432467 0.012120841951385
0.0760367215609207 0.137451616296875 0.0121688765209613
0.0739993256182725 0.147668401158168 0.0128653788683922
0.0631019424314293 0.148538735899802 0.0125946279376231
0.0638030705545227 0.154121366942405 0.0130310569652734
0.0522612609227643 0.16203503861676 0.0132638641023901
0.0494462675950193 0.174241627928395 0.0140842950154788
0.04354321013129 0.176707940831905 0.0141630525349745
0.0303058520908736 0.1873042520906 0.0148690810281635
0.021410348115101 0.197249601314841 0.0155687820685903
0.0190113911286421 0.205128627008302 0.0162515981853361
0.0131130282679503 0.215101775913347 0.0175370480819646
0.00251993046135368 0.213625011040656 0.0171357041305949
0.00583988713319931 0.221301703524795 0.0182698006534606
-0.00518892779427609 0.228643861240217 0.0194768403768102
-0.0131890298869369 0.236416523268648 0.0218450856311189
-0.0172210887814609 0.249364300996041 0.0287112000690676
-0.0275576498267108 0.247428731048915 0.0284030647316165
-0.0280612385398995 0.260891797161227 0.0356566147880253
-0.0332151868851647 0.258911773972545 0.0349588403642657
-0.0396412266874675 0.266267165708048 0.0393558860976022
-0.0436485817366627 0.270657350719299 0.0419924653320415
-0.0502190052229998 0.282803939330705 0.0489684248377948
-0.052547506053716 0.285195250522581 0.0504148410482215
-0.0618997940642087 0.291451962652237 0.0544293919072545
-0.0654505662904626 0.296686178389743 0.0574862574116615
-0.0720586329028112 0.303494175298644 0.0621321829219156
-0.0707028625133886 0.308952305556522 0.067167709999294
-0.0825132315800693 0.311757969562967 0.0713266225467179
-0.0879366074667483 0.316343356273167 0.0771505882307967
-0.0931098202397767 0.323457235065078 0.0873901146160127
-0.0944301743032123 0.325770281099151 0.0911846563050326
-0.094112330300776 0.330340516452868 0.097073692830557
-0.0976788673121762 0.331873221717137 0.101067329946938
-0.105924257947399 0.334420217372499 0.108978077611077
-0.101637614221315 0.341141597774612 0.115540078001438
-0.110025303377551 0.345218338251642 0.125558669720714
-0.111727272316267 0.349994530047951 0.132830998337429
-0.118717551851117 0.3481727846487 0.134255596969407
-0.122037690786565 0.353320632075795 0.14291033302211
-0.118431298999181 0.36167686939237 0.15549727086133
-0.124804462440077 0.361098960172175 0.160076444739343
-0.12546608621885 0.366005713022428 0.171582015173522
-0.129474296514678 0.365891453306906 0.175015372269032
-0.133184408365731 0.37025356174882 0.188115661246671
-0.128886638160766 0.375036167562175 0.19478343646166
-0.137650271482042 0.373336024094344 0.199069310146769
-0.134855329021374 0.377322571902716 0.205351627971596
-0.143641762394923 0.380426052950614 0.220326397488988
-0.15001276479255 0.378400575041668 0.221688812958262
-0.140200518628626 0.385985945711002 0.230527140024951
-0.152211598870044 0.38571455224048 0.242520735794749
-0.153738457959178 0.386690313915241 0.246621326457257
-0.151359846316879 0.390862588122728 0.254747559700727
-0.15480075822945 0.391334847252283 0.259585865948229
-0.161687742506642 0.396694951138057 0.280526743318284
-0.154644328387031 0.401605580799891 0.285608861722553
-0.160485640660811 0.40161065740767 0.291885638609922
-0.167597451977275 0.400093828178361 0.296483151421339
-0.16303029025533 0.407208950703235 0.313288419209847
-0.162880199105857 0.408390732979821 0.316890593248573
-0.16796079786955 0.409545836331825 0.327377694002378
-0.17194675474441 0.412040440642696 0.339171725887173
-0.173224197212575 0.414062090463531 0.345487621856961
-0.175358615453722 0.415159112644282 0.350393013286387
-0.182358053666924 0.420927499822048 0.365003386397379
-0.186995141496584 0.426315571528914 0.372484156620145
-0.190154402474859 0.432517209622159 0.378747028596303
-0.187578439725316 0.440311427116828 0.384052804071668
-0.190583311397682 0.444031003923351 0.388608568063758
-0.205626083369816 0.441049886922656 0.398312245856021
0.110345934205977 0.0850043001428942 0.0108179164226304
0.110572057461972 0.086332510676176 0.0108973810149936
0.093663057054086 0.100078704217278 0.0107548678601845
0.095178094828994 0.108730518645567 0.0112129891519385
0.0841750009851157 0.110150777123094 0.0107648568163013
0.0796020206812048 0.119756067640622 0.01115387428782
0.0731845579782566 0.125954545782728 0.0112351824540577
0.0702142234977841 0.137382275254217 0.0119845048745014
0.0586625151381538 0.148124677011059 0.0124272116270078
0.0507947546772529 0.147314832260784 0.0121248587754305
0.0438369343758308 0.161013447426841 0.0129286449377919
0.04300578800199 0.1595178929037 0.0127919265304278
0.0243484699141287 0.179595058198091 0.0141917672542199
0.0217099254554226 0.181312322517646 0.0143010093616628
0.0179946258816499 0.185265999576718 0.0145772896932486
0.0106084702681859 0.19808432593181 0.0155219422976548
0.00390358897927503 0.200948034218304 0.0156799166029321
0.0016630401055348 0.212650502115974 0.0169837247010848
-0.008449411253274 0.223221033701835 0.0185860930780936
-0.012150953837561 0.219281294977374 0.0181035334762144
-0.0178135696795913 0.23617756801151 0.0220066889159568
-0.0216295830197563 0.240042751087367 0.0240247682212606
-0.0336339401631488 0.248144585124382 0.0292157432795646
-0.0358193233234761 0.248447200429406 0.0295322372580881
-0.0456294848234617 0.260109250196458 0.0364770906852317
-0.0500333688250805 0.260743319434763 0.0371278775633188
-0.055671246027358 0.264454319154932 0.0395154103191014
-0.0613234661375687 0.272292906395463 0.0441168947135174
-0.0707683810844009 0.28034568515077 0.0491009155550779
-0.0765467567470744 0.286191062011733 0.0526426769353446
-0.0741467016535536 0.288916180394754 0.0539343011218064
-0.0859741924476223 0.299165423523718 0.0611609843840594
-0.0905648973167632 0.30118277030622 0.0646439507760348
-0.089514501628533 0.308592230215984 0.0708425352382365
-0.0973488237621618 0.310133953081479 0.0750968850514724
-0.0922944548805799 0.31504765231069 0.0776033038883653
-0.100863166027747 0.315500770930312 0.0811604964510715
-0.110593859817162 0.322205978841577 0.0953387045595149
-0.10398709194522 0.331849641523346 0.104502867013172
-0.111762181887438 0.328873870330204 0.104827632543338
-0.113956529222358 0.333928033784937 0.112739366801189
-0.119735967409597 0.339574429108185 0.123407129891875
-0.117224826214983 0.346863534954347 0.13169814552558
-0.124993990041381 0.345780937469721 0.134531486611315
-0.126183200336064 0.349457467120863 0.140063003473285
-0.128032799729185 0.351291819868151 0.143513280972142
-0.13435267426352 0.355927958793425 0.157375937932002
-0.137572290208694 0.355471630068127 0.159324207083602
-0.14085095806899 0.360864929672346 0.174317692189679
-0.14611470321786 0.360819784517007 0.179059491228759
-0.140362192712664 0.369728893096748 0.193553233522015
-0.147411177967244 0.371600068478398 0.204193031907987
-0.149098181488757 0.370312472893179 0.202885385629551
-0.15391785678838 0.373732568390533 0.214914320249925
-0.156984295578168 0.374594526498044 0.219649343980864
-0.154473770987665 0.379179012152423 0.228245693144664
-0.158430869194708 0.383833335804576 0.24429255832532
-0.156256596466865 0.387948974011642 0.252490195749392
-0.163997016248455 0.387926887700438 0.26060898242171
-0.163979666295885 0.388940179254874 0.263174338479681
-0.168534869515698 0.390288860468774 0.271424203786146
-0.172189591491967 0.391339088016201 0.277962025030549
-0.174686136484905 0.393691500872007 0.286596927660187
-0.176321621918776 0.398647378638954 0.303455834922496
-0.16867009072325 0.403455191878336 0.308727270348267
-0.172712622385013 0.405912196593361 0.32201963384352
-0.176741137343312 0.404775029671418 0.32372964558149
-0.182825716218907 0.407500212560571 0.339087503432501
-0.180876313314085 0.410707317464967 0.345029147672227
-0.182010116060689 0.415010176596024 0.35608816469807
-0.191100081024847 0.414682137479059 0.361502197981434
-0.190164573082141 0.416609815440726 0.363602394849903
-0.198272932779098 0.418384279086707 0.369548116343316
-0.196504312081847 0.425062279540475 0.374902909524603
-0.210607181450674 0.434103076918794 0.38710923072364
-0.209883338010274 0.439335167445155 0.398587401771851
0.104903449343381 0.080593330578392 0.0107548678601845
0.101520082702797 0.0788517442092952 0.0107548678601842
0.0917045534018575 0.0971771011239483 0.0107548678601845
0.0902393574619985 0.0956044941262535 0.0107548678601845
0.0801523905268362 0.105744382959702 0.0107548678601845
0.0735777731401493 0.114660795493372 0.0107548678601845
0.0600773387784689 0.121642622960808 0.0107548678601845
0.057053982029157 0.128576399190769 0.0109250583263014
0.0479672736941373 0.136678898880199 0.0112474663901765
0.0494834858453127 0.14313333451364 0.0117737682600641
0.0352715373927916 0.151826875483084 0.0120920714783106
0.0361579737331059 0.150740935475721 0.0120147795849775
0.0229140609850464 0.172939876117211 0.0136459906220691
0.015914052469173 0.174914328105913 0.0137299527784492
0.0146308959319243 0.180507555260605 0.0141625131442273
0.00552314073209187 0.194946473258733 0.015218325356319
-0.00645539659889676 0.190392345591698 0.0148649439759856
-0.0140826868592774 0.204449997944233 0.0160660471326738
-0.0160654250470772 0.211777529369205 0.0171267329332639
-0.0224108769878979 0.220234995799218 0.0184256355873152
-0.0373172230335641 0.232104798944967 0.021349109834709
-0.0365391003608565 0.232147613618542 0.0213230580944333
-0.0397690428645938 0.239631115496976 0.0250844204212586
-0.0494544140941547 0.247241978455046 0.0298484874695045
-0.050839802599234 0.24846684821489 0.0306029669446683
-0.0611586298309323 0.25621637788075 0.0354860893556401
-0.0618847360695464 0.258990295984676 0.0370245316828667
-0.068970036520762 0.261886305440003 0.0390772845852885
-0.0735933866888095 0.270041259998755 0.0439443065321912
-0.0753872089767868 0.283750154806293 0.051252179255323
-0.0794763306726882 0.288829981107095 0.0545485147634192
-0.0913600142811567 0.288499797064971 0.0568427644054099
-0.098831373423831 0.297978887018894 0.0648396599180598
-0.10483113985419 0.301344853931416 0.0700399644347531
-0.0977898627067679 0.306798254888537 0.0722945935341768
-0.109676917812025 0.308950710690911 0.0785837107879484
-0.110507657106191 0.311690851392669 0.0813400282463863
-0.114073596485809 0.318112428710249 0.0918198136140517
-0.114857677502342 0.321789932757272 0.0971299756286852
-0.118535466184126 0.326076837801001 0.104838981439163
-0.120400159787793 0.327138724752356 0.107272659116161
-0.125816794556063 0.330093968416014 0.114170458974602
-0.127087335104202 0.338325013255749 0.125789530047526
-0.139080776321993 0.340751212177374 0.135599829765871
-0.134653561119997 0.341334276008529 0.133940356472054
-0.138356434658813 0.348577217074046 0.145585169194046
-0.145119744280612 0.34926942530737 0.152493123022518
-0.151429341550058 0.350242717017318 0.160458740805534
-0.15076147155229 0.354577923143278 0.169472030543575
-0.14801429700084 0.360496132372821 0.180088136467065
-0.156856435824009 0.356546171508279 0.179449816513663
-0.155360846063781 0.363297661729699 0.193067796827084
-0.157817329372906 0.365701764489124 0.200666535071446
-0.159099849778105 0.370265514764065 0.211981518587512
-0.166503550295208 0.371922601031178 0.222472164825743
-0.170062936740526 0.373421225594855 0.230029162203379
-0.163103677591841 0.379712859246948 0.238721431219108
-0.172435840297585 0.374934543016811 0.236393963137
-0.174397468510384 0.380590208721687 0.252886509414483
-0.173148015007342 0.382903332261907 0.257464868284424
-0.176515590568057 0.386691835872839 0.270681445723839
-0.182897836123325 0.386116183666806 0.275954309949512
-0.176384791985707 0.393085133739609 0.286844866693325
-0.181894515207661 0.393311328623767 0.293714752409019
-0.191794635990875 0.393735979724112 0.308274552385892
-0.19277008561471 0.39382305475164 0.309854650769562
-0.186921571092187 0.398024283375125 0.315577316017336
-0.197234175571279 0.398360596009569 0.330402604054778
-0.190379626141783 0.404636685709105 0.339744662581726
-0.195176052863053 0.406145153523112 0.348399022224963
-0.197152695396078 0.407566539939262 0.353945741637487
-0.201436703898308 0.413547598450777 0.365678909018963
-0.211127283549629 0.420594319523326 0.376334123238848
-0.214808762559289 0.420690502340702 0.377564597149538
-0.222615486863898 0.429187491438948 0.387162841450281
-0.216967981760371 0.433192821079609 0.388691810019639
-0.225480138247428 0.437328177990241 0.402552689870483
0.101101056379389 0.0718624518234411 0.0107548678601845
0.0867756438546905 0.0768241459238254 0.0107548678601842
0.0829302076689745 0.0868779588223718 0.0107548678601845
0.0783530901396011 0.0869288421450785 0.0107548678601849
0.0710440184920112 0.100734512819175 0.0107548678601845
0.0606117505480218 0.108577071403505 0.0107548678601849
0.0563911188828376 0.115835523568857 0.0107548678601845
0.0497716828271208 0.120609103521236 0.0107548678601845
0.0442244211186906 0.134244879411134 0.0109513866863301
0.0354495714299531 0.140640451355983 0.0112018795081541
0.0313261933358539 0.14761950436331 0.0117151340978154
0.0247927524144492 0.158073660678606 0.0124802083593645
0.0168693154792401 0.151926776275855 0.0119068400412766
0.00264098085106115 0.166151702864245 0.0128918284722408
0.00610906244627931 0.177460141107218 0.0138300296546223
-0.00834264889932997 0.177340655793327 0.0138439508876607
-0.0157682315321544 0.185737138134038 0.0145914865455906
-0.0146763966715438 0.197205996869373 0.0154946076038027
-0.0293819188728948 0.202381836899178 0.0160617425836498
-0.0343115069018074 0.213551898723272 0.0177105016981621
-0.0378460980007429 0.220930840911878 0.01883731170608
-0.0478819070295677 0.226997994374676 0.020221497943845
-0.0478354806164219 0.235221080322025 0.0233156617683033
-0.0543018394321183 0.235945312322406 0.0241341102442938
-0.0634756323281775 0.250381429550428 0.0325213180264225
-0.0729101084704284 0.245620935006824 0.0316025833151968
-0.076558607107922 0.255869006460252 0.0374775110394606
-0.0781404443784412 0.263908530026921 0.0418213796925445
-0.078290348602657 0.269543751552674 0.0446677416842992
-0.0863850241250223 0.268517096576905 0.0458299393368719
-0.092905394342316 0.278379124850853 0.052106305879903
-0.0992615065139673 0.285439958547511 0.0569492119435134
-0.107280753242533 0.291721101443583 0.0623884985323823
-0.109387322025436 0.293010424684323 0.0643099151596829
-0.112647307108087 0.298344966292439 0.0702512017532682
-0.116255746177274 0.304288246387552 0.0768617938909597
-0.12308278938468 0.305786395555443 0.0807065982987014
-0.124679307098496 0.308103002931098 0.0843680690648105
-0.127631238230855 0.310752971172571 0.0895063025930391
-0.1290160005548 0.317850274687981 0.0996839170149347
-0.138672206136872 0.318699940083911 0.106118018456937
-0.138909354066217 0.326911288918999 0.117143033661159
-0.142394395525539 0.327585280459982 0.119952555577219
-0.144785306350115 0.334654934758143 0.130646436388708
-0.14333039864842 0.335784559084886 0.131345627385376
-0.149454668243788 0.342373970831022 0.143454079122479
-0.152557002035337 0.346095389826183 0.152285649798459
-0.156871339782879 0.346941856795784 0.158134198386382
-0.157467199972778 0.350280134526701 0.16609599334086
-0.160801479730288 0.349469045179257 0.16736188556754
-0.159402336513781 0.357022845407385 0.182850361506149
-0.171317949522594 0.354832080291693 0.188946128581025
-0.16568893933286 0.361215190989854 0.197943723921037
-0.176848175342338 0.358859457225849 0.202977345116956
-0.177784675721016 0.367680902940946 0.223547919041566
-0.173481830374356 0.367677907248151 0.219464758083056
-0.178381665599223 0.372139798958437 0.235547681369198
-0.181148818273336 0.375153649463019 0.246154915206184
-0.184925423511234 0.37495775276607 0.249644109639103
-0.183070921597049 0.380009237128618 0.260565686256024
-0.185872529813567 0.381673780088204 0.267768860129173
-0.185871360258223 0.383492211874402 0.272404243481599
-0.194634193901059 0.382824429749313 0.279956471666669
-0.19078755035286 0.391082636437542 0.298395736245127
-0.196135572053403 0.39024392018848 0.302824426862185
-0.196722301821783 0.393032380781797 0.312577767400963
-0.197858935207301 0.395080259644357 0.320681242492391
-0.201180022201046 0.397483573772372 0.33283942043344
-0.209007746745824 0.396948565024772 0.339813743469737
-0.201945564875996 0.402240209419093 0.34567307626892
-0.208059592148299 0.402554577641159 0.352722127477698
-0.210227569309393 0.407592414961107 0.362688702442437
-0.221360317950617 0.410808869989439 0.371338356222978
-0.218528137693406 0.413168092071992 0.372406623557338
-0.228348833934192 0.421081435629331 0.3819583623684
-0.228506817497198 0.427072801187666 0.387461630697875
-0.230454834127909 0.430640959176398 0.393791598240099
0.0899579692955434 0.0646433598392465 0.0107548678601845
0.0900738538747509 0.0655387846377956 0.0107548678601849
0.0854045663470784 0.0745660203236652 0.0107548678601849
0.0641914093885517 0.0880294310588136 0.0107548678601842
0.0576456354314288 0.0956086869410264 0.0107548678601845
0.0620517123148399 0.0971457040173672 0.0107548678601845
0.0553402551383357 0.103927341796917 0.0107548678601849
0.042422124821135 0.113951088142499 0.0107548678601842
0.0376632396593224 0.125637983441664 0.0107548678601845
0.0247402543721438 0.131724435802589 0.0107548678601845
0.0262910498701353 0.132206953272556 0.0107548678601845
0.0173895398428826 0.148785281595498 0.0116617832752494
0.0114904656990791 0.148186744893795 0.0115521208165362
-0.00136710122469432 0.161264981864624 0.0124887630570393
-0.000593231369310401 0.163168610599365 0.0126324433086168
-0.0164615048290081 0.182865097701674 0.0143697341769373
-0.0227014694870663 0.176848729198258 0.0139554700845688
-0.0183450913785433 0.189424305964377 0.0149125731269081
-0.0277367959399644 0.196080457285403 0.0155419677121924
-0.0420753992922173 0.211848714050211 0.0176153086080204
-0.0469749907648931 0.213504890249548 0.0179369598527211
-0.0532891924977099 0.225473906796646 0.020069334552696
-0.0634882037010162 0.228566266973216 0.0215578138720603
-0.0683807227118344 0.22829693485246 0.0222732399067995
-0.0718854058243787 0.238626817698561 0.0278962900885085
-0.0770716849703412 0.24103593259662 0.0301731253608497
-0.0873693751439482 0.246367256808639 0.034967643229141
-0.0848002196186282 0.262123883610069 0.0423079487886956
-0.0995238836851556 0.258027319461668 0.0433082308834246
-0.0936901771710323 0.268602365568173 0.0473842673490349
-0.10030729178361 0.268090193621212 0.0484977329234705
-0.114197338747641 0.279075928757481 0.0568605806479945
-0.114772820961435 0.28466131527546 0.0597701142896608
-0.117378416250277 0.290396189198709 0.0649283044255055
-0.122385556869899 0.290166213344693 0.0665672330904768
-0.128342135873147 0.293699167844328 0.071900051522955
-0.135691354251488 0.302521484866885 0.0830145122867328
-0.130847133115432 0.303947244662456 0.0822439396885495
-0.133767506175582 0.312896574540465 0.0957227213401177
-0.140833031359726 0.313313537123171 0.100158954555748
-0.148564553789086 0.31781543160496 0.110381022976979
-0.143738060039258 0.325622137829623 0.118086329792954
-0.153825685288277 0.322938829492579 0.120070034711921
-0.156140024456987 0.325910092451993 0.125284154280863
-0.154343269308244 0.330242924178423 0.130045439514783
-0.160386723593906 0.330824974837295 0.134139007502872
-0.168227582261963 0.33436927703697 0.143150646031135
-0.170384795357989 0.338553336282892 0.151935784412734
-0.167504860604672 0.345541952226517 0.164806932361879
-0.172185499421349 0.346402293786065 0.171023249811566
-0.171078488950966 0.353055483914306 0.184780374154849
-0.178301061091916 0.351197695634788 0.187298544970488
-0.181647851549729 0.356577651086064 0.202325060472174
-0.179935642230735 0.35908142252229 0.206310411918075
-0.182772274376753 0.357481443765693 0.205366552896456
-0.182870308664932 0.365943745210502 0.224489761391206
-0.187477665070155 0.363355349207463 0.22275598984947
-0.191687964122845 0.367452260260391 0.23764899010459
-0.192774175948482 0.369727531306404 0.244597663444145
-0.189903054254608 0.373255605384744 0.250561153685179
-0.196456380008185 0.377049097253669 0.267155103975338
-0.202838591615814 0.377768438086344 0.275729892221905
-0.203930747583024 0.380390653633936 0.2835694790177
-0.203958205253089 0.38296317856436 0.290157876138492
-0.208889605773207 0.385835758082752 0.305638735943907
-0.205988483860403 0.387175841498242 0.306084013783033
-0.211782551913307 0.389708557668568 0.321954179527863
-0.210273147161917 0.391340182567311 0.325192139394491
-0.213385140029035 0.394473507596641 0.338174883943936
-0.222429620671711 0.394837859283469 0.348353222947372
-0.218807500580967 0.397925878034277 0.352284433786077
-0.22092922118074 0.402540154462016 0.36183873159883
-0.222201276964611 0.405227199280992 0.366041484119598
-0.229095207193513 0.411267954155844 0.374637454000191
-0.237564985329022 0.421074062738756 0.38539977493376
-0.240264779732915 0.417774726381136 0.38339819261408
-0.243211534622169 0.422369611343932 0.388735149932176
-0.249056881180758 0.431050652735798 0.40226771013154
0.0861528334283231 0.0589100416656245 0.0107548678601849
0.0761144050097751 0.057167078042368 0.0107548678601845
0.0656622060835852 0.0673855640188811 0.0107548678601845
0.0624374106932586 0.0734685092163131 0.0107548678601845
0.0541226160791856 0.0808751028993518 0.0107548678601845
0.0506572229109425 0.0968912263258628 0.0107548678601842
0.0476464559541428 0.100527013693345 0.0107548678601842
0.0408951440668744 0.110939600137473 0.0107548678601845
0.0248929946846859 0.115252684731966 0.0107548678601845
0.025689966985836 0.121916934840168 0.0107548678601845
0.0185592692997285 0.129456387091836 0.0107548678601845
-0.00108118148583857 0.139248704556547 0.0107548678601849
-0.0015428877451881 0.147823354399736 0.0114187063632338
-0.00736646595332353 0.155211856395812 0.0120690418131007
-0.0128345585636077 0.161881130164853 0.0126582903179834
-0.0229176635111957 0.168049986587744 0.0132560843383169
-0.025164135143604 0.16977422293854 0.0134171683811832
-0.0282807468050841 0.180491591458569 0.0143045447738954
-0.0473741663419371 0.190167176491537 0.0152765786822987
-0.0451437513868529 0.201867535075486 0.0162766595069993
-0.0573933197542085 0.201667710746093 0.0165934664164592
-0.0538431973910586 0.213243499455277 0.0180268103396683
-0.0695594109431565 0.226399598957062 0.0216995413783888
-0.0707921745395643 0.228162448877295 0.022625156230527
-0.0819083055939584 0.231655755398004 0.02648770515544
-0.0912733205019513 0.236593924672362 0.0308927961681578
-0.0925091080215966 0.240373304174866 0.0330366973194465
-0.0931426852606557 0.247375731473362 0.0366662027293197
-0.105894382111528 0.251439833642057 0.0413354520009101
-0.110190847570254 0.261330837206014 0.0471660798210341
-0.110702443902421 0.266040556224143 0.0496249119031802
-0.117643991235676 0.269156804725349 0.0526182642112115
-0.122849468234262 0.276302637218959 0.057265523071871
-0.129133069987991 0.283053720032991 0.0627299131494782
-0.131328527038507 0.283881883924237 0.0642741902605057
-0.141585994646419 0.289744379178359 0.073260749821827
-0.135132698913283 0.293595763936419 0.0743080202488036
-0.145686008709144 0.300726619318462 0.0861258946542299
-0.15046878803304 0.298159174371804 0.0853479310912446
-0.145587239201929 0.311596510626353 0.100493610410926
-0.151097245541474 0.308633068509596 0.0995899077012493
-0.159285704618575 0.317480406974442 0.115828560738771
-0.16106064877454 0.321240635077191 0.121793030219018
-0.16786584643379 0.320363655852057 0.124369413598199
-0.1712964730634 0.325742932583646 0.133391927254445
-0.173788629822428 0.330485098178977 0.141053375463808
-0.174744152591606 0.329451258878441 0.140206822579545
-0.172180147891343 0.339387932716689 0.155440785742831
-0.183870811438852 0.335489900700666 0.157538114371515
-0.181853855656006 0.343818408946089 0.174178748630925
-0.184657650933935 0.344431809663161 0.178120171701029
-0.188415047612208 0.34557610407303 0.184117813927134
-0.19098764803954 0.349025269358822 0.194144248992126
-0.187838068455503 0.353409421391792 0.200983342461358
-0.199460894718021 0.351047122808906 0.206428835723934
-0.19811334882782 0.353912146650499 0.211551908624694
-0.200401558919492 0.357647986225283 0.221953384570798
-0.202414035327192 0.361072345036052 0.232709968312755
-0.203061783569063 0.368236604240268 0.251661446576536
-0.209087755289936 0.363908276955084 0.246989497375233
-0.213263241910094 0.367078195183397 0.260312283615229
-0.211912157959884 0.374588219250219 0.277204117891991
-0.217652884826217 0.372125479403851 0.278738641293083
-0.216734008595636 0.378170277583249 0.291430246768073
-0.216628245699092 0.380726742232816 0.299514316142347
-0.216793794201147 0.383676994065415 0.309226900211258
-0.219768139176224 0.382384311589213 0.309031709185604
-0.227425702583319 0.380231172107461 0.318528283262771
-0.221769649755987 0.386831684302369 0.326007764135006
-0.227129616857669 0.388058893629999 0.338256926298963
-0.227280945270859 0.390015558841077 0.342664165120021
-0.233743319712756 0.393195631446379 0.358074959322389
-0.233730167918912 0.403747324098542 0.369731157913128
-0.237203320149227 0.402635791774152 0.370932664871666
-0.247971895104052 0.402734797781849 0.377244044792007
-0.249973673669521 0.409460601206935 0.382506576719051
-0.256329576202969 0.41545100775014 0.392189647591688
-0.253912046793132 0.42389016416715 0.402552689870483
0.0815260864518064 0.0535824319195386 0.0107548678601845
0.0732595290292077 0.0589425548437864 0.0107548678601842
0.0630499403558958 0.0559308165328363 0.0107548678601845
0.0558087342972817 0.0727738938095254 0.0107548678601845
0.050609317639659 0.0743448044167891 0.0107548678601849
0.0473980430129548 0.0868990507577664 0.0107548678601842
0.0359810573672343 0.096353396988725 0.0107548678601845
0.0333631528276967 0.0973318116083501 0.0107548678601845
0.0203286614350358 0.109097763219826 0.0107548678601842
0.0133576711954078 0.114675406403203 0.0107548678601845
0.0129735054440059 0.11738770032947 0.0107548678601845
-0.00330678411502565 0.127546685889526 0.0107548678601845
-0.0107019228894253 0.144449194887478 0.0112457913795473
-0.0153155414904545 0.145047942584003 0.0113419751486203
-0.0155470571526415 0.155081787986694 0.0121445544688896
-0.0206251327244708 0.161904668957443 0.012741957733281
-0.0296823875870143 0.160277155764315 0.0127072604590318
-0.0374359222025545 0.170359521106898 0.0135926798551441
-0.0501984133532211 0.187925274701431 0.0151274489956916
-0.0571338902343957 0.193677302315944 0.0157651975712458
-0.0623034643478933 0.196338563940054 0.016164257556038
-0.0690309822342452 0.212528966344829 0.0186359943432388
-0.0782199194761218 0.211977414796761 0.0191763878357784
-0.0880702823354594 0.219581682975833 0.022045419027429
-0.089863065325591 0.224024305450995 0.0243212116561017
-0.0898326996567999 0.231134057940333 0.0278669401301679
-0.103877302780953 0.233681947934648 0.0320462479990439
-0.101059097753836 0.237222936805453 0.0332321169252708
-0.110315361206009 0.247287473485736 0.0401758216544543
-0.114882363574351 0.249361259682397 0.0421569745575276
-0.123359122294175 0.255708614711379 0.0470822751352303
-0.120061126227469 0.26230079014719 0.0496932203617283
-0.131227094297967 0.268009445965258 0.0548559334066238
-0.131642597962255 0.274876609359784 0.0583727332201617
-0.135355272252584 0.279010690786527 0.061427241116232
-0.142662707630666 0.287173574427659 0.0713722859453893
-0.143117839990718 0.289911065189249 0.0739728265840609
-0.157754740153216 0.296160730031971 0.0867005817543898
-0.161796682933069 0.296290200426918 0.0890936990919074
-0.15714323271763 0.300733441902286 0.0924315149164365
-0.162485558406031 0.307594740965146 0.104470967980899
-0.165160303850806 0.310791985293861 0.110182985146279
-0.174564691430497 0.308551330985303 0.112378508087996
-0.178013790846904 0.312229632757148 0.119154347690295
-0.173788514635553 0.321674159067867 0.129363100069773
-0.179989685187408 0.324844378157682 0.136977284668487
-0.18331681938952 0.327197882005946 0.141928375072508
-0.185581601265402 0.330755749195105 0.148598213768099
-0.192313299854329 0.334979895047388 0.164171636843051
-0.19470439730263 0.33541670471208 0.167912664433537
-0.197891339024499 0.336024267690955 0.173734868100654
-0.195989710321534 0.33946413603957 0.177512157117952
-0.201212861363364 0.339053010914786 0.184371319770847
-0.204616781472423 0.344195271720357 0.199158930555688
-0.208383177917896 0.346933531650646 0.209892414106942
-0.205931889416518 0.354068840898526 0.21991275981342
-0.209536886695438 0.353574533932392 0.224484623789449
-0.212213932414847 0.354616168091088 0.231263053007949
-0.217540076915746 0.357585085705325 0.246712134672094
-0.217157299745553 0.359416985349178 0.250080072502802
-0.220625534308513 0.362772764867251 0.263254727477791
-0.220425627621738 0.365631931938671 0.269179164255827
-0.228665148222417 0.365171147852663 0.282013503285339
-0.223681153958897 0.371460245773592 0.287410194787579
-0.223542266511127 0.373888617246674 0.292772370822986
-0.232298097916518 0.372304125938431 0.3069568083712
-0.230061702199226 0.376184806941184 0.312937243523146
-0.231927370634447 0.378871586063464 0.324315408944501
-0.236716347483716 0.37960560864786 0.335924167361979
-0.236311290846394 0.381720004966509 0.339759025845069
-0.239991045523348 0.386647987293448 0.355703020575352
-0.240204578667437 0.385633354614056 0.354431740021698
-0.244220657103564 0.391814403908494 0.366189080761805
-0.247473572243411 0.399439802144432 0.374555839428632
-0.253570993262065 0.400050570734874 0.378257896692417
-0.262925477457181 0.403325513778996 0.385503717698541
-0.263303002199089 0.410869062375053 0.398840679627582
-0.265685370822468 0.410925523047859 0.402174828677925
0.0694519953770829 0.0386045614537302 0.0107548678601845
0.0693662851347438 0.0478583103120643 0.0107548678601845
0.0564037676601722 0.0591078393245582 0.0107548678601845
0.0450868935366766 0.0615485455665594 0.0107548678601845
0.0413787844867636 0.0713069775501495 0.0107548678601845
0.0286776281713182 0.0842991947056597 0.0107548678601845
0.0262559463317337 0.0857202349031761 0.0107548678601845
0.0197284431987826 0.0977233816238003 0.0107548678601845
0.00840121913492822 0.0978782558147503 0.0107548678601849
0.00492995768241703 0.109743897428214 0.0107548678601845
-0.0014538113598995 0.115495886733059 0.0107548678601845
-0.00586678920124863 0.129115517753088 0.0107548678601845
-0.0155031653117336 0.13249144565581 0.0107548678601849
-0.0149788162783914 0.132522824110805 0.0107548678601845
-0.0358660445954965 0.147798133440452 0.0117770410635595
-0.0396654290507986 0.153142725114702 0.0122431336906346
-0.0416640485749512 0.16266680325944 0.0130236137954069
-0.0514259998892846 0.1681502350111 0.0136925776304499
-0.0625780421955163 0.178227840605018 0.0147847138215097
-0.0633226395399567 0.177321023725173 0.014740246831878
-0.0713682814571882 0.192104002877293 0.0161017653398986
-0.0800337180437815 0.197061986118265 0.0172150446524675
-0.0805109504702859 0.208121510791938 0.0186812822619102
-0.0933191238577949 0.20856944135141 0.0196732950805633
-0.103634253664415 0.216748882939311 0.0235362397939383
-0.0996539616855253 0.221878080374603 0.0252750910581533
-0.10787876268565 0.229219231807045 0.0306447494103906
-0.115868322471784 0.235245038270933 0.035308584316008
-0.113092535996159 0.240527890522585 0.0373734613794263
-0.121204938638896 0.246864065311359 0.0422177765192841
-0.131107572268398 0.248618754084855 0.0451436644100077
-0.137939327159818 0.256779648941404 0.0506345874059487
-0.138287092851334 0.263530755110443 0.0540793876647303
-0.144224828345656 0.270073736643205 0.0585769974034619
-0.143414603600933 0.271891630513147 0.0593175442146239
-0.154212180125318 0.274748908748151 0.064581476027409
-0.162778835426993 0.284564949222183 0.076459358306939
-0.161636187283393 0.287475266877115 0.0786252964084307
-0.167868241680867 0.290756323570197 0.0850881983866721
-0.171411385798366 0.293835547940652 0.0916940345491137
-0.170490328718235 0.302660919979753 0.102324050459293
-0.173565618364986 0.306340977518726 0.108896784246289
-0.176419776182503 0.306303968228165 0.110416245800751
-0.184749584533225 0.308713831373911 0.120306207693066
-0.183205539455394 0.318950571097936 0.130924819480284
-0.187875738214808 0.315602802776207 0.130888071782157
-0.190566601444273 0.319858987147564 0.138089759580747
-0.193518070260239 0.3238357420501 0.145200916070792
-0.199529408000414 0.32661802269385 0.158193724815182
-0.199586379691393 0.328185083110894 0.161265555972522
-0.198047976608163 0.335669275972834 0.173287093743908
-0.202573545486455 0.335160724144679 0.178939665184891
-0.211113466756612 0.334260744359474 0.189720090221648
-0.215884889482347 0.337540299292545 0.202956536575064
-0.211532506226392 0.342674127241015 0.206378026284578
-0.211386879515995 0.345335630077741 0.211240545438999
-0.214397210935022 0.34803470285004 0.220792923722304
-0.224496967533409 0.346082349185373 0.23321457062345
-0.226084551505723 0.350473480682099 0.245496496306317
-0.225835810709681 0.352901573310094 0.250395025922453
-0.226625044373355 0.357704661535568 0.262237641654874
-0.228072141506536 0.355224950047078 0.259239452908382
-0.23143334326113 0.360887853128745 0.277285853339641
-0.231824141440106 0.364703013010589 0.286295933575486
-0.239657453471908 0.363409107672274 0.297983296664777
-0.237328797548092 0.368050140587808 0.305868837941685
-0.241966126545659 0.365691560513224 0.30918354690716
-0.24066819955658 0.371708789023699 0.323056340556247
-0.247569099099979 0.368416541726565 0.328590211607636
-0.242900035238225 0.3789288824713 0.344574110363439
-0.245794950367353 0.37991024153078 0.351383836373521
-0.253057345436328 0.376761830687503 0.35589234325543
-0.256450223357586 0.380525974673809 0.364075797777181
-0.258727778998247 0.389272024289801 0.373370875661576
-0.264531909312286 0.393060033366494 0.379150973550084
-0.263181129169896 0.399394009351616 0.382560042909161
-0.273991035486924 0.402285857207303 0.392647036239706
-0.274081104093527 0.402344824392707 0.393053594474958
0.0567965300990197 0.0356518728836799 0.0107548678601845
0.0592747973271897 0.0363196716684382 0.0107548678601845
0.0530585206897654 0.051649348050947 0.0107548678601842
0.0439236699364461 0.0592970626799705 0.0107548678601845
0.0299594195532605 0.0644683531118777 0.0107548678601845
0.0313904623399256 0.0720513101515122 0.0107548678601845
0.017935053422686 0.0849644626683265 0.0107548678601849
0.0101058910967663 0.0818135672925909 0.0107548678601845
0.0103098852748124 0.0929406967533645 0.0107548678601845
-0.000641421558423471 0.102885930497808 0.0107548678601845
-0.0107424066028608 0.106673124832835 0.0107548678601842
-0.0153479436781757 0.116990697959913 0.0107548678601845
-0.0187727624484121 0.125063912810287 0.0107548678601845
-0.0310424167731293 0.138587480050964 0.0109918963051052
-0.036557360103335 0.140428962719059 0.0111966446102605
-0.0488791920834159 0.143077522168889 0.011751020407701
-0.0546228070589647 0.155318739571146 0.0128374620270951
-0.0585246833094337 0.163108570434687 0.0135364294833008
-0.0671110442714624 0.177214315797145 0.0148489259665079
-0.0677960909913749 0.169491156765862 0.0142961002979944
-0.0810169617529041 0.180029485443105 0.0154861524334131
-0.093265880241143 0.196143900255642 0.0178093513525593
-0.0848740031244349 0.195343059855205 0.0172522939339321
-0.103790198203958 0.206840333326826 0.0201286231171408
-0.10559976506332 0.212416232323964 0.0220843000576174
-0.110635010725734 0.213786299934039 0.0235048778385137
-0.112156981795187 0.220253110153176 0.027050634619829
-0.126965478448409 0.232865546888419 0.036416241802072
-0.1221404361252 0.233280204224146 0.0356249095172796
-0.130321108206217 0.239947882344443 0.0406489704618411
-0.134309519710853 0.246838429664244 0.0449168301190075
-0.14488225904082 0.249133323617431 0.0483790382756729
-0.148623192135098 0.257019162554428 0.0529936645623292
-0.155893189803353 0.263976338541849 0.0583716280959608
-0.16326613262435 0.265589545440266 0.0619332404788922
-0.164069466613726 0.268358786295945 0.0645171789698829
-0.163467922771294 0.273798258267303 0.0683163087865728
-0.17326854111159 0.281927105261176 0.0802597320621379
-0.177077198590376 0.281264151380574 0.0823242954564448
-0.175543863539317 0.286243229835572 0.0866566277491203
-0.18083786545747 0.292738451486969 0.0986851042147614
-0.183765459823352 0.295934456970105 0.104885853380169
-0.191667515634159 0.301543260654242 0.118184474546208
-0.192150104879279 0.304148976083337 0.121575157829427
-0.196389972817601 0.303937401400927 0.125040776588647
-0.194573164386892 0.310352630522199 0.130761541318633
-0.198929793928953 0.31274177629652 0.137292330299627
-0.207516552077323 0.315615921847349 0.148900002927423
-0.204341498519971 0.320982692127765 0.154488548383453
-0.212312125890749 0.319452169414288 0.16323343105597
-0.212947599703117 0.323948282226991 0.172737651950042
-0.210835152550598 0.331265261317005 0.183600288197423
-0.220946173991588 0.327522493171161 0.191258413015109
-0.225329809948135 0.328688027735762 0.199895856223728
-0.22087873407867 0.335668752522507 0.206695050760928
-0.224134847711151 0.340692619410202 0.221040588613715
-0.231294032010118 0.336862135561554 0.22444618925663
-0.229157066178142 0.340344837296624 0.22848142824872
-0.228842408388708 0.345120186247281 0.238408655006478
-0.235835881124115 0.34499639694207 0.249887372440186
-0.241289642260704 0.344856488979549 0.258743921743334
-0.237397897437638 0.351535235741905 0.266828862979218
-0.240004334312575 0.35500824654129 0.278812292523333
-0.248543940997139 0.351247923044781 0.284926287540984
-0.249642856564634 0.355297640606836 0.296741703834066
-0.244817496852198 0.359935920336185 0.299326713379089
-0.24875385508242 0.362094594912994 0.313635625918166
-0.250463315154782 0.362753247361452 0.319079341892487
-0.255987768629651 0.364562780633794 0.335381239054265
-0.254253136113564 0.367700752865482 0.339223234179685
-0.256768152570562 0.369337375402981 0.34680639542367
-0.265387112576464 0.371651120190631 0.361776558012567
-0.26268081194266 0.378769818239839 0.367432390030497
-0.268217108633468 0.377444373808282 0.369854757215695
-0.273310297417431 0.384477296137219 0.377989500078177
