ply
format ascii 1.0
element vertex 868
property float x
property float y
property float z
end_header
0.320277278479775 0.287636141577898 0.26964941733399
0.300197017589641 0.303579176185466 0.258329468676259
0.306247021887005 0.306558519409525 0.270550343072326
0.303351017909014 0.312672083947261 0.276789929299583
0.293410263797099 0.320010545023028 0.276325978311945
0.286359764768908 0.326916595370497 0.278724739376797
0.28215538559831 0.334224964043429 0.285270345602943
0.276647214428612 0.339680335528521 0.287240653788923
0.270931210033484 0.341772758698296 0.283562976881421
0.273091637267845 0.349001104235899 0.297811276721478
0.266940367883607 0.353820520720619 0.297970628644241
0.277625297411554 0.349324937444964 0.3136711704111
0.260847388483188 0.360388269645005 0.30453592977483
0.255278235626064 0.36561441075749 0.309342548020824
0.258522357254769 0.366076770689413 0.324233199669912
0.254439033043043 0.371359768865854 0.335078353191922
0.243930991876174 0.37892493331019 0.332566331775208
0.246792967762944 0.377983912010269 0.338897853758254
0.250720028216218 0.377832954981814 0.35333810459617
0.241844126706013 0.384421937431451 0.352219481151281
0.234694256720185 0.391127408916523 0.35837006123921
0.244470569739362 0.386769857166623 0.374231415381169
0.228304196008285 0.397482215044407 0.367392474189109
0.237245579911967 0.393897306061532 0.38222001058394
0.240320156439665 0.392057986902812 0.395963267782519
0.229725711351406 0.400483450582482 0.402573728145535
0.23688056073857 0.405049756501429 0.411959097621132
0.222875585387788 0.410012405431527 0.411022214817652
0.221031122366421 0.41910431438022 0.414477203553362
0.211609766979584 0.429535373693016 0.414858021806651
0.211269485531834 0.437137323758856 0.41333804245683
0.464660179755115 0.0705675009180699 0.323045192469738
0.4697889008221 0.0742464619116742 0.338902803703843
0.475180860901447 0.0687295021935313 0.352083815528722
0.49616112893529 0.0267685922980106 0.400917209485505
0.49456237176651 0.0329744181780406 0.403966886113549
0.491320378658977 0.0375331650573799 0.408204882881449
0.489525773106905 0.0470335795639474 0.408793155388516
0.484338177119645 0.0458954998652921 0.412809667988288
0.479753431091364 0.0640587468407808 0.413581172445045
0.472156498488469 0.066684718728982 0.414967933805898
0.46182059524732 0.076384100701477 0.413161454343995
0.455119208440303 0.0802956043201228 0.408926935428924
0.451447756566258 0.0962664802422897 0.407229950516763
0.323861398769149 0.250647342907698 0.22988677538101
0.3331608062976 0.250596350720243 0.244735049529138
0.311162490195156 0.268923100233919 0.232010644966314
0.327084903376583 0.26240947076338 0.249527117682933
0.314585474644276 0.27489698672677 0.244849217729147
0.314306640082363 0.279020136162019 0.24947508383859
0.303688124546754 0.28887502645897 0.244574031127883
0.288478893251393 0.302611804462899 0.242360833213907
0.29447607584987 0.303609539052288 0.251339333534199
0.29084634124096 0.308155421986915 0.254162488174401
0.280112114565432 0.31838472750925 0.257357566553608
0.283207823756506 0.3196652848367 0.26321969734127
0.278631660332328 0.32325733759273 0.263348996982176
0.272013669201519 0.332836898012795 0.270566703257323
0.26234368682433 0.34041177687668 0.270814980084084
0.264900550512229 0.344986221006393 0.281295676260689
0.260519266299658 0.349353880768955 0.282908384435617
0.249822619528167 0.359180574985706 0.285504137827718
0.245599246334605 0.36479986790295 0.289318048214794
0.241949626221935 0.370010261361227 0.293182237194143
0.241075897599582 0.375040414345322 0.301917388085234
0.236356616444269 0.379934775394405 0.308340116762527
0.22494183130465 0.387830175649558 0.303984039631803
0.238324888184047 0.381442130475935 0.323563733142635
0.224182113514462 0.391988247666905 0.325085487687527
0.222158560824225 0.393263998839521 0.327656129256382
0.226193774656915 0.392935743126004 0.335547118800777
0.217469180651686 0.397645735163736 0.341986802248181
0.215499693356323 0.400197240952825 0.352183858071477
0.220284968580075 0.400955089303205 0.368280758239617
0.225618643507489 0.400451287140406 0.378300164235957
0.211716631645077 0.406395426133708 0.379391339502308
0.216697902282169 0.405260042184974 0.392259378760924
0.222766299358571 0.403873925521465 0.403875102208972
0.217597352108102 0.41231472171774 0.411091058662656
0.211752961949461 0.416769725761966 0.412298300781198
0.202995067987631 0.420407522076351 0.4123043292562
0.194620605614952 0.436910603009057 0.414823596004223
0.189930490352918 0.438103811064036 0.414899913895612
0.182745673450549 0.448010811543934 0.413639656803741
0.484960242586081 0.0270878940946293 0.364223829332652
0.472681016824941 0.0546269480362509 0.339776213678291
0.498699501797115 0.00697296712497002 0.401344467812111
0.496879289639158 0.0228825948236332 0.39961496052963
0.496469344595201 0.0197846150906822 0.403625234053391
0.488976688849216 0.0280593981463598 0.411350990245982
0.488494014648601 0.0268641545173179 0.411758614091436
0.47740666219394 0.0383964471046045 0.414801191713017
0.478822921547604 0.04453947928418 0.41455806192954
0.477337477647137 0.0497108395288208 0.414645984176496
0.45525739735669 0.070160414580089 0.40763310458435
0.455332453842235 0.0685562235214299 0.407485845854844
0.336957952908252 0.230194151949788 0.225721477274968
0.325390376820871 0.241673167827438 0.221296925657098
0.315707855300951 0.256300052424902 0.223767953008197
0.310298850430713 0.264704776787819 0.225435795064446
0.313831224624023 0.263641201068016 0.229791152658196
0.29889153586162 0.27679561278139 0.222020971907559
0.286067922938351 0.289420362510234 0.218242826434017
0.290150151567114 0.293315265377956 0.229510669691451
0.273046106612656 0.303330088081156 0.224524666339251
0.281459122684311 0.304196054026138 0.236264229759045
0.276204329773421 0.309656980741269 0.23855519197779
0.276898523266074 0.309706293675666 0.239488370328025
0.27032696075717 0.320975167657377 0.249471908192805
0.263967631963695 0.327650768351643 0.252351546262828
0.252211835170094 0.336345937534832 0.251829834465816
0.256258623719291 0.339190333388831 0.261369651973587
0.24516801265733 0.347994988710683 0.261841912461206
0.236805351865728 0.354995043749196 0.262776972261201
0.24578531955111 0.354620262594185 0.2732246308383
0.240037164027636 0.360552847081235 0.275664852705307
0.22435839417394 0.369771317183073 0.271155550251148
0.230716735799817 0.369518626588865 0.27857342848688
0.221776278145086 0.377749433108946 0.2807710222212
0.212828922713815 0.388025764592554 0.291356563483178
0.210287442224641 0.387535613290587 0.288475657772219
0.210708312412938 0.394544505562616 0.307315439960477
0.2021416377954 0.396624388542428 0.299146333203574
0.205129429400275 0.396670756433811 0.306230956133116
0.207078319177287 0.399680906651246 0.32865759613716
0.212827362195957 0.398066102400477 0.333160818767734
0.195050874994904 0.404958578621788 0.330395028857289
0.20628946487189 0.403419840271471 0.348703591934554
0.202723413804688 0.406006166162704 0.355220073007537
0.198512320120888 0.409678090005795 0.366544593846873
0.204178309801528 0.410098595009182 0.382802820107748
0.205640398118762 0.409840210375454 0.394677607935048
0.198949059744741 0.412611853480401 0.392139879154048
0.198203823105379 0.414467427382257 0.404658206741535
0.187776784787811 0.419573393283411 0.406127623728924
0.181936939368444 0.423269516946487 0.407801029588962
0.178614183925979 0.436613442235309 0.414471038735976
0.172946172742655 0.438450866006376 0.41434725995638
0.165950644861296 0.458843417817003 0.412014763024701
0.159111966282851 0.460883450907356 0.412485178400663
0.462434290108514 0.0430060532782818 0.306505715874705
0.474899382465822 0.0247984146218444 0.334949105533208
0.48032406899128 0.0229110846806052 0.349572559115184
0.496984221753376 -0.00297017259916658 0.389222853911241
0.493872758682596 0.00826572392987917 0.382402181580274
0.49811016597863 0.00252184143233601 0.404891365178355
0.496555865755225 0.00733456941710988 0.406736246412425
0.492204375726694 0.0184249674259557 0.409969795711761
0.483957266146031 0.0190916954899918 0.414171193709521
0.482907778802359 0.0306602573759114 0.414008391020698
0.479069008122791 0.0317185983749194 0.414715611258941
0.471514953240705 0.0359374158351401 0.414519636664325
0.321691666455251 0.229203340386085 0.203037468110162
0.316835415597991 0.230137662773567 0.19945465035957
0.324141618360502 0.230509082252836 0.206025269737224
0.303829020040728 0.248451629012555 0.200360373599847
0.313053768510297 0.250463060876371 0.21233068921788
0.300085772825905 0.262095751384729 0.206182332122252
0.287684589587163 0.270710863629256 0.201170258903322
0.295922651128852 0.273767063685348 0.2135343458272
0.281041924718549 0.287960520051807 0.209718272104012
0.269376592856899 0.291475818931697 0.203565607916507
0.275404959687962 0.294569936128334 0.213380555075127
0.264094928159745 0.303363698929195 0.213565383843596
0.270498719060398 0.306498465636878 0.226470755005502
0.262049235293353 0.313384873101215 0.227116764545185
0.253765615919373 0.323353523841947 0.232909029580136
0.245839420677951 0.327653439094013 0.230051595610376
0.253792761800249 0.327972936685742 0.240349365675654
0.235127048312084 0.337460267258981 0.2325961468942
0.236672458593079 0.343413227333732 0.244042754161964
0.234706836987011 0.349171432738336 0.25085725006592
0.224306191428457 0.354464109949895 0.246547181581603
0.216636822478852 0.362665819168999 0.250262016819442
0.212868418612279 0.367403049830237 0.253221372298533
0.210439527328065 0.371135553718946 0.257970409487678
0.214915558763589 0.376460730883246 0.271375730553052
0.209637299631514 0.380372438052698 0.274597433400316
0.209549991393253 0.382626128699382 0.278738091335943
0.199557771854211 0.390026957387059 0.284828876885312
0.199949354358862 0.395544368202962 0.295434081254006
0.195427266085289 0.399445099264146 0.299220139476496
0.18255340721316 0.403544371955591 0.296917355602705
0.183929377482291 0.405816323840113 0.308370679485889
0.18342809117311 0.407413312518863 0.316532877956401
0.185254019871616 0.408420806010176 0.326895019509791
0.188812195391522 0.408093711080681 0.333631985850783
0.183196017843078 0.412803071813711 0.347632095704763
0.188748847171892 0.411333534506203 0.352511264218992
0.183495845781187 0.414976771895876 0.361131840209669
0.176048024527549 0.419018150729099 0.366750476423874
0.172761392943093 0.421446981030635 0.373021646361588
0.178906228608609 0.420913865965341 0.388911803196908
0.173708112479161 0.423066996164948 0.39315392998906
0.172564792192966 0.427658289932403 0.408311766753109
0.170837268860118 0.433308344081108 0.412055439285797
0.162998477284877 0.438178803493072 0.412940032796744
0.158327441018484 0.442023932828118 0.413552039159725
0.153092522957891 0.45264128247763 0.414973361648258
0.137470264489135 0.463070305542061 0.414570331406294
0.455633909479882 0.0405207813314991 0.289076688101325
0.47021260292177 0.0199229716372242 0.319895021081343
0.484123044944362 0.00299071000905275 0.352896061163381
0.492113828637851 -0.0100437655785132 0.378094299931287
0.497339135447802 -0.0157647734284263 0.395242476397123
0.497250677702451 -0.0163864013418524 0.395200747840335
0.498200559804481 -0.0124185944380116 0.399970164917113
0.495041560917202 -0.00346769921134187 0.409030874633977
0.492051890557775 -0.00494931806652532 0.411330162984445
0.488440766113331 -0.00034897399616444 0.413478107422933
0.476907650383118 0.00771614051787808 0.414702917410598
0.480176591932991 0.0110459693693207 0.414891977700916
0.465540651651338 0.0303996052353083 0.411942720599522
0.465880243173049 0.0351655559338197 0.412558610920108
0.317789159387088 0.221536529546049 0.194567595819475
0.301747176721591 0.235714286266233 0.190098718349498
0.301476621720551 0.241740371586474 0.19386685431217
0.294108603282236 0.252291902944368 0.194497374844173
0.289739519341014 0.252166872077145 0.190632642190737
0.289473136861201 0.263757411479786 0.198100107016071
0.269278818703608 0.276830685063134 0.190824470571114
0.277709622504265 0.276348032885499 0.196280367834733
0.27070319515376 0.283494278812265 0.197538212655688
0.264923533327506 0.294643290727231 0.203349667907623
0.255891559627445 0.29839541896109 0.200598625514222
0.249969104953466 0.302012779796563 0.199796168879074
0.241678553170942 0.313035033417575 0.203830261615966
0.253079742669192 0.316103776467456 0.22044064605356
0.241851312123089 0.323484673723767 0.218460432729009
0.233018048357532 0.330700891415134 0.219163084440582
0.227923509817977 0.334419887082671 0.218858140819793
0.222155569175808 0.3457615617229 0.229947154454175
0.223470464696655 0.342919813016919 0.227008385158505
0.215334967418045 0.355933283439984 0.23786506989791
0.209427429515058 0.359463132248222 0.236256559018864
0.207891357779971 0.364724241515625 0.244028091160295
0.195149016367111 0.369768558686992 0.243591654280504
0.200622219345246 0.375127268969092 0.257830839023024
0.202697649230972 0.377507728226886 0.263880946015154
0.196734619332994 0.382092410721944 0.267829629551796
0.19279741909803 0.38411863773502 0.268567909464065
0.182925322514102 0.389572182034588 0.271115551758998
0.182757672915944 0.395077661481459 0.281265946648763
0.189378986062847 0.397869145914354 0.291599490750955
0.172472333822725 0.407903627134812 0.297260065159618
0.170305246059093 0.407512091257276 0.294852867428226
0.173917042759589 0.408793455712394 0.301496457389736
0.176097514755453 0.410372386242698 0.316078456734595
0.162093770842081 0.416347119136933 0.317101807636828
0.169756424771275 0.414653597198132 0.325799228084043
0.168021312821644 0.418839774162122 0.346170047070186
0.161483382002046 0.42190622594061 0.348275307365995
0.156082037391286 0.425138192989881 0.354118753570973
0.156369006590034 0.427102778986622 0.366358696125787
0.163886748868862 0.425129685415885 0.373061045648492
0.166951495328954 0.425865678624327 0.393583096150588
0.149919112799675 0.432920722467481 0.388489828657739
0.153754981522104 0.431331853619168 0.394402710521242
0.161836001957248 0.432732857176481 0.408947344417322
0.140758584443892 0.447845924888036 0.413085818245904
0.14714789073276 0.450827984724115 0.414591271240277
0.132139042647705 0.461282154327535 0.414977266009184
0.11645652102058 0.474681360304363 0.4129533205944
0.464158263109742 0.0213727380666463 0.303329973220597
0.481123828365934 -9.79062945319527e-005 0.34334696537787
0.48175993258318 0.00138241512775365 0.345621792741505
0.49328434642909 -0.0245372405965289 0.38679178599775
0.493655411786372 -0.0173023753985789 0.38514919418449
0.493908882672006 -0.0265674499600917 0.406966535465058
0.492785502238136 -0.01656357571797 0.40960627688736
0.493089633443889 -0.0215086189940926 0.408573103845726
0.4819818322856 -0.0134864020916501 0.414659608486637
0.479998812089178 -0.0069459854135062 0.414970385842838
0.477596789414998 0.00392149676540747 0.414723631444034
0.465846045175753 0.0167176654887629 0.410990030083843
0.316037833460182 0.210903594536927 0.185989696827626
0.30303145062514 0.213416277708392 0.176400767192238
0.313271008278419 0.215456177473602 0.186618519338729
0.298125017181245 0.227121916731996 0.181256778876731
0.281623252619416 0.243151127338405 0.177619605359475
0.280126602783503 0.252033008705397 0.182223206904871
0.270147246369801 0.264017575025837 0.181545237486719
0.261594529119031 0.269932836864828 0.179750350815722
0.268226374751385 0.271838163140891 0.185804161177588
0.259666196361431 0.278500030241147 0.185885013901834
0.255761488685612 0.285947570863875 0.189737913994518
0.248434767705667 0.295120564007157 0.192811509225414
0.244297780844412 0.303049980218925 0.196927228365982
0.242185710341184 0.304493519452589 0.196773930017458
0.236968317944027 0.313945963833706 0.201490349090812
0.235023946498162 0.319020036857734 0.204590864823119
0.224614418553666 0.33014863592958 0.207938084430507
0.218113832215684 0.334285042405979 0.206572487180486
0.221432054342192 0.336852423705527 0.214771730073254
0.212100478404278 0.34151907116666 0.210773203314541
0.211152024222345 0.348590487678059 0.220944832831081
0.211036085121557 0.352974095488833 0.227831024348988
0.199970678453484 0.359085580879129 0.227373202967994
0.199891939701578 0.363519335064718 0.235591194594471
0.191613226178023 0.36859241258857 0.238660794637463
0.186797249990777 0.374122410481577 0.245261784218935
0.188020029236722 0.376230040768148 0.250142982112363
0.184611210361427 0.379792314567786 0.254158102394305
0.176639087476261 0.38638187959626 0.260296479776819
0.179856138792083 0.391103699579568 0.271601445457235
0.174635961685604 0.394563045612883 0.274023403469299
0.165026036825813 0.40050356806941 0.277683125005511
0.172002732539854 0.403793223538898 0.289221740864345
0.168644294264733 0.409102938235814 0.296538722020558
0.157865155275656 0.412391926791992 0.294343075344861
0.147331433664356 0.417910876356444 0.296501119891983
0.157338323241615 0.418048786578788 0.315526743760417
0.140822445885394 0.424596768290685 0.313804719478534
0.150145265299433 0.42380567648353 0.331843677124019
0.147800143541348 0.426433436099669 0.341574628946536
0.154867857618334 0.424880931398934 0.349652754009917
0.149416365867297 0.428393065774816 0.357020107494813
0.139229496274766 0.432545133429035 0.356623721191396
0.147077001698557 0.432210298337177 0.373753028888314
0.141066024328102 0.434344005997771 0.371660878135716
0.126415438069455 0.441897530190352 0.3803853194524
0.145258451698147 0.435680012606689 0.403317329814681
0.133930396410245 0.441909452191381 0.40618766406166
0.13822667676386 0.442802452361846 0.40923994837916
0.119985079554637 0.456574987931824 0.41333148630722
0.119261740340165 0.457604608887093 0.413652727555792
0.103368728503996 0.472043656153404 0.414452532667872
0.478043817935154 -0.0159735575960302 0.340550257564155
0.48433153436614 -0.0218506958421587 0.360499754018757
0.488594947511664 -0.0252491407053718 0.373808428567679
0.492760208658006 -0.034678454404208 0.389082901172704
0.494598212587584 -0.0370805770073568 0.395654511214466
0.492766035986293 -0.0309000656797163 0.407585738258271
0.489945323313502 -0.0334077698372829 0.41028563990679
0.484858665550846 -0.0260334044483092 0.413547101049845
0.478162893220733 -0.0152417525719441 0.414948342288033
0.474722379285882 -0.00568068852017271 0.414396890899048
0.312194149560412 0.192688596821486 0.170564999659921
0.465658807826879 0.00612392887062236 0.409764924777275
0.293166005477803 0.214758712320333 0.168753259891556
0.296194999531941 0.219237054305394 0.174349386448857
0.287284644563507 0.225808689755845 0.171001617940582
0.280502128207672 0.235137638000016 0.171326926660119
0.268725888803679 0.24822999180408 0.169829406472537
0.261227990469447 0.257121286152819 0.169244836733511
0.267946493960226 0.258722559990942 0.176123595439633
0.261428925179848 0.268420979754412 0.178331763816833
0.259117260058201 0.269794636529805 0.177985414393207
0.242558756492354 0.282668800897666 0.178131154902771
0.242617256420828 0.286275732775136 0.181292013909006
0.234523103953339 0.294263116627281 0.182829695273831
0.230031821205691 0.301991660550678 0.18653623695205
0.228601821922827 0.304945271964254 0.188143000289244
0.219935363547088 0.314141595208341 0.190346981966231
0.216123368008677 0.321188572830535 0.193914748106671
0.208531160701696 0.32849623941453 0.195197469942592
0.21025803308493 0.333585408850252 0.2007493652349
0.20166751483188 0.341287031239864 0.201710034815593
0.194821371101637 0.346699323706477 0.203166217145746
0.195331678027454 0.348109139378107 0.204800317695936
0.187707478957253 0.354165055857424 0.20870058238792
0.193790787511942 0.358421229066893 0.221352941987244
0.185957651636171 0.366444012062955 0.230274981523814
0.171018015214321 0.37127271904884 0.227736479318565
0.169496885342884 0.376408666076912 0.236150036286587
0.17345724686507 0.37837871853805 0.242891690187248
0.162683384559987 0.385563189657752 0.247973932509456
0.158376443947117 0.386823390962121 0.246995886368719
0.165817671221364 0.391061493029556 0.260664767182929
0.163625904006856 0.394688990735644 0.265742988897527
0.158229252602875 0.401361487831857 0.274028185107662
0.150311646710042 0.404500549376991 0.273765803658269
0.144592897205021 0.411910154610076 0.283178236434115
0.146160578318618 0.415138046639699 0.290417993686016
0.130443208761165 0.419373665277947 0.286170524652399
0.130060195775469 0.424833847620038 0.296069768910647
0.135771351787108 0.424276216021414 0.29963000875049
0.135674404569974 0.42795983011045 0.321034723578361
0.121128633191959 0.433878650773244 0.320410609655881
0.121789299492396 0.434503300595675 0.325688014842006
0.124008239517707 0.43567616749819 0.337978066367979
0.116931011043008 0.439370257515412 0.343737625452288
0.119213079110918 0.439359187733524 0.34794648719603
0.115229353887032 0.442046680971682 0.359198697227376
0.131142055511166 0.439771723275673 0.379398476986837
0.116397003192788 0.445959907640905 0.384838689431572
0.121866849191744 0.444540350509151 0.398933070930115
0.126368267564928 0.444114223391759 0.404455675696648
0.110821106022338 0.450353519703244 0.408118998168889
0.114537133269663 0.453546335601174 0.411358445384301
0.0921077501114544 0.47808437304774 0.412885442556699
0.480885530382176 -0.0380073808642108 0.356773594898816
0.48866069559984 -0.0480891039601794 0.382489151245095
0.489017771826351 -0.0468606001925236 0.383041012950497
0.492995878330551 -0.051505729166404 0.400340632082697
0.491545175987269 -0.039712410122774 0.407651388314753
0.488905973116296 -0.044198745255456 0.409867274778545
0.481656250964958 -0.0356263551415689 0.41421388849543
0.476063281406527 -0.0329942444043112 0.414974299539733
0.47644917700971 -0.0216389399200882 0.414853110962726
0.466693852892607 -0.0123567636252504 0.411164334393295
0.463474268879866 -0.0101999760712673 0.407982410597242
0.29724866323286 0.20085598359666 0.163053323196853
0.289749374937489 0.209588545175702 0.162362125569748
0.27547046345064 0.221384893943324 0.157837638297512
0.279194254870955 0.227463886643441 0.165098248286783
0.26189578288437 0.242099373411787 0.159845816017013
0.261822388880658 0.24146364373096 0.159360059724959
0.255346840096235 0.248642361704928 0.158522958066312
0.249576988027257 0.264347309934884 0.166934124729527
0.248188233539091 0.260926950878957 0.163051246230943
0.247966356063737 0.273531151924386 0.173813538224617
0.237125660419628 0.278960329953945 0.171312787786737
0.228716966311557 0.285542305663677 0.171425100556484
0.228368235995293 0.288306975545406 0.173586465541283
0.22029527583161 0.300833548393101 0.179067149221299
0.22260719888831 0.30407697983041 0.183410023296912
0.212953620239288 0.312205407508036 0.184034069386346
0.195942905090589 0.324313852434374 0.183216692779492
0.198530186492448 0.322780482148566 0.183607855814227
0.199879306746471 0.329451322225552 0.190277887455124
0.185904350731229 0.343407848820419 0.196125572832441
0.18835508261158 0.342522810480253 0.196256696708102
0.180244513251771 0.345939062190596 0.196313892417357
0.17305542699263 0.355919801092123 0.203372575442729
0.171917174606827 0.360902851177697 0.209068871750704
0.171652350489868 0.366467072619473 0.219253793792072
0.15913635352041 0.372232899372034 0.220339652888892
0.158938816058475 0.373954407798573 0.223401342599826
0.166362707419897 0.376757366915252 0.234377056294536
0.154772872854284 0.380148307709287 0.231744757246884
0.147300011748518 0.38905658006558 0.24259886930823
0.146738977546074 0.391837598829027 0.247357779210209
0.142659932027679 0.398318386566246 0.256304092668825
0.133150936258006 0.400445723639272 0.252921737402149
0.134066409776965 0.406792489165423 0.265480744167717
0.133791711847866 0.41019933083271 0.271629679777343
0.133993737736003 0.41414181349163 0.279147502406228
0.132234329625791 0.416265585681405 0.281752307476421
0.121141783975927 0.424255971645514 0.288092906222148
0.120160834388338 0.429162860207724 0.296496551000331
0.118807447468675 0.43263257146904 0.307441638803533
0.112485851793253 0.433705555791012 0.304335167696001
0.115421305632419 0.435611346248152 0.318786604415843
0.111770082364027 0.437719793306907 0.329048742800019
0.115171343868293 0.438989631350149 0.339877453206304
0.107014656974118 0.441037296269551 0.346016857247552
0.111617510297925 0.443387256716808 0.364652494543866
0.0980763941929548 0.444179600391074 0.358408679786415
0.100625962698574 0.445112508421302 0.36640631785222
0.0948213942142846 0.447972712709675 0.379620615054175
0.106127059962168 0.44731261575971 0.393632926473639
0.100050401267126 0.45189074494945 0.408247972002739
0.0934697395524147 0.455904970052939 0.411094177466676
0.087986536613247 0.46414363076094 0.414462932833309
0.0904532945048759 0.468835640224265 0.414988877440195
0.4815057877925 -0.0405294975689335 0.359463962432242
0.490819843725998 -0.0643463296659128 0.394635641702473
0.491023119669012 -0.0570784401936325 0.392506740955429
0.488517213238912 -0.0610088601742851 0.407893934827075
0.487546410438795 -0.0542687232053276 0.409903862429094
0.4838035488641 -0.0497168513498136 0.412829753819149
0.479655906896278 -0.0425734492059104 0.414495323374142
0.475979817612637 -0.0380918046544108 0.4149614878132
0.297134723838724 0.184288949215172 0.151951452811229
0.287402527490912 0.19049265324694 0.147647966406905
0.29172829590235 0.195760603905702 0.154890955856581
0.275132529769079 0.207399579573378 0.148256576915478
0.269518196743562 0.217241782558018 0.149933900962387
0.27098502584649 0.223033534153151 0.155050205689213
0.261432500234915 0.232221711910024 0.152884418443648
0.25637815624322 0.236032443502915 0.151040550959164
0.257742452977094 0.242218254509977 0.156329828656165
0.239310881193699 0.253097772436083 0.150378616114003
0.237147449303889 0.259015585192126 0.154063944390537
0.227051706683246 0.267352956919994 0.154575173513414
0.231219090557911 0.269565057806883 0.159257704828968
0.219689024084657 0.277689103685676 0.158631660125267
0.218009784911004 0.286389072431107 0.16504668718527
0.216702852638654 0.293898280343904 0.170678316113445
0.207572109585348 0.298700873129035 0.168770911561085
0.198872638071637 0.305622944221994 0.168984472031446
0.186015192188955 0.315000508271534 0.168561819499618
0.185795259030156 0.321098388283795 0.173693810677754
0.183239288392582 0.326675281278556 0.178147076424647
0.179874539993495 0.332468731961724 0.182581835751102
0.180712525051465 0.339933816364887 0.190456229919571
0.176985788072281 0.344581502167152 0.193584966659297
0.172598920821458 0.34786695102421 0.195065007414575
0.160986216548436 0.356391203052864 0.198808693663489
0.160126799530474 0.360813135973349 0.202907019757438
0.153043175478692 0.367145837454715 0.206332649374439
0.153046439987242 0.371108420832821 0.213529815902316
0.14570249385427 0.376001532355642 0.216986359474561
0.146980583282543 0.381427302774117 0.22810610620566
0.143867266674719 0.386143688060402 0.234504784029507
0.141191970399011 0.385954746883258 0.232082812386414
0.131967456045783 0.394329332660707 0.240585609359655
0.134054959894397 0.398187839660261 0.249404927303733
0.124776552954038 0.401678769402181 0.248747075149124
0.123723745066534 0.403115420991543 0.250615370588536
0.123578540788112 0.412297969057611 0.267649101688819
0.106395490455196 0.416624005585752 0.265106598596791
0.112710842310782 0.421166068544836 0.275873992744343
0.105121684690536 0.424930410604695 0.281414913967789
0.111455315359681 0.427008644196887 0.287250115629645
0.100591323620156 0.429598786412777 0.289574261095242
0.106294142922345 0.43437559380205 0.303420287834906
0.0919446682946862 0.437396845949116 0.310557635283923
0.0960173763713916 0.438720824561111 0.322284974256981
0.0981821185714183 0.440276563323785 0.333889827840079
0.0896481140094956 0.441448885962445 0.334197483892036
0.0966233073861709 0.442737617898546 0.348111673844863
0.0880024176376083 0.444582639279961 0.352588228212696
0.0902398442419075 0.445482044027123 0.360115567859293
0.0895107779902463 0.449340257792087 0.383834458621003
0.0850794506626895 0.449721449765775 0.382559672555686
0.085306256001765 0.450555194352168 0.402094562276959
0.0852206446508026 0.453392729804429 0.407760795858983
0.0770335312885736 0.455120633048423 0.408463939297918
0.0784669371024701 0.462898316133176 0.413626244685074
0.0717409598124167 0.475059947574663 0.414577930902405
0.486405921163224 -0.0643949744008864 0.382183851667228
0.48949036685763 -0.0758102491520462 0.40226829314036
0.488969070682247 -0.0691711024097479 0.405625864329295
0.484667524203358 -0.0667643150717333 0.410850124844866
0.483368813400185 -0.0655343298608876 0.411780380202574
0.48147573089615 -0.0586702894953727 0.413232941600468
0.476882749002012 -0.0566078545351646 0.41459645349163
0.46670414841821 -0.0483342191737867 0.413570819310838
0.277696960961712 0.186790937091297 0.136788693273378
0.289494026216406 0.186742867999761 0.146967800674922
0.280447293775008 0.191057385622149 0.142002890344529
0.263618343729516 0.20581246487275 0.137236285286591
0.257053420875779 0.218532873738574 0.140002424056642
0.249448126200001 0.224993281029064 0.137710385826004
0.24583025809553 0.230096836823708 0.137968519172133
0.241036491858488 0.240346248658711 0.140626544591065
0.233255710514258 0.243078313896895 0.137684568705702
0.229100903279372 0.253492745194779 0.143939374546735
0.219946935043127 0.260888771517711 0.14426130936531
0.214301442986545 0.265568094956806 0.144561990928187
0.211969706900827 0.275675520465949 0.151761886332797
0.208952063371073 0.281279580234149 0.154608305763854
0.204176650828896 0.288723545400099 0.157879819137053
0.196208306693417 0.292889164480273 0.156193102516032
0.188826328196293 0.301944775444704 0.159128396646855
0.190953790991763 0.307884667426469 0.165682699103382
0.185395898823419 0.311066197700506 0.164745136010347
0.181093040992986 0.31930323662414 0.169820247925218
0.168073685233623 0.327269319507634 0.172414027037309
0.163606496537816 0.329105449120378 0.172399673115556
0.155359391932649 0.336955048222808 0.176868511920465
0.167719385828758 0.340522048036352 0.185624356982916
0.154730794534144 0.347726514642687 0.187463299931885
0.147101806903235 0.357221172639879 0.193848367610476
0.137031675966118 0.359715264431003 0.192157920646488
0.142095397653302 0.363827380405895 0.198416942930585
0.132992805249764 0.372949185732393 0.203810941755063
0.131330582693224 0.376385149118385 0.206586898715555
0.124776164875193 0.384439085894321 0.216556117585956
0.12649075990479 0.385365670273353 0.219612405671775
0.120551916176316 0.391668624126022 0.226788223760859
0.120438119958274 0.393650752417501 0.230401322339353
0.114727794886018 0.396887265211747 0.23202809830702
0.105866468823722 0.401934432484999 0.235532113808648
0.104021145384977 0.410055149437343 0.251317578770597
0.0967353435329512 0.412397214870728 0.254088572733747
0.0998689802885125 0.416784739303417 0.263706950929259
0.100884855572939 0.418321272469196 0.26705384476333
0.0921133599912785 0.422170175049182 0.272452301561385
0.0898246750635564 0.424808422110832 0.277135047456785
0.0851320931512674 0.42829108399262 0.282875669616246
0.0904463742948314 0.431943622913351 0.291596550563311
0.0853956717738228 0.438052038190001 0.309252611873018
0.0890313722284043 0.438707599390987 0.316403213051801
0.0761323862961791 0.440512399683493 0.317075374700946
0.0798807555318079 0.442016826163449 0.329671141673126
0.0799180476215464 0.442547090536115 0.333045133072907
0.083117534357048 0.444789085808746 0.349835312257994
0.0771962744116931 0.446474862449703 0.355548604731907
0.0669711489800054 0.448299816150915 0.358567127276264
0.070582990179685 0.450491123708597 0.375380001188611
0.0730084474843616 0.451672763809042 0.385086165243672
0.0662249331993346 0.452565830407086 0.391590173495542
0.072150188708243 0.452841735840359 0.403885765178919
0.0647748763752976 0.457592788885473 0.409392313837983
0.054646019690077 0.463917009538077 0.412898291857197
0.0506233379640602 0.475607638958343 0.414821879282168
0.0478197635969656 0.480246386870193 0.414146700684875
0.489272933110266 -0.0808229921715266 0.398387619602986
0.489163165622079 -0.0783605765702638 0.402214353691661
0.482118542048776 -0.0815094282520875 0.411237190265454
0.481422332323111 -0.0713830979771274 0.412529655978017
0.476068918716975 -0.0728637077508211 0.414451527326515
0.466703787747538 -0.0645620209454448 0.414305194304358
0.471566183331256 -0.0579872482609303 0.414842440800987
0.270226612943604 0.181579999428268 0.126875066691591
0.263139295514858 0.191575498398083 0.127365942627618
0.259141484140044 0.19796087634518 0.128146555182992
0.269633634904401 0.19605915082833 0.135965050349749
0.256639166657888 0.207396724872398 0.132247619752574
0.246993941150517 0.218110357406109 0.131014749584335
0.244401629655009 0.221596611136039 0.131086404794157
0.228021535079127 0.231271326067128 0.125183372349409
0.233387189079103 0.23806238719579 0.133430321392504
0.22266737955305 0.247310058629487 0.134314983278021
0.215175179887187 0.252985044317263 0.134250948227706
0.212895159562802 0.258419376113283 0.137440362149123
0.20157805634549 0.269415044183274 0.139441313136854
0.197700157301477 0.272202270336554 0.139278250459919
0.193866294177145 0.281099193795533 0.144432726604832
0.193634833077737 0.283658154127419 0.146493924379049
0.183786151793653 0.29492704458835 0.14970663983047
0.184791325528935 0.294370547408412 0.149892561276604
0.176564854058556 0.306048414325302 0.154569312069053
0.168728241416572 0.312803093313483 0.158105897619981
0.163413623763349 0.318205215163876 0.16133211879049
0.163855747898797 0.322326427307281 0.165670738340241
0.163310167499191 0.330185562210601 0.173364665807413
0.150910619926621 0.335102719406398 0.173144019199507
0.149740708216535 0.33889391782773 0.176476953350269
0.137125628960404 0.344787715825868 0.177150737088496
0.132606847671404 0.35401188746625 0.184561712373982
0.134995630545066 0.357642123539782 0.189218199347198
0.12178489298387 0.36469312466209 0.190809706155801
0.119725347633318 0.36992176463576 0.195220095059201
0.111242947281132 0.374406492286292 0.196199030695171
0.108964729669472 0.382822106962939 0.203730472523442
0.110322956892648 0.387268198756218 0.210660111369425
0.107181566270464 0.389917018842316 0.213176431580116
0.102503412098771 0.396154970988191 0.223064053827276
0.105509154014902 0.398362795581582 0.228281016177167
0.0986824788876642 0.403595418413505 0.236965221011966
0.0889620440812224 0.407119963950705 0.241463397227348
0.0978334484930441 0.412021068447476 0.253624537046716
0.0956039752877688 0.411640702827098 0.252274215473937
0.0822805973720346 0.416293638710364 0.258082983073995
0.0847659858752918 0.423197416743248 0.272572412256781
0.0831778147033879 0.426865155798496 0.279502850355586
0.0794012448336922 0.430617915566511 0.286026342396203
0.0730552077054871 0.433480966852444 0.290089200933193
0.0653132820832077 0.436928249183973 0.294954497793215
0.0751496868590643 0.438735459824068 0.305057059624548
0.0718856261148536 0.440522510984115 0.313614310201679
0.0684802733232241 0.441325490250109 0.315850230826171
0.0692816180948177 0.44406916039392 0.33381274932301
0.0648092754458281 0.445319129217803 0.337981103267225
0.0634243487502282 0.446861234345291 0.346553778742301
0.0620914383109386 0.448789842952024 0.357606329585527
0.0597441077199876 0.451722555081733 0.374147258178203
0.0621916119220532 0.452763282833535 0.382739929709721
0.0562590491945867 0.453877863926977 0.386350170435171
0.0585317934881984 0.453578651464346 0.394788587504095
0.0520814477642912 0.45656650846532 0.406055221877881
0.0506170234619659 0.45974250060638 0.409701451759575
0.0407102192169933 0.468995702168886 0.414013573490463
0.0339475509285649 0.482652798189314 0.413947263939451
0.0327140074041375 0.484247670443489 0.413454783593793
0.487504044971955 -0.0927926259174083 0.400695638909931
0.483131520920794 -0.091305954683219 0.409405042174993
0.483125081395171 -0.0880494117744886 0.409875757239231
0.472479934536574 -0.0829759398989658 0.414698227960657
0.472695658238587 -0.0805914305433465 0.414708958747124
0.469132994058043 -0.0745373725210782 0.414814650408825
0.270991653184988 0.163822167744869 0.120320678225464
0.264197544955232 0.181139839920305 0.123630334674331
0.257908916345947 0.18090040934419 0.120331818192638
0.254558984979366 0.189762953394331 0.122090322561495
0.248866340691055 0.198611993995206 0.122649624974072
0.246725641607438 0.208091317738337 0.125265587144397
0.233059323214082 0.214327205289422 0.120739365527884
0.228484369572352 0.224785671610912 0.122497651751011
0.212927812670984 0.234007616167567 0.120675407344281
0.213230499618798 0.240821943729543 0.12426657349228
0.21332474935096 0.245510937148131 0.1266930911581
0.199407572077941 0.253910786101965 0.125531549840822
0.197285859761237 0.258709489624229 0.127324316685017
0.19191936050877 0.266984841312824 0.13092286325846
0.182112022658764 0.272952222215671 0.129574278510009
0.185379878252718 0.280682993497635 0.138436098528037
0.177174904735607 0.286910796271485 0.138377158556633
0.182007358222544 0.291132918092777 0.145241193858353
0.172345236231606 0.298962453185241 0.145665188501867
0.167394611846031 0.299661015282422 0.144302369034097
0.163754665801044 0.310288311109675 0.153494565010737
0.146424875422701 0.317944660557673 0.153976487270035
0.144979218181481 0.321739867346286 0.157198334702685
0.146967529876756 0.323613315815142 0.15991684412573
0.145784515529995 0.334663678502999 0.170561273535826
0.128278905625469 0.342940263150903 0.171594962932216
0.128373591814302 0.341489202533183 0.170171880761345
0.120765719681797 0.354042612417771 0.179648871777645
0.124191790455399 0.352466479142644 0.179490613295344
0.118009614269547 0.360415903983919 0.184922204607382
0.116064906325525 0.370916705087484 0.194694680483624
0.115410010956402 0.370085710866906 0.193583642906804
0.0969786899502983 0.379039166532282 0.196174335762565
0.0984041132555713 0.382985148820281 0.200645602379722
0.0922104063349218 0.392238251260677 0.21250039608643
0.0962892828574589 0.395744831490463 0.220602899599773
0.0826533895088613 0.39883893212844 0.223205634304831
0.0777889249368873 0.399286141390895 0.222818481342447
0.0831320955551708 0.405007690785337 0.235692860986337
0.0857752943295472 0.410678643251762 0.247753588805904
0.0785058663154723 0.410829247054649 0.246137657464449
0.0666784406418673 0.41692783386553 0.255237855979363
0.0780087016709006 0.418540371913554 0.261458033827268
0.0680201847655748 0.423227126166803 0.268214319304754
0.0605593795067357 0.427118530105435 0.274043706755927
0.0582877055351174 0.429834953998349 0.278887590745159
0.0591173368150586 0.435554987436999 0.290568238866209
0.0583628772952187 0.435711498270517 0.290682824716687
0.0550710583884572 0.440728025733674 0.300953881777248
0.0523217755827454 0.44260493127056 0.31050488279783
0.0514795460793152 0.4449327194792 0.324481317003227
0.0509284155500495 0.446653918248973 0.334875134850424
0.0502139862774463 0.447344978933326 0.338638933993477
0.048135235379674 0.449570415386592 0.3509437812651
0.043759564502473 0.451340204032929 0.358469564329953
0.047993326959835 0.452722701353854 0.370699508229899
0.0474214507428396 0.454124765323966 0.379064129498639
0.040495413451481 0.455953185943616 0.39088032377221
0.0397921703893904 0.45604576964915 0.39560845495997
0.0396852207446166 0.457874735694121 0.405406458413378
0.0351981959533874 0.462210061561774 0.410174830205828
0.030123974745505 0.47621805773557 0.414949920850706
0.0166917269482091 0.474641618234517 0.414584426182188
0.481848813376366 -0.109310303598006 0.408228599434178
0.482481470131694 -0.096019115916571 0.409437007182843
0.476334887353562 -0.0953359336168775 0.413340797647788
0.472996374836698 -0.0943366444581726 0.414478362035317
0.467125735609826 -0.0827383371460252 0.414713292176854
0.266431369680813 0.160706583761283 0.116778249327196
0.261054917025897 0.167107210547149 0.116541230214844
0.260134332339764 0.171714014964696 0.117873581770621
0.243140460170551 0.179869803040731 0.112402317869775
0.245603388019283 0.185457482187709 0.115842590879097
0.235574030889713 0.20092947483838 0.116781700079276
0.224575799022366 0.212550901856078 0.115721259288105
0.222139651276373 0.213304332179956 0.114774352751675
0.213925206554709 0.220552135582878 0.11420809964865
0.211433147251209 0.230913410674903 0.118514005917927
0.200314366186802 0.238704703547023 0.118136649998628
0.201509739845591 0.245096362018017 0.121861499496491
0.188339792110477 0.256781134161151 0.122666267381761
0.193501472479032 0.258022225107998 0.125317264580562
0.183402287411392 0.265861658909492 0.125363160272659
0.173058566407948 0.274337120550511 0.125637569235286
0.173145626828981 0.277685732056638 0.127716232449775
0.164411205527878 0.288088262037536 0.131391859875108
0.160036131882058 0.292555931005602 0.134068458203328
0.157519477031211 0.299227745606429 0.139742664499471
0.150645172945628 0.302865889595147 0.14053967460814
0.144999817279715 0.305485979134425 0.140823624371051
0.141013827486741 0.312742110424415 0.146473335391455
0.1297637996457 0.324907592282617 0.154038666639927
0.134083263369453 0.328058628792559 0.159018220357769
0.127046343062976 0.332373172291955 0.160429121660978
0.121925012265329 0.340738296316175 0.166722637609721
0.113400721839856 0.341413146705408 0.16384387002733
0.116225584747917 0.346422070316371 0.170072090956906
0.108416012090052 0.3534140254605 0.173859131499705
0.102157457932073 0.362056886008169 0.179957791336743
0.0975330497674094 0.365192863754351 0.181276051568795
0.0912194301730731 0.372584639269471 0.188372471502505
0.0969817799452256 0.375534443979546 0.192383797809736
0.0878450199499392 0.384162506437983 0.200415450286797
0.0789690147687259 0.385069891719218 0.20013295629394
0.0828740881903814 0.39280619499871 0.211175473590054
0.0703967294404514 0.394583851348806 0.211445947961965
0.0759435644066363 0.400897278678675 0.225560058644895
0.0753206653384522 0.404792426535589 0.233200821400482
0.0685719237899675 0.407783042413334 0.237413058111842
0.0588336255009775 0.412093418573348 0.243481167099038
0.0551888918590574 0.411774038125694 0.241879694790982
0.0568136845677531 0.417513545539934 0.253809132302839
0.049387569606655 0.42313410289751 0.263112544102419
0.0493881165876963 0.427273977573074 0.27140815791697
0.0531863001178085 0.43052774852622 0.278930034704706
0.0472810182777408 0.435928224459065 0.288193651199106
0.0433408106341868 0.436666552057016 0.288633663877851
0.0441213899069456 0.440975909468812 0.297474663085586
0.0380032867550771 0.442215155411886 0.298343875033942
0.0322712359683324 0.44517788450583 0.310084056616353
0.0365275297342046 0.446285794180287 0.32060157029904
0.0269971756447855 0.448433474783049 0.326231377034957
0.0245329509445318 0.450689225857824 0.33840739885166
0.0284051895258174 0.451976334352477 0.349735901376806
0.0238332037788602 0.454547859380814 0.362153270809102
0.0190869539838254 0.454923605176722 0.360582763799152
0.0319201197943814 0.456032617462485 0.378226032665346
0.0189029814503636 0.458647127241364 0.383904921766529
0.0214215487469558 0.45846430787061 0.392248718514416
0.0249700820168985 0.46277263924879 0.409326818043333
0.0147342581605339 0.471798056078447 0.413801297166689
0.0123255932542362 0.482073158120079 0.414666328420463
0.00476755338459233 0.484168295914316 0.414546118438632
0.478443412183696 -0.11351796364286 0.410893991588692
0.473203594044379 -0.107381187153142 0.41387213823238
0.472606398344483 -0.105825369969497 0.414147871511425
0.465644890047203 -0.0975889088525997 0.41476511632854
0.463885655575214 -0.0880562461075442 0.414399718351587
0.253511915877563 0.156783006227179 0.108659750704018
0.245763707562087 0.166847420112758 0.108646749012805
0.240910235187832 0.170397776801585 0.107561646829413
0.232525650120772 0.183928770037904 0.108579948161656
0.225201727795186 0.188947679190776 0.106810109569322
0.228979986188898 0.190544196757498 0.109359955940771
0.217620970156596 0.203043028085928 0.108458760786318
0.210011193277115 0.213241431233397 0.108951739136407
0.205395162069266 0.218065089780968 0.109604910578817
0.199951634148574 0.222989596289203 0.109985881171249
0.199555976676665 0.229824371575268 0.113314377506007
0.189800299164214 0.236538257118949 0.112920987961079
0.181152638358486 0.249669262457428 0.116231262501741
0.174864396711834 0.256360195723003 0.117182131639797
0.17810140827693 0.260900672444272 0.120761951153124
0.168369300770059 0.271215982719097 0.122213179899317
0.160521417348567 0.275385299288886 0.121269047874124
0.151405786116433 0.2797507708867 0.12139713969508
0.148174551691067 0.291489781997318 0.128041470692889
0.139669328974527 0.29779390281598 0.13084475791038
0.139043890095731 0.298853658420821 0.131651823790378
0.131844993089736 0.305655619262682 0.135502321457449
0.139250537946342 0.311256452516371 0.144239653729155
0.119050436002854 0.324135296869312 0.148787266462813
0.117697128933702 0.325083373186162 0.149177870272505
0.108509455268682 0.331369285118513 0.151677872317247
0.117454599900032 0.333785543726122 0.157848073603698
0.106228825836217 0.342647410463665 0.162093610750287
0.0945657375879266 0.349904202606611 0.164538708991689
0.0916131474524872 0.357405397931147 0.172009501867564
0.0961059426166541 0.352976726163722 0.168278751401439
0.0908913653177739 0.366313790992289 0.181542720542426
0.0879362090216752 0.364593315104663 0.179260890773517
0.0774516394846114 0.374971401424744 0.188993568441769
0.0714417548986486 0.380555831894822 0.194178278233356
0.0720898004509739 0.385312278867914 0.199415503050806
0.0669139107264187 0.390840336141622 0.204658000693054
0.0624644128669139 0.39452036188982 0.209226143870582
0.0585462819256048 0.397239386536122 0.213640895803828
0.0575625072660095 0.399909904555308 0.218732547895834
0.0517736236306821 0.407605726023609 0.232626277895855
0.0458396586697764 0.407363838558961 0.230576175344449
0.0421000641949405 0.411956096336822 0.2387916054851
0.0413777046074954 0.417242229457498 0.24919338252274
0.0382591138474536 0.419305692311736 0.252505444163774
0.0402648128825864 0.423564467235137 0.26156827893298
0.0296513491819367 0.429946784732426 0.271557265352263
0.0306518587544817 0.433157897429642 0.278255623507376
0.0300151437502307 0.437681545073388 0.287152127699877
0.0249400385629095 0.439424314860884 0.289305447334235
0.0267210078720411 0.441849263211629 0.294634380641829
0.0178394620296946 0.44636067930865 0.305562585592347
0.0221728307690891 0.446536787957084 0.310269554378262
0.0208266648123624 0.44889915960224 0.324045751769948
0.0169676236915182 0.450703642816486 0.332219068600283
0.0142323444418385 0.453027025959315 0.344596499884992
0.0177806281738087 0.454665019207925 0.357868264364968
0.011126819335258 0.456070085856597 0.361203811872468
0.0165515832043457 0.456674662242216 0.369517903144865
0.003604213542474 0.459154834026185 0.374407769599038
0.019315152699067 0.458741620171223 0.397609217858868
0.00788273998260152 0.460246725858796 0.393759923296969
0.0076498397977457 0.464306281382068 0.408519226037485
-0.000674395679298809 0.46913103451465 0.411736998216498
-0.00715893305532345 0.476076732968608 0.414604105840499
