ply
format ascii 1.0
element vertex 849
property float x
property float y
property float z
end_header
0.168038721430494 -0.396417627254054 0.198899360287368
0.174879284442927 -0.395226001650079 0.201425578871037
0.174552931177086 -0.400516056255153 0.20935718696666
0.169786565479294 -0.404349055596595 0.212217106577535
0.17189691846939 -0.408986088936065 0.220696932991805
0.168669002150451 -0.416987765571076 0.230951543577822
0.166237830751954 -0.426682396308286 0.244318830844492
0.172663507442907 -0.426128248103799 0.247561490082892
0.173841922484467 -0.427992318049158 0.266562911613946
0.16695586461085 -0.430844616731914 0.270371129504059
0.170845328960206 -0.429233547780142 0.288193726942989
0.176087856448396 -0.427062021701896 0.289896159742428
0.17595367748835 -0.427117600449273 0.298140771186334
0.174440112911272 -0.427744539451051 0.315551785840872
0.171715765041489 -0.437665454246805 0.320471937428621
0.177926233630522 -0.456631986989131 0.320471937428621
0.155049005204357 0.0535659248611278 0.0408153612380863
0.153667303181245 0.0454811701397046 0.0404101054417056
0.153591133793764 0.0251424174845894 0.0400562523916919
0.161501331800178 0.0181412237711035 0.0406987272505763
0.157884931116408 0.00841183752096778 0.0402485013918591
0.156418928519452 0.0038373731042828 0.0400583606199714
0.158780551294448 -0.00814016309071041 0.0403275507802111
0.158892668359176 -0.023121731459943 0.040519184130055
0.159492493361211 -0.032424022121302 0.0406869163241721
0.16184894721008 -0.0351164089395173 0.0409361400893517
0.158079016795375 -0.0435883812647911 0.0407208842688123
0.159866692783559 -0.0684788473348392 0.0417572699869421
0.164615358351262 -0.0707942296445688 0.0422462418883766
0.163443711682344 -0.0769226306667709 0.0423633351630376
0.163260989592062 -0.0870012766541439 0.0427053224905521
0.165006145519726 -0.101432646832133 0.0435195889271641
0.170277058497331 -0.105208377521607 0.0441947971806131
0.166437252818434 -0.124014541237271 0.0450702614274804
0.163584339296381 -0.136245175107073 0.0456102193275172
0.170577893359117 -0.134740872730913 0.0460929144692994
0.169219303625384 -0.153441011223483 0.0471667600652944
0.166927990315233 -0.159663079557337 0.0473720180078716
0.169761136492677 -0.171651982944188 0.0484030416782044
0.16940155196276 -0.179828933982128 0.0490561703685013
0.175199333219125 -0.197747975832459 0.0509051788561229
0.167869926704399 -0.205659344420327 0.0510942569826286
0.16629607002516 -0.217089768283558 0.051939308424607
0.175540379277892 -0.220487418607824 0.0552403603387648
0.174497745874579 -0.229829257843761 0.0579969058971452
0.169350322300937 -0.247206641425553 0.0623301694560557
0.168631925594336 -0.256379167763893 0.0651123650720756
0.178245519415213 -0.263613593993249 0.069827581527578
0.176653185390412 -0.265818613654403 0.0701448656492811
0.176306682930407 -0.271321395166951 0.0718348792624557
0.173630976584727 -0.282113965132819 0.0746552024210579
0.178651942489576 -0.292412975572257 0.0806410795533362
0.179276831237441 -0.294416944691384 0.0823383008708947
0.172194608857501 -0.302538593476547 0.0846570262341324
0.173251006936576 -0.318142964064679 0.0974239562442095
0.180601422260806 -0.319797254623251 0.101163586385477
0.181278523932206 -0.323445380432352 0.104290142429851
0.179341526819826 -0.332524128084124 0.110876902220411
0.178848598205885 -0.343437699167244 0.119399938254287
0.18122579527189 -0.345897235378893 0.123365096945097
0.181865161839626 -0.3496536164285 0.131010228990126
0.177579800309706 -0.353134573194986 0.134253488436824
0.176193553005185 -0.35891651092257 0.144154431355567
0.183446278074026 -0.36425287297621 0.159228453779731
0.182915583742399 -0.364788277641997 0.159714030582881
0.182345788264194 -0.37142069258171 0.169555922951584
0.175085491465815 -0.375795431943969 0.171659928685274
0.182074335030199 -0.378955336740049 0.180976184670408
0.178386734832175 -0.382942722794966 0.184761187739832
0.178171784337162 -0.392632532912089 0.199533531884294
0.176097487566625 -0.398283822375208 0.206906933404022
0.185042492148757 -0.399320540883838 0.214203053034386
0.185059108235065 -0.403149709766642 0.220105438470897
0.177289744433728 -0.409162583007285 0.224405532035849
0.183254064972805 -0.415247003139201 0.237568663769311
0.182747479153297 -0.416317954413063 0.238893630804785
0.186614203075772 -0.421948039210404 0.250020823345418
0.178345936251422 -0.426126694383139 0.26848459499605
0.184009279087024 -0.423780860873393 0.271055057009412
0.187378764036943 -0.4223851744501 0.27607328259719
0.186489156406697 -0.422753662011269 0.297466332548796
0.179937094909626 -0.425467614859245 0.301764039244908
0.185474927189641 -0.427613681689245 0.320471937428621
0.186367738642706 -0.435683565585834 0.320471937428621
0.180803395312744 -0.456894002945104 0.320471937428621
0.165397997197141 0.0465367160208907 0.0414525111745297
0.169689941133693 0.0389312803132532 0.0417031626466765
0.167938945956268 0.0303412673458938 0.041438220209779
0.173026187737315 0.0257751004560022 0.0418506426061992
0.170193672203165 0.0159619690289871 0.0414714684676527
0.172181211216288 0.00519318793263077 0.0415238523569628
0.175614983699571 -0.0137597390048108 0.0419432144737181
0.166958358730901 -0.0243702809878529 0.0412758028767754
0.175681283846995 -0.0342903355220697 0.0421977971246602
0.176407903279805 -0.033276495381309 0.0422523270124347
0.172352180342682 -0.0473950814095554 0.0420787240182054
0.171207098086819 -0.0638615723705881 0.0425649402292333
0.175810165138403 -0.0664781143360385 0.043052125592818
0.177600823439959 -0.0840916322730809 0.0438952943917605
0.170647601951705 -0.0999865357385692 0.043894205728142
0.175687110424435 -0.0984318200648977 0.0442828710164596
0.17549012199189 -0.115248817723608 0.0452625945390002
0.172791354264923 -0.122752672605186 0.0455154746342616
0.176538506098635 -0.129051589282331 0.046224769065962
0.175754268670362 -0.145891531783502 0.0472281003400318
0.177466607142438 -0.145527891214316 0.0473465828496566
0.17513318764814 -0.16466247978993 0.0483674026041669
0.182265935834304 -0.171416075847165 0.0493854033833397
0.176149329543199 -0.186843365947605 0.0500640216255466
0.177512762312648 -0.193826940799159 0.0507277925692826
0.177279110026208 -0.205375094899577 0.0516675853339537
0.177448188367823 -0.209905558607557 0.0522978845613667
0.182772841498226 -0.217139398938424 0.0559508584717552
0.184028597985656 -0.235014430912131 0.0620303136373874
0.179239227725606 -0.241838073810476 0.0630464159644008
0.181649636832555 -0.2513838723247 0.0667238450400495
0.18688806754541 -0.251384159695133 0.0680211097160245
0.188741615852641 -0.263467132869352 0.0723794236508484
0.188816182802956 -0.27537576655905 0.0762409539087482
0.187378978345308 -0.286982638305742 0.0815063800943633
0.18803707672541 -0.292004590078878 0.0852835333092505
0.182407369164642 -0.300653818152199 0.0882422856402418
0.188741884921925 -0.301021078764882 0.0918150839664428
0.183898844869737 -0.308842961632475 0.09462094812855
0.187885452211225 -0.317617628319927 0.102708205211495
0.188019654544642 -0.325170710701797 0.107940425951244
0.188986821056593 -0.328899166172415 0.11117156443864
0.193688047846185 -0.333137985945659 0.116357830011929
0.183828561974803 -0.346497714553769 0.126556413081787
0.189979745254369 -0.346348940804039 0.131117637286677
0.192771992220353 -0.348455279641023 0.137321109034961
0.188164962734262 -0.355237006661275 0.14658647640066
0.191357255427116 -0.357178675014008 0.152791913776844
0.191082154425006 -0.361174312386705 0.15935819848558
0.192851647805578 -0.367640232732376 0.170434821645034
0.192188871256522 -0.370649753569475 0.174643045633221
0.18951972452689 -0.37637755779238 0.181755059043095
0.190753907727332 -0.379847579228303 0.187880835669929
0.18879149478604 -0.389178735240966 0.200987614272406
0.194932836327713 -0.39079218217095 0.207384252466201
0.193707344683376 -0.396550296094674 0.21546299353431
0.196292876418868 -0.401486263874329 0.224705626754929
0.187428165390396 -0.408892797344045 0.2304519892644
0.192066338914227 -0.411195171790971 0.236950632897688
0.19554535551177 -0.416263593134436 0.246966516125637
0.191049450946873 -0.420864726084698 0.259747930893322
0.199125069408306 -0.417519695252437 0.266797415437727
0.195955245929479 -0.418832679183034 0.274703977919419
0.195481983975241 -0.419028710711298 0.283559278972442
0.191175674037836 -0.420812442766333 0.298632200771869
0.19918266342719 -0.417495839027698 0.310466405955384
0.197788098472595 -0.42539655251636 0.320471937428621
0.191393040509302 -0.432761420132476 0.320471937428621
0.194351655832506 -0.453318610728676 0.320471937428621
0.181051769255965 0.0458246456378827 0.0428311276691518
0.179228735403738 0.044485084767229 0.0426473166962311
0.177997000296603 0.032363587410574 0.0423873691241681
0.178089030622708 0.0179257282227116 0.0422210843819727
0.182565855255181 0.0127436900925745 0.042569934928518
0.177634198823693 0.00070640984062874 0.0419708599146776
0.180143016012755 -0.00994307830352572 0.0423132982756446
0.182291095251842 -0.0161894380090706 0.0425863801415135
0.184295498800903 -0.0243695761535025 0.042869658448524
0.178779689986652 -0.0428325422040395 0.0425860331423179
0.181646446173057 -0.0477602931277473 0.0429092260168787
0.187800659492697 -0.0614140637916815 0.043972929336304
0.179872596657634 -0.062762510604066 0.0432682993381855
0.187427463971142 -0.0864189794647526 0.0449340457687547
0.182639510961495 -0.083851012996741 0.0443707438939932
0.181301815418768 -0.102404650015943 0.0449817765794897
0.18548012535049 -0.111188565853723 0.0458308631908363
0.183991530230694 -0.121109028967806 0.0463370663602181
0.186201017679787 -0.137135654960714 0.0475362813204049
0.191081243706719 -0.139254905789553 0.0480741232520142
0.19121017965248 -0.14487628031266 0.0484413459318212
0.185424757304623 -0.159226547221532 0.048873340282033
0.195574449293347 -0.17381595995717 0.0506377595034128
0.195945458466897 -0.180838639211534 0.0511138777576262
0.192759408125769 -0.201885716175471 0.0535012377279586
0.187420729358336 -0.204901580473902 0.0531524990160761
0.191636281682023 -0.209268696711085 0.0556057028270593
0.191724633454221 -0.223150349252048 0.0601073645095769
0.191903195658456 -0.236211502770305 0.0643665793141939
0.191893798350102 -0.231632190890165 0.0628864508843731
0.190213871860689 -0.248154082969256 0.067802279227182
0.191668318734091 -0.257473594668945 0.071169961550274
0.200441467379789 -0.261650394673901 0.0746903275275824
0.200723510625193 -0.275295683256303 0.0805172581960417
0.197167129084195 -0.28071625523073 0.0823567661227167
0.195667637627149 -0.286754690462749 0.0856971570187024
0.200172149172336 -0.296084589724275 0.0944354531644546
0.199739587572361 -0.298279805550067 0.0957088490937155
0.193815074452895 -0.312208389121172 0.102120965515357
0.204352118428493 -0.309342478987755 0.10568798402732
0.202561507789049 -0.316525505111911 0.109657936365745
0.200843566801687 -0.322011283985424 0.112506082319594
0.204262037822709 -0.332762113427608 0.122182449496904
0.202775970469102 -0.33626612798021 0.126041443134483
0.196144301021977 -0.342509330714902 0.128672376703825
0.201857381217208 -0.347564823454598 0.143336908649665
0.200118823032316 -0.35299944263501 0.151746117063797
0.206329381405336 -0.352643161648997 0.156977405873831
0.205371804175627 -0.360424203646163 0.167311322590157
0.196755540966361 -0.364148248936581 0.167549926029362
0.197588156986337 -0.369822896379273 0.17681194357045
0.203323048996256 -0.374154088470632 0.187131227768297
0.199832036919822 -0.381469515696675 0.196162252665412
0.207661723276985 -0.385025314440232 0.206623553671255
0.203347901215206 -0.38970204266075 0.211070108278128
0.199959737097959 -0.392709672580375 0.213538439089073
0.207556124703486 -0.398997576600361 0.228054836434531
0.209110047991355 -0.40269353050249 0.234732028098545
0.204073877025365 -0.408825746447594 0.240957707971288
0.203023781202078 -0.415341306148972 0.250313687651951
0.200615624790018 -0.416902286971842 0.25382369535703
0.208252281768288 -0.41373907994693 0.264597558993835
0.209288667556814 -0.413309794879378 0.287716757630771
0.207991929305019 -0.413846921472757 0.291628597102917
0.208432037868193 -0.413664622529292 0.295326475050599
0.207893300769446 -0.413887774751551 0.319571241116604
0.204340633915394 -0.43201543238934 0.320471937428621
0.209067550727981 -0.443402322570695 0.320471937428621
0.204554041247832 -0.446678148856913 0.320471937428621
0.188153536999451 0.0497398329737043 0.0435591569739713
0.187322295914469 0.0478458301530446 0.0434475276426825
0.184493343338528 0.0356061388224809 0.0430238462245873
0.190962132999069 0.0217838686185579 0.043469088656793
0.193318044441521 0.0130717770773275 0.0435939771907002
0.192315702079849 -0.00100900618387636 0.0433263749947408
0.193888440573455 -0.0105186797397953 0.0436181787088739
0.190732068613459 -0.0116146544923551 0.0433070185714353
0.191383389945312 -0.0355518592369653 0.0436998538548331
0.19045212340523 -0.0330328031620547 0.0435693906450317
0.19287160915158 -0.0486383956973773 0.0440315725134018
0.191951242226725 -0.0544359617410314 0.0440942371439449
0.195593231600125 -0.0716176027917034 0.0451299271889032
0.197273779402437 -0.0781851546554301 0.04555357677454
0.192504311942198 -0.0848110462877349 0.0453586487070772
0.19894865168251 -0.0896175245326208 0.0461706589281973
0.195439958767096 -0.106859612663571 0.0465204063779833
0.200333926274254 -0.119492228101834 0.047585435765759
0.194933501376008 -0.130650465465062 0.0478467846801564
0.200117371936623 -0.139098465552897 0.0488111602044266
0.195114596938155 -0.147713855175015 0.048944087249167
0.203121567733669 -0.159442845228975 0.050349944265945
0.203759941523663 -0.168121042925112 0.0509531735762159
0.206871227121817 -0.1853024906369 0.0532635973511725
0.205942698585137 -0.184308207684398 0.0527177391763624
0.197334466951425 -0.197291518572556 0.0531547606827068
0.200674387817459 -0.202136676196327 0.0555421808817892
0.206477537218944 -0.213771879261362 0.0607340179255293
0.199713513726818 -0.228935861700079 0.0639526768964606
0.208216474449852 -0.23619752020705 0.0684016598558312
0.20841890061778 -0.241493036091586 0.0701607152810359
0.206669530596748 -0.255030387251445 0.0740961987870993
0.210714601948017 -0.262005205147257 0.0773487251176052
0.203809375743017 -0.273164710566479 0.0806791543750051
0.207261940656538 -0.275640144813947 0.0841814077321996
0.205658061147025 -0.282863132470918 0.0882765916267522
0.212029446788902 -0.288975808696637 0.0957951937971023
0.204853691076885 -0.297283774007032 0.0977099790789779
0.208267616071329 -0.305158182427507 0.104881677835821
0.204255118970857 -0.314553431467111 0.109198330048803
0.205479527100883 -0.321674146596858 0.114706769101278
0.206842015086738 -0.323356103029605 0.11657071977859
0.210591976863382 -0.325216013493481 0.119808272977243
0.210306118395786 -0.336397293533033 0.135688868669
0.212782740610314 -0.337785012680253 0.14105700766807
0.212968880058107 -0.34365663209313 0.150876178771331
0.208508609567195 -0.348483740897499 0.15316936154478
0.210901874472396 -0.351706609234455 0.160375794266687
0.213947788529937 -0.355298344800066 0.168209586765992
0.215102676435459 -0.357108489929775 0.17177217943663
0.213938730507692 -0.366531693874163 0.183042788492404
0.208789401492796 -0.37140686595343 0.186388077131635
0.216532145513206 -0.374528292493286 0.196237865405884
0.213552809522134 -0.378136328545364 0.199778327931319
0.217792386197579 -0.383408427437408 0.210592333223506
0.21559254414883 -0.391378435244484 0.221453443463295
0.21782076620094 -0.394329863442477 0.227414815864059
0.219465187210739 -0.397934411737436 0.234009042548954
0.211779877790417 -0.406475125113575 0.242252197628519
0.216857709443942 -0.41001562712181 0.250936110018689
0.214689711319784 -0.411072609207493 0.252947749981876
0.218283866901533 -0.409583861157507 0.264111260082017
0.216859037271997 -0.410174044939006 0.279699035704059
0.213880336903732 -0.41140786308179 0.287144332419065
0.21116033385863 -0.412534525280253 0.312267674260936
0.213456305717371 -0.411583502557453 0.311190497299477
0.216918551715903 -0.428965526788007 0.320471937428621
0.214639053110257 -0.430920651386864 0.320471937428621
0.216319488776018 -0.446643316381935 0.320471937428621
0.195619521432466 0.0492397005791368 0.0443236206071285
0.201266867288734 0.0403199426240896 0.044785702947063
0.193605403864079 0.0368702266516068 0.0439473267502222
0.193898943415731 0.0192389595785947 0.0437378613907226
0.200091556061387 0.013988491796469 0.0443061750952864
0.195168581613522 0.00480660786005487 0.04367273681846
0.19586671921577 -0.00642908349097324 0.0437669232661714
0.196541158740287 -0.01659573832272 0.0439748642540122
0.196479589785169 -0.0190936572303762 0.0440024761832671
0.206839874834341 -0.0449307903973436 0.0454241250366856
0.203485044010601 -0.0456606505761599 0.0450874840798765
0.204517167724531 -0.0575037761772614 0.0454262081483934
0.20469935746835 -0.068745234891511 0.0458919864409139
0.203143600041226 -0.0786624556519439 0.0461376606547957
0.208434392518539 -0.0810946057989665 0.0467439523213553
0.201795581357091 -0.0983680505774096 0.0467936325653093
0.204477422292118 -0.10955257582185 0.0474977669750389
0.20426500345947 -0.113538647987572 0.0476362586567203
0.213032354683596 -0.121667183109105 0.0488043542403287
0.213945143780912 -0.139193431417187 0.0499602389565888
0.206480814163016 -0.15069653532975 0.0500728527495865
0.20937137031879 -0.1544907965762 0.0505524672486954
0.209707004119739 -0.163342870021215 0.0511416999016751
0.209821053840479 -0.174154606366961 0.0518369172064475
0.212654184080481 -0.193108814552699 0.0570628793065039
0.215036201959886 -0.198427624181566 0.0591486621874492
0.214127052221707 -0.20684576744711 0.0609398196870646
0.211250893596281 -0.221332940315718 0.0643560746290779
0.211635071026054 -0.225310782884297 0.0657349066873659
0.217577804387893 -0.237701474538029 0.0712051140052262
0.216724606529348 -0.246037579860967 0.0736840057853568
0.212421824037252 -0.256334196349563 0.075941372083695
0.211950601833515 -0.256744462954178 0.0759570833697209
0.212747457074114 -0.26389004257169 0.0790278761759561
0.220126424513675 -0.274816757127467 0.0903648101194027
0.215908446199715 -0.277203695827727 0.0897841652454042
0.214417662849265 -0.293313283569809 0.100011839978225
0.218081417166787 -0.288542420446237 0.0986726550935044
0.225271561607136 -0.301986420974989 0.111630906736791
0.219498314907698 -0.307364348247931 0.112278750640947
0.223382405546724 -0.314189329577915 0.118979815418159
0.218936452327127 -0.321426515652892 0.122059150645067
0.222969334955071 -0.322730049184078 0.129239431432848
0.227086474527912 -0.324567714804148 0.137397286288085
0.22318955510851 -0.331359396953871 0.143603555382424
0.224625952993517 -0.335439236583033 0.152063715755504
0.221727407636419 -0.338188896620051 0.152921690952637
0.218313821781299 -0.349744419618945 0.165297818846656
0.226696650020001 -0.353384099855949 0.178605805334749
0.224847669203917 -0.354514358690493 0.178224597803998
0.224377769245188 -0.362119026128063 0.18779607374046
0.222702777394032 -0.370140340504746 0.196696270553102
0.219745118990678 -0.377464298276064 0.203374629759695
0.22897534680927 -0.375589446205011 0.210255520477469
0.227501943711947 -0.38276738811291 0.21824576851831
0.224194525002291 -0.387862660402194 0.221624807508317
0.225248485397865 -0.390966196729032 0.226973212953126
0.230241251926937 -0.398724542112784 0.242106872204467
0.231737765809505 -0.401610419883111 0.247486913941133
0.227903635082323 -0.405599222542195 0.252960864942316
0.222362027231703 -0.407894631768022 0.265311041418765
0.221555663072451 -0.408228638753073 0.271620271338895
0.23128477536821 -0.404198708320467 0.28386905907039
0.222658423886752 -0.407771860248484 0.295026396674556
0.222666367339702 -0.407768569962401 0.308721042807882
0.230105230360899 -0.40699814417859 0.320471937428621
0.225464834918481 -0.41801826960646 0.320471937428621
0.231280676287276 -0.437757783767774 0.320471937428621
0.208078420570529 0.0545183315999556 0.0456824644255104
0.211374052766407 0.0368953636072147 0.0457832399083777
0.210464434544745 0.0343168211185816 0.0456542040191599
0.207961525535819 0.0321438080032834 0.0453660902170851
0.207650137090656 0.0143205750580179 0.0450915226386975
0.204553554794962 0.00654787806208944 0.0446659231072096
0.208724758642103 -0.00700419219596584 0.0451030309005582
0.210605994581028 -0.0151875137721526 0.0454086649362809
0.206466839650634 -0.0232014634198917 0.0450900654279508
0.210557069394382 -0.0349502073366692 0.0456723877343496
0.211829744646673 -0.0436501213086098 0.0459221808280694
0.210364789369843 -0.0639843688572402 0.046247529285392
0.21684106971184 -0.0620461312744088 0.0467936765966417
0.214483677473272 -0.0835635453799316 0.0474247263978973
0.213780983417526 -0.0852629982119773 0.0474248459891147
0.214621553976746 -0.0993204308602099 0.0480662862729908
0.221886551519817 -0.108969895477098 0.0491504046527333
0.217843059183123 -0.112154374386267 0.0488881395124906
0.218577304304998 -0.128054649964673 0.0496366165415877
0.223525236239197 -0.137480795704702 0.0506435323790556
0.220141836832319 -0.147996476923992 0.051030858722346
0.223763469949198 -0.160990088614147 0.0526945522290112
0.218328161961651 -0.166605328833192 0.0523309898272402
0.224440036698503 -0.178978858544128 0.0573673767945744
0.220595357440831 -0.184321765607427 0.0574496934744342
0.218899890140783 -0.200603866296609 0.0609344171102553
0.225102854652093 -0.203320096473396 0.0636088009876162
0.223211732946796 -0.207990987403648 0.0641551465218088
0.225228467201714 -0.21491995285283 0.0665217643104523
0.227969344165484 -0.231373536347321 0.0717362249517816
0.229313416652972 -0.233132054652121 0.0726365482463997
0.222456677409299 -0.246106545629035 0.0751256720098665
0.228308200334875 -0.258129762618327 0.0832512751949405
0.227384283046197 -0.263797220269724 0.0866399667305666
0.23010356372714 -0.262809648616412 0.0873910373452004
0.224944375653159 -0.279470038700747 0.0960714303372883
0.228662941751913 -0.281023741564556 0.0990832546350589
0.233729810104664 -0.286626656593921 0.105569394758057
0.232020649799891 -0.297557024943293 0.112143027306132
0.228573022312807 -0.306760970494049 0.116625157618893
0.23286435356137 -0.310577428683806 0.121794944003008
0.227020529017207 -0.313231645667756 0.120233151154234
0.230497928992786 -0.319359024823711 0.13316724600612
0.233420416023786 -0.323589014121109 0.143734217172334
0.233818108368135 -0.323904351058935 0.144747238668844
0.231570676285007 -0.332055052565791 0.155238610191588
0.237888512366875 -0.333352716348491 0.163485665986382
0.232356294418998 -0.340830416769373 0.16775693752484
0.231771804971471 -0.345863372318036 0.173814288354837
0.232115296433397 -0.354017374285701 0.184936247542381
0.239180548179334 -0.357625225069787 0.19686634975383
0.237886428765391 -0.358878454017952 0.197210167839255
0.24020815880567 -0.365904468937602 0.208847384572922
0.238125958437648 -0.368492315607041 0.210155606539316
0.238021441132618 -0.377595092253514 0.222076946561704
0.238764288084296 -0.37654576856909 0.221443635001409
0.24149437004891 -0.385820951331634 0.236466638139069
0.242678809180742 -0.38735938125856 0.239700179886288
0.233589525912215 -0.396480377831763 0.2425363628284
0.23657409554712 -0.400732645186368 0.261913400486983
0.234411390934696 -0.402392146853711 0.262340644649697
0.236296722960281 -0.400945480664542 0.276916460264944
0.235715285438621 -0.401391633380501 0.292946550121542
0.239606705539271 -0.398405641623578 0.300265078309579
0.237157088180072 -0.400285299191509 0.313948065220929
0.238695701610054 -0.408243794208805 0.320471937428621
0.245180808662447 -0.424166721579495 0.320471937428621
0.236226260588274 -0.438410596921718 0.320471937428621
0.217990576313621 0.0561884493407691 0.0467291430562427
0.215238998454915 0.0483938095262345 0.0463388854122905
0.213489044079564 0.0345948962467799 0.045970439959038
0.213268110637865 0.0245478194626906 0.0458109741895222
0.217315553152645 0.0214377446412316 0.0461867932055059
0.217771559558964 0.00647884311689381 0.0460304560760093
0.215334119493801 0.000491786833294216 0.0456972336387818
0.220404497236888 -0.0139724672474106 0.0464043638889868
0.225365110044307 -0.018429689283236 0.0469774338931154
0.219497290064216 -0.0402020504266047 0.04666737389874
0.223202188929391 -0.0415296505700736 0.0470681601718262
0.225424517588928 -0.0455513655099826 0.0473524316647448
0.226808221185262 -0.056518856937899 0.0476445339731605
0.229022191595704 -0.0742376531150999 0.0484524020277469
0.230084118709439 -0.075603078713242 0.0486090720611208
0.229283777159903 -0.092797747705556 0.049217645302036
0.230324701206606 -0.105181884295854 0.0498116516830224
0.228008208280143 -0.112517218776905 0.0498811448112324
0.226747680934714 -0.12966170148072 0.0504434176348184
0.227183491062549 -0.133945356074152 0.0507216840373164
0.231476345291647 -0.145950869960219 0.0518380582974415
0.233211719865468 -0.160048927027851 0.0555105649939675
0.229976528134979 -0.161661087583874 0.0548657409437849
0.235599905327016 -0.180905837006481 0.0614459765916179
0.237157820066969 -0.182079527519506 0.0622393715822325
0.230370927069285 -0.192071112355413 0.0625233326419237
0.232996369976693 -0.204192678871717 0.0663722116297178
0.239189779147811 -0.207837458491632 0.0692734449064428
0.233053782694228 -0.221607055425098 0.0707029926536262
0.233815024402896 -0.228088094185699 0.0725535289175925
0.240724054087736 -0.227948054698885 0.0747484821276919
0.234392940750369 -0.250001205941767 0.0808869728771211
0.233908181488655 -0.247537619072972 0.0789491282642945
0.242306922799223 -0.25996611909932 0.0918471637214969
0.238655562342739 -0.267835818879073 0.0953106211104641
0.244574491275822 -0.269335122910395 0.0994391352059281
0.24503967203961 -0.27310339959348 0.102258349786365
0.237075556838667 -0.285997185756318 0.106893712442562
0.2366693307101 -0.295778272220289 0.113365171709052
0.239228923936229 -0.302882625150221 0.119562597434511
0.240251056814 -0.307100913126863 0.125372782326564
0.238153038963607 -0.312371192445099 0.131348762093644
0.238973947911263 -0.31604275368835 0.138371323486129
0.245873617419672 -0.317091805854244 0.148727465030967
0.245471476272555 -0.325410255915631 0.160679471585824
0.245520207780264 -0.326877563869066 0.1626676009575
0.245841135531691 -0.334319868126982 0.172826332814613
0.248246693858757 -0.331274686995584 0.171241681941982
0.243417497402542 -0.339932107528729 0.177784452926285
0.246617955340227 -0.344984069103675 0.187704295751716
0.24146549338053 -0.353099308243845 0.193202950336507
0.249890530203372 -0.356774837504673 0.206601096671175
0.242729766309883 -0.364724151328167 0.209844395001508
0.245045019943162 -0.36651335252267 0.214555755009451
0.244570769567899 -0.370989337053172 0.219988958077306
0.246470527403677 -0.373679122972454 0.225468989925824
0.249627735901125 -0.381268563481566 0.238697701132811
0.248736373171083 -0.388142242515915 0.246876036401564
0.25004483712785 -0.388205152794878 0.248285748341957
0.245234309153728 -0.394087429359322 0.261730198082254
0.250998598612817 -0.389664334354369 0.285066227902717
0.246784758877374 -0.392897727406157 0.293816140875606
0.25091775658052 -0.389726366629428 0.299073590655948
0.25099573688907 -0.3896665302323 0.318408321052494
0.248976970869812 -0.391215583929086 0.315612034283836
0.248677610082149 -0.408389264248503 0.320471937428622
0.248213957633973 -0.428897727233486 0.320471937428621
0.249250438277352 -0.428497184494052 0.320471937428621
0.230357278129211 0.057516296521398 0.048024730990781
0.224509613489219 0.0473727473474459 0.047282689720761
0.222230674111175 0.0422645234707801 0.0469777933436475
0.230599736417107 0.0313878460870714 0.0476944251544118
0.22866763747434 0.0239722964361621 0.0473939786147454
0.233635004088018 0.00605680364923919 0.0476634724332919
0.231948100975602 -0.00545916593831831 0.0474810807811964
0.230684251447886 -0.0115998000691867 0.0474340341250921
0.235218171907459 -0.014254658729058 0.0479385125951653
0.227779308384089 -0.0296224825266528 0.0473790545144419
0.236659484189864 -0.0483347504245858 0.0485509025346693
0.229913039868277 -0.049950841550285 0.0478759475028935
0.230512623556662 -0.0639123755293609 0.0481841685394814
0.231215336408166 -0.0669691271774926 0.0483736988364396
0.237921995068993 -0.0839800446851883 0.0496975986209953
0.237679154025845 -0.0995192051755563 0.0502938275962071
0.241125670077052 -0.105144899428983 0.0508499207753603
0.238153486635398 -0.109454531367975 0.0507356482086921
0.239060737535864 -0.127326517565372 0.0515356082566171
0.237728495008251 -0.143124581240348 0.0527772762109742
0.243336194620945 -0.140569482647101 0.0539542423275456
0.24499127413822 -0.157838593592494 0.058764638941101
0.243516131734936 -0.16394222308476 0.0598000096052712
0.24244001373689 -0.168442815760341 0.0605671967860904
0.245200036304726 -0.182199868926639 0.064864495413517
0.247272328593498 -0.190050666333748 0.0674773120806409
0.249508080381875 -0.193957377668521 0.0691662207394711
0.241329617277618 -0.208927751610935 0.0702339825151573
0.244465186948222 -0.219749832426993 0.0739256993084923
0.245071368530852 -0.228447995562349 0.0762752134663584
0.246454508687987 -0.231315051109703 0.0774315277933048
0.245881225124327 -0.245739936000368 0.0840216839471724
0.245534525686718 -0.253806095089559 0.0893298965855128
0.2533531823246 -0.254934542167534 0.0942011775769432
0.251762430795768 -0.258996541833142 0.096142997788458
0.246459899850806 -0.267826231268186 0.0993966499071432
0.249114797252438 -0.275669626500715 0.106149121215386
0.251966828942634 -0.281119216656232 0.111369021218082
0.248829883082357 -0.290906998356366 0.116413071377425
0.249116125121491 -0.297892162039657 0.12144419143689
0.252191098017804 -0.300886330751834 0.13018459024884
0.257054334962209 -0.300577428192339 0.135772627382757
0.254624856359404 -0.30782808148376 0.144566526818558
0.254443739251935 -0.313600896355955 0.153764314542018
0.258499249052542 -0.316645444278514 0.162306957085824
0.258666386424624 -0.317034849431268 0.162990922535494
0.250254352359428 -0.328062834885784 0.169033400372658
0.259111791094514 -0.328395737282738 0.178453396836906
0.255335522684335 -0.338783407365513 0.18834982386576
0.258699285293971 -0.336846715186361 0.189201274024905
0.260932266315109 -0.347677369840556 0.205775501878267
0.257243284774014 -0.34996728438877 0.205061032778988
0.258205571972083 -0.354100269867209 0.211497476223403
0.258512440679763 -0.360587286339196 0.220379752843659
0.256290477666746 -0.369041232412035 0.229297028437897
0.261642057278681 -0.371711293326366 0.238250637442005
0.264140793228392 -0.371416537599891 0.240394533562024
0.254361987499103 -0.383375387829544 0.246281237866906
0.263675584061951 -0.3799369409929 0.268825438232354
0.255291034799705 -0.386370632122367 0.26868805262646
0.2566567254651 -0.385322700785245 0.289588632496851
0.261868028351268 -0.381323927314776 0.300750061856367
0.25799982505497 -0.384292104190597 0.309181426969885
0.263933505485174 -0.379739030917977 0.318670466134408
0.263876356478456 -0.398521476533361 0.320471937428621
0.267106150771797 -0.408431441552656 0.320471937428621
0.257693756489953 -0.423616394513852 0.320471937428621
0.23699942133578 0.0665246510631603 0.0489127745866799
0.233425004136797 0.0521974275561594 0.0482693013486921
0.235258442601187 0.0397850535302366 0.0482898917059683
0.240476951918679 0.0229741340889647 0.0486003519960983
0.243166384804841 0.0231539858109989 0.0488806270102599
0.236024945107105 0.00703472147223118 0.0479236626363926
0.2430412794831 -0.0101699647696349 0.0486911176351028
0.239256141541899 -0.00651095497984551 0.0482503346679947
0.243816022428214 -0.0242245832928648 0.0489622975186847
0.241676108698135 -0.0397046849454629 0.0489517687902781
0.246858242112735 -0.0485243580199229 0.0496070530340183
0.245355616231646 -0.0507686297258269 0.0494823484591322
0.242941280072842 -0.057899490213771 0.049329919305774
0.249317122986825 -0.0761975398066623 0.0504842202724784
0.248432210589082 -0.0844998288121517 0.0507300791612575
0.243350282828156 -0.103020556301955 0.0509793650718045
0.249725245596863 -0.101684701275991 0.051539778452639
0.251260734739159 -0.110438455543029 0.0522347246529478
0.253682919377525 -0.119457452622935 0.0545489332477671
0.254932393776706 -0.13215356120805 0.0569948242022538
0.250902866249184 -0.143093182311539 0.0571834084199761
0.256435180117375 -0.1519305268578 0.060994739891113
0.257770405478608 -0.16206264510545 0.0639346102661742
0.254612703559825 -0.16395181054856 0.0633833867763177
0.254080561895737 -0.180716279058496 0.0673629770389424
0.254203400250738 -0.191485554059896 0.0700693715113598
0.26022463210358 -0.192086632708582 0.0721613413670965
0.255402680176889 -0.200807555199683 0.0727647644908186
0.261179147155398 -0.217531081912516 0.0796837497885935
0.255911948177056 -0.224733735062116 0.0798611566441109
0.263609626157293 -0.22743805919477 0.0865399628126862
0.258982039575018 -0.237330360399319 0.088564933334832
0.254208504377586 -0.241041005377789 0.0872485115616228
0.257445671636287 -0.256531236671156 0.09758387130661
0.260244915780185 -0.253828501485503 0.0980795906947305
0.256413501176753 -0.263011163419435 0.101325639975986
0.265315952397576 -0.276283430797921 0.115064458327491
0.258255794627836 -0.279145119601454 0.113317828018014
0.264278759385765 -0.287760354823449 0.123897807621073
0.267997626133423 -0.284549765425518 0.123314966467809
0.267011925869619 -0.296284257520394 0.141237839829023
0.260070265466448 -0.302815508908823 0.143204674775038
0.259522637276362 -0.304007136612911 0.144464089076136
0.268734291786904 -0.305191858957664 0.157550405752415
0.26654003433852 -0.308812208197667 0.16010924201514
0.269701884876284 -0.310923365671616 0.166104320702109
0.266565724430979 -0.326098138758617 0.182974820413368
0.268195521569398 -0.325816910802434 0.184255614388279
0.263680590340657 -0.333652381549568 0.190030979301153
0.264663781593383 -0.33947523855315 0.198721407688304
0.264136605269238 -0.342618458893711 0.202339998651613
0.272273117506139 -0.342336838244898 0.210217125491643
0.264856153061532 -0.353080990849471 0.216893435202768
0.264535569530632 -0.359768453271664 0.225404412546545
0.274475308870931 -0.359091808843044 0.234587809826128
0.266386904161384 -0.365859605560253 0.235329503435847
0.27176894265344 -0.372308745789868 0.249307210391059
0.271361952556732 -0.374038982825326 0.256337154118085
0.272567392169338 -0.373114016449656 0.262913366499338
0.271257693178395 -0.374118983862542 0.278749039491975
0.275113081197611 -0.371160640494989 0.289113869344194
0.266285074710262 -0.377934608331791 0.298549284769244
0.269065254789748 -0.375801301059539 0.309102007907263
0.276103874135875 -0.380018023356566 0.320471937428621
0.270274780160697 -0.393335702606735 0.320471937428621
0.277919947542524 -0.40431394470006 0.320471937428622
0.243156320860766 0.052877261499455 0.0492838305181183
0.244786291421521 0.0555309185946966 0.0494883032114047
0.24325248706575 0.0427170700821449 0.0491555840046563
0.245905414287847 0.0299293389764603 0.0492557258327905
0.250269072634279 0.0212889831381186 0.0495889981369358
0.244880704005087 0.0040021943941645 0.048797254305445
0.24872945472122 0.00283252476900453 0.0491789376192219
0.252311141451358 -0.00904371830364561 0.0496334136264405
0.254198664419487 -0.0174461757783543 0.0499426774332303
0.253374007948048 -0.0354889200105431 0.0501028724516996
0.254015389694719 -0.0363840525550272 0.0501813037067325
0.254124783347481 -0.0496811282177953 0.0503734476434201
0.258989936038702 -0.0639352101946608 0.0510698956837603
0.251673979120278 -0.0712892746592869 0.0505153892104818
0.255895030059522 -0.0856854077498368 0.0514957531383701
0.258780565539676 -0.0947657700619841 0.052621051035978
0.258039709961496 -0.105279154637501 0.0539791905207251
0.258283741343217 -0.108785700147505 0.0546167428905392
0.261363312229574 -0.120848112621178 0.0576517525992302
0.263908473862532 -0.1217519556407 0.0587489375045573
0.258666402704225 -0.137352872709489 0.0592074367491709
0.264047246749005 -0.143911333563243 0.0622505119643629
0.258769044887088 -0.155781855030177 0.0627015965274555
0.261430940581432 -0.163666790939718 0.0655131391994812
0.264437497176514 -0.178597702734423 0.0701806754245373
0.269290631255872 -0.180101745610165 0.072119282922926
0.261784609866149 -0.193879630230728 0.0731087586672832
0.269006138799128 -0.19687584085173 0.0761811765239364
0.267738738221291 -0.206693827568036 0.0784835969823136
0.272603607051885 -0.212523156264402 0.0848651824527972
0.26369289400208 -0.220366532823436 0.0828885727935047
0.269644297831696 -0.234619589049797 0.0944300941311587
0.272864786289571 -0.234230724517414 0.0964270854367803
0.273150655183084 -0.248090722633213 0.103890609543556
0.272924769134828 -0.257711169968872 0.108781182663944
0.275564714135841 -0.258335771948832 0.110912885337539
0.27403459717205 -0.268108065699743 0.114991763148931
0.269179194337569 -0.271923323272368 0.114110598521619
0.272614090107316 -0.280802425575627 0.122980280278577
0.274545658237949 -0.288486144357353 0.137944439975844
0.270747013868992 -0.290670521398658 0.136751949757044
0.272959969436042 -0.294846249322403 0.146341478585248
0.273481395685028 -0.300586385587153 0.156278156605047
0.280294338617969 -0.302305122436777 0.165456408739279
0.280275925854342 -0.306718094706138 0.171268507313528
0.270760764143136 -0.31048830235015 0.166603028562773
0.274381973033839 -0.319000715516788 0.181521672039412
0.272401726006386 -0.323878491274385 0.185958894295374
0.280518929245397 -0.326908513821075 0.198192048377028
0.282020520857422 -0.329635987910993 0.203318194838578
0.274630686715313 -0.335775539407541 0.203938049168092
0.275088885064189 -0.345763799405624 0.217599870387012
0.276064654292845 -0.350316697150388 0.224604803773793
0.27797334705855 -0.353396670824186 0.230609441108373
0.281614124622056 -0.356676738897922 0.238634538046724
0.284658926014613 -0.358234691076549 0.243780007731382
0.283828023110993 -0.364473430159853 0.251683261202633
0.280485419910156 -0.367038299885098 0.258720809924464
0.282735553006054 -0.365311711980797 0.280483395204595
0.278101465919033 -0.368867572177027 0.276155184185707
0.278411718850501 -0.368629506722267 0.287375328791953
0.277903886813319 -0.369019179961781 0.304048846049479
0.28509891122635 -0.363498243380149 0.317865168868746
0.285470611729016 -0.387711940280163 0.320471937428622
0.282823373049624 -0.38604031261422 0.320471937428621
0.284405105902937 -0.405903241740516 0.320471937428621
0.258661955055849 0.0529774397749538 0.0508869859384774
0.260459627907815 0.0527432162431274 0.0510695071196601
0.256165053605809 0.0455830232986823 0.0505284804951299
0.256776378057684 0.0230439598638934 0.0502850964443477
0.257720391576804 0.0214226258097938 0.0503605662489712
0.262039828681072 0.00670022310028468 0.0506065531362734
0.256672600529783 0.00612373787708449 0.0500442570395992
0.25759703019174 -0.00722845512487966 0.0501547787402781
0.265162049699449 -0.0132195100859114 0.0510177546607877
0.265003451175921 -0.0286923102106592 0.0512118042812856
0.262863969895566 -0.0388271090936158 0.0511286229378842
0.26504516392489 -0.0492766349834189 0.0514960646989283
0.260790579818296 -0.0605668312716577 0.0512100985749265
0.266003398186465 -0.0718863129422946 0.0519186017511231
0.266577822669901 -0.0787150302480028 0.0530527865611945
0.270467332486903 -0.0805251920179065 0.0547962679790415
0.267180987074449 -0.092451507688627 0.0554177380949944
0.271154054999948 -0.106422501451231 0.0590856278559004
0.27192913792903 -0.11312664223492 0.060420504202355
0.267366181077274 -0.123365394322735 0.0602995218489128
0.271468162215475 -0.140662226962985 0.0645335722367743
0.275029690394832 -0.141876860264311 0.0660610934627153
0.276955175521492 -0.150312287643793 0.0680977981056157
0.275224159959001 -0.165970136120538 0.070534752552241
0.277509322777352 -0.167019981582803 0.0715321723693574
0.27488742296768 -0.180686419155612 0.0740702182846836
0.270872079182416 -0.190002493602039 0.0750813191098537
0.281670137659241 -0.20054160463597 0.0847782275051302
0.273726846822513 -0.206443502632542 0.0824446550572513
0.279622205634991 -0.20603447772141 0.0862591050918245
0.283395012427477 -0.213826190736519 0.0929234362996221
0.282354326813464 -0.220987764729827 0.0959677390982847
0.280031881590161 -0.235526516295468 0.10200465466716
0.280163555750883 -0.237328254404326 0.103039470293064
0.28355809912348 -0.245304835967396 0.10954223757204
0.276994351861143 -0.259422921057525 0.112460011883309
0.28007666897273 -0.263652090634012 0.116784264616101
0.279775512323599 -0.266971338159524 0.118319058994935
0.28849911101693 -0.271550855432282 0.134213910502244
0.284275321617017 -0.279696395745719 0.13752237359142
0.287492405951046 -0.283853186800198 0.14798193588867
0.287760601984034 -0.286018181709535 0.151131958194175
0.285785020999795 -0.292980305927953 0.158702471044566
0.286891808425748 -0.294609388993197 0.161977063451288
0.281941083727324 -0.304836015573253 0.170469981256424
0.290386252415457 -0.307782595482352 0.182925393064696
0.286473444177204 -0.311005189135303 0.183216325693516
0.287374362041539 -0.316695236724678 0.191647862715929
0.291277520635682 -0.320706887761427 0.200905600423201
0.28989973750969 -0.32413739490493 0.204041387189352
0.284381594596238 -0.333203958889404 0.210426260377416
0.285249279295514 -0.339948474897059 0.220217350555673
0.288190987557567 -0.345805728230411 0.230938874156024
0.29203451997025 -0.3468665407824 0.236237279555166
0.286484528172361 -0.357306408133578 0.244404379192529
0.292087561582529 -0.356764394843774 0.249368880015851
0.292233692675282 -0.358023532852134 0.255551490790399
0.290856976441658 -0.359079924405577 0.266102223014828
0.294296434430335 -0.356440735385414 0.279631484766513
0.290242607758175 -0.359551346091529 0.298939388781036
0.290699272853544 -0.359200934628571 0.298403675924586
0.296247631907912 -0.354943528855798 0.311410443612723
0.295441597121822 -0.355562021119498 0.319150963060784
0.294246478177872 -0.381378906140648 0.320471937428621
0.29364282687554 -0.389961010490407 0.320471937428621
0.260798772560531 0.0696152254283723 0.0513340051689477
0.260360835477737 0.0531879513923216 0.0510653499700596
0.263519660944247 0.0346520276048618 0.0511395763782847
0.265450473379926 0.0268586076735144 0.0512330446514842
0.268667719676635 0.0272519612501992 0.0515707485387371
0.264614203806763 0.00474195294145476 0.0508458632988263
0.271814994745252 0.00201753280762149 0.0515526805939627
0.272436146700539 -0.0113808359969304 0.0517441911119989
0.272781729817526 -0.0257770720835055 0.0519967682039982
0.271475705259387 -0.0295344746187892 0.0518918671971909
0.278586543193721 -0.0363963965997463 0.0549016173120526
0.274163959342823 -0.0459539730712532 0.0536254837397212
0.272631874853392 -0.0576513477764944 0.0536286713173427
0.276233704752095 -0.0732673752691802 0.0559103743576367
0.280343543444253 -0.0744482662765508 0.0576305308447748
0.276702763839796 -0.0810074404265015 0.0572146538768087
0.276946776643458 -0.102912156187124 0.0607161364144176
0.279659330912799 -0.0995849777012164 0.0612176098611569
0.283842809418605 -0.113181399441655 0.0649062658658597
0.277351742715485 -0.123909394102318 0.0641368444263345
0.280887079071061 -0.128479543580346 0.0661768564568053
0.284019152375064 -0.140813156959872 0.0692738132096973
0.285943133888761 -0.145217359122013 0.0706824351837423
0.285225296762299 -0.158785230027012 0.0725246994440037
0.282146280715942 -0.168304241798697 0.0733465932014814
0.282768783121655 -0.185683555200464 0.0778510532138673
0.284913470596258 -0.18288803428727 0.0778509270005453
0.290983680525368 -0.193010708690893 0.0871939990206455
0.29067228332206 -0.199621614934399 0.0904479349686049
0.28564895488387 -0.206091786914848 0.0904078933353264
0.293094909019926 -0.212115979534747 0.0986556023437265
0.291326844670549 -0.221119925636751 0.102168944582438
0.289996704731877 -0.225348235959149 0.103477233332411
0.288115085353159 -0.239363027699004 0.109540649690507
0.292433732568878 -0.236374657270952 0.110924956375429
0.29710722924096 -0.251471060431095 0.12311282296116
0.29639390362269 -0.25116897308871 0.121569814170195
0.294600485355919 -0.262214923853378 0.132479541243501
0.293090499741484 -0.26293295020753 0.130913840579483
0.291916707596398 -0.272396635668492 0.140853007212577
0.297127569919816 -0.272597429932906 0.149611787145285
0.293788307397638 -0.278970984054893 0.152144495835713
0.291706051066696 -0.291847525467551 0.163208805589801
0.291502708049769 -0.29372824357213 0.165487598523938
0.299911083025963 -0.294755038399068 0.176954234688115
0.299035038019555 -0.298459257522679 0.179552268038041
0.295879402941992 -0.311972470974268 0.194030632824635
0.296821695196237 -0.314133632024343 0.197841474656291
0.297335736986703 -0.316892137191 0.202007391607131
0.302119116443352 -0.318938862023328 0.209561328549447
0.293992443107481 -0.332231353831998 0.218885164264321
0.304929206618501 -0.328871698539046 0.225534392157826
0.301178876475618 -0.334853683339157 0.229635978506408
0.30410932110157 -0.342545267423329 0.242769744646793
0.303699326249899 -0.342523370169955 0.242325137818043
0.303276933524407 -0.349549755852396 0.251362430436993
0.297958026911992 -0.35363109656857 0.267027665420321
0.300313424531169 -0.351823736352188 0.276979756451607
0.303956253646227 -0.349028495173363 0.282377975113438
0.301635710146723 -0.350809110882252 0.293948578940461
0.303012810321498 -0.349752424720393 0.307071856782039
0.299236861636746 -0.352649812140824 0.315425165357251
0.300076012414755 -0.354421483832444 0.320471937428621
0.307849653434581 -0.365127784407396 0.320471937428621
0.277325891178677 0.0628109497240266 0.0557956676402044
0.276362601150288 0.0605235146632 0.055285732631284
0.277816495384042 0.0400367965289308 0.0547843485523195
0.272313681759052 0.0333729072723567 0.0522113034881803
0.277575943301546 0.0203900064511468 0.0536442060122079
0.282842754464831 0.0137615952970689 0.055416329775968
0.276074278925497 -0.000107709688799045 0.0519667074882345
0.275345963844501 -0.000818508571708642 0.051901136697198
0.276988346439585 -0.0218381384634833 0.0534841214593668
0.285134286172464 -0.023099232958119 0.0568362566656839
0.286115461897513 -0.0318784083397571 0.0576980783313187
0.286006040022573 -0.0400957450867774 0.0580902422133269
0.279621911294793 -0.0459471189538137 0.0558262588820317
0.284294839528172 -0.0629655568573958 0.05861438530105
0.291271554300509 -0.0703722279002146 0.0618212777045292
0.289086893126195 -0.0814504274947526 0.0619376502520312
0.286306341840845 -0.0869729364793479 0.0617523575179231
0.287061301393145 -0.101865181958508 0.064354266440657
0.292237926784538 -0.114718273709102 0.068300443832503
0.294743821449226 -0.114448742861312 0.069200219598141
0.29703816767674 -0.129134237438264 0.0723484566718624
0.288496077060738 -0.13313932392411 0.0697617302654661
0.296462485126812 -0.148088583629749 0.0750826251487522
0.289692778785741 -0.15701660608672 0.0739282977568383
0.300109207419208 -0.160047168610951 0.0787191961621425
