ply
format ascii 1.0
element vertex 843
property float x
property float y
property float z
end_header
0.326667433204846 -0.105988449333309 0.468381215092541
0.326667433204847 -0.107180554924779 0.480272564806328
0.326667433204846 -0.110328268470182 0.481462019455522
0.326667433204847 -0.107265633855815 0.497712520644654
0.326667433204846 -0.108219520644686 0.504605425695821
0.326667433204847 -0.102419267649825 0.518892319018138
0.326667433204846 -0.10401756693302 0.515219680049081
0.326667433204846 -0.11038559408751 0.535364721926196
0.326667433204847 -0.111123528137364 0.537404246267522
0.326667433204846 -0.105197125994416 0.546632183079397
0.326667433204847 -0.103922671092491 0.564186474365265
0.326667433204847 -0.102831616389135 0.570866847471466
0.326667433204846 -0.106735303546771 0.57566222847833
0.326667433204847 -0.109173945038895 0.58569966938221
0.326667433204847 -0.102763337707793 0.594025773496977
0.326667433204847 -0.108770217125759 0.6059945965981
0.326667433204846 -0.109284903252397 0.606842680710215
0.326667433204847 -0.10473439714371 0.614390291343975
0.326667433204846 -0.105431894876576 0.631878772507247
0.326667433204847 -0.109479735928413 0.634232949310906
0.326667433204846 -0.104392586929725 0.646879583711509
0.326667433204846 -0.108195757713884 0.65021660449782
0.326667433204846 -0.106840993832016 0.664044602631716
0.326667433204847 -0.105657246652152 0.674726996077395
0.326667433204847 -0.106612367674409 0.682435294812484
0.326667433204846 -0.10575733740115 0.692918905010606
0.326667433204847 -0.103269066979402 0.700486252080287
0.326667433204846 -0.109959068967598 0.714894499037976
0.326667433204847 -0.10500363723505 0.720013555823931
0.326667433204847 -0.11014953866266 0.729894881792975
0.326667433204847 -0.105828919801536 0.741639907383754
0.326667433204846 -0.104908292000584 0.746601160198728
0.326667433204846 -0.104382565197029 0.757120179637667
0.326667433204846 -0.108345852287639 0.764197391440185
0.326667433204847 -0.110103244956857 0.772802718931761
0.326667433204846 -0.110350368720148 0.777084337256388
0.326667433204846 -0.106079159571921 0.783908320774326
0.326667433204846 -0.104857288154606 0.802763720633694
0.326667433204846 -0.102899263868037 0.806799705252389
0.326667433204847 -0.103108431851421 0.815873186895466
0.326667433204846 -0.106878035245948 0.829107642066672
0.326667433204847 -0.108055143025923 0.829341840097267
0.326667433204846 -0.107793576799138 0.845359591513051
0.326667433204847 -0.1084589703354 0.85404239579181
0.326667433204846 -0.110794856737709 0.861738459958562
0.326667433204846 -0.10441896570839 0.868787031472207
0.326667433204847 -0.110488165480392 0.880069627781134
0.326667433204846 -0.106209702656176 0.883498777538561
0.326667433204846 -0.110025700347244 0.898141882019142
0.326667433204846 -0.106649284614611 0.901874495547077
0.326667433204846 -0.10971256030668 0.913486607816442
0.326667433204846 -0.104712175506736 0.924504220462801
0.326667433204847 -0.104978064169085 0.92927810179798
0.326667433204847 -0.107065870851306 0.938629999113139
0.326667433204847 -0.110750422288401 0.950737660918156
0.326667433204846 -0.107223611151345 0.961004579015684
0.326667433204846 -0.106879522821708 0.972717260398853
0.326667433204846 -0.111247735272797 0.976903278339736
0.326667433204846 -0.104549476557014 0.986287363468039
0.32642480167931 -0.108383185454854 0.996038107880588
0.319389745525394 -0.109381777070754 0.996038484691897
0.305328193046116 -0.109247591104505 0.996038599781209
0.284274334679378 -0.11146116844339 0.996039495345969
0.272731683914114 -0.110205581316316 0.996039246709707
0.266097401712007 -0.104822048117435 0.996037707368234
0.260120962831724 -0.106578240746906 0.996038299423881
0.243156817988014 -0.11234071379997 0.996040212875594
0.22254434766502 -0.110552737942228 0.996039904924926
0.215457624599606 -0.110050183010449 0.996039832647413
0.198727901424902 -0.109847623161344 0.996039956720763
0.185896598099889 -0.110940151424955 0.996040425679086
0.173539414349795 -0.11432912994578 0.99604157728945
0.145025434574277 -0.110612515677782 0.996040778884381
0.131920619010428 -0.113166939674126 0.996041688765187
0.0988390971358766 -0.113195044625284 0.996042062508238
0.0834737327864441 -0.115070231575843 0.996042793891277
0.326667433204847 -0.102398597475978 0.318145347673175
0.326667433204846 -0.0951589038310883 0.32706879989216
0.326667433204846 -0.0969696157790575 0.334436170640408
0.326667433204846 -0.0973737494476972 0.34695688950695
0.326667433204846 -0.101379249810294 0.36144382955636
0.326667433204846 -0.102051994396318 0.364733451366286
0.326667433204846 -0.0957075631958339 0.369238437070324
0.326667433204846 -0.0968977215213515 0.383797323743939
0.326667433204846 -0.0982105084817714 0.394362102001191
0.326667433204846 -0.0983210199054308 0.398408795805954
0.326667433204846 -0.10069184310924 0.408540391691259
0.326667433204846 -0.0973673690259643 0.412812539367131
0.326667433204846 -0.100101440790262 0.426229108169428
0.326667433204846 -0.101286278186698 0.427277174547475
0.326667433204846 -0.101301945295301 0.450664340207116
0.326667433204846 -0.0958370180332955 0.453326463116592
0.326667433204846 -0.0952818883523522 0.458882202588812
0.326667433204847 -0.0961626119500186 0.466254242287879
0.326667433204846 -0.0968004279862184 0.473771845103813
0.326667433204846 -0.0969143076737562 0.490727783277307
0.326667433204846 -0.101739480296228 0.496418168226702
0.326667433204847 -0.0963841794646405 0.511106025173458
0.326667433204847 -0.0977247477233603 0.513968930132939
0.326667433204846 -0.0946132759772629 0.52049090201832
0.326667433204847 -0.101500840669184 0.530877942463285
0.326667433204847 -0.101758412891483 0.540884071657623
0.326667433204847 -0.0973252913226841 0.544968856637456
0.326667433204847 -0.100163436372702 0.554752077226987
0.326667433204846 -0.0944854264850459 0.564256444223036
0.326667433204847 -0.0936096952413081 0.578222731091333
0.326667433204846 -0.0989381975775424 0.579544864455078
0.326667433204846 -0.102255423973644 0.595717572927993
0.326667433204846 -0.0943653229199549 0.598119536012641
0.326667433204846 -0.0973718167508085 0.609940274715716
0.326667433204846 -0.0982992598616141 0.620434282956894
0.326667433204846 -0.0997749369113649 0.63171849423312
0.326667433204846 -0.0980171329457797 0.63503681814945
0.326667433204846 -0.095236203787477 0.649244557027473
0.326667433204847 -0.101711454095707 0.653986647707275
0.326667433204846 -0.0944673615412115 0.663310040895754
0.326667433204846 -0.0995949738116629 0.678803202409751
0.326667433204846 -0.0948836059264878 0.683528995777267
0.326667433204846 -0.0975120997153278 0.698978573706532
0.326667433204846 -0.0958987415405626 0.700669835501657
0.326667433204847 -0.0956687166245996 0.706892282413032
0.326667433204846 -0.0958524329674715 0.719816940167352
0.326667433204847 -0.100188278143156 0.732884545476089
0.326667433204846 -0.0994540397070263 0.731117297443604
0.326667433204846 -0.0991340997622051 0.748788128389624
0.326667433204846 -0.0994971051441144 0.750358798616355
0.326667433204846 -0.102367992666533 0.766156381926616
0.326667433204846 -0.101513599372202 0.774253917562364
0.326667433204847 -0.095391430269303 0.7817156383309
0.326667433204846 -0.0940459350749164 0.784026121835017
0.326667433204847 -0.102385023668765 0.794317334976688
0.326667433204847 -0.095276292514658 0.805823611215787
0.326667433204846 -0.100339811203774 0.82258010774163
0.326667433204846 -0.0938687146613395 0.820712455581773
0.326667433204847 -0.0970489725344622 0.830491422808429
0.326667433204847 -0.101272081430916 0.843914405120384
0.326667433204846 -0.10170913229931 0.856358851538201
0.326667433204846 -0.100511679901697 0.864146472196673
0.326667433204847 -0.0955363335895172 0.875710479546804
0.326667433204846 -0.0955513115484983 0.877784402082507
0.326667433204846 -0.0947095301782284 0.893045642391208
0.326667433204846 -0.0940390356412362 0.893055839392001
0.326667433204846 -0.100145161086573 0.905911806249686
0.326667433204846 -0.0969557885302782 0.913839644836636
0.326667433204846 -0.0951003675104896 0.917115674886958
0.326667433204846 -0.10202019926269 0.934278823339517
0.326667433204847 -0.0978141908957756 0.942223774930469
0.326667433204846 -0.0995555687412991 0.951404561237962
0.326667433204846 -0.0973744275480491 0.956914291433509
0.326667433204846 -0.0978576818382382 0.96666272533265
0.326667433204846 -0.0972700566380734 0.979281672954294
0.326667433204846 -0.0987016321175563 0.982920669015423
0.326667433204846 -0.0938721790553924 0.994859297589679
0.317125534382266 -0.100178124576534 0.99603575279737
0.300834721925652 -0.0985164476726689 0.996035434954052
0.292398698168069 -0.0998926095503047 0.996035940335358
0.278591090703259 -0.0987953008064218 0.996035764122699
0.258582449156087 -0.104124985874763 0.996037581556234
0.245672999415663 -0.102913994332108 0.996037361372083
0.238518887160164 -0.102969773476343 0.996037457084362
0.223281316834484 -0.0998290572819777 0.996036684572635
0.21143582572277 -0.098975580636494 0.996036559730453
0.202565636603889 -0.101387581793664 0.99603738018572
0.19579474962699 -0.102017462612657 0.996037643634675
0.175415711416157 -0.10115664414564 0.996037610830581
0.156914196154157 -0.108211877259446 0.996039928498189
0.151719720871432 -0.104338958080082 0.996038825752019
0.138562982422847 -0.102896895896376 0.996038539082899
0.127599020233294 -0.110114464736986 0.996040822138826
0.106358097476976 -0.102731658995888 0.996038845230728
0.102024856945644 -0.106561424453224 0.996040040266507
0.0832676542376853 -0.107690509291671 0.996040585615759
0.0733588208645051 -0.104896892488627 0.99603985822949
0.0590918694993175 -0.10512981892976 0.996040085553359
0.038096587831752 -0.113399291967254 0.996042794478259
0.0246916511281673 -0.109805378903855 0.996041865976086
0.0102041380429994 -0.107245572177656 0.996041259189287
-0.0033789505119397 -0.106898173303504 0.996041305128206
-0.0260761302823868 -0.109780746363232 0.996042419234051
-0.031122378250341 -0.114494276768774 0.996043886870138
-0.0580246613749773 -0.112973040225898 0.996043728279002
-0.0845934635725958 -0.111344314468151 0.996043533807439
-0.101624020236896 -0.1091385406951 0.996043061152298
-0.107308696657529 -0.111946551921644 0.99604396505188
-0.135136190357896 -0.110912469197236 0.996043962601974
-0.173042934699853 -0.111699670323601 0.996044617013385
-0.247471756613215 -0.116065048725367 0.996046746565179
-0.280473840427578 -0.116237491569825 0.996056780057025
0.326667433204847 -0.0886068062237782 0.316885300816307
0.326667433204847 -0.0849053878769806 0.330545855091233
0.326667433204846 -0.0925899934758632 0.33101853918312
0.326667433204847 -0.0861199285103932 0.340190068071168
0.326667433204847 -0.0924529758206708 0.355775075923436
0.326667433204846 -0.085917404073161 0.361298298528712
0.326667433204847 -0.0934435048289496 0.374948487747362
0.326667433204846 -0.0902267727603645 0.38328777564458
0.326667433204847 -0.0888579298295204 0.393132468788817
0.326667433204847 -0.093299747991926 0.403907309397143
0.326667433204847 -0.0896122872527576 0.40312191265599
0.326667433204847 -0.0857064834839669 0.414423352202234
0.326667433204846 -0.0873478481429752 0.431401544148826
0.326667433204847 -0.0875730725160757 0.430568536435746
0.326667433204847 -0.0876054566040016 0.445959236476678
0.326667433204846 -0.0859242629825029 0.45546554936036
0.326667433204847 -0.0857638262035762 0.459018388269469
0.326667433204846 -0.0906392914317333 0.473627535721831
0.326667433204846 -0.0913067328011448 0.478351948711321
0.326667433204846 -0.0863783789163784 0.489451770299454
0.326667433204846 -0.0871366524808785 0.493645470488794
0.326667433204846 -0.0934981995550656 0.508867531659353
0.326667433204847 -0.0896431724414208 0.518839224342118
0.326667433204847 -0.0921137695832362 0.518705515461319
0.326667433204847 -0.0889563919674058 0.530745168413488
0.326667433204847 -0.0880776380539283 0.542872718125962
0.326667433204847 -0.0908474789852912 0.55262676656369
0.326667433204846 -0.0885735771760732 0.56153336708686
0.326667433204846 -0.0897478720762477 0.570852862542604
0.326667433204846 -0.091006346892923 0.58086730043972
0.326667433204846 -0.0914143029093566 0.578373724539358
0.326667433204847 -0.0932498808643282 0.601281443393813
0.326667433204846 -0.091951676061058 0.609324540546285
0.326667433204846 -0.0935391694819854 0.611122887181797
0.326667433204846 -0.0933976129882845 0.614336310336197
0.326667433204846 -0.0862288295630801 0.632200876735696
0.326667433204847 -0.0849344799467462 0.640668433342077
0.326667433204846 -0.0904966262163335 0.648264220473963
0.326667433204847 -0.0874612270496138 0.660227682325214
0.326667433204847 -0.0853432950850636 0.669029527798591
0.326667433204846 -0.0930881702599209 0.670470228840027
0.326667433204846 -0.0897958902325713 0.678883850942995
0.326667433204846 -0.0935344749308896 0.689825446614954
0.326667433204846 -0.0909040850524854 0.706292032839542
0.326667433204846 -0.0919760479016368 0.704929251886914
0.326667433204846 -0.0928704995337036 0.720474804085744
0.326667433204846 -0.0871338635461339 0.728906508579818
0.326667433204846 -0.0889761061307566 0.734413303603264
0.326667433204847 -0.0857021269965215 0.746768658213383
0.326667433204847 -0.0916113088271044 0.755099249543964
0.326667433204846 -0.0861945257929425 0.764645787900553
0.326667433204847 -0.0909281703279044 0.769738368239989
0.326667433204846 -0.0925179885540891 0.783537756907351
0.326667433204846 -0.0847625462450021 0.793969513104254
0.326667433204846 -0.0903227824829574 0.798985418928081
0.326667433204847 -0.0897730967247269 0.805062528078576
0.326667433204846 -0.087691686829941 0.815835793249578
0.326667433204846 -0.0912094421584782 0.818732027512729
0.326667433204846 -0.0897046792872546 0.833055040981269
0.326667433204846 -0.0932496816888547 0.84262623078128
0.326667433204847 -0.086028409539767 0.84900410038478
0.326667433204846 -0.08479003635607 0.860039498881723
0.326667433204846 -0.0917098988953327 0.872546542140002
0.326667433204846 -0.088515869702892 0.876871025995909
0.326667433204846 -0.0868358396184138 0.885727672394604
0.326667433204846 -0.0900686228356548 0.894606247899502
0.326667433204846 -0.0921707196747203 0.904476453597949
0.326667433204846 -0.092622196799099 0.919607469992519
0.326667433204846 -0.0927735190123479 0.923461156377255
0.326667433204846 -0.0871389181296491 0.931864664277652
0.326667433204846 -0.0880980710397328 0.936052173134683
0.326667433204846 -0.086384962457566 0.953361561857627
0.326667433204846 -0.0889203345422879 0.959289468369911
0.326667433204847 -0.0867706798674701 0.973646324052804
0.326667433204847 -0.0860657631737641 0.975154958951432
0.326667433204846 -0.0856921413817975 0.988541177464755
0.319601906871841 -0.0913361714898166 0.996033076896715
0.322861835500816 -0.0861471624713223 0.99603148656048
0.303677134854311 -0.0869358472098029 0.996031934665862
0.292381541067972 -0.0922500454833298 0.996033651240882
0.279230448893142 -0.0893144496528042 0.996032917130419
0.269255381848309 -0.0917672402516595 0.996033762005255
0.259672484078097 -0.0893953495451002 0.996033157345136
0.245847080478354 -0.0952440120954292 0.996035061952786
0.221212080897775 -0.0964190358341207 0.996035685972182
0.21969913135607 -0.0928301766481173 0.996034627658807
0.203051612833321 -0.0884716605192649 0.996033505932736
0.187740925928887 -0.0908799268823939 0.996034396392685
0.177667712903643 -0.0903326900152229 0.996034343711239
0.163558225075152 -0.0922054324069445 0.996035060493186
0.146839615213404 -0.0961561747525668 0.996036428540419
0.131796400806399 -0.0928400354547593 0.996035601335456
0.127924975940005 -0.0929790159882097 0.996035685718982
0.120512842089236 -0.0992200658933715 0.996037637041163
0.0921990238130116 -0.100903835266346 0.99603845407801
0.0757703755390379 -0.0987013616398413 0.99603797576444
0.0703317287201565 -0.0938492074113531 0.996036582390744
0.055286720895514 -0.0993045873313158 0.996038382661235
0.0287396641703147 -0.103741056003254 0.996040004741922
0.0243699771625467 -0.0983233790464973 0.996038430164616
0.00412927225063934 -0.0949065039003195 0.996037630181533
-0.00122202785064206 -0.100098067923332 0.996039244378444
-0.0175578628047866 -0.0997375865885021 0.996039316797598
-0.0423668858963701 -0.0973047885087354 0.996038862037509
-0.0500088380154837 -0.105320237039962 0.996041347408008
-0.0695876511766895 -0.102787047318698 0.996040804818189
-0.0813609272612817 -0.103224423384939 0.996041065845666
-0.103826925833479 -0.104323712706639 0.996041643226659
-0.117590019209353 -0.10534498402071 0.996042101130295
-0.135890799417344 -0.108251572027764 0.99604317387955
-0.143619198206652 -0.105688644563988 0.996042491516002
-0.157833362992632 -0.101585792279478 0.996041419500589
-0.172101852417578 -0.101732695757139 0.996041621073783
-0.19747971801503 -0.105557020023006 0.996043046878749
-0.209535370250807 -0.10723728309977 0.996043683323854
-0.23048225061332 -0.11271564430205 0.996045555653543
-0.249964771419872 -0.111082877842431 0.996045281716706
-0.257219517102827 -0.106041397239357 0.996043851686899
-0.292730449932419 -0.111893055308737 0.996045996668506
-0.298033376318716 -0.11153192114013 0.996045947053984
-0.323864540559513 -0.115003128322003 0.996047272090705
0.326667433204846 -0.0814428544089257 0.3164623304529
0.326667433204847 -0.0796041025572455 0.326242041337312
0.326667433204847 -0.0795014660681972 0.338198954944552
0.326667433204846 -0.0760484992740335 0.342894840538469
0.326667433204847 -0.0837162529389234 0.358221070373592
0.326667433204846 -0.0828802663733098 0.357902484157251
0.326667433204846 -0.0843002597007695 0.366792462004745
0.326667433204846 -0.0828336159572836 0.38478305414258
0.326667433204846 -0.0823598789353379 0.390093789127267
0.326667433204847 -0.0798659509903658 0.390722178972823
0.326667433204846 -0.0778118689806611 0.406985808208163
0.326667433204846 -0.0791542402037588 0.421173818504051
0.326667433204846 -0.0835906985490008 0.428906335042085
0.326667433204846 -0.0784998900368169 0.440913172726896
0.326667433204846 -0.0765970767950678 0.443000547290486
0.326667433204847 -0.0784260799373231 0.447825792842799
0.326667433204846 -0.0804794104907218 0.464262891123667
0.326667433204846 -0.0787269938348137 0.47001658173988
0.326667433204847 -0.0836667840744633 0.482251372045175
0.326667433204846 -0.0758320794234659 0.494576414458256
0.326667433204846 -0.0798434544944198 0.497179933115036
0.326667433204846 -0.0793620418276977 0.50208533430785
0.326667433204847 -0.0785527417720957 0.518226063059538
0.326667433204846 -0.0758671067619013 0.520161455300443
0.326667433204847 -0.0808206615701654 0.532863348141168
0.326667433204846 -0.0828647730707339 0.534827125344574
0.326667433204847 -0.0829077896338795 0.548903890938481
0.326667433204846 -0.0783883658228581 0.558486843100532
0.326667433204847 -0.0764403415712269 0.562497994346492
0.326667433204847 -0.0808630848035307 0.569212735801922
0.326667433204847 -0.0806755793717498 0.582980464931915
0.326667433204847 -0.0839269710829062 0.59846501189306
0.326667433204846 -0.0765500160275959 0.603122008147299
0.326667433204846 -0.0844853935585533 0.611710967039802
0.326667433204847 -0.0837808061068694 0.62046808378753
0.326667433204846 -0.07751028504375 0.627048592085227
0.326667433204846 -0.0779194925695689 0.643469831016648
0.326667433204846 -0.0814245999187848 0.646120577794035
0.326667433204846 -0.0785721891914663 0.660948447646808
0.326667433204846 -0.0837302192837734 0.669800484807821
0.326667433204847 -0.0796736123784962 0.670841842817838
0.326667433204846 -0.076015060178361 0.684697621877599
0.326667433204846 -0.0765081740878543 0.69509697045909
0.326667433204847 -0.0789458762988598 0.700771540478354
0.326667433204847 -0.0833442940808398 0.709768239927616
0.326667433204847 -0.0815237413081237 0.714084069089458
0.326667433204846 -0.0814205237498317 0.726939461767184
0.326667433204847 -0.0827920670414506 0.739405089438767
0.326667433204847 -0.0838970215007097 0.749586075343836
0.326667433204846 -0.0785418638061748 0.753335457813416
0.326667433204847 -0.0777985269779164 0.759399400826119
0.326667433204846 -0.0835638861747413 0.774984177932034
0.326667433204846 -0.0778014765157763 0.7764133503712
0.326667433204846 -0.0758153165245056 0.792354891426794
0.326667433204846 -0.0823709612527571 0.799575873746848
0.326667433204847 -0.0757411839493255 0.811749961563153
0.326667433204846 -0.0793319446217103 0.815732916997297
0.326667433204847 -0.0832022973179785 0.829153457605155
0.326667433204847 -0.0774573224811069 0.829008779887225
0.326667433204846 -0.0845714927574817 0.840918199533368
0.326667433204846 -0.0844026621615079 0.856690970048466
0.326667433204846 -0.0772758437585836 0.866570403700898
0.326667433204846 -0.083824198823391 0.869570860984139
0.326667433204846 -0.0793154789407675 0.872178223008108
0.326667433204846 -0.0838362449438701 0.882644070140593
0.326667433204846 -0.0799625006420569 0.891678129078616
0.326667433204846 -0.083767519097553 0.907600587248376
0.326667433204847 -0.0819763352461094 0.910066483677044
0.326667433204846 -0.0785555216798469 0.921883470376401
0.326667433204846 -0.0828351023033675 0.929793439888507
0.326667433204847 -0.0796870930726982 0.946417580664954
0.326667433204846 -0.0831323049320319 0.948769511063399
0.326667433204846 -0.0764529572971438 0.955524195077685
0.326667433204846 -0.0824967132266554 0.967163107351252
0.326667433204847 -0.0845994157489893 0.970411354408511
0.326667433204846 -0.0783290999029766 0.98864574936436
0.326667433204847 -0.0776587015186555 0.991481823041853
0.316512376354748 -0.0831425035712336 0.996030656651103
0.303256919843587 -0.0849666188832418 0.9960313494359
0.295250632857849 -0.0810861815120584 0.996030275488974
0.281956282134545 -0.085047224316101 0.996031608807021
0.264528388306343 -0.0839837330599496 0.996031482703571
0.254961165984713 -0.0846833073514089 0.99603179790915
0.235614433537745 -0.0861798938517219 0.996032459851575
0.231943693541928 -0.0832110446296189 0.996031611087259
0.215632720798724 -0.0868438166400553 0.996032879386796
0.203517636917237 -0.0875527654566754 0.996033225536888
0.188135258435276 -0.0799031089432706 0.996031103998437
0.183318500457761 -0.0848536265035643 0.996032640088304
0.157936386425223 -0.083032564216583 0.996032374898712
0.148731366252621 -0.0873800231879457 0.996033778806279
0.129712269514787 -0.08972802083685 0.996034692165643
0.131077887640756 -0.0867954095108118 0.996033798638885
0.106503657809676 -0.0820708677676402 0.996032654807953
0.102875779090355 -0.0833342127656021 0.996033073298551
0.0795404815387227 -0.0867595101635501 0.99603435702103
0.0706687747363036 -0.0926100486395786 0.99603620748616
0.0450655280012707 -0.0903214628261757 0.99603580469472
0.0440446192054112 -0.0850880808750168 0.996034248340793
0.0276285520179035 -0.0879442488236145 0.996035285173845
0.0134869477233044 -0.0926796275341112 0.996036859795893
-0.00143305745558939 -0.0928027055835636 0.996037061427113
-0.0268587290263916 -0.087241766452278 0.996035676460995
-0.0348686122920271 -0.0920483201885809 0.996037204689544
-0.0429003150274847 -0.0940051260546355 0.996037879534273
-0.0636413473472543 -0.0885218579360251 0.996036466100839
-0.0862693067569278 -0.0920683157591392 0.996037778304948
-0.10115997314127 -0.0884783030741038 0.996036867378254
-0.115041688915576 -0.0957538373356201 0.996039200018579
-0.129151217066373 -0.0988598925511818 0.996040286232384
-0.153880651787626 -0.0909227939318374 0.996038181813379
-0.168339067045329 -0.0901099155639396 0.996038097987094
-0.17888680360694 -0.0957081105328111 0.996039891372905
-0.205407225974975 -0.0932606628964019 0.996039451123878
-0.207242994269408 -0.0920056622530461 0.996039095468684
-0.236681564346465 -0.101287361847219 0.996042200840485
-0.255644602180086 -0.0929943149971263 0.996039926120119
-0.263000809584652 -0.093773978604384 0.996040240899387
-0.285930158456771 -0.0937172162196452 0.996040477108918
-0.302135931377327 -0.0940460380638764 0.996040754568384
-0.325314245053535 -0.100769464376745 0.996043024491878
0.326667433204847 -0.0667679234614103 0.31737302393931
0.326667433204846 -0.073135024695783 0.33161481948275
0.326667433204847 -0.0710944163801605 0.334211552657924
0.326667433204846 -0.0701374055015943 0.34824767823331
0.326667433204847 -0.0748057178922007 0.357310140485482
0.326667433204847 -0.068785178356798 0.355767785045001
0.326667433204846 -0.0714539189508379 0.374492478539551
0.326667433204847 -0.0684512037872045 0.38540851228357
0.326667433204846 -0.0667967326348573 0.389638906347918
0.326667433204847 -0.0688334590549924 0.398987029196352
0.326667433204847 -0.0755389816962652 0.402102663130532
0.326667433204847 -0.0730756210033159 0.410543046503265
0.326667433204847 -0.0712394675816044 0.424547250808867
0.326667433204846 -0.0728422731352839 0.428664214076721
0.326667433204847 -0.0680026048950325 0.439257074399799
0.326667433204847 -0.0680393012214021 0.447044307038935
0.326667433204847 -0.0730453582347255 0.460194119334608
0.326667433204846 -0.0698301973950456 0.470027421574278
0.326667433204846 -0.0724877351006827 0.480108397741479
0.326667433204846 -0.0699389742769019 0.491087960958975
0.326667433204846 -0.0711739993438803 0.497774221048771
0.326667433204846 -0.0756723487037237 0.502636294896728
0.326667433204846 -0.0745700669171702 0.52017401629454
0.326667433204847 -0.0723830311285157 0.520819292099087
0.326667433204847 -0.067375729872885 0.528296240754511
0.326667433204847 -0.0673102105934765 0.541894070869311
0.326667433204846 -0.0753523920926697 0.543876219838776
0.326667433204847 -0.0718766213185684 0.561138326937374
0.326667433204847 -0.0688155356585754 0.564421466842577
0.326667433204847 -0.0698670735210724 0.574422371303759
0.326667433204846 -0.0669946508109332 0.582662868005683
0.326667433204846 -0.0696454575777554 0.597439553470092
0.326667433204846 -0.0715096597431902 0.606094878973472
0.326667433204846 -0.0755104071766526 0.619031110530381
0.326667433204846 -0.0726427656657764 0.614969819935027
0.326667433204846 -0.0693432123657081 0.632241789586128
0.326667433204846 -0.0685604749997248 0.640233894330166
0.326667433204846 -0.0721052657218806 0.654283704320637
0.326667433204847 -0.0742334930665808 0.657509968303455
0.326667433204846 -0.0707510725406187 0.666690489293162
0.326667433204846 -0.0668581432274394 0.680658284273179
0.326667433204846 -0.0729243045500534 0.682744090594832
0.326667433204847 -0.0673852709760683 0.691658807917219
0.326667433204846 -0.0716709385841204 0.695515790663585
0.326667433204847 -0.067843719826236 0.710918388121405
0.326667433204847 -0.0758366528672552 0.718026180708826
0.326667433204847 -0.0751231791356367 0.726268380260108
0.326667433204846 -0.0719810153441759 0.736363910904818
0.326667433204846 -0.0746702022325843 0.744836632231697
0.326667433204846 -0.071820857626661 0.755711482537745
0.326667433204846 -0.0739226087675955 0.760456236572717
0.326667433204846 -0.0674992111360577 0.774554326269454
0.326667433204846 -0.0738540907646913 0.783999651392874
0.326667433204846 -0.0748989724469886 0.79037127091684
0.326667433204846 -0.0680175708806911 0.792534599635496
0.326667433204847 -0.0702164969104324 0.812843642134646
0.326667433204847 -0.0692145519255795 0.815462742290607
0.326667433204847 -0.0744330685833091 0.822059014432358
0.326667433204846 -0.0670426100741666 0.837536524623264
0.326667433204846 -0.0745634856296784 0.846244260451503
0.326667433204846 -0.0693429953375349 0.851867399080007
0.326667433204846 -0.0672683310400581 0.860138784168533
0.326667433204846 -0.0691850155555024 0.876198100471173
0.326667433204847 -0.068447220248787 0.872783130296916
0.326667433204847 -0.0691480245007874 0.884010191426386
0.326667433204846 -0.0745440277511142 0.900246655273406
0.326667433204846 -0.0696687068963532 0.905541025805584
0.326667433204847 -0.072592310156007 0.919546422052396
0.326667433204846 -0.0670221426855144 0.917926265742902
0.326667433204846 -0.0716676672236361 0.932161047482449
0.326667433204847 -0.0678169393106943 0.937447866903899
0.326667433204846 -0.0736748925685403 0.954973459241998
0.326667433204846 -0.0696378812950691 0.958633732068802
0.326667433204846 -0.0741119908459883 0.97067315661398
0.326667433204846 -0.0691554603942441 0.978269443210527
0.326667433204846 -0.0679848919688957 0.98550823473412
0.326667433204846 -0.0751492028697001 0.992645408473238
0.3164511332111 -0.0707048549577958 0.996026931704836
0.303692553643567 -0.0682485976226472 0.996026336842749
0.286652787637965 -0.0759575760951752 0.996028834193511
0.277211459163167 -0.0762131472625569 0.996029015010368
0.26724194271401 -0.0713123362858274 0.996027657096933
0.258627852639087 -0.0748355117670125 0.996028807569622
0.238449649256864 -0.0714073016834708 0.996028003501012
0.232214065315509 -0.075215326200272 0.996029213032298
0.221869051862086 -0.0782103438305886 0.996030224413345
0.202573808080403 -0.072915696167222 0.996028851513962
0.183607870290328 -0.0747805958160855 0.996029619577194
0.180293243735062 -0.0724212760663911 0.996028949461136
0.165811607336972 -0.0748144685618084 0.996029826250465
0.149504048519536 -0.0764186209156679 0.996030486851527
0.142687692081912 -0.0755794219058857 0.99603031074861
0.129717246490659 -0.0782328930424349 0.99603124881452
0.110560399609444 -0.0745297569223327 0.996030351114478
0.0973067007654331 -0.0770337439288712 0.996031247531329
0.0725389660110413 -0.0757579782559515 0.996031138897362
0.0670489361196508 -0.080141809456784 0.996032512674795
0.0540677890416191 -0.0792260660349428 0.996032381722202
0.0442273706474074 -0.0811882822073487 0.996033078161483
0.01764856944805 -0.0783636986574163 0.996032525588355
0.00335076802429053 -0.0828172294692403 0.996034017509476
-0.00886805823649937 -0.0793586271801108 0.996033116440427
-0.029649943969636 -0.0834434175443389 0.996034569512322
-0.0408621859478723 -0.0839409580401709 0.996034842366103
-0.0548921232562117 -0.0840613308692792 0.996035033357834
-0.0620569693882038 -0.0800868530306649 0.996033921949491
-0.0899740962128687 -0.0796829370097455 0.996034109252051
-0.0970926234302369 -0.0816081447287465 0.996034764547406
-0.125110119639966 -0.0881750853420474 0.996037041036399
-0.122804896825958 -0.0793106598986085 0.996034360294318
-0.15911397956193 -0.0825393520716264 0.996035728396413
-0.15816751029981 -0.0844119004019262 0.996036278854957
-0.192172637709729 -0.0867831076378937 0.996037364659678
-0.201539707705123 -0.0828379276422835 0.996036286346827
-0.218559064237938 -0.0890033249255665 0.996038321101773
-0.2310744880069 -0.0821569241259926 0.996036408513498
-0.247035665017361 -0.0892019588269437 0.996038695072884
-0.262248721206708 -0.0840770269661252 0.996037327930614
-0.278365997100573 -0.0852680165823966 0.996037862669947
-0.303459072968295 -0.087219066031144 0.996038724201769
-0.323970570811333 -0.0842084761141042 0.996038048909382
0.326667433204847 -0.0639053969823035 0.324065081473648
0.326667433204846 -0.0660052255469708 0.328222827011365
0.326667433204847 -0.0596253573504385 0.327788691424215
0.326667433204847 -0.0644366709486178 0.344274062944183
0.326667433204847 -0.0592161776896776 0.356828032405196
0.326667433204846 -0.062843630491593 0.358916390036897
0.326667433204846 -0.0649592260412534 0.366638900838822
0.326667433204847 -0.059684001130706 0.375609595776524
0.326667433204846 -0.0587903907622573 0.391111404112908
0.326667433204846 -0.0582656320779683 0.401594137984213
0.326667433204846 -0.0596823601473972 0.405746317943252
0.326667433204847 -0.0606275467172227 0.414508470746879
0.326667433204846 -0.0664270199912232 0.422863438599304
0.326667433204846 -0.0636762781468773 0.431815860350542
0.326667433204847 -0.0650588070004755 0.446238724068365
0.326667433204846 -0.0594698651848838 0.450766496371008
0.326667433204846 -0.0624539589567601 0.459478238390248
0.326667433204846 -0.0644511084475912 0.470050410557634
0.326667433204846 -0.0608563048898705 0.481443362822362
0.326667433204846 -0.0620567437544103 0.48720717070688
0.326667433204846 -0.0586200450729113 0.50127218358696
0.326667433204846 -0.0649853947906666 0.502273455814781
0.326667433204847 -0.0619911627553106 0.511283846935977
0.326667433204846 -0.0621403445690362 0.518185791938629
0.326667433204846 -0.0587742689978148 0.533975747409045
0.326667433204847 -0.0635483893925836 0.539818078233918
0.326667433204847 -0.0604968905660245 0.550158524985101
0.326667433204847 -0.0646834439660151 0.55891630064815
0.326667433204846 -0.0586397026973986 0.562508636845887
0.326667433204846 -0.0666799193520238 0.576177495878438
0.326667433204847 -0.0641396695307193 0.591832833318481
0.326667433204847 -0.0614402918526478 0.592668229611371
0.326667433204846 -0.0642143739267277 0.606445355603459
0.326667433204846 -0.0582401069559946 0.611473218534395
0.326667433204847 -0.0589232463161739 0.619836157949668
0.326667433204846 -0.0592565348571262 0.631882532793513
0.326667433204846 -0.0632301674081835 0.640038798494566
0.326667433204846 -0.0661765701796035 0.646359505269875
0.326667433204847 -0.0621794597209444 0.654212714337091
0.326667433204846 -0.0621825480700878 0.661858462720681
0.326667433204847 -0.0667322911934776 0.671940376386275
0.326667433204846 -0.0609318279948111 0.682899593743196
0.326667433204847 -0.0592444355221346 0.695528319752449
0.326667433204846 -0.0579153779179478 0.69807138346075
0.326667433204846 -0.0611237666159932 0.715565794846149
0.326667433204846 -0.0588934085759744 0.71438214711156
0.326667433204846 -0.0601918476550562 0.72658957281942
0.326667433204847 -0.0590958739184183 0.7364476109139
0.326667433204846 -0.0606010595332135 0.752639736495949
0.326667433204847 -0.066797074681294 0.754475278873665
0.326667433204846 -0.0663279026043052 0.761056153723369
0.326667433204846 -0.0655017930271027 0.771745401957055
0.326667433204846 -0.0623282431840578 0.783482383566437
0.326667433204847 -0.0614617006164651 0.788458368511159
0.326667433204846 -0.0626073841732061 0.804267989364553
0.326667433204847 -0.058145940189592 0.80659639532795
0.326667433204846 -0.0666128825735924 0.818042516764128
0.326667433204846 -0.0652362495654377 0.824808408086411
0.326667433204846 -0.05992142190828 0.829108346662522
0.326667433204846 -0.0615330759711318 0.841790208320655
0.326667433204847 -0.0662042479858229 0.848374165973871
0.326667433204846 -0.0642026374399804 0.854922530577156
0.326667433204846 -0.0601921184805304 0.8701166619506
0.326667433204846 -0.0634139711165905 0.883038897707811
0.326667433204846 -0.062072118450067 0.885686307211769
0.326667433204846 -0.0650093436676374 0.899575064777597
0.326667433204846 -0.0651029452286856 0.910234938783424
0.326667433204846 -0.0608049562020602 0.91427003506018
0.326667433204847 -0.0652444916851843 0.926929730081407
0.326667433204847 -0.0665554948247595 0.933444127667869
0.326667433204846 -0.0636563435291019 0.939835357340117
0.326667433204846 -0.063777250905406 0.947582548139792
0.326667433204846 -0.0580063556297629 0.965919165753064
0.326667433204846 -0.0654460817200634 0.972972801211769
0.326667433204846 -0.0597317589640478 0.973938765065143
0.326667433204847 -0.0589048454450337 0.988023360375567
0.326667433204846 -0.0620009215498216 0.990057756411317
0.318557827587862 -0.0628621770340716 0.996024559213439
0.304811161654076 -0.058413679998839 0.996023378499564
0.295182784128591 -0.0616176422615289 0.996024444554793
0.278360635833649 -0.0669921255422794 0.996026240218422
0.267286104088593 -0.0636960773994102 0.996025375204865
0.24853360954798 -0.0599310458598532 0.996024454499097
0.241263319021419 -0.0684903691250229 0.996027098679676
0.2221755154078 -0.0632158231630511 0.996025729510842
0.215008636561266 -0.0621187914774993 0.996025480046577
0.202090153587353 -0.0609944235069993 0.99602528590975
0.199113541018288 -0.0666872952190883 0.996027024046312
0.179508069995914 -0.065237146345371 0.996026806169228
0.170151731529291 -0.062159116970608 0.996025987487602
0.151098406674809 -0.0710433127749828 0.996028859103667
0.147062484030432 -0.0665551995085252 0.996027559285743
0.125987715682656 -0.0687359656689882 0.996028445253025
0.109202522923756 -0.0718229636105302 0.99602955530612
0.0941088801192591 -0.0683740289870572 0.996028688880008
0.0914499770686235 -0.0656578592985982 0.996027904630448
0.0734444609346623 -0.0659227283253519 0.996028182808077
0.0578552833539522 -0.067735897256468 0.996028898085597
0.0352174189072651 -0.0700712297348245 0.9960298476138
0.0333097298303563 -0.0679455577698159 0.996029231948497
0.00340468697466349 -0.0741596955515027 0.996031423602001
-0.00557002452226971 -0.07518118422044 0.9960318286919
-0.0219140239299721 -0.0658623760138886 0.996029217788462
-0.0374233787265689 -0.0738140312599172 0.996031770931018
-0.0566258776354996 -0.0701706287263231 0.996030891627953
-0.0669113132775661 -0.070590871407202 0.996031131092774
-0.0866065566425582 -0.0725620168363853 0.996031939035123
-0.0961570697670895 -0.0714314755492756 0.996031705856103
-0.120209879643934 -0.0718429356954613 0.996032094725421
-0.131614352750435 -0.0728009195945408 0.996032507625084
-0.155864985601828 -0.0773940907176257 0.99603415128528
-0.159677085573682 -0.0721860972143611 0.996032633359866
-0.184489027122397 -0.0707977898284714 0.99603249150289
-0.194481453831416 -0.0728676594806417 0.996033221867773
-0.217169070267545 -0.0714553158719082 0.99603304935164
-0.224957800970586 -0.0760378978966115 0.996034508048593
-0.24720593678389 -0.0790259012567158 0.996035648776586
-0.264517257255762 -0.0759177853472831 0.996034908930822
-0.282068420241347 -0.0792755139910834 0.996036108538392
-0.305279779539142 -0.0815504015707889 0.996037046293884
-0.318674136956268 -0.0727956684692848 0.996034571782384
0.326667433204846 -0.0502530312739403 0.317637797830184
0.326667433204846 -0.0568723316249468 0.331842648376497
0.326667433204847 -0.0548901434641232 0.332107580125376
0.326667433204846 -0.0493852267494017 0.350709665578702
0.326667433204846 -0.0508845730485527 0.35818993777057
0.326667433204846 -0.0545077123481354 0.356224547561351
0.326667433204847 -0.0562948367778557 0.377207786305814
0.326667433204847 -0.0505005472339722 0.378397534331529
0.326667433204846 -0.0530321182316106 0.386012968724423
0.326667433204846 -0.0516706731103573 0.397317556762946
0.326667433204846 -0.0495219824878833 0.401495628485401
0.326667433204846 -0.0510326389488647 0.415358414121702
0.326667433204846 -0.0550695511148002 0.424222542187315
0.326667433204846 -0.0555794129894931 0.436216104781744
0.326667433204846 -0.0530740399700069 0.445149225264168
0.326667433204846 -0.0575831848535374 0.445120649461563
0.326667433204846 -0.0544124545606084 0.459531244555535
0.326667433204847 -0.0541853695094145 0.472101560298225
0.326667433204847 -0.0519740207466132 0.47879828061965
0.326667433204846 -0.0526620600496905 0.485339226361717
0.326667433204847 -0.0511330085438191 0.49574407281081
0.326667433204847 -0.0539577631542838 0.501713970017782
0.326667433204846 -0.0508618286161534 0.513240226401893
0.326667433204846 -0.0566363068709714 0.523457462840251
0.326667433204846 -0.0511655042242143 0.529051880713773
0.326667433204846 -0.0514515817978815 0.541408610358595
0.326667433204846 -0.0566803474999974 0.549786827834169
0.326667433204846 -0.0575821436351833 0.561456126643772
0.326667433204847 -0.0560462776763691 0.563234553747676
0.326667433204846 -0.0549878529244078 0.572517265892323
0.326667433204846 -0.0568855777493506 0.584362575529808
0.326667433204847 -0.0561959160310606 0.587417682338362
0.326667433204846 -0.0555396690929419 0.603018371987296
0.326667433204846 -0.0494163240864522 0.610532943395983
0.326667433204847 -0.0556922195824013 0.624311976047394
0.326667433204846 -0.0522082107703291 0.62851428927973
0.326667433204846 -0.0501710830652565 0.64381907239159
0.326667433204846 -0.0504885965519294 0.648866573465241
0.326667433204846 -0.0574911606928598 0.662130492767898
0.326667433204846 -0.0511491953981623 0.66832185430816
0.326667433204846 -0.0490462852895906 0.675277994280047
0.326667433204846 -0.0518999618752397 0.684368775453618
0.326667433204846 -0.0489598512794986 0.694588011857609
0.326667433204846 -0.051590513165776 0.705091937512437
0.326667433204847 -0.054215424804135 0.713553040260006
0.326667433204846 -0.0577115006433905 0.719063486888811
0.326667433204846 -0.0503416268292903 0.722867515003183
0.326667433204846 -0.0563353854029019 0.733343047167604
0.326667433204846 -0.0558710982120695 0.74135033712769
0.326667433204846 -0.0538963343617116 0.752365079938328
0.326667433204847 -0.0517384883087984 0.767913797834897
0.326667433204846 -0.0503049631337117 0.770957523761529
0.326667433204847 -0.0570606824411805 0.777830317186818
0.326667433204847 -0.0508086315122088 0.782683821948971
0.326667433204846 -0.05093613097291 0.795829526243048
0.326667433204847 -0.0574178976372301 0.806020884754455
0.326667433204846 -0.0557643294007239 0.81547390095754
0.326667433204846 -0.0538988745927064 0.826458404653458
0.326667433204847 -0.0549060192869782 0.834612937206285
0.326667433204846 -0.0564658043815091 0.844205141828956
0.326667433204846 -0.0495869546434826 0.850401103843932
0.326667433204847 -0.054256356451489 0.86277683371294
0.326667433204846 -0.0575762713561159 0.876329337667984
0.326667433204846 -0.0525558886787555 0.872778106110788
0.326667433204846 -0.0498452867692331 0.890065203650909
0.326667433204847 -0.0539035769469385 0.900052265363317
0.326667433204847 -0.0558146469744705 0.909987128348033
0.326667433204847 -0.0498683041221325 0.916781190207325
0.326667433204846 -0.0557198047124666 0.923100086010069
0.326667433204846 -0.0543380812593155 0.931819971944412
0.326667433204846 -0.0559644787197025 0.94459764095704
0.326667433204846 -0.053752418989881 0.945924396455534
0.326667433204846 -0.0497703504911431 0.960260132050342
0.326667433204847 -0.0552864040006349 0.968824433216969
0.326667433204846 -0.0560509830503526 0.977578935516414
0.326667433204846 -0.0522218864869071 0.9850336649429
0.326667433204847 -0.0505292133899882 0.990440491975632
0.314452801578808 -0.0538098812636662 0.996021892985309
0.294883313678148 -0.0507106113419943 0.996021180726601
0.288961561235201 -0.0574477415305917 0.996023264188123
0.283696889456195 -0.0526004309184693 0.99602187034407
0.274420420555816 -0.0547639812063674 0.996022620863989
0.257947754469194 -0.0562069423674775 0.996023235004506
0.233592308217896 -0.0545697833636849 0.996023013564381
0.238363292431677 -0.0539599529293088 0.996022778206636
0.213510152341378 -0.0534535431184847 0.996022900971718
0.1984645222881 -0.0532907878378314 0.996023018370584
0.195337168249806 -0.0587173953159545 0.996024678413962
0.174859434451118 -0.0544483866586667 0.996023625796975
0.163147027486149 -0.0547982495288186 0.996023859938216
0.147878436165551 -0.0573283275698539 0.996024786421249
0.141538846195847 -0.0568811496254678 0.996024722480871
0.119377669180047 -0.0598237178140606 0.996025848638733
0.117013156466588 -0.0561725309713721 0.996024781059429
0.0957939621068635 -0.0591482717526374 0.996025906751481
0.0786307416901913 -0.0583254497249657 0.996025849816216
0.0671195612082438 -0.0568199080063057 0.996025525960033
0.0507662037517423 -0.0603336100802345 0.996026759060951
0.0479198053855502 -0.0578187982740019 0.996026037197469
0.0179266133908258 -0.0638717278198671 0.996028181535464
0.0130150675376688 -0.0646660687853132 0.99602847371447
-0.0128538748140146 -0.0624351085490018 0.996028091118541
-0.0174777168572056 -0.0578611424772571 0.996026772076413
-0.0299287124608874 -0.0640443990032246 0.99602876173187
-0.0533623550931988 -0.0573002516660448 0.996027000344588
-0.0716671472094541 -0.0583866017660191 0.996027527896866
-0.0835689276611278 -0.0587581007725131 0.996027770610361
-0.102182517665369 -0.0608651082655395 0.996028607304505
-0.107156912512947 -0.0638022310873766 0.996029542034936
-0.123856658820642 -0.0618082339433962 0.996029129163017
-0.139233050813143 -0.0599514706524718 0.996028742784662
-0.157690859766284 -0.0661586543817004 0.99603080594154
-0.179262820778685 -0.0598767533131071 0.996029162458499
-0.205199283769087 -0.0639774447736997 0.996030677216268
-0.212302797752967 -0.0673281847514679 0.996031759355415
-0.221429678779393 -0.0662570574961071 0.996031539295274
-0.24374349760561 -0.0667447158964472 0.996031931785371
-0.26714322257788 -0.0650383993708523 0.996031679075349
-0.286285040985131 -0.0710132014810605 0.996033680177339
-0.300815808838107 -0.0658995440209043 0.996032308877632
-0.323228411463056 -0.0685711089946327 0.996033356634648
0.326667433204847 -0.0443496719478206 0.316350448423876
0.326667433204846 -0.0431759639819332 0.323927316788514
0.326667433204847 -0.0402889155359381 0.339281126336854
0.326667433204847 -0.0487128698431194 0.345397202539205
0.326667433204847 -0.0412492228167619 0.355048897862773
0.326667433204847 -0.0409251423994944 0.360822445805585
0.326667433204847 -0.0428935612384352 0.375043247749162
0.326667433204846 -0.0407863223718053 0.384689414084642
0.326667433204846 -0.0402685362761293 0.391144578484274
0.326667433204847 -0.041663394804653 0.400075149481659
0.326667433204846 -0.0430077915079355 0.40826962028962
0.326667433204847 -0.044294004394268 0.413846067513253
0.326667433204846 -0.0443165660821761 0.423084253436097
0.326667433204846 -0.0437553445231606 0.432461857468573
0.326667433204846 -0.0466853621991378 0.436247928334932
0.326667433204847 -0.0406602081070422 0.458380123117717
0.326667433204847 -0.0428111275267168 0.456378797811067
0.326667433204846 -0.046801296430026 0.466677999607394
0.326667433204847 -0.047835286361017 0.484688386879992
0.326667433204847 -0.0462635216620662 0.493615669087258
0.326667433204846 -0.0462819829780465 0.494972604737466
0.326667433204846 -0.0489110714391407 0.508392337941625
0.326667433204846 -0.047702043056478 0.512213510066616
0.326667433204846 -0.0485525619388325 0.522615150244938
0.326667433204846 -0.0483252647481801 0.529070913652263
0.326667433204846 -0.0481483813354799 0.546243712347015
0.326667433204846 -0.0457086348075814 0.548457595823676
0.326667433204847 -0.0479160849919023 0.560191270934344
0.326667433204847 -0.0426500673810198 0.562930465424457
0.326667433204846 -0.0490426422624014 0.57913675624794
0.326667433204846 -0.0447368391507184 0.579636014191374
0.326667433204846 -0.0433850037792724 0.600042886373715
0.326667433204846 -0.0470742360689906 0.595195478889926
0.326667433204846 -0.0410795779096071 0.606922260950013
0.326667433204846 -0.0479963350322378 0.623374349908719
0.326667433204847 -0.0436307168328264 0.631985098996268
0.326667433204847 -0.0416999472441355 0.637469215030202
0.326667433204846 -0.0451173525543284 0.648638042329588
0.326667433204847 -0.0409940021885594 0.655213839992448
0.326667433204846 -0.0471085978750224 0.669439239631009
0.326667433204846 -0.0467091874064545 0.672607656436792
0.326667433204847 -0.0462575657821932 0.683583085384238
0.326667433204846 -0.0423076390370111 0.697284435846287
0.326667433204846 -0.0426079396843439 0.699713651568544
0.326667433204846 -0.0471968385874513 0.706758914832851
0.326667433204846 -0.0433181257580146 0.725628261940227
0.326667433204847 -0.0445483222539749 0.726952938380267
0.326667433204846 -0.0436392192014559 0.736340611455457
0.326667433204846 -0.0439581515747198 0.748375091767848
0.326667433204847 -0.0408919869997971 0.758827273837139
