ply
format ascii 1.0
element vertex 827
property float x
property float y
property float z
end_header
-0.0740612488154297 -0.104328358208949 0.983965417488943
-0.0818724028493352 -0.104328358208949 0.991718179617532
-0.0731263444773376 -0.103395571074259 1.0
-0.0757375930968762 -0.0863057762794137 0.999999999999995
-0.0730909946428867 -0.0819909683462025 0.999999999999994
-0.0739448557434443 -0.0682324849641252 0.999999999999991
-0.0819902313752518 -0.0445724589755755 0.999999999999984
-0.0819077417380472 -0.0277898272348455 0.99999999999998
-0.0836910109480836 -0.0180841796177773 0.999999999999978
-0.080219868412663 -0.00110532777584325 0.999999999999973
-0.077674856552815 0.00998764315782934 0.99999999999997
-0.0788379949287044 0.0366961982109505 0.999999999999964
-0.082476173247767 0.047761064209065 0.999999999999961
-0.0773854069188316 0.0521205075062046 0.99999999999996
-0.0773990824408124 0.0835812718918637 0.999999999999952
-0.0840900762232561 0.0903460384850033 0.99999999999995
-0.0653715751916609 -0.104328358208949 0.0938184721309254
-0.0630999994628678 -0.104328358208949 0.106699438684461
-0.065985744514603 -0.104328358208949 0.112861942615495
-0.0720877358587363 -0.104328358208949 0.127031378435498
-0.0699237368881129 -0.104328358208949 0.138882018757814
-0.0689697406201031 -0.104328358208949 0.147836238406044
-0.0712789187170161 -0.104328358208949 0.152452206554662
-0.0640461892824593 -0.104328358208949 0.158258167841243
-0.0657907603668206 -0.104328358208949 0.168362438175765
-0.071446711124162 -0.104328358208949 0.179500419475296
-0.0646699468665464 -0.104328358208949 0.185117789927251
-0.0721743846327774 -0.10432835820895 0.198244929672412
-0.0681177127970347 -0.104328358208949 0.21152718393247
-0.0710120719670799 -0.104328358208949 0.218619398812488
-0.0658228118307391 -0.104328358208949 0.224042470729765
-0.0670777270313065 -0.104328358208949 0.240200016367048
-0.0707353901967481 -0.10432835820895 0.255121503996938
-0.0704164234592624 -0.10432835820895 0.265677231695886
-0.0671166739835998 -0.104328358208949 0.263086407789694
-0.0666139009898419 -0.104328358208949 0.277126496470796
-0.063716569405187 -0.104328358208949 0.2891112322357
-0.0641361149605102 -0.10432835820895 0.294264724585728
-0.066879224153275 -0.10432835820895 0.310292931196492
-0.063993160268212 -0.104328358208949 0.308498759646849
-0.0724210960394248 -0.104328358208949 0.321167432616009
-0.0678295605012991 -0.10432835820895 0.329951881929082
-0.0632284944880555 -0.104328358208949 0.342038889177845
-0.0703882963798188 -0.104328358208949 0.357963002525213
-0.0642722285413136 -0.104328358208949 0.363944589434644
-0.0663095443430979 -0.104328358208949 0.368341083853185
-0.0643487342088466 -0.104328358208949 0.379346296085725
-0.070011539741583 -0.104328358208949 0.393552714246983
-0.0637984291699392 -0.104328358208949 0.406929012075651
-0.0644125973141521 -0.10432835820895 0.414037842291098
-0.0711506729137595 -0.104328358208949 0.424778083404902
-0.0715785452372834 -0.10432835820895 0.429103837648502
-0.0699414576532122 -0.104328358208949 0.442559211075844
-0.0661506364831451 -0.10432835820895 0.448005062327354
-0.0701620171756236 -0.104328358208949 0.462855794816173
-0.0669651268815494 -0.104328358208949 0.473964070010281
-0.0710860162991841 -0.104328358208949 0.47772890374045
-0.0699553708835662 -0.10432835820895 0.493887368562017
-0.0636109450154507 -0.104328358208949 0.497003166989887
-0.0660288432612433 -0.10432835820895 0.506147354339012
-0.0702424121806699 -0.104328358208949 0.520036375500991
-0.0673252554739636 -0.104328358208949 0.53029212931344
-0.0682081098420937 -0.104328358208949 0.534803411459924
-0.064251557191695 -0.104328358208949 0.547150096097412
-0.0711116400312025 -0.104328358208949 0.559988924536867
-0.0647100228472721 -0.104328358208949 0.563707850735473
-0.0713615440556003 -0.104328358208949 0.580119521263555
-0.0665616600120943 -0.104328358208949 0.590237820050521
-0.0646044718096647 -0.104328358208949 0.597506517060139
-0.0699941915414235 -0.104328358208949 0.601517629782413
-0.0659394493377234 -0.104328358208949 0.612101864270452
-0.072035046270597 -0.104328358208949 0.623111759401968
-0.0692710828407096 -0.104328358208949 0.632311230010463
-0.0656534132847289 -0.104328358208949 0.64315459583865
-0.0685884473815246 -0.104328358208949 0.65287956483682
-0.0718950277917833 -0.104570895522382 0.667244780494827
-0.0628489886514996 -0.104328358208949 0.666560477313355
-0.070658741962288 -0.104328358208949 0.681563486765136
-0.0665675328007939 -0.104328358208949 0.692644398974433
-0.0644138122469526 -0.104328358208949 0.701924394181588
-0.0706444928316616 -0.104328358208949 0.704853021389339
-0.0675064958712819 -0.104328358208949 0.721872077575494
-0.0673191852975908 -0.104328358208949 0.731671852463353
-0.0668164948932969 -0.104328358208949 0.737831584450129
-0.0715124654804338 -0.104328358208949 0.748320323251705
-0.0683274085292448 -0.104328358208949 0.766025783853733
-0.0713250309825285 -0.104328358208949 0.768360330991397
-0.0655823373469376 -0.104328358208949 0.778869734725589
-0.0656126467526892 -0.104328358208949 0.783749596805301
-0.0671651127427425 -0.104328358208949 0.800722839068233
-0.0637109513000882 -0.104328358208949 0.810408753202143
-0.0702202894723448 -0.104626865671636 0.818206723474217
-0.0703344684675798 -0.104626865671636 0.829413539546487
-0.0703341708980361 -0.104328358208949 0.837373760925665
-0.0662943157777105 -0.104328358208949 0.840800620724597
-0.0707616840997101 -0.104328358208949 0.85476932328103
-0.0655282841207723 -0.104626865671636 0.86501736733943
-0.0711183421072967 -0.104328358208949 0.873173314784052
-0.0689099274463257 -0.104328358208949 0.887431231906524
-0.0640642383146354 -0.104328358208949 0.89834448181143
-0.069758341236975 -0.104328358208949 0.902165173042564
-0.0668166008550848 -0.104570895522382 0.914290662747304
-0.0714166805799419 -0.104328358208949 0.923241648267476
-0.07147384354224 -0.104328358208949 0.931973629888875
-0.0663421655141031 -0.104328358208949 0.946141924140168
-0.0630452936235899 -0.104328358208949 0.956683263924024
-0.0669052705806983 -0.104328358208949 0.964544361946168
-0.0648301163473158 -0.104328358208949 0.971965641317688
-0.0681816185880993 -0.104328358208949 0.98322300943349
-0.0662200817766551 -0.104328358208949 0.99701457271639
-0.0714327523108471 -0.102886911489517 0.999999999999999
-0.0688126449525154 -0.0897864286744178 0.999999999999996
-0.0635775287403326 -0.0828813946797035 0.999999999999994
-0.0699428753369597 -0.0643456643831386 0.99999999999999
-0.065851707832444 -0.0480190968375416 0.999999999999985
-0.0698120012272564 -0.0335198545711972 0.999999999999982
-0.065833565227917 -0.0139399862785354 0.999999999999977
-0.0683852129883255 -0.00609135220074724 0.999999999999975
-0.0653118946107549 0.0130017770815003 0.99999999999997
-0.0669367966458136 0.0408062537723199 0.999999999999963
-0.0734306710866729 0.0500277157556211 0.99999999999996
-0.0689167556613236 0.0510276518862824 0.99999999999996
-0.076614417060468 0.0686979674447471 0.999999999999955
-0.0772721392082954 0.0892055742630809 0.99999999999995
-0.0575845692245639 -0.104328358208949 0.0993707856399176
-0.0566986368019271 -0.104328358208949 0.102192028605996
-0.060420667394601 -0.104328358208949 0.112655767054603
-0.0532145109397879 -0.10432835820895 0.12624158933182
-0.0589629506717756 -0.104328358208949 0.128877360921845
-0.0581980033884982 -0.104328358208949 0.141031892716713
-0.0596583092104927 -0.10432835820895 0.149774073366531
-0.0577733924436467 -0.104328358208949 0.166430360955236
-0.0598782579831882 -0.104328358208949 0.167892584281748
-0.0580635717231031 -0.104328358208949 0.181052311848411
-0.0550077919964257 -0.104328358208949 0.187001946036917
-0.0567621502989518 -0.104328358208949 0.192982843895622
-0.0590761097293183 -0.10432835820895 0.212706617621444
-0.0618357536648779 -0.104328358208949 0.226928177121891
-0.0587056654593424 -0.104328358208949 0.232089632652473
-0.053298785808993 -0.104328358208949 0.236707198981163
-0.0625589734311095 -0.104328358208949 0.246395891839515
-0.0590328574712365 -0.104328358208949 0.258395855329611
-0.0556614097215035 -0.104328358208949 0.269317316639616
-0.0625803019912849 -0.104328358208949 0.275561169615838
-0.0582376350318556 -0.10432835820895 0.291358984793155
-0.0625081096892838 -0.104328358208949 0.292627606251178
-0.0599760433068342 -0.104328358208949 0.304471491062466
-0.0562884520999018 -0.104328358208949 0.316213756715426
-0.0605540267385596 -0.104328358208949 0.320726388873301
-0.0583890806655339 -0.104328358208949 0.336248102258194
-0.0563858179711313 -0.104328358208949 0.34640219838726
-0.0573717777152314 -0.104328358208949 0.353707943341785
-0.0594802745667706 -0.104328358208949 0.364805566731344
-0.058574854787983 -0.104328358208949 0.374470810008985
-0.0592814839968653 -0.104328358208949 0.387646386569443
-0.0570979758538638 -0.104328358208949 0.398953111327576
-0.0573904641676355 -0.104328358208949 0.408799707768952
-0.0580876071354526 -0.104328358208949 0.412234807766084
-0.0614343341647392 -0.104328358208949 0.424607486757993
-0.0534006491880817 -0.104328358208949 0.424176235381124
-0.0535527660793786 -0.104328358208949 0.438674317833625
-0.0533654062924083 -0.10432835820895 0.453357313797123
-0.0545663020354662 -0.10432835820895 0.46831823708354
-0.0569223313608577 -0.104328358208949 0.471286420106511
-0.059169174241417 -0.104328358208949 0.479743693622108
-0.0610673533344685 -0.10432835820895 0.496663566671645
-0.0599813391811205 -0.104328358208949 0.496568022814891
-0.0546235911688823 -0.104328358208949 0.510413545439416
-0.056701380700553 -0.104328358208949 0.519632952336908
-0.056725918325267 -0.104328358208949 0.525557162579243
-0.0578306694074612 -0.104328358208949 0.537127192227746
-0.0601740423566425 -0.104328358208949 0.549348557742154
-0.0567631300126099 -0.104328358208949 0.558643994212438
-0.0617705364049431 -0.104328358208949 0.561252962498035
-0.061228957102381 -0.104328358208949 0.579796800059261
-0.0562762120097874 -0.104328358208949 0.58562527154141
-0.0616807220774556 -0.104328358208949 0.595738951271015
-0.0581207564932258 -0.104328358208949 0.603093676186755
-0.0546245923144512 -0.104328358208949 0.613680566989656
-0.0538185514464068 -0.104328358208949 0.620668146319997
-0.0558271385430609 -0.104328358208949 0.636627253629339
-0.0608909711230663 -0.104328358208949 0.644451442815887
-0.0566910472082329 -0.104328358208949 0.655173118617385
-0.0532168859673246 -0.104570895522382 0.666500753842356
-0.0593331842009939 -0.104328358208949 0.67701975786713
-0.0541170036560185 -0.104570895522382 0.679640059947045
-0.0548533893770446 -0.104570895522382 0.697826070579752
-0.0563516922071892 -0.104570895522382 0.702845752882852
-0.0594901639707736 -0.104328358208949 0.710401921225979
-0.0599991803848817 -0.104328358208949 0.723567551200566
-0.0589004344376992 -0.104328358208949 0.737499960393866
-0.0618392481443911 -0.104328358208949 0.745454720658043
-0.053823568081546 -0.104328358208949 0.752513442502434
-0.0619840650200893 -0.104328358208949 0.766193574658037
-0.055327356751549 -0.104328358208949 0.762278642384389
-0.0593543886804172 -0.104328358208949 0.787085519082826
-0.0537721299233684 -0.104328358208949 0.790758689855723
-0.0587934165707706 -0.104328358208949 0.79988339426925
-0.0612667596204026 -0.104328358208949 0.805487182135651
-0.0546804664413265 -0.104328358208949 0.812831686512425
-0.0560200999458929 -0.104328358208949 0.826048828965592
-0.0599005636849871 -0.104328358208949 0.838579607280528
-0.0588252448814171 -0.104328358208949 0.852584917710948
-0.0623781106456515 -0.104328358208949 0.86174179941999
-0.0559594947026976 -0.104328358208949 0.867843034628663
-0.0577084636255385 -0.104328358208949 0.876072268885628
-0.0537754396352914 -0.104328358208949 0.884713467775443
-0.056887702569185 -0.104328358208949 0.899013229281544
-0.0536508553247636 -0.104570895522382 0.903646674622677
-0.0624458082032588 -0.104570895522382 0.919618039804298
-0.0609123828046086 -0.104570895522382 0.922429303431695
-0.0536566276138005 -0.104570895522382 0.931574035184603
-0.0531704652258513 -0.104328358208949 0.943557919813958
-0.0563681249604796 -0.104328358208949 0.961397949876225
-0.0550946413382821 -0.104328358208949 0.964878939884185
-0.0602459747637745 -0.104328358208949 0.965353937302889
-0.0584003286253139 -0.104328358208949 0.978505509495004
-0.0606978505909638 -0.104328358208949 0.988164558285087
-0.0572261429579522 -0.104328358208949 0.999083412758901
-0.0560369136178841 -0.0838507591666506 0.999999999999995
-0.062576317283395 -0.0762024973922942 0.999999999999993
-0.0573329119219878 -0.0593378163257465 0.999999999999988
-0.0557365787337015 -0.0495665120315764 0.999999999999986
-0.0579644109438863 -0.0388490875257852 0.999999999999983
-0.0550192310697773 -0.00681703867356993 0.999999999999975
-0.0614545761514397 -0.0051019943482569 0.999999999999974
-0.0630960875697218 0.0106696502913882 0.99999999999997
-0.0638078141478475 0.0297539042684121 0.999999999999965
-0.0598749469479524 0.0527529532405501 0.999999999999959
-0.0643880309444922 0.0628423187690553 0.999999999999957
-0.0613586274097432 0.0746464755333252 0.999999999999954
-0.0610385673356499 0.0908507046796902 0.99999999999995
-0.0452329806955519 -0.104328358208949 0.0954114515474711
-0.0490393184381293 -0.104328358208949 0.0981653693221997
-0.0451456261111211 -0.104328358208949 0.108287306035358
-0.0528126929247765 -0.104328358208949 0.120948345487867
-0.0469257026286146 -0.104328358208949 0.139163849894782
-0.0444583460412278 -0.104328358208949 0.147983290526408
-0.0443998934752558 -0.104328358208949 0.149006912523759
-0.0454253493080615 -0.104328358208949 0.16465555996819
-0.043659437359843 -0.10432835820895 0.164173817582996
-0.0459878750463301 -0.104328358208949 0.184766342304557
-0.043785566894913 -0.104328358208949 0.197628765256397
-0.0490183843096294 -0.104328358208949 0.207299705954256
-0.0461069029085258 -0.104328358208949 0.212316944564847
-0.0511087095752151 -0.104328358208949 0.225602684087188
-0.0437790989297283 -0.10432835820895 0.22700837198664
-0.047060241403336 -0.104328358208949 0.245209747579588
-0.0474571093978657 -0.104328358208949 0.25102301031931
-0.0501357636053294 -0.104328358208949 0.261104010391426
-0.049221814192328 -0.104328358208949 0.267231973839341
-0.0473426187563272 -0.104328358208949 0.278692260071036
-0.0462123513931123 -0.104328358208949 0.280077287150003
-0.0462012664475565 -0.104328358208949 0.29171256903034
-0.0480647401712898 -0.104328358208949 0.312717981758338
-0.0444558784468922 -0.104328358208949 0.318914638718496
-0.0511717583911612 -0.104328358208949 0.328717286720033
-0.0501607436802607 -0.104328358208949 0.335041999834079
-0.0522064403100099 -0.104328358208949 0.348824391924653
-0.0510304344271353 -0.104328358208949 0.354644662932878
-0.0527304940705137 -0.104328358208949 0.368488986869882
-0.0514614430978295 -0.104328358208949 0.379021506596498
-0.0470851572038291 -0.104328358208949 0.382989356906084
-0.0518258452174323 -0.104328358208949 0.387997471543658
-0.0445469533057716 -0.104328358208949 0.407052286563385
-0.050146765334069 -0.104328358208949 0.412158906560868
-0.0522193585722341 -0.104328358208949 0.420912713833716
-0.0467536768414723 -0.104328358208949 0.43387214451837
-0.0504734941485248 -0.104328358208949 0.440905702392556
-0.0498466808253927 -0.104328358208949 0.454960752343088
-0.0528482815919444 -0.104328358208949 0.459865052296202
-0.0528776188783436 -0.104328358208949 0.470893178950198
-0.0437651899452793 -0.10432835820895 0.480740500741572
-0.0486980201270008 -0.104328358208949 0.495971205648196
-0.0522695620124798 -0.104328358208949 0.498306545882253
-0.0461527034446033 -0.104328358208949 0.506743307562357
-0.0460004175792621 -0.104328358208949 0.516216523029068
-0.0530044652004403 -0.104328358208949 0.525297792641623
-0.051787459112158 -0.104328358208949 0.536894735878031
-0.0462373817503791 -0.104328358208949 0.543766191575602
-0.0509416316202706 -0.104328358208949 0.557284533367521
-0.0439641380971335 -0.104328358208949 0.572668266132416
-0.0520090615312982 -0.104328358208949 0.581561371089811
-0.0520949127563825 -0.104328358208949 0.583086181400323
-0.0457010071423535 -0.104328358208949 0.601506326899232
-0.0471168074567723 -0.104328358208949 0.606068289411862
-0.0451582869392265 -0.104328358208949 0.623027581906082
-0.0448441195719494 -0.104328358208949 0.633544974938208
-0.0475303303020235 -0.104328358208949 0.632615662139719
-0.0453851561553937 -0.104328358208949 0.637978503514061
-0.0497473397624461 -0.104328358208949 0.653811019614042
-0.0483272414694866 -0.104570895522382 0.663440475895057
-0.050736128993827 -0.104570895522382 0.667102547693906
-0.0442541020684342 -0.104570895522382 0.686174850712273
-0.0455176832753872 -0.104570895522382 0.692542228277134
-0.043715687463268 -0.104570895522382 0.700423323835255
-0.0512462104685571 -0.104570895522382 0.711143544507446
-0.0528499450195278 -0.104570895522382 0.719947052322188
-0.0450605061367661 -0.104570895522382 0.732013106681021
-0.045529896825243 -0.104328358208949 0.737421836745181
-0.0441841399289899 -0.104328358208949 0.752200183747869
-0.0476454548038896 -0.104328358208949 0.761062669420927
-0.043471707715361 -0.104328358208949 0.769397884942078
-0.0456152410249896 -0.104328358208949 0.775650024621256
-0.0494036375378484 -0.104328358208949 0.792044412295698
-0.0464885215345466 -0.104328358208949 0.797043644711135
-0.0477668348402601 -0.104626865671636 0.810548584446718
-0.0521625398720153 -0.104626865671636 0.821574160271067
-0.0450577208205953 -0.104328358208949 0.830070077441509
-0.0516578260742621 -0.104626865671636 0.833132183845967
-0.052924875446502 -0.104328358208949 0.851382870814555
-0.0506774109376329 -0.104328358208949 0.860948595177829
-0.0459327038130173 -0.104328358208949 0.866508565160159
-0.0441770827056341 -0.104328358208949 0.872131129480597
-0.0514500682063216 -0.104328358208949 0.881483553327062
-0.0517817579290602 -0.104328358208949 0.894047719187873
-0.0483126501836946 -0.104570895522382 0.908006526633451
-0.0462430707377852 -0.104328358208949 0.919222078483887
-0.044008068851521 -0.104328358208949 0.921522518682437
-0.0519933914655071 -0.104570895522382 0.933721736246876
-0.0523309645573762 -0.104328358208949 0.947493316536799
-0.0496455149836259 -0.104328358208949 0.959725500238348
-0.0484529788204148 -0.104328358208949 0.958058355317021
-0.0438981475581023 -0.104328358208949 0.979006611527016
-0.0529763497142594 -0.104328358208949 0.987020417140319
-0.0453375321984448 -0.104328358208949 0.998873123682848
-0.0485334555804516 -0.103025499535453 0.999999999999999
-0.052960295489941 -0.0806161205668837 0.999999999999994
-0.0473333165579149 -0.0705179392267841 0.999999999999991
-0.0454209129950121 -0.0508574374267769 0.999999999999986
-0.0461472529258835 -0.0351879645766245 0.999999999999982
-0.0543263509356852 -0.0358579846736412 0.999999999999982
-0.0509139971659742 -0.0112546569667326 0.999999999999976
-0.0461999458957376 0.00451735666510622 0.999999999999972
-0.0469785614136725 0.0169518924672347 0.999999999999969
-0.0471863004689465 0.0295374970255822 0.999999999999965
-0.0502189369433992 0.0382113955714034 0.999999999999963
-0.0502803228252585 0.06769184275396 0.999999999999956
-0.0515015567086519 0.0777050950984068 0.999999999999953
-0.0490375698424776 0.0923925195006192 0.999999999999949
-0.0488812910461012 0.102072639849639 0.999999999999947
-0.0432355641214533 -0.104328358208949 0.0940657860843116
-0.0365089158903306 -0.104328358208949 0.102417419155287
-0.0346689934932788 -0.104328358208949 0.116928700849716
-0.0403686207491329 -0.104328358208949 0.121498217268677
-0.0425120215376294 -0.104328358208949 0.137251144822458
-0.0407557128230995 -0.104328358208949 0.14725371793212
-0.0357289126521902 -0.104328358208949 0.16018878340259
-0.0406597663282057 -0.104328358208949 0.156544074804568
-0.0359079338525738 -0.104328358208949 0.169700602293861
-0.037519629160545 -0.104328358208949 0.177203763002516
-0.0394781425335121 -0.104328358208949 0.189126595918256
-0.0431613676023813 -0.104328358208949 0.196695163867919
-0.0355283047128311 -0.104328358208949 0.212583039483206
-0.0426707507488156 -0.10432835820895 0.228625816333745
-0.0386680193965489 -0.104328358208949 0.23225429116699
-0.0429183215898775 -0.104328358208949 0.243362446789305
-0.0394811764418233 -0.104328358208949 0.241259072307019
-0.0409149074538015 -0.104328358208949 0.257903256958123
-0.0339609043519966 -0.104328358208949 0.264322755531434
-0.0352771241687863 -0.104328358208949 0.284753356841189
-0.0348987048307554 -0.104328358208949 0.286991826831639
-0.0428625664173306 -0.104328358208949 0.30496760971816
-0.0369936104822701 -0.104328358208949 0.307760841558689
-0.0359735541971324 -0.104328358208949 0.312931414109623
-0.0416728277934032 -0.104328358208949 0.325265511862253
-0.0400181222263713 -0.104328358208949 0.337281267618108
-0.0339448888857304 -0.104328358208949 0.346115164992523
-0.0394712869411645 -0.104328358208949 0.355121783619043
-0.0424487419066136 -0.104328358208949 0.360939165986755
-0.0383377303310456 -0.104328358208949 0.370348353675762
-0.0383544621071828 -0.104328358208949 0.387280754237335
-0.0402081979018847 -0.10432835820895 0.395042715692425
-0.0424028096126416 -0.10432835820895 0.408658166896427
-0.0404149999433481 -0.104328358208949 0.410108807034422
-0.0404380865472409 -0.10432835820895 0.420705165136428
-0.0390350975901492 -0.104328358208949 0.42980964411778
-0.04108306212644 -0.104328358208949 0.444213546466271
-0.042644359693156 -0.104328358208949 0.445800374557556
-0.0361811413118996 -0.104328358208949 0.462361891042476
-0.0352005722892306 -0.104328358208949 0.471896996979889
-0.0420890057857173 -0.104328358208949 0.477021305528812
-0.0429011725561017 -0.104328358208949 0.485833886068722
-0.0361029895310174 -0.10432835820895 0.499872986840453
-0.0416521542128205 -0.104328358208949 0.510127942593996
-0.0385799384283136 -0.104328358208949 0.524323296984268
-0.0394105548309022 -0.104328358208949 0.528014632475843
-0.0345628397781926 -0.104328358208949 0.540291077625278
-0.0400354738081085 -0.104328358208949 0.542488364068373
-0.0397312254396844 -0.104328358208949 0.560789208638776
-0.0433475615655229 -0.104328358208949 0.567984207866323
-0.0390925502743539 -0.104328358208949 0.582125598056123
-0.0360475357738481 -0.104328358208949 0.584535207521829
-0.0365922032334238 -0.104328358208949 0.597890664630987
-0.0395372613941552 -0.104328358208949 0.599578878585457
-0.0420100883335487 -0.104328358208949 0.611868751657284
-0.0340757564345873 -0.104328358208949 0.618930777476484
-0.038510815787736 -0.104328358208949 0.632417497073667
-0.0383548591678419 -0.104328358208949 0.639482302406547
-0.0403565252051104 -0.104328358208949 0.654423617656086
-0.041150590311073 -0.104570895522382 0.66828740503588
-0.0340448762743842 -0.104570895522382 0.675288510598973
-0.0357074890425011 -0.104570895522382 0.683932006329656
-0.0352722017874874 -0.104570895522382 0.68999421242275
-0.038989574752866 -0.104570895522382 0.703901690154866
-0.0368305937605497 -0.104570895522382 0.705377831511735
-0.0337323068951899 -0.104570895522382 0.722460535581215
-0.0410439676618089 -0.104570895522382 0.735465628410726
-0.0342350782846346 -0.104328358208949 0.743973081077944
-0.0358978793772664 -0.104328358208949 0.751498362113036
-0.0350462913330543 -0.104328358208949 0.757563633985329
-0.036566758591673 -0.104328358208949 0.772629683864665
-0.0377958760579841 -0.104328358208949 0.78161735548359
-0.04016059554597 -0.104328358208949 0.790973179815687
-0.0407046708211689 -0.104328358208949 0.793724978467596
-0.0343523788819573 -0.104328358208949 0.808304178817458
-0.0425353084266173 -0.104328358208949 0.818418922340697
-0.0417034271714147 -0.104328358208949 0.832828461973041
-0.0410819645084796 -0.104328358208949 0.841419124491491
-0.0398602872138438 -0.104328358208949 0.852844134126885
-0.0383701652972634 -0.104328358208949 0.857402660941899
-0.0372947417128679 -0.104328358208949 0.862073543416106
-0.036698163411783 -0.104328358208949 0.880796278713048
-0.0387859587281069 -0.104328358208949 0.883700974344793
-0.0407081310602559 -0.104328358208949 0.893599500330931
-0.0349252334063281 -0.104570895522382 0.907696770961802
-0.0380494227440806 -0.104328358208949 0.916033342352492
-0.038997062322084 -0.104328358208949 0.921846051687472
-0.0367813990441108 -0.104328358208949 0.937231537891898
-0.0360843417923354 -0.104570895522382 0.944329126990034
-0.0348651058989141 -0.104328358208949 0.952605782561745
-0.0431359797500603 -0.104328358208949 0.962283559957272
-0.0340244828394538 -0.104328358208949 0.976159041105514
-0.0377181354964366 -0.104328358208949 0.977257945101023
-0.0413480343405169 -0.104328358208949 0.98841698834875
-0.0352150998575061 -0.104328358208949 0.996663898273919
-0.0339530862879478 -0.0896442726590812 0.999999999999996
-0.0366593883820224 -0.0678119812955768 0.99999999999999
-0.0391932963130346 -0.0666548475141486 0.99999999999999
-0.0416687114237332 -0.0514644849542064 0.999999999999986
-0.0432024262935893 -0.0302420044417744 0.999999999999981
-0.0416163670009098 -0.00704690396643639 0.999999999999975
-0.0445846295624828 0.0102773890564704 0.99999999999997
-0.0436865194863249 0.0180376870224455 0.999999999999968
-0.0435365928218918 0.0371280334157354 0.999999999999964
-0.0357604323230569 0.0452575273660228 0.999999999999961
-0.0394671756536281 0.0623346681732234 0.999999999999957
-0.0442760107809775 0.0754305112110546 0.999999999999953
-0.0384139249968859 0.0838576738141119 0.999999999999951
-0.0315996825090442 -0.104328358208949 0.0886004790152216
-0.0267983182824933 -0.104328358208949 0.103363787821608
-0.0301707316441283 -0.104328358208949 0.121066576672967
-0.0303589572114511 -0.104328358208949 0.122595304540345
-0.0315526427604265 -0.104328358208949 0.138841306531843
-0.0324445165685031 -0.104328358208949 0.138546177196394
-0.0260950578646818 -0.104328358208949 0.144774452951301
-0.0316357905560965 -0.104328358208949 0.165074996396262
-0.0254998934043109 -0.104328358208949 0.17507128487854
-0.0278663796445321 -0.104328358208949 0.174692042595942
-0.0244054639240177 -0.104328358208949 0.195817098722771
-0.0270946510518651 -0.104328358208949 0.197280124235838
-0.0246852632205872 -0.104328358208949 0.217431577311251
-0.0297021180806547 -0.104328358208949 0.216163879752113
-0.0283482269684508 -0.104328358208949 0.223389152139566
-0.0323492137073414 -0.10432835820895 0.238924319537849
-0.0335466140048908 -0.104328358208949 0.247111462092923
-0.0302710604400644 -0.104328358208949 0.263234166626589
-0.0310598481333446 -0.104328358208949 0.265861063046737
-0.0274082500147044 -0.10432835820895 0.274030673813375
-0.0244735854937903 -0.104328358208949 0.283481110977382
-0.0259309767129343 -0.104328358208949 0.295586249282771
-0.0288469728796539 -0.104328358208949 0.309368595818723
-0.0256079112569489 -0.10432835820895 0.322527962405015
-0.0323747690403106 -0.104328358208949 0.329532708535122
-0.033753266808138 -0.10432835820895 0.336520386134403
-0.0267271543128874 -0.104328358208949 0.346928223783696
-0.0265166886504599 -0.104328358208949 0.360348798897667
-0.0306827508578538 -0.104328358208949 0.362563971907155
-0.0335381136805895 -0.104328358208949 0.376378134638007
-0.0299537430680185 -0.104328358208949 0.38678954390734
-0.0312247566400757 -0.10432835820895 0.388758243903576
-0.0249283249713605 -0.104328358208949 0.400495191277965
-0.0280210570858238 -0.10432835820895 0.417995883018549
-0.0268109967686681 -0.104328358208949 0.416293465051086
-0.026222869883493 -0.104328358208949 0.432411799302911
-0.0254517721365913 -0.104328358208949 0.446454841701511
-0.0314990734510766 -0.104328358208949 0.447659629256091
-0.0296284685309446 -0.104328358208949 0.454309056752569
-0.0282269048643159 -0.104328358208949 0.467544527252129
-0.029616469870258 -0.104328358208949 0.478026833618774
-0.0323462281195847 -0.10432835820895 0.493387810092265
-0.0330553059562676 -0.104328358208949 0.498119315323442
-0.0319740934297343 -0.104328358208949 0.507785984476411
-0.0273773390581167 -0.104328358208949 0.512884008533026
-0.0331826859151143 -0.104328358208949 0.528474009996462
-0.0256624938915872 -0.104328358208949 0.536671302542022
-0.0257895115365199 -0.104328358208949 0.543686373688035
-0.0280205624625999 -0.104328358208949 0.554923389088719
-0.0303750193145045 -0.104328358208949 0.567912873123674
-0.0310871643541664 -0.104328358208949 0.57898363261721
-0.0330729879850727 -0.104328358208949 0.587735850398078
-0.02631167567202 -0.104328358208949 0.591254129864035
-0.0327093819591135 -0.104328358208949 0.602373746779132
-0.0309811278621456 -0.104328358208949 0.609606913267248
-0.0285373129111273 -0.104328358208949 0.618003919263716
-0.0257761566984694 -0.104328358208949 0.6363681141845
-0.0338003068418571 -0.104328358208949 0.647767767407669
-0.0282964844476237 -0.104570895522382 0.662298387095974
-0.0259277975532122 -0.104328358208949 0.672501553223654
-0.0266959473478165 -0.104570895522382 0.680808371889788
-0.0298873416855704 -0.104570895522382 0.679892831187085
-0.0334979152811467 -0.104570895522382 0.690691624228598
-0.0252228875527232 -0.104570895522382 0.705091133209812
-0.0284817620406349 -0.104570895522382 0.716146269866805
-0.0306897468890314 -0.104570895522382 0.723816978417666
-0.0333320154028822 -0.104570895522382 0.725003596271739
-0.0329360490123059 -0.104328358208949 0.73964023257476
-0.0329124788624835 -0.104328358208949 0.756408553417315
-0.0338495905378676 -0.104328358208949 0.756006145694072
-0.0307458000035989 -0.104328358208949 0.768433899490322
-0.030713143233136 -0.104328358208949 0.779362434438681
-0.0317167244485277 -0.104328358208949 0.788984132339903
-0.0309113361596983 -0.104626865671636 0.801039585472448
-0.0245353315582743 -0.104626865671636 0.80803835722908
-0.0251313210401613 -0.104328358208949 0.813831611387977
-0.0268737127530949 -0.104328358208949 0.827934673706029
-0.0329081255477775 -0.104328358208949 0.841531908696269
-0.0275677594798528 -0.104328358208949 0.845848427094536
-0.0272143251484467 -0.104328358208949 0.856596910372012
-0.0253015975435584 -0.104328358208949 0.869395720209711
-0.0306252688203467 -0.104328358208949 0.872288545553957
-0.0321135983987962 -0.104328358208949 0.889103495776704
-0.0302814583119298 -0.104328358208949 0.895939642200644
-0.0248757448575105 -0.104570895522382 0.906264091730502
-0.033256558337591 -0.104570895522382 0.914992214978028
-0.0299311874211366 -0.104570895522382 0.921779115412418
-0.0245788409025721 -0.104570895522382 0.929372839892683
-0.0263631422453552 -0.104328358208949 0.950178030924591
-0.0313237553428856 -0.104328358208949 0.955155912691737
-0.0257803171431047 -0.104328358208949 0.956670968236153
-0.0257528980056963 -0.104328358208949 0.974617948274662
-0.0325810430184995 -0.104328358208949 0.981694782815273
-0.027204652206941 -0.104328358208949 0.998800585762237
-0.0299299828662064 -0.104328358208949 0.999121711785074
-0.0282392142407943 -0.0930126210105027 0.999999999999997
-0.0310675633022162 -0.0713780624852329 0.999999999999991
-0.0253241893485749 -0.05302624303197 0.999999999999987
-0.0252563273924844 -0.0439796390672313 0.999999999999984
-0.0278269279809337 -0.0262563687536825 0.99999999999998
-0.0336194747096051 -0.0122974141790148 0.999999999999976
-0.0341758262065744 0.00269018957733715 0.999999999999972
-0.031526940236764 0.0234106569258441 0.999999999999967
-0.028089793890525 0.0328840724668679 0.999999999999965
-0.0270733021211804 0.0441665012516503 0.999999999999962
-0.0322382685751784 0.0673913934839118 0.999999999999956
-0.0296995871896071 0.0665158485838725 0.999999999999956
-0.0290892260643975 0.089164877180832 0.99999999999995
-0.018164618618674 -0.104328358208949 0.0990110281954838
-0.0210355317736603 -0.104328358208949 0.103748528065897
-0.0176162470176695 -0.104328358208949 0.112731590289308
-0.0187084571400423 -0.104328358208949 0.129704531789466
-0.0216586561199072 -0.104328358208949 0.130209792213374
-0.0163363909757578 -0.104328358208949 0.134401036465708
-0.0233619527539058 -0.104328358208949 0.151096917379276
-0.0166635614321248 -0.104328358208949 0.158226933651736
-0.0239195859618445 -0.104328358208949 0.169634564249496
-0.0165671476757242 -0.104328358208949 0.18354563829305
-0.0147797863479574 -0.104328358208949 0.195865892646269
-0.0187403837867674 -0.104328358208949 0.209718878318479
-0.021094431276289 -0.104328358208949 0.209973358463599
-0.0164011303979395 -0.104328358208949 0.223655430818175
-0.0220836565291607 -0.104328358208949 0.228220393086898
-0.020460876504228 -0.104328358208949 0.240497646513647
-0.0164871922034762 -0.104328358208949 0.248807300235177
-0.0218649199049299 -0.104328358208949 0.254507247439407
-0.0199194465343725 -0.104328358208949 0.261913041201267
-0.0153966346890659 -0.104328358208949 0.27804174851819
-0.0220477758550091 -0.104328358208949 0.288237027778247
-0.0209084068746221 -0.10432835820895 0.299940236931951
-0.0145556957072271 -0.104328358208949 0.311120577109994
-0.0186111338365396 -0.104328358208949 0.315647279557651
-0.01461172043328 -0.10432835820895 0.3279832904631
-0.0154280936858861 -0.10432835820895 0.335561117317584
-0.0172881757073516 -0.104328358208949 0.34531756555737
-0.0193815809563606 -0.104328358208949 0.351505623366389
-0.0155556515813199 -0.10432835820895 0.371782110377834
-0.0197510105242229 -0.104328358208949 0.373128232085449
-0.0190210461556011 -0.104328358208949 0.387428282029467
-0.0208793586250376 -0.104328358208949 0.386765124681822
-0.0220660837234481 -0.104328358208949 0.399283100658332
-0.0232189756085479 -0.104328358208949 0.415541074708326
-0.0188205850869815 -0.10432835820895 0.420714344646913
-0.0206503058260317 -0.104328358208949 0.441195678027082
-0.0241500963948245 -0.104328358208949 0.443359519521996
-0.0214718718744387 -0.104328358208949 0.449267560392649
-0.0172401243071885 -0.10432835820895 0.466672306551491
-0.0157195759386661 -0.104328358208949 0.469919132358226
-0.0219662243817805 -0.104328358208949 0.476741222691835
-0.0204700274410234 -0.104328358208949 0.491316345991772
-0.0158331400046118 -0.104328358208949 0.501397736908227
-0.0155338479262523 -0.104328358208949 0.507530315503344
-0.0197155822646319 -0.104328358208949 0.520284342144901
-0.0218677712668017 -0.104328358208949 0.530506474231731
-0.0217634109251173 -0.104328358208949 0.539533379152862
-0.0239526604151463 -0.104328358208949 0.543601730797421
-0.015533028467845 -0.104328358208949 0.55675038029261
-0.017365355459976 -0.104328358208949 0.57130745702772
-0.0149558570858826 -0.104328358208949 0.581757325789135
-0.0192140464624754 -0.104328358208949 0.588192115783664
-0.0177114534661823 -0.104328358208949 0.596440911446437
-0.0240616725530764 -0.104328358208949 0.605233509368787
-0.021034045093367 -0.104328358208949 0.608693398733291
-0.0229301259133625 -0.104328358208949 0.631308704272971
-0.0230104034947919 -0.104328358208949 0.637668829283576
-0.0204457466271309 -0.104328358208949 0.645078663577598
-0.0167913362442348 -0.104328358208949 0.651171513178228
-0.0183152806172781 -0.104328358208949 0.665790606962282
-0.0161270747369642 -0.104328358208949 0.680479273330152
-0.0151527656013658 -0.104328358208949 0.68314272273131
-0.0221327314955006 -0.104328358208949 0.688557543818552
-0.0195165655569256 -0.104570895522382 0.708174857302175
-0.0186363295976775 -0.104328358208949 0.706783085505801
-0.0162948137096156 -0.104570895522382 0.721075761483912
-0.0161142490448305 -0.104570895522382 0.730973807126941
-0.0212236712956125 -0.104328358208949 0.743827298409847
-0.0176181293727817 -0.104328358208949 0.748682487061223
-0.0153464972080164 -0.104328358208949 0.76346070510219
-0.020502718286014 -0.104328358208949 0.772719697949369
-0.0236566112642751 -0.104328358208949 0.781103917467497
-0.0177369856795598 -0.104328358208949 0.786780934719811
-0.0196237603341539 -0.104626865671636 0.798785698023717
-0.0217097634440181 -0.104626865671636 0.808174594635933
-0.0221751995089747 -0.104328358208949 0.814207854764193
-0.0233403317736272 -0.104328358208949 0.824862892408079
-0.0234206833310698 -0.104328358208949 0.83628562439552
-0.0161940083055994 -0.104328358208949 0.852774688544801
-0.0215512851976982 -0.104328358208949 0.859438119640991
-0.015593700221907 -0.104328358208949 0.868256734703856
-0.0155852704085876 -0.104328358208949 0.873406957411055
-0.0177758802267107 -0.104328358208949 0.887320456389428
-0.0150975496799027 -0.104570895522382 0.896139737413974
-0.0179044805538398 -0.104328358208949 0.904808291829779
-0.0154969542462357 -0.104570895522382 0.917593628329661
-0.0146447303692753 -0.104570895522382 0.922158999989471
-0.0152564591565359 -0.104570895522382 0.927017944406389
-0.0176475599991427 -0.104328358208949 0.945009512617986
-0.0187127337471918 -0.104328358208949 0.956601937568734
-0.0222393550700853 -0.104328358208949 0.959956008426388
-0.0222246904550887 -0.104328358208949 0.971577816627739
-0.0205058024331537 -0.104328358208949 0.981330447262888
-0.0186693683837208 -0.104328358208949 0.993393415166318
-0.018922377728167 -0.0973189860084554 0.999999999999998
-0.01658636678302 -0.0942293558609451 0.999999999999997
-0.0228084096986541 -0.0776268240219989 0.999999999999993
-0.0203505212858767 -0.0594496701157033 0.999999999999988
-0.015825944423206 -0.048467797164053 0.999999999999986
-0.0211582205050889 -0.035703358684575 0.999999999999982
-0.0215588433719945 -0.0126794600749632 0.999999999999976
-0.0216396934280564 0.00470615170867701 0.999999999999972
-0.024417926000851 0.0197206565213805 0.999999999999968
-0.016252655225514 0.0335785954940764 0.999999999999964
-0.0227480358961158 0.0486908713451979 0.99999999999996
-0.0242891670602155 0.0629813661008944 0.999999999999957
-0.0172491512518749 0.0801420410272326 0.999999999999952
-0.0175856371718532 0.0899618985534922 0.99999999999995
-0.00866527996915344 -0.104328358208949 0.0950526347045327
-0.00703093994675938 -0.104328358208949 0.0982526537151888
-0.0106566269802831 -0.104328358208949 0.119225274827112
-0.0116286102656594 -0.104328358208949 0.118035817370003
-0.00669985703639859 -0.10432835820895 0.139014570423756
-0.0106362356482966 -0.104328358208949 0.139922532697327
-0.0124205439199468 -0.104328358208949 0.156750900968333
-0.012165808004757 -0.104328358208949 0.160370724850387
-0.00821875250867296 -0.104328358208949 0.171265209744103
-0.00754452409270925 -0.104328358208949 0.186998304138238
-0.0133967446260967 -0.104328358208949 0.186533413204056
-0.0115930378014337 -0.10432835820895 0.197613827937447
-0.0143497342758641 -0.104328358208949 0.217113677964583
-0.00967026617119845 -0.104328358208949 0.222458261405556
-0.00673071368568142 -0.104328358208949 0.225095165832192
-0.0132052010066661 -0.104328358208949 0.2364962589603
-0.0144599205814324 -0.104328358208949 0.253803440222559
-0.0100657570776525 -0.10432835820895 0.265877907591641
-0.00791143089949248 -0.104328358208949 0.273129810921561
-0.0081877288841882 -0.104328358208949 0.275994528492348
-0.00637800836670528 -0.104328358208949 0.291167584407384
-0.00591874136384268 -0.104328358208949 0.302614502978501
-0.0108706668188833 -0.104328358208949 0.309248684162757
-0.00928024470303499 -0.104328358208949 0.312086498523795
-0.00669205081263249 -0.104328358208949 0.323104941541083
-0.00846876244442202 -0.104328358208949 0.328991882423737
-0.0130307354469052 -0.10432835820895 0.345881135234442
-0.0137609531801521 -0.104328358208949 0.356306871092483
-0.0110789430237104 -0.104328358208949 0.365723414125553
-0.0100466716556277 -0.10432835820895 0.376819265151772
-0.0122111142126889 -0.104328358208949 0.379721074904422
-0.00605525958785102 -0.10432835820895 0.393058063179428
-0.0103003792155414 -0.104328358208949 0.410884256253151
-0.00541497183030777 -0.10432835820895 0.407967570149856
-0.00797201711917127 -0.104328358208949 0.419469690476771
-0.0127095502570122 -0.104328358208949 0.428501344409395
-0.0111453116980506 -0.104328358208949 0.446500732531936
-0.007595106630064 -0.104328358208949 0.453211453644201
-0.00492214359032109 -0.104328358208949 0.462728880148476
-0.00768462866052798 -0.104328358208949 0.47243145173778
-0.0107032361184747 -0.10432835820895 0.471940136882698
-0.0125216623485273 -0.104328358208949 0.491294995570135
-0.01204085207535 -0.104328358208949 0.500348854683676
-0.0133715446108582 -0.104328358208949 0.51771808536724
-0.00982276487659784 -0.104328358208949 0.515559254158092
-0.0115552690879437 -0.104328358208949 0.52644477258057
-0.00634307350981373 -0.104328358208949 0.538564575064971
-0.00797561692554829 -0.104328358208949 0.542455343156235
-0.00729329907430854 -0.104328358208949 0.555508382482337
-0.00984654195359306 -0.104328358208949 0.573001830615992
-0.0144532363969982 -0.104328358208949 0.574573207967304
-0.0143971961970197 -0.104328358208949 0.587531784200046
-0.00521071519473133 -0.104328358208949 0.600062443918427
-0.0104671096599601 -0.104328358208949 0.603565491264176
-0.00728250261704725 -0.104328358208949 0.612976530002356
-0.00694813964368157 -0.104328358208949 0.621417638512605
-0.0081528450868242 -0.104328358208949 0.632256170756252
-0.0131589200542418 -0.104328358208949 0.641362568106469
-0.00658379902995592 -0.104328358208949 0.650228194937719
-0.0141866705732458 -0.104328358208949 0.66426057137964
-0.00696217740793228 -0.104328358208949 0.66704021979368
-0.0116377023802763 -0.104328358208949 0.677460986098398
-0.0135328336782451 -0.104328358208949 0.69309777985884
-0.0117511484292883 -0.104328358208949 0.702840778222723
-0.0132139658627647 -0.104570895522382 0.71679446212222
-0.0055833122897943 -0.104570895522382 0.722625463753551
-0.0142273728720584 -0.104570895522382 0.729863333666828
-0.0124167960433357 -0.104328358208949 0.740014689794812
-0.010201831411424 -0.104328358208949 0.754673498125241
-0.00696069799969441 -0.104328358208949 0.759424020869386
-0.0111847379696942 -0.104328358208949 0.778529493454129
-0.013349106744828 -0.104328358208949 0.781305472246697
-0.00758071018465269 -0.104328358208949 0.7837001217194
-0.00777316423071724 -0.104328358208949 0.799628419592505
-0.0126144007095789 -0.104328358208949 0.807650217213129
-0.00554241624339588 -0.104328358208949 0.822538144304825
-0.0131020608198062 -0.104626865671636 0.824873914113619
-0.0136877339427248 -0.104626865671636 0.831870121663721
-0.00557210745858335 -0.104328358208949 0.851512944954535
-0.0102236285016468 -0.104328358208949 0.857801784583999
-0.00709919676632613 -0.104328358208949 0.867741375979939
-0.00560406636487715 -0.104328358208949 0.869146089923275
-0.0115298276614201 -0.104328358208949 0.881910806069752
-0.013553226725395 -0.104570895522382 0.889470277754311
-0.00867285084687782 -0.104570895522382 0.90411844764153
-0.0052222404544081 -0.104570895522382 0.914412081371394
-0.0132229792351781 -0.104570895522382 0.927447805051626
-0.0047608563723811 -0.104328358208949 0.933443734160183
-0.00696330486095813 -0.104328358208949 0.946046289126144
-0.0112089465180986 -0.104328358208949 0.948993222853449
-0.0140921909695572 -0.104328358208949 0.957773948264241
-0.0065400876243514 -0.104328358208949 0.971274103365288
-0.00817114387633225 -0.104328358208949 0.985201058250598
-0.00579406572870279 -0.104328358208949 0.993537388379206
-0.00507542354404964 -0.103653387192727 1.0
-0.0143466108193877 -0.0789990994650112 0.999999999999993
-0.00634475774479227 -0.0753068595312764 0.999999999999993
-0.014660702930344 -0.0589532878417322 0.999999999999988
-0.0120037601815048 -0.0385594796276144 0.999999999999983
-0.0105573951825187 -0.0260015048926538 0.99999999999998
-0.0100507024780227 -0.0160793556014047 0.999999999999977
-0.00492935699174264 -0.00954846797800059 0.999999999999976
-0.0144024874048416 0.0129650087462766 0.99999999999997
-0.00958411675940099 0.0397523318280696 0.999999999999963
-0.0124942671628108 0.0461277161035051 0.999999999999961
-0.00637344998152753 0.0609926447760024 0.999999999999957
-0.0122591434282421 0.0740722187053832 0.999999999999954
-0.00558883957451796 0.0968954478189087 0.999999999999948
-0.00229689569829667 -0.10432835820895 0.0983379057177144
-0.00356416291779448 -0.10432835820895 0.10492695731367
-0.000715985132662267 -0.104328358208949 0.107265488021634
0.00486849183172874 -0.104328358208949 0.117643854556304
-0.00257600030629662 -0.104328358208949 0.132684544555463
0.00438218024426853 -0.104328358208949 0.144679213733389
0.00343494190155102 -0.104328358208949 0.151589347172247
-0.000849963265535523 -0.10432835820895 0.159252197387902
-0.00197281578323317 -0.104328358208949 0.175791807636017
-0.00318062101931915 -0.104328358208949 0.174370892348901
-0.00102284655806114 -0.104328358208949 0.185362618142516
0.00149748767804401 -0.104328358208949 0.207423913549679
-0.00319604387396357 -0.104328358208949 0.20925143040147
-0.000790950498278197 -0.104328358208949 0.217061088258482
0.00467531969075724 -0.104328358208949 0.23399064500844
0.000895415163882979 -0.104328358208949 0.238289202511779
-0.00244428881888684 -0.104328358208949 0.253075971080833
-0.000108804453513347 -0.104328358208949 0.25672841837275
0.00059349677259344 -0.104328358208949 0.268149982003859
-0.00237077603113107 -0.10432835820895 0.279478497829966
-0.000956090439565467 -0.104328358208949 0.287483228026944
-0.00340227326169575 -0.104328358208949 0.295974454660707
-0.00274334033280871 -0.104328358208949 0.309498155572674
-0.00469523963012073 -0.104328358208949 0.324013686308464
-0.00111286762371855 -0.10432835820895 0.323856920719233
0.00177701760225161 -0.104328358208949 0.33615908599127
-0.00262700432005935 -0.104328358208949 0.337076022944634
0.000270966133779623 -0.104328358208949 0.354050660520683
-0.00225929919414564 -0.104328358208949 0.366954032239182
-0.000822690497494724 -0.104328358208949 0.376312335292752
-0.0018075660090557 -0.104328358208949 0.381888814493755
0.000320108466989087 -0.10432835820895 0.391491763102093
-0.00198350074566951 -0.104328358208949 0.40648763236185
-0.0028262568270126 -0.104328358208949 0.415829157611533
-0.00344550032820826 -0.104328358208949 0.422673930736061
0.00479042867080007 -0.104328358208949 0.431394109014719
-0.00375046041739177 -0.104328358208949 0.443945953693881
-0.00334738667093162 -0.104328358208949 0.458482758403345
0.00130029730021231 -0.104328358208949 0.4568741432316
-0.000879233680055946 -0.104328358208949 0.468425058104552
-0.000472103801935418 -0.104328358208949 0.477688133940984
0.00275366334402239 -0.104328358208949 0.489971490640431
-0.00416874136339367 -0.104328358208949 0.494408230418405
0.0027249565445095 -0.104328358208949 0.511022062758508
0.00470533556525129 -0.104328358208949 0.526735408044301
0.00450351910374548 -0.104328358208949 0.530600016689784
3.33719884672641e-005 -0.104328358208949 0.53520233219708
0.00280363172650889 -0.104328358208949 0.556240796737029
0.00270986881925516 -0.104328358208949 0.561497855621513
0.00151021612896523 -0.104328358208949 0.567611618211053
0.000709962038420482 -0.104328358208949 0.578511968971878
-0.000309833521339881 -0.104328358208949 0.583167225630692
0.00241787163457743 -0.104328358208949 0.592997104273892
0.000307017748377213 -0.104328358208949 0.610532967231526
