ply
format ascii 1.0
element vertex 864
property float x
property float y
property float z
end_header
0.122667035388831 0.0654624179066047 0.356375403120306
0.122667035388831 0.0676107499894766 0.371897506397928
0.122667035388832 0.0664163186785324 0.383475728226214
0.122667035388832 0.071573202292843 0.390492924796842
0.122667035388832 0.0716561504532504 0.402589888326718
0.122667035388831 0.0636264663628154 0.419531152437177
0.122667035388831 0.0715403350656459 0.41828655799019
0.122667035388832 0.070060670732765 0.428882136219361
0.122667035388832 0.0632496382963566 0.435905698153621
0.122667035388832 0.0632377364118759 0.450301252883774
0.122667035388832 0.0653422350000962 0.459870661202637
0.122667035388831 0.0690182622554254 0.471053422331322
0.122667035388831 0.0713881640074247 0.481208773145153
0.122667035388831 0.0669931943914267 0.488277183655127
0.122667035388831 0.0665097928008173 0.492458520091673
0.122667035388831 0.0710256057315137 0.509889305997787
0.122667035388831 0.0700109018870138 0.511825790024455
0.122667035388832 0.0654608890395363 0.524521880000929
0.122667035388831 0.0688034470326645 0.531680795320501
0.122667035388831 0.0666679886140399 0.541425476567405
0.122667035388831 0.07143971360842 0.547383199762629
0.122667035388831 0.0663082553575324 0.564544467735965
0.122667035388831 0.0631788883815344 0.574638798963329
0.122667035388831 0.0696770553285726 0.581344635858944
0.122667035388832 0.066632045608627 0.594260950247563
0.122667035388831 0.0709290398834229 0.601284583138716
0.122667035388832 0.0700822037071413 0.610598648062657
0.122667035388832 0.069418155734959 0.614863848648623
0.122667035388832 0.0639046777366031 0.633664081928478
0.122667035388831 0.0687805986054314 0.641172799666984
0.122667035388831 0.070478608393794 0.65560612127322
0.122667035388832 0.0717873163586536 0.660339423171782
0.122667035388831 0.0670802469349992 0.665665956630607
0.122667035388832 0.0718706400062389 0.67894548183382
0.122667035388832 0.0704600515002669 0.685268865149357
0.122667035388831 0.070279640328157 0.691298470971428
0.122667035388831 0.0622794026513942 0.710726133796098
0.122667035388832 0.0634826024610529 0.71718684058535
0.122667035388832 0.0714419786133667 0.724632067565713
0.122667035388831 0.0705902542657007 0.739311916860765
0.122667035388832 0.0643316115142588 0.751987247463244
0.122667035388832 0.0645646566309383 0.752869005074443
0.122667035388832 0.0625201369123921 0.763055650429944
0.122667035388832 0.0637693030860882 0.777902407013378
0.122667035388832 0.0652932067649078 0.78774301509814
0.122667035388831 0.0705578383441292 0.7930456940697
0.122667035388832 0.0712721040084915 0.800956944368358
0.122667035388831 0.0696743022662195 0.81576469771819
0.122667035388831 0.0634101531229482 0.821984184605852
0.122667035388831 0.0666861181707922 0.839660163553106
0.122667035388831 0.0681160683208219 0.838614021565465
0.122667035388831 0.066392749885303 0.847872860043322
0.122667035388832 0.0659577626608794 0.861792481401023
0.122667035388832 0.0640837790477339 0.870178854237039
0.122667035388831 0.0684582504268096 0.873537575415931
0.122667035388832 0.0631863813696548 0.892782987692314
0.122667035388831 0.0679737406104994 0.903644413745045
0.122667035388832 0.0675181505819196 0.907059538937083
0.122667035388831 0.0695259644155803 0.912474896263099
0.122667035388832 0.0690693643866384 0.931983540591001
0.122667035388831 0.0715110932719411 0.940798394966879
0.122667035388832 0.071707374093826 0.94263507704729
0.122667035388832 0.0688026589248022 0.956959495248472
0.122667035388831 0.0713837464055388 0.962582837072456
0.122667035388831 0.066401935179471 0.974955249516476
0.122667035388831 0.0654585700717007 0.985116780262144
0.118631845145547 0.0663389834390481 0.996946228597548
0.117288621206359 0.065128390692174 0.996954779143167
0.0962542017384284 0.0629995286419019 0.996969815522762
0.0942606768901193 0.0713356918084085 0.996910936313693
0.0754146214233182 0.066824052935093 0.99694280249999
0.0467197471255537 0.0725092799587165 0.996902647135485
0.0432820883432393 0.0651984439632455 0.996954284349445
0.0219038272799603 0.0650499998620485 0.996955332825957
0.0103561860061976 0.0737189894429112 0.996894102828445
-0.0054525017234934 0.067893742292508 0.996935247170031
-0.0203411885568848 0.0706328517470475 0.996915900547969
-0.0367585022374552 0.0752846091210233 0.996883044689765
-0.0419077833505369 0.0732313549743224 0.996897547042678
-0.0566339022033181 0.0745835269725294 0.996887996507715
-0.0827626070979608 0.0714814905526519 0.996909906521622
-0.0945861697017543 0.0697469043418887 0.996922158088933
-0.116477375171586 0.0674223949558303 0.996938576346516
0.122667035388832 0.0733496635677698 0.108610732806422
0.122667035388832 0.0733833237004098 0.119269801789855
0.122667035388831 0.0732603089098148 0.128718573878056
0.122667035388831 0.0729898234994477 0.134970424973366
0.122667035388831 0.0744229520093349 0.151824059894458
0.122667035388831 0.0790499157376567 0.159551028494915
0.122667035388832 0.0792917280334808 0.169519250683495
0.122667035388831 0.0804936219053802 0.182471730207154
0.122667035388832 0.0738226801599514 0.19060862693775
0.122667035388831 0.0728213236123723 0.193014852255352
0.122667035388831 0.078045442570961 0.207577185588394
0.122667035388832 0.0718436072774882 0.221609715569108
0.122667035388831 0.0743455264684447 0.223223897719697
0.122667035388832 0.0794349569857024 0.238286369649975
0.122667035388831 0.0752995957392753 0.248935393627188
0.122667035388831 0.0765629166210492 0.2509619012442
0.122667035388832 0.0788583687886091 0.268807408345018
0.122667035388831 0.0762901189840364 0.273191500225013
0.122667035388831 0.0782677057808922 0.283621613988405
0.122667035388831 0.0815250374319168 0.288310443714555
0.122667035388831 0.0742437092370768 0.310900515713324
0.122667035388831 0.0779993004334028 0.313556194833152
0.122667035388831 0.0761725546106641 0.322434578436909
0.122667035388831 0.074564148117013 0.332378936121141
0.122667035388831 0.0806615956789521 0.343002680153732
0.122667035388832 0.0783687959860896 0.352189438410255
0.122667035388831 0.0791544962721023 0.35514521535347
0.122667035388832 0.0799562028075567 0.373340079994716
0.122667035388831 0.0765316273239362 0.377932961702677
0.122667035388831 0.0755832832685462 0.394125872107434
0.122667035388832 0.0753613965489546 0.40844943956938
0.122667035388831 0.0799417654845748 0.407526016838537
0.122667035388831 0.0741257204307586 0.424728342465636
0.122667035388832 0.0736070719360493 0.430535638771187
0.122667035388831 0.0771844461071258 0.442367825595934
0.122667035388832 0.0719475689993891 0.456421077468371
0.122667035388832 0.0805549871040936 0.461958518940193
0.122667035388832 0.0815500700799005 0.46501549536706
0.122667035388831 0.074308675717912 0.474705674183129
0.122667035388831 0.0767519466682755 0.491298600547085
0.122667035388831 0.0799409399038391 0.496957947539767
0.122667035388831 0.0813194339113785 0.505947831999188
0.122667035388831 0.0816279454980064 0.514426079710552
0.122667035388832 0.0751062717065055 0.525749457720145
0.122667035388832 0.0767688098913695 0.533607368194364
0.122667035388832 0.0722301539728488 0.545806584361926
0.122667035388831 0.0780178564508082 0.552333260462898
0.122667035388832 0.0729114676547751 0.558748261233725
0.122667035388832 0.0728163696192634 0.572450049558491
0.122667035388831 0.0808066393123462 0.577095062554953
0.122667035388831 0.0809151169140678 0.588685503150079
0.122667035388831 0.079694589321041 0.603367125389499
0.122667035388831 0.0777728465826646 0.607818576778537
0.122667035388831 0.0787497057486075 0.62279765875237
0.122667035388832 0.0722699924863162 0.633189244553305
0.122667035388831 0.0733336073113877 0.64342492706083
0.122667035388832 0.0729317680241651 0.647654816949503
0.122667035388832 0.0782552171977201 0.657654898727409
0.122667035388831 0.0757736650648733 0.668877475687834
0.122667035388831 0.0725634509836781 0.678976700227196
0.122667035388831 0.0726516506130037 0.68711137921307
0.122667035388831 0.0750320929567143 0.696494904668339
0.122667035388831 0.0759606261713524 0.706844497991077
0.122667035388832 0.0769535893666961 0.71628868449599
0.122667035388831 0.0763861162900673 0.731531939336662
0.122667035388831 0.0759781680421266 0.736341190052078
0.122667035388831 0.0791992861713256 0.746426237108514
0.122667035388832 0.0726780895887891 0.757299207054105
0.122667035388831 0.0761758655750083 0.766835640447427
0.122667035388832 0.0718661960186519 0.774854185345975
0.122667035388831 0.0764665123840367 0.785065646750872
0.122667035388831 0.0807108903461319 0.798791726730386
0.122667035388832 0.0815107121958494 0.806122699989709
0.122667035388831 0.0753850731914692 0.818441762411526
0.122667035388831 0.0803758521564269 0.827119849996442
0.122667035388831 0.0798368692787619 0.830807538393729
0.122667035388832 0.0811086914539235 0.849403796944915
0.122667035388832 0.0741742356885367 0.844722873250594
0.122667035388831 0.0749160511774856 0.855930936908257
0.122667035388831 0.0721835343708329 0.870578702783761
0.122667035388831 0.0763723126557562 0.88038952181827
0.122667035388832 0.0718081759788647 0.892701899124349
0.122667035388832 0.0809278849903013 0.89810750700569
0.122667035388831 0.0769732256509021 0.906670625494235
0.122667035388831 0.0807122485869687 0.921314272654395
0.122667035388831 0.0796463109955882 0.928363470407764
0.122667035388832 0.0737832258115573 0.933005328849678
0.122667035388831 0.0810978826820485 0.946145075050194
0.122667035388832 0.0807961817158312 0.957263409335647
0.122667035388831 0.073362201684072 0.969954554828503
0.122667035388831 0.0783329934507316 0.981538187900579
0.122667035388831 0.0781230213271955 0.98098980790475
0.122667035388832 0.0720484489165116 0.99417715226024
0.105020887738718 0.0731306775924834 0.996898258137758
0.0907805658958519 0.0795633039586918 0.996852823812025
0.0751324956419533 0.0808857317678857 0.99684348336344
0.0686889616983876 0.0755256002854534 0.996881342543482
0.051919072419057 0.0793127962351163 0.99685459317478
0.0450294496661248 0.0811681434884444 0.996841488659353
0.0177488911794891 0.0766243568523762 0.996873581908724
0.0198471239039323 0.0843613384892889 0.996818934782671
0.00357214979928742 0.081239173103344 0.99684098696961
-0.0125023384688057 0.080474305570014 0.996846389310532
-0.0346019176364053 0.0839486766323306 0.996821849457357
-0.0452239652308018 0.0842680667508857 0.996819593570902
-0.065270881131693 0.0832597556715435 0.99682671537954
-0.087546271605102 0.0872350693476737 0.996798637315283
-0.0917315606483346 0.0823862263173592 0.996832885210486
-0.106274437750427 0.0798054841394115 0.996851113267592
0.122667035388831 0.0903601389508673 0.112640432643711
0.122667035388832 0.0830384383166289 0.121910762589661
0.122667035388832 0.0845813230103132 0.131615553807701
0.122667035388831 0.0863708769046877 0.142039186230077
0.122667035388831 0.0887355420743124 0.153088020518804
0.122667035388831 0.0877611332338665 0.158634982842452
0.122667035388831 0.0840046720274962 0.171777566467312
0.122667035388832 0.0882524614742975 0.180179483337392
0.122667035388832 0.0846187116065963 0.191660799514338
0.122667035388832 0.0824552355235651 0.201109247820182
0.122667035388832 0.0851043967649174 0.210600748724919
0.122667035388831 0.0821521228061933 0.225014347940647
0.122667035388832 0.08393812589951 0.220656740618034
0.122667035388832 0.0854408327973473 0.238485366976443
0.122667035388832 0.0901874395475893 0.245830626630272
0.122667035388831 0.0849087531681818 0.254375494199656
0.122667035388831 0.0862876594739647 0.26322149829901
0.122667035388831 0.0843695981069166 0.269528356693767
0.122667035388832 0.0899646811614267 0.284397884917352
0.122667035388832 0.0909927205004539 0.297275083638792
0.122667035388831 0.0858861909189712 0.301154486952479
0.122667035388832 0.0826852581778626 0.312519818040484
0.122667035388831 0.0849159562053761 0.319071049271096
0.122667035388832 0.0860204582363187 0.334410223712709
0.122667035388831 0.0831783350230211 0.33922602606066
0.122667035388832 0.0875662104527909 0.351841992048084
0.122667035388831 0.0828182865242205 0.359810076193042
0.122667035388831 0.0907758311966094 0.373616295657732
0.122667035388832 0.0847191675303135 0.384377284317198
0.122667035388831 0.08203495527431 0.396114900142494
0.122667035388832 0.0891984758986415 0.402077576205193
0.122667035388832 0.0910426616552765 0.411635361834856
0.122667035388832 0.0904418199731613 0.421705836799846
0.122667035388831 0.0851029950390821 0.432106051731952
0.122667035388832 0.0889136369018846 0.438962739258198
0.122667035388831 0.0851293875200331 0.452423452555127
0.122667035388832 0.0903180678565491 0.455534294230735
0.122667035388831 0.0871741716337548 0.467706316549629
0.122667035388832 0.0883299952898045 0.479585984555206
0.122667035388831 0.0905661596830142 0.486289162755252
0.122667035388831 0.0877529995770673 0.499383381385005
0.122667035388832 0.0845003070796516 0.505919048544721
0.122667035388832 0.0853486641302079 0.512016233849608
0.122667035388831 0.0866612140756842 0.526062570321819
0.122667035388831 0.083524253890183 0.536629167302941
0.122667035388832 0.0859633384913548 0.539926370544739
0.122667035388831 0.0903025467009071 0.554568349781066
0.122667035388831 0.0830593686276307 0.560242266952601
0.122667035388832 0.0834652095783499 0.573401533359953
0.122667035388832 0.0893279462010231 0.585692812658599
0.122667035388831 0.0864962339908937 0.596327041807699
0.122667035388832 0.081428085258559 0.606942388729268
0.122667035388832 0.0828368214933982 0.611573632017708
0.122667035388831 0.0825056447371075 0.61953006263049
0.122667035388831 0.0912390149213378 0.630939128083287
0.122667035388832 0.0897877223183723 0.641955294843746
0.122667035388831 0.0891331832381859 0.64976296389937
0.122667035388832 0.087771448337669 0.656351509922952
0.122667035388832 0.0843469892023247 0.666150080298449
0.122667035388832 0.0850788453595939 0.682184981615884
0.122667035388832 0.0909577074362912 0.681039035313253
0.122667035388831 0.0892233782906088 0.701957751381381
0.122667035388832 0.0833722499106102 0.706133226190289
0.122667035388831 0.0884207368226614 0.722942502478715
0.122667035388831 0.0858465164084225 0.721419263353976
0.122667035388831 0.0897122764161573 0.739197468634894
0.122667035388831 0.0848491235760507 0.74002703111452
0.122667035388831 0.0862026676923327 0.758594117894469
0.122667035388832 0.0887241285379181 0.76681576762551
0.122667035388831 0.0874147965244396 0.782748214823524
0.122667035388831 0.0872130509169846 0.783990141731679
0.122667035388831 0.0883274405896219 0.796093729939634
0.122667035388831 0.0903268721710295 0.810202713974628
0.122667035388831 0.0893437652354039 0.806902780593455
0.122667035388832 0.0845843011218921 0.824667141357215
0.122667035388831 0.0844879584063058 0.831821768846739
0.122667035388831 0.0877766056016158 0.838559134802133
0.122667035388832 0.0907621734648247 0.853222016791079
0.122667035388832 0.0839435263230704 0.85802172607059
0.122667035388831 0.0818415328443505 0.868956555051411
0.122667035388832 0.0868618910599662 0.878103640384212
0.122667035388832 0.085325014801129 0.893013019381012
0.122667035388831 0.0816727523902901 0.90130687351867
0.122667035388832 0.0905942684633411 0.907759232862197
0.122667035388832 0.0890485098858174 0.914055219036223
0.122667035388831 0.0878194834668115 0.926835989399453
0.122667035388832 0.088652494760025 0.935298603013613
0.122667035388832 0.0881486034762448 0.942564825743372
0.122667035388832 0.0892888434548446 0.95882698931153
0.122667035388832 0.0907231720507907 0.965210403208971
0.122667035388831 0.0868237913134762 0.971656427896328
0.122667035388832 0.0912249409470433 0.981432099389161
0.122667035388832 0.0824326131552718 0.989363240848969
0.113484593930756 0.0832684632866941 0.996826653876726
0.086866665181098 0.0873446124950135 0.996797863600356
0.0874762207616216 0.0882539682233845 0.996791440723911
0.0656196637538275 0.0892913715043078 0.996784113433952
0.0536857480659104 0.0888801997517041 0.996787017583871
0.0400312249033813 0.0901600545343173 0.996777977833111
0.0168874134601428 0.0893110360042394 0.996783974541493
0.00554181854774715 0.0916679945905394 0.99676732709175
-0.0135809747589396 0.0880226002759183 0.996793074900387
-0.023657078978781 0.0897277498171935 0.996781031247411
-0.0371133428791576 0.0952540668482713 0.996741998281123
-0.041478799325615 0.0891074350450996 0.996785412596771
-0.0645899409358201 0.092259368559682 0.996763150154366
-0.0819224264033338 0.0954640210184466 0.996740515352438
-0.100045219536425 0.0909233731707098 0.996772586432213
0.122667035388832 0.0943977614948664 0.119032223757702
0.122667035388831 0.0943191494049289 0.119135399230023
0.122667035388832 0.0940020146962664 0.131933320839338
0.122667035388831 0.0974535640968567 0.144715356836195
0.122667035388831 0.100345960014711 0.149564655391759
0.122667035388832 0.0977587927476841 0.157644602465411
0.122667035388831 0.0997464575093646 0.169389030996619
0.122667035388831 0.0918751387223314 0.180684360846685
0.122667035388831 0.0940820359528752 0.181396228993624
0.122667035388831 0.0963617982638474 0.201941966848208
0.122667035388832 0.0977382975542361 0.212384071369389
0.122667035388832 0.0978052460380491 0.220196287985035
0.122667035388832 0.0965436575905601 0.225450977088743
0.122667035388831 0.0935185893314934 0.238827831789655
0.122667035388832 0.0922821587855261 0.252417150958759
0.122667035388831 0.0928711926639867 0.257761513595713
0.122667035388831 0.0977992682605613 0.267963281848024
0.122667035388832 0.09430618373763 0.275992666380297
0.122667035388831 0.0975592740592985 0.287016869839922
0.122667035388831 0.0923341368665074 0.302700132251228
0.122667035388831 0.0921391318589297 0.312639674909331
0.122667035388832 0.0928895705507781 0.313306020424179
0.122667035388831 0.0971500097360972 0.332407643951165
0.122667035388831 0.0950987170099307 0.325898518851522
0.122667035388831 0.0936416933577502 0.340417760039473
0.122667035388831 0.092197494857785 0.357097898995729
0.122667035388831 0.0993654030870248 0.368209064907285
0.122667035388831 0.0919256768662657 0.368149976013633
0.122667035388831 0.0912238452694896 0.385585906501052
0.122667035388831 0.0968840066066722 0.384869588680854
0.122667035388831 0.0912250934081995 0.403544236781518
0.122667035388832 0.0971217730333518 0.40685572439003
0.122667035388831 0.0912987134023459 0.41512892164146
0.122667035388831 0.0971756971047174 0.433151936690625
0.122667035388831 0.0986665763029616 0.440682559342269
0.122667035388831 0.091902399251216 0.445002641083589
0.122667035388832 0.0927158471474136 0.456118756386277
0.122667035388832 0.0977313715066636 0.465688173868325
0.122667035388831 0.0913315142116565 0.475951586069844
0.122667035388831 0.0929066058026022 0.482157940934941
0.122667035388831 0.0956038201025089 0.496702631736735
0.122667035388831 0.0912403276510068 0.508122034987266
0.122667035388831 0.0972170517023239 0.513733333982701
0.122667035388832 0.0969304204786683 0.520122282057449
0.122667035388831 0.095495612982661 0.532126715722073
0.122667035388832 0.0966664098907161 0.538100031034345
0.122667035388832 0.1001016827614 0.553188235866307
0.122667035388831 0.0935717609005906 0.565154614665185
0.122667035388832 0.0969055193702014 0.573802451080302
0.122667035388832 0.0937030328963589 0.584079239880159
0.122667035388831 0.0966209782948961 0.585967226107572
0.122667035388831 0.100661968707101 0.598616217815112
0.122667035388832 0.0986548323245879 0.61531463813104
0.122667035388832 0.0928644334470714 0.616509949585152
0.122667035388831 0.100170640911775 0.632066983459911
0.122667035388831 0.0949643872896871 0.634776304209165
0.122667035388831 0.0927148975631346 0.648281773078064
0.122667035388831 0.0997879723738231 0.663768365469587
0.122667035388831 0.0984825818150039 0.666472822592348
0.122667035388831 0.0914976174365458 0.6792016881115
0.122667035388832 0.100529829697527 0.686718757274984
0.122667035388831 0.0960418127048214 0.698557880819398
0.122667035388832 0.0911735624642042 0.704729713323195
0.122667035388831 0.100108593611366 0.717091475729566
0.122667035388831 0.097224104557328 0.728434335157939
0.122667035388831 0.0981644309793122 0.737628902850832
0.122667035388831 0.0943937888102845 0.749757151511306
0.122667035388831 0.0979851275962088 0.757104568909986
0.122667035388832 0.0970091647150353 0.766797320357208
0.122667035388832 0.0945690869437067 0.780775110614844
0.122667035388831 0.0919217558961477 0.78200561801636
0.122667035388832 0.0981815276003978 0.799025877212767
0.122667035388831 0.0989270587506755 0.804549565263997
0.122667035388831 0.0944929598351313 0.814595902583545
0.122667035388832 0.0933816480380981 0.824318765877256
0.122667035388831 0.0991978240623184 0.837118852121812
0.122667035388832 0.0960924417039224 0.845353464232532
0.122667035388831 0.100418593421688 0.85248866839028
0.122667035388832 0.0998977524659772 0.857570126053383
0.122667035388832 0.093317646753331 0.866239023608481
0.122667035388831 0.095237580963001 0.873825486516794
0.122667035388831 0.100332227412135 0.891778334346047
0.122667035388831 0.0978501867271877 0.900327717520527
0.122667035388831 0.0938696328330933 0.907517050604342
0.122667035388831 0.0934828141804499 0.915942233495522
0.122667035388832 0.0918072911453948 0.932464436346688
0.122667035388831 0.0956800822198366 0.938269280390905
0.122667035388832 0.0949583997547361 0.940889177013348
0.122667035388831 0.0981869186702977 0.950851573483183
0.122667035388832 0.0913646901398832 0.971829420629771
0.122667035388831 0.0926869868790412 0.974609508755873
0.122667035388832 0.0966481416537568 0.979848701197026
0.119656358786288 0.0989068892272702 0.996716198007275
0.104260201138569 0.100399040971581 0.996705658780443
0.106386759135451 0.0921635674290601 0.996763826807963
0.086487854013081 0.093870479275859 0.996751770707635
0.0739618422350987 0.0975956362789516 0.996725459526626
0.0595932231939937 0.100432094851397 0.996705425317367
0.0438185706757602 0.101729915828556 0.996696258669459
0.032070740144431 0.0987613869318048 0.996717225705498
0.0157462216907511 0.0946651412991692 0.996746157925055
-0.00649221738569094 0.103806719120892 0.996681589986421
-0.0123320493667972 0.0966379605693855 0.99673222369225
-0.0388448900807119 0.0984648880700192 0.996719319908565
-0.0510439515753351 0.102398549292408 0.996691536040028
-0.0682206359698509 0.104495489917603 0.996676725124862
-0.0764065891771461 0.104239000226314 0.996678536738893
-0.0932193010047286 0.101897771905654 0.996695073084094
-0.109851951110226 0.099317299584891 0.99671329923517
0.122667035388831 0.100943142750856 0.120479256932769
0.122667035388832 0.109338806954162 0.11449570728186
0.122667035388831 0.105423694374095 0.13006144236969
0.122667035388832 0.107816590241287 0.145881338547322
0.122667035388832 0.100610831883394 0.157885749527434
0.122667035388831 0.109780043755393 0.159634938560218
0.122667035388831 0.104130816567 0.170205281478024
0.122667035388831 0.101833234286155 0.174724001069175
0.122667035388832 0.107986162564666 0.185537845350603
0.122667035388831 0.101812858770406 0.199571354497462
0.122667035388832 0.109544244734765 0.209184397280087
0.122667035388831 0.107649433539811 0.218437379923711
0.122667035388831 0.109823671758181 0.230526937344708
0.122667035388831 0.106493722836938 0.235553305127836
0.122667035388831 0.109495719224044 0.24814052763623
0.122667035388831 0.109050854473894 0.261906624831856
0.122667035388832 0.108397984214045 0.261136393783285
0.122667035388831 0.100654804471926 0.278830008713426
0.122667035388831 0.105210872541282 0.283847267217625
0.122667035388831 0.106692132192161 0.289775914528196
0.122667035388831 0.107394603592861 0.303248880228238
0.122667035388831 0.109947265194713 0.313965073709345
0.122667035388831 0.110009045785174 0.323224132120302
0.122667035388831 0.100726266375503 0.334549552187496
0.122667035388832 0.109466395911847 0.346226249404393
0.122667035388832 0.107270623581324 0.353002629868591
0.122667035388831 0.103518681431985 0.364412858391494
0.122667035388831 0.102259313185683 0.36982023536744
0.122667035388831 0.102233818343319 0.38128352227977
0.122667035388831 0.104634629075816 0.389706421938533
0.122667035388832 0.108467500782492 0.393767747499761
0.122667035388831 0.106346049800919 0.409907016368023
0.122667035388832 0.107900530011185 0.413639511276182
0.122667035388832 0.102741220231241 0.430582195094868
0.122667035388831 0.10677682763991 0.433221950371759
0.122667035388831 0.105566510605753 0.444899000486736
0.122667035388831 0.106720348634088 0.462132240602011
0.122667035388831 0.110119930669007 0.470433139404171
0.122667035388831 0.101642552050577 0.478918640499018
0.122667035388832 0.107873735254497 0.493144245078978
0.122667035388832 0.104955868054041 0.502104498919036
0.122667035388831 0.10715456392157 0.512242236988941
0.122667035388831 0.102711261661669 0.521200010318854
0.122667035388832 0.109335798991049 0.526506929834644
0.122667035388832 0.105761015619223 0.536808054623043
0.122667035388832 0.10552585044959 0.547380961247606
0.122667035388831 0.105016879448412 0.558933457831458
0.122667035388831 0.105556230625054 0.556377348588784
0.122667035388831 0.102085801084731 0.579208523082889
0.122667035388832 0.102267789915781 0.578808663480901
0.122667035388832 0.100945717997125 0.591075831084031
0.122667035388831 0.110137886762072 0.598338874844889
0.122667035388831 0.102320482071341 0.607311172833849
0.122667035388832 0.108661995005109 0.625378285467747
0.122667035388832 0.101002403251182 0.633303028363742
0.122667035388831 0.106943667246727 0.64292767075352
0.122667035388832 0.105782607252222 0.644380746071808
0.122667035388832 0.100759010022569 0.65970842804243
0.122667035388831 0.104332083009975 0.666945320264204
0.122667035388831 0.101557228644369 0.675740431966146
0.122667035388831 0.103335248273601 0.68443876393783
0.122667035388832 0.107549546179683 0.705414663400913
0.122667035388832 0.106709419959846 0.707292708016989
0.122667035388832 0.10880276300534 0.717023206605681
0.122667035388832 0.107262060716519 0.731473159209626
0.122667035388831 0.103504125894856 0.739543267599387
0.122667035388831 0.108259944302794 0.750101063414228
0.122667035388831 0.109910897540851 0.757743100338126
0.122667035388831 0.103673098898773 0.770481789256124
0.122667035388831 0.101166977491753 0.774459370715345
0.122667035388832 0.105948817142397 0.790428455019423
0.122667035388832 0.105836114255936 0.792092223049179
0.122667035388831 0.104046753866347 0.805657719840862
0.122667035388832 0.103071565742769 0.812198809339543
0.122667035388832 0.101760078658343 0.823251703256594
0.122667035388831 0.10798323437396 0.832859258135342
0.122667035388831 0.101769895109915 0.842958726829158
0.122667035388831 0.10075905196091 0.859693252280395
0.122667035388832 0.108839300745188 0.860973653184708
0.122667035388831 0.108587718348653 0.867606181507487
0.122667035388831 0.109530157386427 0.888105719522665
0.122667035388831 0.103887907750553 0.886334724385851
0.122667035388831 0.109260507297967 0.892295576761533
0.122667035388832 0.108066527022088 0.909978646464268
0.122667035388831 0.110031309833705 0.911689784414566
0.122667035388831 0.109404819762783 0.921139989543731
0.122667035388832 0.105655313515878 0.936977129647113
0.122667035388832 0.10725505164633 0.944864659454629
0.122667035388832 0.104736372531859 0.954510022875076
0.122667035388831 0.104861779176177 0.964375729645257
0.122667035388831 0.107220322728857 0.983177073596202
0.122667035388831 0.108364905161188 0.983672117781589
0.122667035388832 0.104729858696989 0.992919534023736
0.1034159474381 0.103419904997103 0.996684322095811
0.10332582556029 0.10542710505348 0.996670145027849
0.0856001424696792 0.103776877630075 0.996681800760052
0.0770832630937733 0.10674252015378 0.996660854110774
0.0555008018493619 0.108595487599937 0.996647766404178
0.0371209390201883 0.106629689127003 0.996661651048343
0.0169714772801775 0.110872121007589 0.996631686299734
0.00977638764988851 0.105935132978881 0.996666556772456
-0.00349795588952914 0.114530261472824 0.996605848463675
-0.0127588463919289 0.10793561460426 0.996652427157488
-0.0322878681459008 0.109497580926292 0.996641394822852
-0.0447159321821014 0.107078595596831 0.996658480374094
-0.0773939007025992 0.116491078890524 0.996591999001234
-0.0909228978399616 0.115323586513371 0.996600245124346
-0.106385946339788 0.108906581096328 0.996645569117651
-0.12239224399298 0.113460196049255 0.996613406449829
0.122667035388831 0.115953208622739 0.11595241507535
0.122667035388831 0.110508748276064 0.129767171445831
0.122667035388832 0.116133815326538 0.132795770983396
0.122667035388831 0.114727438033215 0.141510058673428
0.122667035388832 0.11595270407132 0.147812642889425
0.122667035388831 0.116148437690943 0.166488889489995
0.122667035388832 0.119339845082083 0.162701585030806
0.122667035388832 0.116370846820854 0.183491154368603
0.122667035388831 0.116491163004131 0.186613718540264
0.122667035388831 0.111996340115641 0.19657364225026
0.122667035388831 0.118815347237183 0.210043720103664
0.122667035388832 0.114577677149691 0.212552301731961
0.122667035388832 0.116783888812604 0.229920022367374
0.122667035388831 0.119142019294298 0.231764903493496
0.122667035388831 0.11637937269538 0.249718211839134
0.122667035388832 0.119847118654224 0.25233794776602
0.122667035388831 0.119387960825254 0.267231225526166
0.122667035388831 0.114132404819409 0.275434948732977
0.122667035388831 0.11355725534297 0.280315470007358
0.122667035388832 0.116072416559698 0.289595816634501
0.122667035388831 0.113142420589225 0.308692211039128
0.122667035388831 0.118783772908935 0.320602043021075
0.122667035388832 0.117499978712851 0.318631855930611
0.122667035388832 0.114183751229156 0.335093517985329
0.122667035388831 0.111078731099529 0.343505007176848
0.122667035388831 0.112576283184579 0.359209905889673
0.122667035388831 0.119205775315884 0.362788520820384
0.122667035388831 0.117120537572676 0.370639508712556
0.122667035388831 0.114125640107183 0.382336233300633
0.122667035388831 0.117722290107829 0.396173613514832
0.122667035388831 0.112761277887511 0.391966696009209
0.122667035388831 0.110455953357771 0.412415251725171
0.122667035388831 0.114217289566458 0.419467975334663
0.122667035388832 0.110288240357549 0.428253952806329
0.122667035388832 0.11929199165929 0.443878844190853
0.122667035388832 0.11312590036318 0.447740510818262
0.122667035388831 0.113724356551531 0.45165218779364
0.122667035388832 0.117245383201222 0.466727809775978
0.122667035388831 0.117286552926957 0.479551445378013
0.122667035388832 0.115878351535027 0.487953785593907
0.122667035388831 0.118623429735021 0.49902821575337
0.122667035388831 0.11828633494933 0.504127115489764
0.122667035388832 0.111830216386229 0.515874927969593
0.122667035388832 0.111553527877032 0.522107466375786
0.122667035388832 0.110509084657653 0.542049629619729
0.122667035388831 0.116578442683758 0.545744897956988
0.122667035388832 0.116196904403021 0.550005787889681
0.122667035388832 0.117165615913651 0.563101644157946
0.122667035388832 0.115381022148527 0.576220846242661
0.122667035388831 0.112356231184758 0.583583734475389
0.122667035388831 0.1195952184274 0.596612801327241
0.122667035388832 0.112586490824302 0.604007051057264
0.122667035388831 0.115376141999311 0.616936874179055
0.122667035388831 0.110357541300106 0.6188606897807
0.122667035388831 0.114960172146436 0.638596389210687
0.122667035388831 0.111139983541772 0.639970823160071
0.122667035388832 0.114763520434226 0.646963695990891
0.122667035388832 0.11553250171645 0.655538443283067
0.122667035388832 0.111469054676476 0.665417752814841
0.122667035388832 0.116488650598133 0.676718066787899
0.122667035388831 0.117014972192825 0.692597183921453
0.122667035388831 0.118832640342784 0.696668031191649
0.122667035388832 0.115600897492647 0.7060712034893
0.122667035388832 0.117934332416244 0.718798954614735
0.122667035388831 0.110481418308211 0.727489269877076
0.122667035388831 0.112716950895467 0.739480532159466
0.122667035388832 0.11921190308957 0.749902319309962
0.122667035388832 0.115678282681584 0.756778380835199
0.122667035388832 0.114737952025006 0.76587020727159
0.122667035388831 0.111691059113859 0.769122412817242
0.122667035388831 0.11634074395471 0.784939914117698
0.122667035388831 0.11642055929867 0.7927877994566
0.122667035388831 0.114501157366113 0.803464389292402
0.122667035388831 0.117306456102779 0.815068889927804
0.122667035388831 0.11128878956911 0.818119531580388
0.122667035388831 0.11622903159877 0.830513275421878
0.122667035388832 0.113300480960277 0.840077204707172
0.122667035388831 0.111872248808849 0.845255389392778
0.122667035388832 0.111533722067467 0.862311336223756
0.122667035388832 0.118712193821836 0.868275397017858
0.122667035388832 0.111412307602479 0.878665799153297
0.122667035388831 0.110965263913871 0.887542172307442
0.122667035388832 0.110737992184129 0.904930549103992
0.122667035388832 0.11053706099807 0.902765775290332
0.122667035388832 0.115040239383735 0.916715640416565
0.122667035388832 0.110608962385872 0.920645586620751
0.122667035388832 0.116511186672401 0.938908339195235
0.122667035388831 0.118235817645803 0.950459942427034
0.122667035388832 0.1178522845489 0.952323541575375
0.122667035388832 0.12002648408043 0.9651705709016
0.122667035388832 0.110739341572331 0.972791135695324
0.122667035388831 0.110853580336657 0.980646219144355
0.122667035388831 0.115793624599244 0.99611752909195
0.114140117080713 0.110674529240778 0.996633081911446
0.0970652707351647 0.114409407066444 0.996606702071231
0.0819104694433906 0.118467046867156 0.99657804252878
0.0729435485930504 0.120960793278778 0.996560428932045
0.0628304224914423 0.11399714991363 0.996609613887447
0.0412372359140524 0.119283406500239 0.996572276493668
0.0314909434681362 0.114423177895794 0.996606604806395
0.00438693445521415 0.123733500327627 0.996540845006592
-0.00816532102622789 0.119480143353693 0.9965708869203
-0.01596296241173 0.119211657711534 0.996572783263012
-0.04192011107958 0.124271955361702 0.996537041841288
-0.0504651717820775 0.118962284545468 0.996574544612266
-0.0775075847711901 0.118696088925456 0.996576424780306
-0.0862081181070063 0.12702801194608 0.99651757551984
-0.086440214769028 0.126844319239831 0.996518872961006
-0.117537022208655 0.120212940611439 0.996565711095154
0.122667035388831 0.127291866178713 0.109364369589456
0.122667035388831 0.129203238628309 0.124375385539243
0.122667035388832 0.128518831751777 0.128940143907728
0.122667035388831 0.125220401658992 0.142594348953897
0.122667035388831 0.128860212771864 0.148046035734184
0.122667035388832 0.127646657991746 0.16739355024963
0.122667035388832 0.124624409907467 0.162219937732997
0.122667035388832 0.123082881917218 0.180507042815316
0.122667035388832 0.121308233418996 0.183689719578846
0.122667035388832 0.128540962995664 0.197927057563285
0.122667035388831 0.122492478844969 0.20557594431763
0.122667035388831 0.126802252379201 0.221224114151713
0.122667035388832 0.123006196979577 0.223526790126615
0.122667035388832 0.12727069357432 0.242085502371168
0.122667035388832 0.128287629484204 0.251161010918446
0.122667035388831 0.120705447107563 0.256578434226466
0.122667035388832 0.12540133873734 0.275597533348299
0.122667035388832 0.122065407120386 0.275702830966084
0.122667035388831 0.126513142979564 0.28884122696569
0.122667035388831 0.126297636357697 0.292710925487821
0.122667035388832 0.128858890981215 0.300822197711456
0.122667035388832 0.127985969331089 0.319436321498655
0.122667035388832 0.125568827451014 0.325957146393113
0.122667035388832 0.120456663158703 0.338394479823818
0.122667035388831 0.127078094785704 0.343270970161234
0.122667035388831 0.125868658807364 0.347217811200679
0.122667035388832 0.127517066540003 0.360410708611443
0.122667035388831 0.12223773738882 0.370149121664482
0.122667035388831 0.124937482945881 0.381653211208682
0.122667035388831 0.125155955027348 0.392058040619807
0.122667035388831 0.129428088540827 0.401424327530508
0.122667035388831 0.122345309276539 0.410931536949644
0.122667035388832 0.123513160417728 0.420138044197571
0.122667035388831 0.123077479876523 0.436440467584057
0.122667035388831 0.124106927193205 0.43515846465912
0.122667035388831 0.123975424149474 0.448418473443533
0.122667035388831 0.121375940356337 0.465292800421057
0.122667035388831 0.126207750837087 0.468309084382979
0.122667035388832 0.123721372030352 0.477640658456503
0.122667035388832 0.120353809248592 0.479490914038591
0.122667035388832 0.129240204669153 0.49315253641534
0.122667035388831 0.121520506546318 0.498781829629889
0.122667035388832 0.12145797121654 0.519217908870639
0.122667035388832 0.12098618057536 0.523717810573664
0.122667035388831 0.12231149288276 0.534254197251655
0.122667035388831 0.126041704258427 0.547977193794381
0.122667035388832 0.127308975458676 0.551539586885277
0.122667035388832 0.121926416401947 0.558919779499324
0.122667035388832 0.127944671933794 0.572262679725457
0.122667035388832 0.123032603167685 0.583644044289311
0.122667035388832 0.12713840105495 0.590492425346405
0.122667035388831 0.125609001504522 0.595942408901382
0.122667035388831 0.120798473338093 0.612059772857211
0.122667035388831 0.121175385580432 0.619347360321732
0.122667035388832 0.12916949037704 0.624788956759767
0.122667035388832 0.12513797605367 0.646284893582996
0.122667035388831 0.128292309085563 0.654112473183043
0.122667035388831 0.125814822510438 0.659540622339456
0.122667035388831 0.120086899605407 0.671554740311527
0.122667035388831 0.120835258400985 0.678994504321559
0.122667035388831 0.127546735124989 0.695978117278359
0.122667035388832 0.121157218123335 0.703165197658102
0.122667035388831 0.128910675819822 0.704844434948134
0.122667035388831 0.125816324300138 0.715746736956124
0.122667035388831 0.129429524260036 0.73324379703636
0.122667035388832 0.121739944072708 0.738789835138653
0.122667035388831 0.12593362163715 0.744307491073138
0.122667035388832 0.121558165571516 0.755269872223409
0.122667035388831 0.126099680608028 0.767197356682381
0.122667035388832 0.121304189219003 0.771829113203604
0.122667035388832 0.123186983122139 0.780179700694274
0.122667035388831 0.12091741537664 0.788782809272854
0.122667035388832 0.129257139950047 0.806773398570071
0.122667035388832 0.121791771717783 0.814434412822501
0.122667035388832 0.123875679986324 0.823275970708441
0.122667035388832 0.122094259811193 0.83837087499345
0.122667035388831 0.125125413661685 0.8427808122416
0.122667035388832 0.124917898546305 0.854339643146882
0.122667035388831 0.121517953934734 0.865293380430086
0.122667035388832 0.128142257164378 0.868064326671228
0.122667035388831 0.121032706223911 0.882042927108332
0.122667035388831 0.121336626300043 0.891454941314757
0.122667035388832 0.121668811633911 0.89354090901367
0.122667035388831 0.122404933116313 0.908068826354103
0.122667035388832 0.121502068137916 0.919134815255613
0.122667035388831 0.120513208581404 0.933423275599468
0.122667035388832 0.124940454208573 0.936464612287541
0.122667035388831 0.124054085470422 0.944762173614831
0.122667035388831 0.121228648058896 0.961466735941693
0.122667035388831 0.12665175914857 0.964853100068083
0.122667035388832 0.127914695878095 0.977475529852213
0.122667035388831 0.124406816950826 0.988689767230806
0.122667035388831 0.127632017545277 0.990562170264615
0.1069097179357 0.121098018611371 0.996559459694893
0.0955361553447187 0.121247877365264 0.996558401226539
0.0785415816599707 0.122165031917545 0.996551923266169
0.067173729106885 0.129642088197257 0.996499112020622
0.0596864562759577 0.132365702712212 0.996479874840969
0.0446675621730019 0.128463098807552 0.99650743934836
0.0202623544989473 0.12441359174722 0.996536041448398
0.00209794421632324 0.130161662852196 0.996495442209448
-0.00392453249662926 0.133168815312146 0.996474202371066
-0.025851840567943 0.135238073696815 0.996459586978514
-0.0351026426802706 0.129136972383617 0.996502679707458
-0.0540309058198824 0.132682158432001 0.996477639680487
-0.0632020208176748 0.135571169889037 0.996457234284601
-0.0750038770441969 0.128309233975188 0.996508526112073
-0.103760345622276 0.132294978780523 0.996480374371638
-0.106173456760053 0.130023786764001 0.996496416042956
0.122667035388831 0.137797882786013 0.111505336376966
0.122667035388831 0.132255152174565 0.117841197658285
0.122667035388831 0.135165020696294 0.12592600537175
0.122667035388831 0.132096260674393 0.14219761262609
0.122667035388831 0.137983513281959 0.148073616762367
0.122667035388831 0.129811920500525 0.160421215045087
0.122667035388831 0.134434610467437 0.168899595600618
0.122667035388831 0.136348618543345 0.182536450190585
0.122667035388831 0.139061546426141 0.190921350314985
0.122667035388831 0.133804725389351 0.196802143315036
0.122667035388831 0.138391686816538 0.208428161992747
0.122667035388831 0.135182035502382 0.21212171975681
0.122667035388831 0.135188087241827 0.22756877008479
0.122667035388832 0.135581698038405 0.236625072375902
0.122667035388832 0.135973035620195 0.242833947779465
0.122667035388832 0.132031507830998 0.261018923303781
0.122667035388832 0.138576374788496 0.263060902367679
0.122667035388832 0.132939291340201 0.270257130226107
0.122667035388831 0.132390853987104 0.291897307627854
0.122667035388832 0.130331949049703 0.297624703444184
0.122667035388831 0.129864244732106 0.308403833380967
0.122667035388832 0.134914960628905 0.313262009764865
0.122667035388831 0.134786406957532 0.319470330016061
0.122667035388831 0.129918321323191 0.335464520041059
0.122667035388831 0.138650955201832 0.346638402091884
0.122667035388831 0.13483958033864 0.355465902117366
0.122667035388831 0.131765496211511 0.364210304368967
0.122667035388831 0.135939371103116 0.370897045257548
0.122667035388831 0.129721041844254 0.380131866213927
0.122667035388831 0.138949961107336 0.398681696330589
0.122667035388832 0.129914400793612 0.401896019311554
0.122667035388831 0.136336661878398 0.414550784133822
0.122667035388832 0.133167833571127 0.413972287952719
0.122667035388831 0.138940962077188 0.425411132739412
0.122667035388832 0.131732755715342 0.44183994800469
0.122667035388832 0.131640900268206 0.453667470725175
0.122667035388832 0.135032249942519 0.456074697152433
0.122667035388832 0.131892324983991 0.474597312866409
0.122667035388831 0.131126437213313 0.475381688136291
0.122667035388831 0.13301181030944 0.486541342045133
0.122667035388831 0.139058267830078 0.495238594243345
0.122667035388832 0.129966350577665 0.512321616176609
0.122667035388832 0.138432702850193 0.516593990077351
0.122667035388831 0.135716919821122 0.523405116769591
0.122667035388832 0.129731493627432 0.539210382924365
0.122667035388832 0.133479334793232 0.544434252419
0.122667035388831 0.133462853860449 0.557896459745028
0.122667035388831 0.137639233153214 0.564941350100887
0.122667035388832 0.132998740529758 0.570280568496118
0.122667035388832 0.13716285078081 0.588310322974624
0.122667035388831 0.132154896647734 0.589139151130407
0.122667035388832 0.129646589064634 0.607863007794924
0.122667035388831 0.132830891606666 0.615358222552578
0.122667035388831 0.130788399789597 0.625055022652846
0.122667035388831 0.129803975872922 0.629080218395021
0.122667035388832 0.133360110269887 0.637631942384602
0.122667035388831 0.133359367035994 0.655206910631129
0.122667035388832 0.131298012682592 0.664263515713418
0.122667035388831 0.134089002864386 0.668794799465241
0.122667035388832 0.137180329802233 0.684072804001112
0.122667035388832 0.133789921720313 0.686585444464139
0.122667035388832 0.138686421441883 0.694037870007285
0.122667035388831 0.135997849382979 0.70415901597724
0.122667035388832 0.135452847129152 0.718000825600051
0.122667035388831 0.131982066385088 0.729098526315665
0.122667035388831 0.136983344544752 0.735364057462582
0.122667035388832 0.138242379278947 0.749288043680761
0.122667035388832 0.1338619660166 0.749777614998111
0.122667035388831 0.132652747273699 0.773085234245656
0.122667035388832 0.1387937620168 0.772528288190027
0.122667035388832 0.135973961373936 0.784035653637242
0.122667035388832 0.131965461921202 0.799712487349974
0.122667035388832 0.130903626761023 0.808212030553597
0.122667035388832 0.130360360849873 0.812298101398892
0.122667035388831 0.138463896200477 0.827514360708765
0.122667035388831 0.130997288086294 0.829689869789156
0.122667035388831 0.138496763967865 0.835972697780122
0.122667035388831 0.131763113192064 0.850056552679728
0.122667035388832 0.130734987359681 0.854717643058419
0.122667035388832 0.135252932212216 0.871681787795238
0.122667035388832 0.134819359918995 0.882606158948837
0.122667035388831 0.131670147075311 0.892961921690531
0.122667035388831 0.135744193953403 0.899756067749377
0.122667035388831 0.135430929249606 0.906819459854944
0.122667035388832 0.135394435365006 0.926596364974278
0.122667035388831 0.138499598533944 0.928032589565264
0.122667035388831 0.130144586254198 0.93968322790415
0.122667035388832 0.129578054245658 0.949519128132373
0.122667035388831 0.133719918442046 0.957251815152402
0.122667035388831 0.136708935075265 0.966262818808836
0.122667035388831 0.13661734479128 0.978615183779357
0.122667035388831 0.129713457240272 0.983392816377549
0.122667035388832 0.130384023751324 0.991325389956054
0.11517713845287 0.139094667307228 0.996432347446737
0.0929732646423957 0.136505971071472 0.996450631684201
0.0832730309135583 0.141178496154119 0.996417629141458
0.0669012332479354 0.136458951042927 0.996450963791675
0.0616475941517086 0.133375983416564 0.99647273912066
0.0419969595283969 0.133257436523635 0.996473576430001
0.0220242392706209 0.136894061164155 0.996447890562507
0.0131697716823337 0.140810209618425 0.996420230388518
-0.00805129092900256 0.135921149077973 0.996454762344282
-0.0290235233802479 0.1379208758071 0.996440638061226
-0.0311107934901879 0.141056944771365 0.996418487671832
-0.0582577777696551 0.138880664790698 0.996433858969323
-0.0663332845176237 0.144314160458127 0.996395481610221
-0.0851680463451416 0.143599023135315 0.996400532701365
-0.0984374545837487 0.142709968922199 0.996406812186044
-0.112559617120341 0.140144373303254 0.99642493326139
-0.118678991085304 0.146300899031182 0.996381449063897
0.122667035388832 0.142626807725608 0.111358457569689
0.122667035388831 0.145014283798982 0.115698429558057
0.122667035388831 0.146577651990036 0.137013728128487
0.122667035388832 0.141116461441248 0.143774166689427
0.122667035388831 0.140059676477411 0.147048981164897
0.122667035388832 0.139132994118283 0.168436018223988
0.122667035388831 0.14159396045301 0.170691525009213
0.122667035388831 0.148146725581207 0.183163394726059
0.122667035388832 0.141657284944023 0.191607392292812
0.122667035388831 0.147197296243811 0.194366485419479
0.122667035388832 0.142365681043156 0.210362443324598
0.122667035388832 0.14165998394916 0.218663412152537
0.122667035388831 0.140096555398022 0.225522555179774
0.122667035388831 0.139707344278328 0.240979623387855
0.122667035388832 0.143104309521838 0.249347434705219
0.122667035388832 0.143279535116839 0.263329212181996
0.122667035388832 0.146616224112178 0.266777662473893
0.122667035388831 0.144743455886715 0.281425110965497
