ply
format ascii 1.0
element vertex 1074
property float x
property float y
property float z
end_header
-0.375 0.0546160511277584 0.847953057639084
-0.375 0.0617557102962266 0.851709357068056
-0.375 0.0609553147992102 0.863126674774986
-0.375 0.0609929133744497 0.87406714168423
-0.375 0.0569793612392268 0.881716761060675
-0.375 0.0549380762934885 0.896588488458077
-0.375 0.060886904644582 0.898354795245486
-0.375 0.0558942146269584 0.910896623134916
-0.375 0.0564481531851483 0.919483305146916
-0.375 0.0618471182905328 0.92064495702
-0.375 0.0567734419760654 0.938757091835355
-0.375 0.064128474823575 0.941248890470443
-0.375 0.0557511326826009 0.957627586413283
-0.375 0.0570513823943398 0.967236525522651
-0.375 0.0592224565192155 0.971269453500108
-0.375 0.0538203235767841 0.989037749301629
-0.375 0.06003994706728 0.995068955586447
-0.37155068117071 0.0584793849960833 1.0
-0.366098588306358 0.0717849974715153 1.0
-0.358513411028154 0.0782209668961916 1.0
-0.352353248597449 0.0846048741431621 1.0
-0.338741138332062 0.0988779971895425 1.0
-0.328255170089006 0.108819862748716 1.0
-0.321797232002214 0.115753440829291 1.0
-0.375 0.0661857199021282 0.212402643006238
-0.375 0.0702980553257905 0.217237144250854
-0.375 0.0712449973560229 0.217231140504667
-0.375 0.0667128441556942 0.233561425493643
-0.375 0.0674137477353406 0.243813881802943
-0.375 0.0799580379292487 0.2475779658055
-0.375 0.0679331173540013 0.262927457980043
-0.375 0.0716588774607071 0.267017449105193
-0.375 0.0743073390015946 0.27336873101897
-0.375 0.0706289094527938 0.286193455685535
-0.375 0.0771000233319504 0.300113174845673
-0.375 0.0656244694789515 0.317055267608509
-0.375 0.074212311885845 0.315423562665766
-0.375 0.0694248629421429 0.330095562783874
-0.375 0.0735322176657586 0.342062785742151
-0.375 0.0726205026964727 0.341367818000784
-0.375 0.0754917707711124 0.346155228801916
-0.375 0.0692100884298107 0.361239341570811
-0.375 0.0717807949266774 0.367506672952137
-0.375 0.0638683729271433 0.385313012167738
-0.375 0.0733350945979018 0.39286559563496
-0.375 0.0712846905439753 0.402175559221891
-0.375 0.07436860882896 0.405668349352789
-0.375 0.0638541392480022 0.423372946180712
-0.375 0.061047925637416 0.434130644455224
-0.375 0.0658570397166841 0.442566288430735
-0.375 0.065978238542428 0.450332024699835
-0.375 0.0676514139569574 0.458913969620658
-0.375 0.0806447986334941 0.462428165086069
-0.375 0.0739738357660663 0.472790325881153
-0.375 0.0708347904018646 0.486445205462988
-0.375 0.0726225793860064 0.494424731113726
-0.375 0.0724585491637809 0.506740454825501
-0.375 0.0720920541886568 0.510554213140055
-0.375 0.0658765799958904 0.523965827263441
-0.375 0.0711659109503248 0.533062001354541
-0.375 0.0675901771787372 0.54585356060846
-0.375 0.06650466038476 0.547084866806132
-0.375 0.0730122446464959 0.549705472847031
-0.375 0.0704785824391229 0.569122327056196
-0.375 0.0701962122604322 0.579369603563158
-0.375 0.0681204417080338 0.589050092768606
-0.375 0.0707392760683071 0.599922868590316
-0.375 0.0708076598120032 0.601510227713004
-0.375 0.0786269967198679 0.61253387379001
-0.375 0.0684342284844176 0.622830416626802
-0.375 0.0759728915571595 0.62442891152211
-0.375 0.0676013144395503 0.645173767193376
-0.375 0.0723208275169293 0.648917409893333
-0.375 0.0771706270407259 0.658168969272293
-0.375 0.0783883739473455 0.668567141208283
-0.375 0.0691788524215565 0.681920465076365
-0.375 0.0753153030044983 0.689294176504837
-0.375 0.0715875718279265 0.692592545647775
-0.375 0.0698813121359795 0.706309434798676
-0.375 0.0705069697395634 0.717515063717485
-0.375 0.0622158864824122 0.729415566081882
-0.375 0.0664238119445476 0.742954309711361
-0.375 0.0699579055556901 0.744973297502685
-0.375 0.076809670392756 0.756585408195913
-0.375 0.0673366162324408 0.76804452407555
-0.375 0.0728273154581288 0.771208408408395
-0.375 0.0704835417750874 0.784415416145358
-0.375 0.0684079114563395 0.791532882888018
-0.375 0.0743535784828785 0.797632776787784
-0.375 0.0712188110943003 0.803682683649532
-0.375 0.0734192245743516 0.819885571466014
-0.375 0.0671974661384694 0.830430680855887
-0.375 0.0714781692409369 0.829768072998105
-0.375 0.079013337443509 0.844687459811781
-0.375 0.0725892622700922 0.856482960705894
-0.375 0.0661069762925292 0.868301843230297
-0.375 0.0624366722711601 0.874857264574821
-0.375 0.0723253155825178 0.882877491119019
-0.375 0.0728789704192342 0.898220852659338
-0.375 0.0683800234523672 0.90362937626839
-0.375 0.0694028308576958 0.907029977175539
-0.375 0.0702781894095229 0.919837633031069
-0.375 0.0736504048833321 0.92153223959098
-0.375 0.0652005537629853 0.938873892207214
-0.375 0.0650048595610274 0.957799976788995
-0.375 0.0723855003876129 0.952373061964559
-0.375 0.0813656520365879 0.965356089895718
-0.375 0.0724470836829562 0.973838503494434
-0.375 0.0703104712718466 0.985215655264452
-0.375 0.0781410803321393 0.995625071686286
-0.375 0.072116026211365 0.996273873246507
-0.36478999259986 0.0805238325032699 1.0
-0.36170701600027 0.0923218002514391 1.0
-0.346668903490061 0.112466761632065 1.0
-0.339893586533167 0.11320836113917 1.0
-0.375 0.0897312022002318 0.190604859350723
-0.375 0.0829342559838052 0.207620611152131
-0.375 0.0946381733204379 0.203288055025308
-0.375 0.0899109658462171 0.220937317704399
-0.375 0.0845721599201023 0.236510722763831
-0.375 0.0835225907817884 0.243405124263524
-0.375 0.0820703471276546 0.25608105175142
-0.375 0.0828013809852758 0.257084856994126
-0.375 0.0866946724623415 0.267499966219301
-0.375 0.0880552003702696 0.276659374694618
-0.375 0.0912854861395137 0.285161676510006
-0.375 0.0819359150065974 0.300082616094459
-0.375 0.0792167150944759 0.308139768755458
-0.375 0.0861664636371416 0.325383189753551
-0.375 0.0884639964689004 0.322812304608421
-0.375 0.0901316665626829 0.33267082935888
-0.375 0.0870796599179738 0.344249868530738
-0.375 0.0879426762520384 0.352700688878872
-0.375 0.0914544468472888 0.362913255790897
-0.375 0.0841332095347452 0.375789083572072
-0.375 0.0933631869628649 0.378873394037188
-0.375 0.0830400790005467 0.393622089358654
-0.375 0.0957667062823978 0.398152937825958
-0.375 0.0863023769265775 0.405363326549661
-0.375 0.0816719227037824 0.421889340772394
-0.375 0.0863036104330904 0.423863225740895
-0.375 0.08811057912083 0.438293469298733
-0.375 0.0867156470356455 0.44530883535345
-0.375 0.0886452573041346 0.44753134459471
-0.375 0.0911375728922296 0.456227307329176
-0.375 0.0845272928648503 0.4733585091752
-0.375 0.0921519569091315 0.480136632831776
-0.375 0.0875830982521389 0.490890258957572
-0.375 0.0822154364652962 0.502866589272851
-0.375 0.0785923841606958 0.51540996773055
-0.375 0.0847988099782265 0.524640735633223
-0.375 0.0864732449981523 0.523177987780053
-0.375 0.0868576906921806 0.54326053361962
-0.375 0.0830597300883592 0.556648717877078
-0.375 0.0908464581415204 0.556091475625621
-0.375 0.0860664994785597 0.570469662080769
-0.375 0.0961661812607716 0.568740130720676
-0.375 0.088439583785657 0.580850358707937
-0.375 0.0806635228357219 0.60466471833629
-0.375 0.0850979452603978 0.603097402067233
-0.375 0.0789488999331988 0.618225387188861
-0.375 0.0830917564969927 0.629363494861654
-0.375 0.0940190136180875 0.622948229568745
-0.375 0.0876876014559588 0.643523702126571
-0.375 0.0866139413906081 0.652953647488588
-0.375 0.0889458370826036 0.656257590846807
-0.375 0.0882975982497222 0.66671703299755
-0.375 0.0907976407936434 0.670596260239883
-0.375 0.0847604881556175 0.68380231668611
-0.375 0.0849438890060022 0.699495133575083
-0.375 0.0897560191571271 0.709290624700905
-0.375 0.0947598468818455 0.709011573816272
-0.375 0.091496476594879 0.717595410269142
-0.375 0.0795080398784781 0.741221839757606
-0.375 0.090147964310015 0.741004856273531
-0.375 0.0908254312818048 0.75261178050376
-0.375 0.0936501487042155 0.761696435009343
-0.375 0.0933172972137265 0.773041312770939
-0.375 0.0862848083862896 0.777962717893542
-0.375 0.0885889586928542 0.785528114702548
-0.375 0.0795077460117947 0.798815062028138
-0.375 0.0838052206039556 0.812884587304926
-0.375 0.0871892047840906 0.825234082666132
-0.375 0.0777445623485261 0.830358311472362
-0.375 0.0889099147465094 0.834819146976416
-0.375 0.0928898267176971 0.842198924045064
-0.375 0.0849881285092723 0.853474745668725
-0.375 0.0939958654655239 0.859626525270067
-0.375 0.0902258696441939 0.87589614271386
-0.375 0.0849868203455127 0.884454612083845
-0.375 0.0871988577056656 0.896368898917686
-0.375 0.0949998119486591 0.89518945165688
-0.375 0.0863869820330111 0.910496482224596
-0.375 0.0883131508432001 0.913529079518248
-0.375 0.0825129341446381 0.926372432019491
-0.375 0.0833270695548124 0.948994361304161
-0.375 0.0837271287700126 0.949863858120409
-0.375 0.0882112866233974 0.950513059967375
-0.375 0.0814344854158026 0.973481781644615
-0.375 0.0889731205757075 0.976046238608461
-0.375 0.0832777281691298 0.994353259937416
-0.375 0.0874744268466615 0.994013353853391
-0.375 0.0919329668040555 0.998028366470984
-0.362057200296836 0.102342902917985 1.0
-0.354318845436562 0.113579841418443 1.0
-0.349068776708948 0.123710036406955 1.0
-0.375 0.101365350458489 0.179148639818853
-0.375 0.0990294509902118 0.194241367710152
-0.375 0.103503665457921 0.203493785047317
-0.375 0.100410958552022 0.207861619283551
-0.375 0.100007802615182 0.224801411771945
-0.375 0.102001296805823 0.232243850314016
-0.375 0.0975635218256566 0.237241285238911
-0.375 0.0976173529192664 0.255562455845162
-0.375 0.102769895374026 0.251887678884851
-0.375 0.0997665114723746 0.271425434436576
-0.375 0.103962630901968 0.275436458061922
-0.375 0.0989093607842718 0.287033918542634
-0.375 0.0989610305231473 0.2965465038218
-0.375 0.10563082477425 0.300368180626811
-0.375 0.106966531208512 0.309560280514849
-0.375 0.107047229018935 0.322605369264414
-0.375 0.0985076087094315 0.338689770447596
-0.375 0.1007610011813 0.338430865017139
-0.375 0.108632343843784 0.349049029988527
-0.375 0.0951131030178761 0.36582793604011
-0.375 0.0946658824918011 0.380807084417004
-0.375 0.109729877504739 0.370880791300817
-0.375 0.102750757207183 0.388300506106908
-0.375 0.105182887091067 0.398616081875851
-0.375 0.0961649924866613 0.411882451576818
-0.375 0.0954196832615023 0.421290113056974
-0.375 0.104560682931669 0.431156873765435
-0.375 0.105372341538603 0.435705306506981
-0.375 0.105086771994317 0.444216468586626
-0.375 0.103977090703599 0.450540739599034
-0.375 0.104982072700747 0.463897317595325
-0.375 0.0986818503933412 0.479492594089522
-0.375 0.101435145204079 0.491833073332879
-0.375 0.103705524244723 0.488431740834995
-0.375 0.104096968732669 0.499211964940158
-0.375 0.097113424540488 0.512904090402099
-0.375 0.102878401819073 0.518742560200101
-0.375 0.0932839297306393 0.53300173677104
-0.375 0.10080873037532 0.541706390241283
-0.375 0.0936281011621612 0.551851769426375
-0.375 0.108140417482067 0.551732840436556
-0.375 0.10585647648053 0.567155681574111
-0.375 0.1017407116549 0.576516205224617
-0.375 0.10314451777312 0.589624936244717
-0.375 0.104000629340547 0.591667969530366
-0.375 0.0959556128055251 0.603774399211912
-0.375 0.0994523900951366 0.618058832078896
-0.375 0.0946618048552424 0.624731005385769
-0.375 0.100181095431618 0.634369138143493
-0.375 0.0989653680966437 0.648695352993211
-0.375 0.0958500254584435 0.660302734573082
-0.375 0.106222325111785 0.656676129485315
-0.375 0.102769812691127 0.670615401239107
-0.375 0.103532141730531 0.676963431356262
-0.375 0.103509656275792 0.694722111419376
-0.375 0.101090703985571 0.697725333634699
-0.375 0.0981885327419493 0.710646291332053
-0.375 0.0969056503644433 0.72234501159611
-0.375 0.0936275631275599 0.734533824588655
-0.375 0.0984957166748616 0.745713291600655
-0.375 0.11107400181766 0.742876574298546
-0.375 0.0962875118916312 0.755860088604539
-0.375 0.102068389367066 0.764116310111504
-0.375 0.0957229318384322 0.779256757593742
-0.375 0.0996453218460777 0.782083435985662
-0.375 0.098132718439128 0.78860894350494
-0.375 0.103906900988878 0.799668849268409
-0.375 0.102368302204476 0.805629727120805
-0.375 0.107972368403099 0.81300181748022
-0.375 0.102625597731435 0.832746055369909
-0.375 0.0982978544306762 0.838551969927182
-0.375 0.0918476576574446 0.853884190627107
-0.375 0.100753381300763 0.852829581403362
-0.375 0.0975941960786672 0.869428316063833
-0.375 0.0965256451274691 0.880505424852749
-0.375 0.0991830146922191 0.886512415216809
-0.375 0.0970590579229619 0.903290211130936
-0.375 0.102224866256493 0.910788141285049
-0.375 0.103983628890451 0.90507352164131
-0.375 0.0965183473372245 0.92363024332511
-0.375 0.100352693776506 0.934409440114791
-0.375 0.10653246575058 0.942042970987708
-0.375 0.10757008538473 0.949814213116787
-0.375 0.104349136246309 0.95602459177359
-0.375 0.0992710975342513 0.970009058033014
-0.375 0.104835226311463 0.979592933157363
-0.375 0.0951762028179651 0.988846295342031
-0.375 0.105845005745017 1.0
-0.371967761466562 0.107040215833062 1.0
-0.363410323558483 0.123539800886031 1.0
-0.375 0.113769057394502 0.173332037597241
-0.375 0.121712119681419 0.173500049573959
-0.375 0.115960265537068 0.202134599261115
-0.375 0.113467606948705 0.205149078719142
-0.375 0.119949149971701 0.211064568457186
-0.375 0.113649712874992 0.223906842699465
-0.375 0.118199512072673 0.218263560120835
-0.375 0.119729785534103 0.235286784164713
-0.375 0.113421061726919 0.251677990482972
-0.375 0.111839915194663 0.255134619530997
-0.375 0.114024167629189 0.265566829133006
-0.375 0.121202622503289 0.269159887398652
-0.375 0.10768640907921 0.28861174373496
-0.375 0.118435761624484 0.300853444300683
-0.375 0.113927473489564 0.309424111599479
-0.375 0.112650490071653 0.317171234268155
-0.375 0.109577020250408 0.326333056051867
-0.375 0.120040010803603 0.328229161858435
-0.375 0.116634569202246 0.34512126659053
-0.375 0.116023145212314 0.347257884196212
-0.375 0.111172868208874 0.366005812906096
-0.375 0.124972857695224 0.360560750682775
-0.375 0.10995115295751 0.383845744033144
-0.375 0.114611703195075 0.393338173586394
-0.375 0.111569890971332 0.400898461286568
-0.375 0.117911642493314 0.404460032123266
-0.375 0.112735485730805 0.419696847490864
-0.375 0.110205916113265 0.431629020812306
-0.375 0.123134833804355 0.435954094191821
-0.375 0.109844849977957 0.449540394768363
-0.375 0.118754957758956 0.445378994273613
-0.375 0.119919769570033 0.456004514065882
-0.375 0.118619737373129 0.46616746159233
-0.375 0.111903404209497 0.490573998610909
-0.375 0.120865426800891 0.490433940476505
-0.375 0.119398540386873 0.500722927246571
-0.375 0.113908693233866 0.5097983980578
-0.375 0.117930204780665 0.52463478007717
-0.375 0.118558064551977 0.533452898540245
-0.375 0.113935887838304 0.538512791499735
-0.375 0.112361245634783 0.555826799249147
-0.375 0.113590507092859 0.559681305444963
-0.375 0.114048691196837 0.570817908057981
-0.375 0.116309312369046 0.578881224506151
-0.375 0.110965862268371 0.592552562561169
-0.375 0.121719190448397 0.595855288801535
-0.375 0.115905994727317 0.605716607959261
-0.375 0.118047089791272 0.612389764141135
-0.375 0.116759731004026 0.633526600892872
-0.375 0.114483080655056 0.645664368633112
-0.375 0.117458962498397 0.656178985421051
-0.375 0.113090594686789 0.669443805228202
-0.375 0.116539767127336 0.674400896134055
-0.375 0.114693911712543 0.676664776332468
-0.375 0.119766722352744 0.687557456665044
-0.375 0.116763087216238 0.701635355477976
-0.375 0.11133260493199 0.717466988890104
-0.375 0.11244970105814 0.717610477367269
-0.375 0.110502107432586 0.72887571925052
-0.375 0.114498271022122 0.735024138793339
-0.375 0.1133603948329 0.752704751073083
-0.375 0.114782158621848 0.76006749677701
-0.375 0.116911220519404 0.77055087510562
-0.375 0.110164759173305 0.790737010616865
-0.375 0.115915187252941 0.79941533835847
-0.375 0.115895920828398 0.799914706553334
-0.375 0.113737966720895 0.816933426825093
-0.375 0.111132954289539 0.825162810351922
-0.375 0.121482344227432 0.825990952576961
-0.375 0.109584438989468 0.844130422584074
-0.375 0.121560170297329 0.848144788712785
-0.375 0.112946551458142 0.862802021203799
-0.375 0.116148628942814 0.865171201015414
-0.375 0.11788541870788 0.879129198687431
-0.375 0.113111510140952 0.888547797801866
-0.375 0.112916577747687 0.894820133611741
-0.375 0.115520868691543 0.912724840332942
-0.375 0.112329356533593 0.915937883518055
-0.375 0.110617391641313 0.930058010513053
-0.375 0.11540759516468 0.93408177352064
-0.375 0.122754681964249 0.941902090429017
-0.375 0.107708111120159 0.958136881739957
-0.375 0.112501406796643 0.965007921093465
-0.375 0.112824967662438 0.976742687464131
-0.375 0.110344359060865 0.986170122340426
-0.375 0.117879761855734 0.986257791596912
-0.372157259470641 0.116903454061086 1.0
-0.375 0.123157333649396 0.164608645662707
-0.375 0.124516735997582 0.311943085443679
-0.375 0.121594999728496 0.55282264712059
-0.375 0.123836105173217 0.614080603133457
-0.375 0.12221284151207 0.756186441772821
-0.375 0.123770600737835 0.802247923011338
-0.375 0.122554445406878 0.844412720388182
-0.375 0.124822255453118 0.945586535935798
-0.371672176954729 -0.125 0.117304862739432
-0.374510311588532 -0.125 0.130720682416467
-0.371656599206554 -0.124999999999999 0.135091931552774
-0.373197481655071 -0.125 0.156991882400268
-0.372452347376851 -0.125 0.161896079565838
-0.371085574700695 -0.125 0.165732111565612
-0.372234421113895 -0.125 0.191208148412808
-0.374795433358395 -0.125 0.197992659137861
-0.370059078639564 -0.125 0.19741357896206
-0.371569412336213 -0.125 0.205736090762143
-0.372010817842907 -0.124999999999999 0.23043399230035
-0.370919454431744 -0.125 0.245395223639456
-0.370464761241218 -0.125 0.254399017899603
-0.371308617586284 -0.125 0.257235318742037
-0.371677920660641 -0.125 0.265093785037627
-0.373511445236415 -0.125 0.317924036506941
-0.370148494370984 -0.125 0.333539721285901
-0.371748373033476 -0.125 0.344393032909004
-0.368440915070299 -0.125 0.356763256635063
-0.371922694799067 -0.125 0.373129514613637
-0.374386587821557 -0.125 0.388416887906207
-0.369626749597758 -0.125 0.390193307236418
-0.369952973203468 -0.125 0.401839080249835
-0.369284937397807 -0.125 0.41129125515843
-0.374938339464186 -0.125 0.423835354174399
-0.369076919280039 -0.125 0.443896836300473
-0.372000056929358 -0.125 0.456855976964142
-0.369792154811107 -0.125 0.47288584279607
-0.373405906557993 -0.125 0.487465862217013
-0.37378104667689 -0.125 0.509171295333229
-0.374322292013231 -0.125 0.520259321015148
-0.374007846713127 -0.125 0.529665196500726
-0.370352188867822 -0.125 0.543760677105531
-0.371616973112406 -0.125 0.54088704303123
-0.370470552362579 -0.125 0.56313251825943
-0.369857524284822 -0.125 0.57283408280399
-0.37365524602535 -0.125 0.580517765701793
-0.372301681196403 -0.125 0.592810425830113
-0.372152153275822 -0.125 0.625323274730263
-0.374561380851375 -0.125 0.627338153736548
-0.374689197555707 -0.125 0.653107948511763
-0.369261626252139 -0.125 0.656333320059533
-0.373463831603877 -0.125 0.669765379841074
-0.36968123490166 -0.125 0.69304678155898
-0.373678040860183 -0.125 0.710649445562867
-0.37493612187429 -0.125 0.723135209640735
-0.370385030340797 -0.125 0.730291200332107
-0.371844228159302 -0.125 0.760810163538423
-0.371713951701673 -0.125 0.774000038875168
-0.371539814886414 -0.125 0.792738670643923
-0.371194369398829 -0.125 0.805038948748357
-0.370890894817024 -0.125 0.818648158611239
-0.371483435176186 -0.125 0.862696234856096
-0.374018459034937 -0.125 0.889908742711053
-0.37006375907106 -0.125 0.902402731306553
-0.368959728485152 -0.125 0.911792155783302
-0.373487530378543 -0.125 0.929616632506287
-0.373499951515244 -0.125 0.946311900983459
-0.370045474716665 -0.125 0.957402909641264
-0.373838944320699 -0.125 0.97609947585882
-0.373941940020687 -0.125 0.999237672690055
-0.373776145322836 -0.117689435150343 1.0
-0.374672672178917 -0.0854202207214566 1.0
-0.363874689593475 -0.125 0.114204155812958
-0.365060240197195 -0.125 0.128400166169488
-0.362212724563707 -0.125 0.130372155863971
-0.359368446867556 -0.125 0.144598696621109
-0.368806074368951 -0.125 0.15354876371813
-0.360585751782096 -0.125 0.161969824386589
-0.36861012540045 -0.125 0.171582307551512
-0.367334097020108 -0.125 0.184653756151895
-0.366748419856558 -0.125 0.198537067992862
-0.369206729244109 -0.125 0.195554377371874
-0.361388294851264 -0.125 0.205720066080183
-0.366955931247022 -0.125 0.214703297848031
-0.366356407220762 -0.125 0.230113585927452
-0.361106209598298 -0.125 0.242054796858088
-0.359518435240103 -0.125 0.246077312315287
-0.367732857129714 -0.125 0.258198306469498
-0.367536000862353 -0.125 0.273536647413135
-0.359454033492259 -0.125 0.285225801204594
-0.36757104231694 -0.125 0.287288355345174
-0.368251082034241 -0.125 0.301223450542667
-0.367434907489083 -0.125 0.30236660358877
-0.360689937695132 -0.125 0.323522908466457
-0.360182138861174 -0.125 0.324906113321787
-0.366500031428587 -0.125 0.329423780256676
-0.359646068708937 -0.125 0.343424948191472
-0.363903481981148 -0.125 0.35127274493826
-0.36279462009878 -0.125 0.365947153657674
-0.364179610585568 -0.125 0.371730381884642
-0.359503301464032 -0.125 0.383197298132733
-0.364545395561612 -0.125 0.390786264763472
-0.366270547602911 -0.125 0.405376154381787
-0.364836647727066 -0.125 0.414276513596441
-0.362557374790856 -0.125 0.419766379102182
-0.366535824084837 -0.125 0.432104590428489
-0.362300588061377 -0.125 0.439742767681357
-0.362533424730526 -0.125 0.452460187354127
-0.365213107297019 -0.125 0.459788334562726
-0.368045951585245 -0.125 0.46871895490279
-0.360241079467968 -0.125 0.486902222743248
-0.361036995457337 -0.125 0.48691177608154
-0.366943741911244 -0.125 0.499527103921611
-0.367529536413556 -0.125 0.502888693267957
-0.364362840491307 -0.125 0.524180524329406
-0.364218575648839 -0.125 0.520846424905792
-0.368678939554944 -0.125 0.534460937050683
-0.368286297562643 -0.125 0.549584000848455
-0.363468774247537 -0.125 0.558468411775058
-0.360841303512677 -0.125 0.559221678965783
-0.365795707760473 -0.125 0.579245763805543
-0.360615113625865 -0.125 0.586850372315361
-0.35977073595934 -0.125 0.593476278843601
-0.364187289157138 -0.125 0.608647043905971
-0.368636694146054 -0.125 0.610852006858805
-0.362039520141608 -0.125 0.623852045476802
-0.364347490947325 -0.125 0.634736196812786
-0.369254093376088 -0.125 0.645664911916519
-0.364120207202568 -0.125 0.652008199313833
-0.365160977148734 -0.125 0.659204493404115
-0.363733125566578 -0.125 0.672366442799204
-0.369032449563919 -0.125 0.678041131455001
-0.367605356404843 -0.125 0.692654997669915
-0.361757925541612 -0.125 0.694911381882877
-0.368667908749039 -0.125 0.70135890423906
-0.362918491635336 -0.125 0.716147903789411
-0.363247421655481 -0.125 0.727166824787191
-0.361016456794629 -0.125 0.736084231559971
-0.364686315066976 -0.125 0.741106342919712
-0.362151603007699 -0.125 0.756389050550148
-0.360813036366085 -0.125 0.767121108995342
-0.362386383617798 -0.125 0.776616333294587
-0.359467052320732 -0.125 0.783778443178715
-0.368614609253665 -0.125 0.795065097866794
-0.368046133828539 -0.125 0.80867914516667
-0.366264623240036 -0.125 0.808895341942729
-0.365930517216909 -0.125 0.828926465420191
-0.366292742850387 -0.125 0.834425093816527
-0.365920267888736 -0.125 0.841164297017327
-0.366425336449189 -0.125 0.852934281171895
-0.362434529911554 -0.125 0.862552729797121
-0.361035654477901 -0.125 0.878192297242148
-0.363982930690218 -0.125 0.882034787056296
-0.364543887294952 -0.125 0.886350714908641
-0.364752832319589 -0.125 0.906047728119895
-0.366987736038984 -0.125 0.911935377241655
-0.365112750035205 -0.125 0.91919323238514
-0.365059846603133 -0.125 0.92802664216779
-0.364846351267808 -0.125 0.943000534127726
-0.365666951083989 -0.125 0.954721824339244
-0.367204065353215 -0.125 0.961749197640348
-0.359908758703597 -0.125 0.9717414873828
-0.360973484102 -0.125 0.976567330786062
-0.369110212644885 -0.125 0.987813748762877
-0.367558506473773 -0.12426443222906 1.0
-0.366520151360246 -0.120217863709382 1.0
-0.368102620800426 -0.102769524984777 1.0
-0.374372634583818 -0.0829257338098931 1.0
-0.370978694130453 -0.077687938450698 1.0
-0.367369478917549 -0.0691654457697702 1.0
-0.370340288509926 -0.0365961538808109 1.0
-0.354198004370016 -0.125 0.116883526880855
-0.351893359283746 -0.125 0.11997486377076
-0.353143384385745 -0.125 0.133802533815804
-0.359801198962001 -0.125 0.13660910134349
-0.351259330015397 -0.125 0.149559391109905
-0.351815474347746 -0.125 0.165493762682642
-0.350731357798492 -0.125 0.171630129473448
-0.351312627582903 -0.125 0.178661386672441
-0.35596604889044 -0.125 0.197444394983035
-0.349479999661113 -0.125 0.204702536874519
-0.350813783806964 -0.125 0.207472086475273
-0.350173598251558 -0.125 0.226394547267363
-0.357143508427359 -0.125 0.229548210111425
-0.352404163487162 -0.125 0.248440878175707
-0.357296679455214 -0.125 0.257586865486311
-0.35565165162172 -0.125 0.256952538429041
-0.353779050529218 -0.125 0.270817812655021
-0.35143645305312 -0.125 0.275654946355224
-0.356555309229779 -0.125 0.286505803919586
-0.352123274228315 -0.125 0.297199905141843
-0.356852744060965 -0.125 0.300035193632064
-0.352853298692231 -0.125 0.31280132517867
-0.358844652762192 -0.125 0.328198407407768
-0.351360798938288 -0.125 0.331869432065074
-0.354422430947402 -0.125 0.345429145658877
-0.353059997917551 -0.125 0.357022473669594
-0.357889405621036 -0.125 0.366486233633951
-0.350180905590998 -0.125 0.370584427531755
-0.352635017586224 -0.125 0.384808963525046
-0.356565201116376 -0.125 0.385099780879339
-0.351941853716192 -0.125 0.403863200837049
-0.357103678888148 -0.125 0.417095516640242
-0.358459261116214 -0.125 0.423658465688505
-0.35494985361225 -0.125 0.430647217563462
-0.350237874642248 -0.125 0.445573104890997
-0.350231384208457 -0.125 0.451288930783156
-0.352640763991829 -0.125 0.455213684779843
-0.355501807467075 -0.125 0.469523204666072
-0.354504914447143 -0.125 0.480533065958217
-0.357752393951625 -0.125 0.493191818540986
-0.354783757182483 -0.125 0.492448964139792
-0.354417452989276 -0.125 0.510399687339588
-0.354020428108586 -0.125 0.520457652304871
-0.357076983228052 -0.125 0.530843923105256
-0.355120305580431 -0.125 0.540852874229484
-0.358927776183886 -0.125 0.543233634213006
-0.35553824998526 -0.125 0.556256963275437
-0.349823851150153 -0.125 0.563860616062133
-0.352673581883819 -0.125 0.572175652663548
-0.352553066136439 -0.125 0.588176643663063
-0.353546670386197 -0.125 0.595145434414325
-0.352258970084547 -0.125 0.603526006447103
-0.349856467331571 -0.125 0.614357857062172
-0.356044888010398 -0.125 0.623319739225474
-0.358100948696994 -0.125 0.634060825957079
-0.358583878153245 -0.125 0.641992226964982
-0.353588292772433 -0.125 0.652350136167516
-0.354006786167166 -0.125 0.656276100802156
-0.353950140872161 -0.125 0.665816150090353
-0.358109463977364 -0.125 0.677010015855211
-0.356261116543988 -0.125 0.689837236121575
-0.35416697068276 -0.125 0.701434796059607
-0.358058114870514 -0.125 0.715471489602519
-0.35075720675264 -0.125 0.720371433504691
-0.356963239235325 -0.125 0.72606648129915
-0.351895186008624 -0.125 0.740188816197412
-0.355114772948128 -0.125 0.74928413785744
-0.350836549662694 -0.125 0.762159039332852
-0.358335926825394 -0.125 0.769175862212014
-0.353829582735562 -0.125 0.777290722349405
-0.351164874454704 -0.125 0.786191308145388
-0.356622013161723 -0.125 0.794021158348997
-0.354528674072266 -0.125 0.798767691808136
-0.358035115330687 -0.125 0.816633248996602
-0.359009338307758 -0.125 0.823249617223457
-0.357856390437607 -0.125 0.827686318636672
-0.356269922984348 -0.125 0.84695240079488
-0.353905753945203 -0.125 0.846832480369139
-0.351076211813137 -0.125 0.863418446971175
-0.353850850597601 -0.125 0.870335436706586
-0.352641422224975 -0.125 0.882217560928033
-0.358432543672827 -0.125 0.891137048073954
-0.354226048028062 -0.125 0.901585906904577
-0.350884757906413 -0.125 0.909248159163801
-0.354194400477294 -0.125 0.918644190060721
-0.35786439052611 -0.125 0.935321397958235
-0.353304705636054 -0.125 0.938417110467858
-0.350846820814952 -0.125 0.956646561746062
-0.358194918033761 -0.125 0.960756342165763
-0.354648296572197 -0.125 0.966497279695453
-0.358423190450559 -0.125 0.973648997309107
-0.354800155677065 -0.125 0.988933974190759
-0.356083401346598 -0.125 0.994470976222406
-0.351190642286125 -0.113940444376091 1.0
-0.353024037890727 -0.104967258515468 1.0
-0.360991733464522 -0.082708974958177 1.0
-0.362222646432477 -0.0635505849254109 1.0
-0.360242548600689 -0.0690123209947883 1.0
-0.361385517847957 -0.0404535274571635 1.0
-0.365474215761312 -0.0329574987172067 1.0
-0.369532591286444 -0.0145216724617948 1.0
-0.373423811593099 -0.00327607328816259 1.0
-0.367575308867532 0.0190449588107785 1.0
-0.372852806570345 0.0269087371195177 1.0
-0.373165517287056 0.0465314857866505 1.0
-0.340341050000413 -0.125 0.12335169404974
-0.348507981771873 -0.125 0.123213012590983
-0.344260041909028 -0.125 0.1364373184651
-0.343785918490622 -0.125 0.146969845368796
-0.348575611107297 -0.125 0.15445462956303
-0.346268940050067 -0.125 0.165995448321298
-0.345991525573311 -0.125 0.168206055804462
-0.348640773528147 -0.125 0.179849244300227
-0.344757249100155 -0.124999999999999 0.189151483485406
-0.344525461913448 -0.125 0.204440515014227
-0.342713611551176 -0.125 0.212702991875723
-0.34136564921975 -0.125 0.220221262918804
-0.348752460489189 -0.125 0.23077045912558
-0.344980544456815 -0.125 0.24421504343088
-0.345318706294193 -0.125 0.25530876016833
-0.344653492439335 -0.125 0.255513698037197
-0.348399489503673 -0.125 0.268348342518558
-0.348823087378134 -0.125 0.277698726625785
-0.341272150727404 -0.125 0.28607310082419
-0.348896808168704 -0.125 0.291482055989502
-0.341560484891361 -0.125 0.303435309667384
-0.340543425734436 -0.125 0.316305481882484
-0.347405958193601 -0.125 0.330085078822949
-0.344998284791635 -0.125 0.329331439729466
-0.342573401554727 -0.125 0.35209463224124
-0.341494305601683 -0.125 0.354213019310457
-0.340875780080765 -0.125 0.367875696680022
-0.349379584762535 -0.125 0.36937821909813
-0.346113150747454 -0.125 0.379431288213634
-0.349166453046432 -0.125 0.399558405311848
-0.348309240366958 -0.125 0.402616866882385
-0.344732148857563 -0.125 0.419366529523064
-0.340386603445449 -0.125 0.421139210581083
-0.341668483426162 -0.125 0.433105781909052
-0.340694626141733 -0.125 0.440800247822338
-0.348939157958942 -0.125 0.454096782060779
-0.347811794250323 -0.125 0.466460550993363
-0.34519450335858 -0.125 0.468679752477917
-0.347187599262717 -0.125 0.479053846486399
-0.342986844702348 -0.125 0.494001727216468
-0.34145114401899 -0.125 0.502851758584915
-0.348528530611807 -0.125 0.508180093576584
-0.344952892775983 -0.125 0.517331722721407
-0.345280096094262 -0.125 0.530206616674329
-0.347267205372003 -0.125 0.540321929449636
-0.345976392119429 -0.125 0.545531263375833
-0.342247621476049 -0.125 0.555662565373205
-0.347209056586256 -0.125 0.558161316498182
-0.345637839537519 -0.125 0.573669280539285
-0.342611197933284 -0.125 0.582593502236956
-0.342548347911045 -0.125 0.592563496876819
-0.344734308374132 -0.125 0.598252231544965
-0.349523582303701 -0.125 0.612090031894258
-0.342080554227968 -0.125 0.622835810500094
-0.344699292902367 -0.125 0.63687619742596
-0.34333636423821 -0.125 0.648482222573525
-0.348029969797326 -0.125 0.653261312950853
-0.34671717401037 -0.125 0.667367703574461
-0.346224577450399 -0.125 0.669447756018204
-0.348879542103061 -0.125 0.680675007438031
-0.348226353364813 -0.125 0.688616670570427
-0.343934993111205 -0.125 0.693408325472027
-0.34540219906537 -0.125 0.704373388192473
-0.345505080427371 -0.125 0.72289889843023
-0.343364521605199 -0.125 0.727310755651395
-0.341330419431504 -0.125 0.73405256524597
-0.346641879515229 -0.125 0.74959623490965
-0.34633376604487 -0.125 0.755299699367052
-0.344685547169461 -0.125 0.762642884117248
-0.34627674360951 -0.125 0.773138197893333
-0.348919930600321 -0.125 0.788238988634105
-0.340686353671926 -0.125 0.799872237973004
-0.35034639897983 -0.125 0.801057321045543
-0.346189516659556 -0.125 0.808912996751985
-0.344756471130362 -0.125 0.827982129538277
-0.347657080806627 -0.125 0.829721573695706
-0.342155666853456 -0.125 0.84315680583798
-0.346739312150658 -0.125 0.850442958624585
-0.346769731011738 -0.125 0.861491196936322
-0.346942888771548 -0.125 0.873684371168542
-0.343441075804017 -0.125 0.878856539389638
-0.349487159132868 -0.125 0.895830410448738
-0.348116585687505 -0.125 0.900710178503424
-0.342418868188394 -0.125 0.913120803714075
-0.342100592504888 -0.125 0.922739291984613
-0.345574513205541 -0.125 0.93207266567352
-0.342055069335323 -0.125 0.939582165683029
-0.346777316431825 -0.125 0.950564664296728
-0.341255639845823 -0.125 0.957309036558089
-0.34574286162097 -0.125 0.975537598929378
-0.347664800129899 -0.125 0.974350550818681
-0.343944011896895 -0.125 0.991585216551469
-0.340949022523276 -0.121464643057521 1.0
-0.340954295398997 -0.116171155323473 1.0
-0.348266325913398 -0.103261171337948 1.0
-0.353464487610218 -0.0844286476510322 1.0
-0.356443516818229 -0.0676755328747268 1.0
-0.357889011007613 -0.0597768642049375 1.0
-0.354773777742037 -0.0407991869928862 1.0
-0.359435388166194 -0.0309072215854335 1.0
-0.362433040479315 -0.00603184555455527 1.0
-0.363705847880742 -0.00346676747877017 1.0
-0.365513140025245 0.0164340750628088 1.0
-0.365297685113873 0.0306479700386896 1.0
-0.36523839078343 0.0485615976831731 1.0
-0.371245428258496 0.0562643030239839 1.0
-0.373308358204085 0.0790322962835465 1.0
-0.373022438339242 0.0851491798998906 1.0
-0.335446958914972 -0.124999999999999 0.114347667029851
-0.332218309756688 -0.125 0.122761764312976
-0.338852545689682 -0.125 0.130553100811841
-0.335886127942763 -0.125 0.136592128158377
-0.337464558347009 -0.125 0.155182374030739
-0.332342837812761 -0.125 0.161460453954718
-0.333981286489942 -0.125 0.172249499858431
-0.332421338770776 -0.125 0.181544629990838
-0.336124100300288 -0.125 0.191667275926361
-0.334901766326299 -0.125 0.205758172578423
-0.337893258725177 -0.125 0.214306441703698
-0.338992908932666 -0.125 0.22846146612436
-0.334384904419801 -0.125 0.223072199603261
-0.338543834997927 -0.125 0.242103650524193
-0.334952850720963 -0.125 0.252176703293206
-0.334133130672403 -0.125 0.251784313056885
-0.331269596457348 -0.125 0.266307029618033
-0.330677712562736 -0.125 0.27628429295497
-0.334634902614074 -0.125 0.284650477833943
-0.337165543462002 -0.125 0.300200063108986
-0.334883354456178 -0.125 0.307566863036661
-0.338815986784411 -0.125 0.316056407305158
-0.335890745883035 -0.125 0.325157102147518
-0.336504010453695 -0.125 0.337694334449243
-0.330616241960147 -0.125 0.350782163191791
-0.336096346887414 -0.125 0.350924042118135
-0.335422816071848 -0.125 0.36791090790507
-0.33802385018316 -0.125 0.371411249222807
-0.33788016976097 -0.125 0.382482630777111
-0.338540038749251 -0.125 0.394718915560567
-0.33842826136229 -0.125 0.405329778229964
-0.339630403122764 -0.125 0.408824201863594
-0.332379300962351 -0.125 0.421843434823904
-0.338434663417519 -0.125 0.426720691953954
-0.339302076037822 -0.125 0.432636175565976
-0.334225593126361 -0.125 0.458939308085057
-0.340220656994648 -0.125 0.45351958144348
-0.334343784137416 -0.125 0.469257479248914
-0.330372747137771 -0.125 0.486545256535034
-0.331925433522148 -0.125 0.489304036981104
-0.334405070641205 -0.125 0.50394442004697
-0.333662284614256 -0.125 0.513065712506941
-0.335817155462908 -0.125 0.515335538144087
-0.331127758304191 -0.125 0.529982710515979
-0.338174537863925 -0.125 0.535855154182116
-0.337432755137591 -0.125 0.539564285532774
-0.335839003032402 -0.125 0.561626416945141
-0.336547347236339 -0.125 0.563518137525581
-0.33416605255354 -0.125 0.579705779848732
-0.336688827610156 -0.125 0.586084252059374
-0.332794614249775 -0.125 0.595141736900355
-0.336697263130712 -0.125 0.604859424944403
-0.335759157679161 -0.125 0.609926297369903
-0.335717936582591 -0.125 0.625282892809637
-0.334343546160918 -0.125 0.630079335075921
-0.333442251842189 -0.125 0.645880346500809
-0.338364606743243 -0.125 0.64845781366477
-0.334771958304236 -0.125 0.65946502271812
-0.334703473302759 -0.125 0.673304300899801
-0.330782387697951 -0.125 0.681330707629463
-0.334583108091066 -0.125 0.693975117366771
-0.335158522125277 -0.125 0.697976989716412
-0.331160746470486 -0.125 0.704772118553546
-0.331951210363749 -0.125 0.72077001056181
-0.332280629629162 -0.125 0.730481002813416
-0.333286225553516 -0.125 0.742835309711472
-0.339873450540931 -0.125 0.747903185889453
-0.335076251679129 -0.125 0.761144691835716
-0.337870971748999 -0.125 0.765956824302587
-0.333607943834246 -0.125 0.773795382677069
-0.331265774995602 -0.125 0.788201629471184
-0.333592781072967 -0.125 0.80036806980197
-0.333345395417285 -0.125 0.806763515711828
-0.332289384130146 -0.125 0.817102193443429
-0.336629972170291 -0.125 0.828345601613602
-0.33522378979752 -0.125 0.832386233302015
-0.335497892413986 -0.125 0.844203183204682
-0.335077345968913 -0.125 0.851417570768739
-0.337448478731307 -0.125 0.857465696369965
-0.338384736917495 -0.125 0.871014643510112
-0.338396415213106 -0.125 0.879175694935164
-0.332785609884622 -0.125 0.893499842580326
-0.336086032277793 -0.125 0.898035117667465
-0.336312246691858 -0.125 0.903089340524828
-0.334195910315253 -0.125 0.924666125376928
-0.336167617012099 -0.125 0.929608233683202
-0.334665306665238 -0.125 0.936621861837883
-0.33933795554074 -0.125 0.947908096681033
-0.334371308057685 -0.125 0.959292476338406
-0.334590703364861 -0.125 0.97435814796201
-0.33138946757894 -0.125 0.976872492786733
-0.333367904921 -0.125 0.985229257528517
-0.332495368764398 -0.125 0.995910727895524
-0.335684123594879 -0.116389873284746 1.0
-0.333054162434704 -0.105398410655928 1.0
-0.342419945866183 -0.0958025410940232 1.0
-0.337133975859235 -0.0758314457788328 1.0
-0.34728368533523 -0.0602164427880839 1.0
-0.34023502175098 -0.0452251019213791 1.0
-0.344409256501521 -0.0333386626204967 1.0
-0.345529934920814 -0.019592929377119 1.0
-0.351093590215337 0.00568344122243281 1.0
-0.351863931131053 0.00930225762322767 1.0
-0.349208927569412 0.0356216374979478 1.0
-0.35942458779901 0.0445713046833697 1.0
-0.362166955416986 0.0637685313756108 1.0
-0.358460514225227 0.0768262756503068 1.0
-0.364984952927029 0.0883556407292369 1.0
-0.364678641736787 0.11649366582549 1.0
-0.365275325304984 0.114286550393484 1.0
-0.321651272004687 -0.125 0.106584269791363
-0.329376761868291 -0.124999999999999 0.130068326759567
-0.32380966367634 -0.124999999999999 0.131032134491526
-0.324908507246833 -0.125 0.138125786358178
-0.32926567375211 -0.125 0.150203779163075
-0.323504000954924 -0.125 0.161113432416029
-0.323626674542261 -0.125 0.17762145048195
-0.321699397473284 -0.125 0.184507737993139
-0.325425337875254 -0.125 0.194931426120064
-0.328743619840636 -0.125 0.203679954532588
-0.330704002212619 -0.125 0.210814668221249
-0.327419049244215 -0.125 0.223857300185053
-0.326055976244788 -0.124999999999999 0.227590549606306
-0.326995053454328 -0.125 0.239811186380853
-0.323086525996127 -0.125 0.250094331272601
-0.325749675787419 -0.125 0.26090358506957
-0.328415405933153 -0.125 0.268309224411539
-0.325123345268958 -0.125 0.28252481271945
-0.322045917999564 -0.125 0.294291313034633
-0.32732846710724 -0.125 0.296138203307447
-0.32790517061648 -0.125 0.307741544687144
-0.327215493386527 -0.125 0.315183480435286
-0.327609557438343 -0.125 0.324110724486947
-0.321263805752905 -0.125 0.333379749111721
-0.324871802730588 -0.125 0.351244698011676
-0.321448775526803 -0.125 0.354578833251494
-0.321521737079738 -0.125 0.368707244675333
-0.329388036093958 -0.125 0.37509748855304
-0.324690649513092 -0.125 0.385007127594958
-0.32787566193244 -0.125 0.395868931257895
-0.32712069882773 -0.125 0.404291750437318
-0.321506742966569 -0.125 0.407372285197466
-0.324930483473874 -0.125 0.420282390791703
-0.328792099800188 -0.125 0.429479176594781
-0.325449667823287 -0.125 0.443327314233484
-0.329758311990631 -0.125 0.455354214479668
-0.327775939665922 -0.125 0.461771332629602
-0.325376543613955 -0.125 0.464373194185419
-0.321226116443817 -0.125 0.478229337243329
-0.323511007282597 -0.125 0.490647148630575
-0.327212752127122 -0.125 0.497216843296572
-0.322095305664671 -0.125 0.507393504792986
-0.323694435547476 -0.125 0.521495837889487
-0.323600379365299 -0.125 0.529515323434765
-0.324432142698614 -0.125 0.533353915003715
-0.322895235230338 -0.125 0.546765242415147
-0.325472176481522 -0.125 0.552655681510383
-0.320680250473702 -0.125 0.565756015207933
-0.324020823560932 -0.125 0.576980033499721
-0.323108605762577 -0.125 0.580049395555159
-0.327987775179037 -0.125 0.594575802182974
-0.330143206140838 -0.125 0.606273396422767
-0.323785315879496 -0.125 0.60706716276806
-0.323117307930329 -0.125 0.627433735103524
-0.330378466755727 -0.125 0.62947805068488
-0.326354164567774 -0.125 0.643913212105118
-0.328187622898291 -0.125 0.653302281366587
-0.323912383656379 -0.125 0.658654886590444
-0.323482701388316 -0.125 0.674666191011171
-0.326098223626755 -0.125 0.685533694622892
-0.326530280487973 -0.125 0.683546989666959
-0.320778936453818 -0.125 0.704643222487844
-0.33045256684983 -0.125 0.708942958694749
-0.325596147822932 -0.125 0.720706405282825
-0.324487024380534 -0.125 0.73056417513855
-0.326359417861854 -0.125 0.738382013653821
-0.329092554885178 -0.125 0.747540748612509
-0.329354522577564 -0.125 0.763509701647707
-0.329673276220054 -0.125 0.762996546389507
-0.321151576354657 -0.125 0.783236084690177
-0.321942112272954 -0.125 0.786031463014041
-0.321204783439057 -0.125 0.799359396156955
-0.326214621798763 -0.125 0.805565721106751
-0.322046844801346 -0.125 0.814058232389388
-0.329466672711708 -0.125 0.824067942143021
-0.328078786330667 -0.125 0.832960419902189
-0.327424989708016 -0.125 0.842945663722214
-0.329427076156139 -0.125 0.856696764866818
-0.323340898442504 -0.125 0.866788772168733
-0.323160190546871 -0.125 0.873711278058156
-0.321954434469688 -0.125 0.879482259270616
-0.323236956299921 -0.125 0.893421866216959
-0.323030877103211 -0.125 0.898165808868034
-0.326259568079003 -0.125 0.911352617220753
-0.322267163541998 -0.125 0.920487326329255
-0.321411289785603 -0.125 0.932065780498601
-0.329811941749681 -0.125 0.935933719730053
-0.329795203001396 -0.125 0.942290816445283
-0.326224277938181 -0.125 0.95847100797892
-0.330090628332311 -0.125 0.968148626643475
-0.32301713108018 -0.125 0.979164401206916
-0.322123516128608 -0.125 0.98765056297939
-0.330179306393665 -0.125 0.999362853608966
-0.328840921795503 -0.114060830466813 1.0
-0.323598186760205 -0.0997628178958719 1.0
-0.332412557512205 -0.0853886007226182 1.0
-0.334090511185263 -0.0712692290130893 1.0
-0.333592335910862 -0.059787900918891 1.0
-0.33682484642627 -0.039842654159424 1.0
-0.334024638812922 -0.0334516909192785 1.0
-0.338297021229622 -0.0142681747273982 1.0
-0.343607981013677 0.00695146622163201 1.0
-0.345090837006424 0.0109736336191998 1.0
-0.338451541897824 0.02846139440382 1.0
-0.343017453894058 0.0440110442280158 1.0
-0.350955703320951 0.0555199728038184 1.0
-0.343675415311743 0.0726478437455437 1.0
-0.355697022452493 0.090163819427367 1.0
-0.349503300937345 0.101915215880864 1.0
-0.315463871882428 -0.125 0.111256478851312
-0.316983106339939 -0.125 0.129550637510862
-0.320318879492468 -0.125 0.141189580340518
-0.315299687175719 -0.125 0.149785519951163
-0.314418165579104 -0.125 0.15858545511577
-0.316338613596672 -0.125 0.164760341303615
-0.316262864362945 -0.125 0.168508617876778
-0.314315496678855 -0.125 0.180611089194807
-0.318551950094602 -0.125 0.193045833949961
-0.313844291129549 -0.125 0.205616786034786
-0.313037285049631 -0.125 0.207864837398411
-0.315952763871861 -0.125 0.221946605702673
-0.319860837085871 -0.125 0.233463149133707
-0.314887971756333 -0.125 0.245730393174814
-0.314786997668168 -0.125 0.257028011918997
-0.315322171398514 -0.125 0.261500243705467
-0.318894860784088 -0.125 0.269297459990558
-0.312857742988014 -0.125 0.279204080533378
-0.320892865819154 -0.125 0.285095168331664
-0.315906846663234 -0.125 0.304238092698458
-0.317644512031662 -0.125 0.306355927704973
-0.311891225845554 -0.125 0.312075778517181
-0.318068157475009 -0.125 0.329439658048226
-0.318808794944339 -0.125 0.338322941823337
-0.318400271255969 -0.125 0.349568080171915
-0.314511160141495 -0.125 0.356657430966627
-0.317502491517251 -0.125 0.366749084723961
-0.317487335755609 -0.125 0.374891890653536
-0.313845684457984 -0.125 0.381183953388648
-0.318587964282959 -0.125 0.391935350238565
-0.315364030649464 -0.125 0.404446935467661
-0.316391175094274 -0.125 0.414997788064202
-0.320633680918902 -0.125 0.426053042958492
-0.318065128297895 -0.125 0.429471609353439
-0.319757518439744 -0.125 0.447171042269154
-0.31932733988701 -0.125 0.455248318329907
-0.311464150691922 -0.125 0.463944388995248
-0.314100139815088 -0.125 0.472189024383874
-0.320432213187787 -0.125 0.486817047076967
-0.319055569244535 -0.125 0.486940740699585
-0.316810504412877 -0.125 0.492432297980187
-0.313116963121532 -0.125 0.51170751080557
-0.312261993359582 -0.125 0.509524609197764
-0.314243149126713 -0.125 0.526853608070398
-0.314143303472688 -0.125 0.537829495539945
-0.320260344221442 -0.125 0.548818489127852
-0.318274204816653 -0.125 0.563364186318478
-0.320178475172706 -0.125 0.567776542142726
-0.31536081909593 -0.125 0.57212676738485
-0.313797103930148 -0.125 0.579736029934292
-0.315394038074293 -0.125 0.599677414985355
-0.313115076323249 -0.125 0.601060530302127
-0.319873443664181 -0.125 0.608847367156328
-0.31366775452727 -0.125 0.626005140126178
-0.315818575368885 -0.125 0.633132947715253
-0.314956087841777 -0.125 0.637473307728022
-0.319648556444951 -0.125 0.657829263032496
-0.311238849918536 -0.125 0.666893395571098
-0.317700734774969 -0.125 0.673311801787911
-0.316158126877529 -0.125 0.679480365934441
-0.312122392362616 -0.125 0.684385629413135
-0.31762584593027 -0.125 0.706325140280987
-0.318567717849475 -0.125 0.708709644823757
-0.319737106165817 -0.125 0.719765500325719
-0.31339602705301 -0.125 0.735837334380787
-0.31529150058122 -0.125 0.740495003534595
-0.321284192902734 -0.125 0.748014238364322
-0.316197608332019 -0.125 0.752928178653665
-0.320514285048326 -0.125 0.77245918070033
-0.31350542070966 -0.125 0.779896282371179
-0.312903924035842 -0.125 0.780991407240744
-0.31117280704279 -0.125 0.801467030288623
-0.315258953741861 -0.125 0.806691095275634
-0.311472007151339 -0.125 0.82170479737712
-0.3154589817173 -0.125 0.823877512282721
-0.318076520061485 -0.125 0.834126409295768
-0.320391512735029 -0.125 0.840953390630508
-0.315470557023989 -0.125 0.850063897832111
-0.31471571228742 -0.125 0.85829054936409
-0.320100098381633 -0.125 0.86941352840326
-0.316602090897642 -0.125 0.880996460999415
-0.319833707641201 -0.125 0.888020221554685
-0.318853917590799 -0.125 0.898109090346433
-0.316481836328541 -0.125 0.911616356608754
-0.316514845742409 -0.125 0.923222853319536
-0.316186471680747 -0.125 0.935807664649513
-0.311232350944605 -0.125 0.938783310270465
-0.319734825905454 -0.125 0.950386217806137
-0.311733239698054 -0.125 0.96241209937319
