ply
format ascii 1.0
element vertex 878
property float x
property float y
property float z
end_header
-0.279270467408556 0.111842105263157 0.440648290236724
-0.279447188262428 0.111842105263157 0.448792647953183
-0.288477980537506 0.111842105263157 0.460990372856786
-0.281674456628367 0.111842105263157 0.470343137870745
-0.293376023390314 0.111842105263157 0.470169591684006
-0.284532053607808 0.111842105263157 0.482486689267123
-0.287303065344858 0.111842105263157 0.496803713747649
-0.281112420659975 0.111842105263157 0.515794523411265
-0.286430283950337 0.111842105263157 0.529669879535657
-0.275951130805129 0.111842105263157 0.53513970192347
-0.278228910680365 0.111842105263157 0.549021197750534
-0.281080565133143 0.111842105263157 0.560267376887525
-0.28237469134639 0.111842105263157 0.567884486936294
-0.278261490173472 0.111842105263157 0.580653594655088
-0.286851701854908 0.111842105263157 0.584488954141142
-0.293769143273942 0.111842105263157 0.593458945058136
-0.276912746210674 0.111842105263157 0.604577138250895
-0.282917913068695 0.111842105263157 0.611448963283132
-0.288151975528776 0.111842105263157 0.629313241904222
-0.281624798875931 0.111842105263157 0.640595786421774
-0.284078065936867 0.111842105263157 0.649311357249669
-0.286603037316713 0.111842105263157 0.65148430755639
-0.293086512271618 0.111842105263157 0.66593005681306
-0.283659631369503 0.111842105263157 0.681266442941765
-0.289556273133455 0.111842105263157 0.688126858775841
-0.278648064693916 0.111842105263157 0.708150267747032
-0.291015240077854 0.111842105263157 0.703259304118498
-0.283657627819511 0.111842105263157 0.728202484372724
-0.279584237003525 0.111842105263157 0.734985251911952
-0.289890700964367 0.111842105263157 0.73983071046007
-0.285672908827286 0.111842105263157 0.745617834694625
-0.285433324601787 0.111842105263157 0.763404127576781
-0.287113498906551 0.111842105263157 0.771536038725814
-0.284102220787116 0.111842105263157 0.789524150165574
-0.292183530126751 0.111842105263157 0.788940180837983
-0.292888665881759 0.111842105263157 0.803387662715633
-0.279423786730845 0.111842105263157 0.818062056415668
-0.283815748165576 0.111842105263157 0.827317522383342
-0.280952970314915 0.111842105263157 0.836088324443711
-0.284337837356423 0.111842105263157 0.850207159020674
-0.283994148494678 0.111842105263157 0.862229819320449
-0.284332882275619 0.111842105263157 0.873268279288327
-0.288476591489866 0.111842105263157 0.876546606203353
-0.288288827294366 0.111842105263157 0.889286421543509
-0.286978672024432 0.111842105263157 0.901403060769084
-0.288795961444826 0.111842105263157 0.903500749876464
-0.285273703244674 0.111842105263157 0.925167279354432
-0.283214203180677 0.111842105263157 0.930041725824609
-0.282590677188753 0.111842105263157 0.937452530343407
-0.286196414966198 0.111842105263157 0.954360861354112
-0.279175083614186 0.111842105263157 0.965966652406309
-0.289248723859866 0.111842105263157 0.967151696098723
-0.287920774103204 0.111842105263157 0.980360177473646
-0.292725082089237 0.111842105263158 0.984622672928048
-0.286950106354143 0.111842105263157 0.991947234163761
-0.298473735679887 0.103571373111886 1.0
-0.308048303377182 0.0885411974460522 1.0
-0.335620595630082 0.077069772774873 1.0
-0.344224926429314 0.0657772141149932 1.0
-0.349482119300964 0.0622522541760086 1.0
-0.364672861844028 0.0459252867342049 1.0
-0.370185100696473 0.0386241621213282 1.0
-0.273700180290176 0.111842105263157 0.00359647167694426
-0.271465659217702 0.111842105263157 0.00125815642144139
-0.269126128725253 0.111842105263157 0.0246160730938568
-0.263498031719196 0.111842105263157 0.0418499512357024
-0.265921712412544 0.111842105263157 0.0498716108849737
-0.271248645781103 0.111842105263157 0.0583764873116953
-0.275844021261562 0.111842105263157 0.0575162791488689
-0.26863244124895 0.111842105263157 0.0801367219574702
-0.268157032155651 0.111842105263157 0.0973309734955104
-0.272487746376617 0.111842105263157 0.0940210213837168
-0.27600209307601 0.111842105263157 0.0952114772055223
-0.267413156068115 0.111842105263157 0.112176062575099
-0.275930341409798 0.111842105263157 0.122931794727879
-0.260491576035817 0.111842105263157 0.139491318547404
-0.268072712322027 0.111842105263157 0.14405250521059
-0.276797448368802 0.111842105263157 0.151217176985153
-0.26430428232706 0.111842105263157 0.168520837671976
-0.273313283586377 0.111842105263157 0.174638089022539
-0.275826987074061 0.111842105263157 0.183588974097151
-0.272737524709664 0.111842105263157 0.198121653143208
-0.271099774721908 0.111842105263157 0.20972883742131
-0.277660153440796 0.111842105263157 0.208523187658627
-0.264942558477385 0.111842105263157 0.235886377552513
-0.263576799234948 0.111842105263157 0.252932729920999
-0.263688137986408 0.111842105263157 0.261589195311504
-0.27700368947768 0.111842105263157 0.25904110954144
-0.270579503555 0.111842105263157 0.271396220337981
-0.269969358947826 0.111842105263157 0.278526793089083
-0.270717204500193 0.111842105263157 0.286217318389859
-0.276140939850068 0.111842105263157 0.295490138022119
-0.271775076592917 0.111842105263157 0.305540516128829
-0.267554741018181 0.111842105263157 0.318783272586947
-0.271852883995979 0.111842105263157 0.336643218139248
-0.269115393325552 0.111842105263157 0.345701314225091
-0.267200768012178 0.111842105263157 0.355405348882849
-0.27217867459193 0.111842105263157 0.372168641961006
-0.277317212183609 0.111842105263157 0.372903296978497
-0.262541113049179 0.111842105263157 0.392124428528764
-0.266391234129128 0.111842105263157 0.402711221575378
-0.268439089226563 0.111842105263157 0.407880215831828
-0.273088048483617 0.111842105263157 0.419840686846673
-0.269283524119232 0.111842105263157 0.428312392238583
-0.27298190669437 0.111842105263157 0.43816299639523
-0.267598663409188 0.111842105263157 0.446156574938611
-0.274878435392012 0.111842105263157 0.452988452786139
-0.272367952616996 0.111842105263157 0.468536313870517
-0.274207384104456 0.111842105263157 0.47321722026452
-0.265316937443232 0.111842105263157 0.486281598990431
-0.267099507781792 0.111842105263157 0.506526306042024
-0.259649193362339 0.111842105263157 0.514252316288756
-0.271669544473226 0.111842105263157 0.52101992770769
-0.270179927425766 0.111842105263157 0.530638837511962
-0.266874030259791 0.111842105263157 0.548496202975711
-0.265903656958634 0.111842105263157 0.555969761588153
-0.274022331703326 0.111842105263157 0.564518758923234
-0.272060156258717 0.111842105263157 0.571921023522726
-0.278636708630318 0.111842105263157 0.576809976352022
-0.271927971089795 0.111842105263157 0.59412747670141
-0.274814255998817 0.111842105263157 0.601492552205854
-0.26338756381499 0.111842105263157 0.614337882308481
-0.273122507285092 0.111842105263157 0.617938362146047
-0.266610576279328 0.111842105263157 0.642877518958139
-0.270343086797691 0.111842105263157 0.645058000534198
-0.274102306172284 0.111842105263157 0.652830355693877
-0.269586162083073 0.111842105263157 0.658857184686896
-0.278023339525938 0.111842105263157 0.67799814554432
-0.263280958207502 0.111842105263157 0.690651749018703
-0.276200676735929 0.111842105263157 0.698243422397243
-0.259748430894043 0.111842105263157 0.716161735691795
-0.279883671360489 0.111842105263157 0.711009776284022
-0.261999984023383 0.111842105263157 0.738516665968523
-0.279725307672522 0.111842105263157 0.737138323230632
-0.270898516682804 0.111842105263157 0.754177235524178
-0.274920413416144 0.111842105263157 0.759807620629132
-0.264920249128598 0.111842105263157 0.775888700562337
-0.279834451280975 0.111842105263157 0.772272247217273
-0.274048891655817 0.111842105263157 0.785472150037219
-0.278575398495127 0.111842105263157 0.796290652185708
-0.267519384377787 0.111842105263157 0.818773925896063
-0.265226145896913 0.111842105263157 0.821030046788533
-0.279556500757381 0.111842105263157 0.824523779385432
-0.270029902408794 0.111842105263157 0.840831280890415
-0.267278719827574 0.111842105263157 0.856359460012606
-0.266890802216462 0.111842105263157 0.867044753073124
-0.266780894409987 0.111842105263157 0.869666971523388
-0.272887312652452 0.111842105263157 0.888107847867279
-0.271671616126109 0.111842105263157 0.897547638914416
-0.269229429619887 0.111842105263157 0.911059170402791
-0.270393572574851 0.111842105263157 0.912651890181504
-0.272001875773423 0.111842105263157 0.924831534947862
-0.263611474850036 0.111842105263157 0.939369625521578
-0.263832318164121 0.111842105263157 0.950046193761311
-0.277272455343328 0.111842105263157 0.94915169427008
-0.268871086726289 0.111842105263157 0.968703240991862
-0.277876198247208 0.111842105263157 0.977432820477366
-0.268489660225356 0.111842105263157 0.984701712685459
-0.273604535040479 0.106131259902437 1.0
-0.276173709430202 0.106305179747385 1.0
-0.289360092675311 0.100804450508482 1.0
-0.302196821789808 0.0871255416851583 1.0
-0.309405135016457 0.077998539395788 1.0
-0.325605473419562 0.063400258344523 1.0
-0.341528694971335 0.0467909343857336 1.0
-0.360510456710384 0.0371518034611213 1.0
-0.36287395531101 0.0239448994948316 1.0
-0.258423321698688 0.111842105263157 0.00474832577453057
-0.254744373157372 0.111842105263157 0.00914942801002685
-0.249400721135275 0.111842105263157 0.0322011538046938
-0.254088653970105 0.111842105263157 0.0325010734764068
-0.261800019612925 0.111842105263157 0.0382584302956313
-0.25385981824261 0.111842105263157 0.0478730018055721
-0.250130477573282 0.111842105263157 0.0650383876785049
-0.260986666746407 0.111842105263157 0.0671773138639568
-0.256462386239132 0.111842105263157 0.0813631642745019
-0.252704460031735 0.111842105263157 0.101006559441797
-0.249741923174151 0.111842105263157 0.106768665037751
-0.246901416509944 0.111842105263157 0.114704312785778
-0.253894372182393 0.111842105263157 0.124080180608847
-0.264188113735257 0.111842105263157 0.12643909648597
-0.255122442810804 0.111842105263157 0.149965851656442
-0.256239650236986 0.111842105263157 0.150377196611472
-0.251244450616263 0.111842105263157 0.172663565712808
-0.25009442217162 0.111842105263157 0.1877196270861
-0.248208566193229 0.111842105263157 0.191509977831401
-0.255047719534987 0.111842105263157 0.195105397213056
-0.253365553546218 0.111842105263157 0.2017352620471
-0.259382667872971 0.111842105263157 0.214481097700629
-0.251205453762239 0.111842105263157 0.235707397162347
-0.259581485495549 0.111842105263157 0.237833254330164
-0.253095393468536 0.111842105263157 0.245807843954163
-0.254482385417781 0.111842105263157 0.256066565875401
-0.249443448503056 0.111842105263157 0.278022172491537
-0.256003667326247 0.111842105263157 0.282578240089576
-0.250148026748577 0.111842105263157 0.296223993747284
-0.261950438798066 0.111842105263157 0.300877673596557
-0.256614060252668 0.111842105263157 0.318703065175897
-0.250328473996494 0.111842105263157 0.328119831349127
-0.259718324231072 0.111842105263157 0.327913079884082
-0.258120627202758 0.111842105263157 0.342896348323387
-0.251036163893856 0.111842105263157 0.349138455459881
-0.249495041935801 0.111842105263157 0.369615696527274
-0.255294467801433 0.111842105263157 0.376853025688459
-0.252408815494129 0.111842105263157 0.389864242415677
-0.244975414244176 0.111842105263157 0.400872413162313
-0.255705748338503 0.111842105263157 0.397154137615848
-0.261013553187197 0.111842105263157 0.409042031617503
-0.253409898830456 0.111842105263157 0.425286563170638
-0.259034797401357 0.111842105263157 0.434339095673047
-0.248396027054822 0.111842105263157 0.452739199425447
-0.252135718678032 0.111842105263157 0.459527857391937
-0.258891822396267 0.111842105263157 0.46224723804505
-0.245350115572725 0.111842105263157 0.487462684302828
-0.25540694572975 0.111842105263157 0.480325597056794
-0.256044048213343 0.111842105263157 0.492983261138191
-0.263779832369119 0.111842105263157 0.503992224653293
-0.251109500542967 0.111842105263157 0.51908973278288
-0.255716290704112 0.111842105263157 0.523027929013884
-0.257635591658604 0.111842105263157 0.532834244983127
-0.256344990452271 0.111842105263157 0.543476561183635
-0.250359138016244 0.111842105263157 0.560847299253005
-0.246734531236988 0.111842105263157 0.572023516140721
-0.254248882390451 0.111842105263157 0.576023334926261
-0.251841807315213 0.111842105263157 0.595114211124865
-0.255305457868879 0.111842105263157 0.596577350403009
-0.253747057642645 0.111842105263157 0.619513047676894
-0.26039077668321 0.111842105263157 0.622535281267268
-0.243201859250309 0.111842105263157 0.641275774835329
-0.247394626814078 0.111842105263157 0.646811288280816
-0.25203693896021 0.111842105263157 0.656538980998707
-0.258984475395002 0.111842105263157 0.664851050914866
-0.250056594016818 0.111842105263157 0.681138612443427
-0.252723051545271 0.111842105263157 0.692533336439861
-0.252662934056065 0.111842105263157 0.688443257436185
-0.250377894548121 0.111842105263157 0.700926812521537
-0.251367830462178 0.111842105263157 0.718847145096359
-0.243803248566631 0.111842105263157 0.731123065350114
-0.25700440579449 0.111842105263157 0.729794340815393
-0.259309288227967 0.111842105263157 0.747085773029427
-0.249901164821662 0.111842105263157 0.755971235950524
-0.260859007165345 0.111842105263157 0.763209292430607
-0.255298822779346 0.111842105263157 0.777275876459239
-0.252446300239167 0.111842105263157 0.791809305995445
-0.262487254486927 0.111842105263157 0.794921372298407
-0.254931693462003 0.111842105263157 0.813255425951106
-0.253006209577349 0.111842105263157 0.823011330682776
-0.252755803141464 0.111842105263157 0.83235709237152
-0.251775852536607 0.111842105263157 0.834665674333625
-0.24986306189157 0.111842105263157 0.856671463174092
-0.255926137071197 0.111842105263157 0.857441567510321
-0.255654218071492 0.111842105263157 0.874800738781031
-0.253122582317239 0.111842105263157 0.884843176999199
-0.260757276386056 0.111842105263158 0.889554897839533
-0.245034479148321 0.111842105263157 0.904510092317245
-0.251978167211595 0.111842105263157 0.917332935301542
-0.262168763083705 0.111842105263157 0.920940877112062
-0.254878042203402 0.111842105263157 0.928913104714662
-0.248335476643672 0.111842105263157 0.951502298940058
-0.252880934422197 0.111842105263157 0.958637739212095
-0.257468410740362 0.111842105263157 0.96813612252899
-0.2503534770155 0.111842105263157 0.975386824173191
-0.253316518193471 0.111842105263157 0.978894422379206
-0.248962265018467 0.111842105263157 0.997500202596791
-0.260110072766734 0.104330486493354 1.0
-0.279401956230936 0.0901147957229083 1.0
-0.280384696921053 0.0826944516947887 1.0
-0.299971540864602 0.0717348271344457 1.0
-0.315631328889096 0.0608140554291525 1.0
-0.314786311378821 0.0607977502529491 1.0
-0.341136994435351 0.0338087585131278 1.0
-0.358184294272397 0.0286820190190492 1.0
-0.357892351107847 0.0215254590710063 1.0
-0.369456642369584 0.0149621830036376 1.0
-0.231191316174378 0.111842105263157 0.0087601440891114
-0.23639164956475 0.111842105263157 0.0123747411245651
-0.242757166065306 0.111842105263157 0.0198986808174974
-0.236143624680026 0.111842105263157 0.0373036892845547
-0.237409674241494 0.111842105263157 0.037925867257296
-0.237249016044626 0.111842105263157 0.0524696615425001
-0.231870569765666 0.111842105263157 0.0655151171994019
-0.240035646024288 0.111842105263157 0.0750187816567626
-0.232893338076152 0.111842105263157 0.0871685027736776
-0.239304130623098 0.111842105263157 0.101631768625183
-0.243615699224669 0.111842105263157 0.105427966841382
-0.240756742803065 0.111842105263157 0.116416170912894
-0.232184486604124 0.111842105263157 0.138422669424116
-0.233351875806216 0.111842105263157 0.135560203407302
-0.243369775639002 0.111842105263157 0.144014165279473
-0.237602771165239 0.111842105263157 0.151661998395076
-0.235738477675783 0.111842105263157 0.165140616084459
-0.245495006118078 0.111842105263157 0.17656049251333
-0.232673746123548 0.111842105263157 0.196794399082484
-0.2401960594541 0.111842105263157 0.197342736031708
-0.238283373225847 0.111842105263157 0.214670711126726
-0.24472204024612 0.111842105263157 0.217967113383367
-0.243153670928447 0.111842105263157 0.227888287499154
-0.236841570677391 0.111842105263157 0.248420745206356
-0.232877302180466 0.111842105263157 0.246928287015042
-0.228748530455155 0.111842105263157 0.271279598250169
-0.229371366714797 0.111842105263157 0.279163349435191
-0.230216008485384 0.111842105263157 0.283919927980302
-0.228624288587174 0.111842105263157 0.294119716840067
-0.233154581531041 0.111842105263157 0.307496674360451
-0.229754695659264 0.111842105263157 0.313805020391778
-0.231711706174813 0.111842105263157 0.326389153737922
-0.237458535634416 0.111842105263157 0.334253164904344
-0.239718801107971 0.111842105263157 0.345142548888992
-0.236360120134957 0.111842105263157 0.353476637883429
-0.239237667782542 0.111842105263157 0.360366096363618
-0.238317495923406 0.111842105263157 0.372710844728991
-0.237326833974721 0.111842105263157 0.390152601470009
-0.236760306891695 0.111842105263157 0.401804201895641
-0.2325845999065 0.111842105263157 0.413088076425114
-0.240716416756382 0.111842105263157 0.408169361861329
-0.245576695239331 0.111842105263157 0.423418711978764
-0.244940682954685 0.111842105263157 0.427694978415866
-0.24527092104996 0.111842105263157 0.443710756506579
-0.230989683533676 0.111842105263157 0.460463553223859
-0.24601754688235 0.111842105263157 0.465222140770322
-0.235038049616207 0.111842105263157 0.475608159625424
-0.233389410612624 0.111842105263157 0.485529476651146
-0.230639844895309 0.111842105263157 0.498077213369784
-0.234560147722461 0.111842105263157 0.508974188190219
-0.230679472239316 0.111842105263157 0.521258604706708
-0.242033181748402 0.111842105263157 0.523430748599866
-0.230353007351822 0.111842105263157 0.544765050400656
-0.242369991556635 0.111842105263157 0.549458149448082
-0.240024685444547 0.111842105263157 0.551896968385891
-0.229416315612636 0.111842105263157 0.578943250029454
-0.237818538276149 0.111842105263157 0.581770052280967
-0.242492400729227 0.111842105263157 0.58955675359151
-0.233190619635269 0.111842105263157 0.602547188381033
-0.228297208017448 0.111842105263157 0.613800108071235
-0.228185841715159 0.111842105263157 0.629073031625072
-0.241268429927179 0.111842105263157 0.629015993554844
-0.238774625091466 0.111842105263157 0.638168419799027
-0.230002287816178 0.111842105263157 0.65863075856069
-0.242744602304216 0.111842105263157 0.658555804881523
-0.230130822826043 0.111842105263157 0.677548810645791
-0.243605157032349 0.111842105263157 0.674996819943123
-0.231726367229735 0.111842105263157 0.697682636314644
-0.238865079452204 0.111842105263157 0.695136681900995
-0.242978116848629 0.111842105263157 0.706048871857874
-0.242877227963117 0.111842105263157 0.71452713740371
-0.24148888580574 0.111842105263157 0.732474270990983
-0.246406207990732 0.111842105263157 0.742783545279522
-0.241474387299292 0.111842105263157 0.755450617148904
-0.246413168354602 0.111842105263157 0.764798908691437
-0.229640746521501 0.111842105263157 0.776706976455824
-0.235320992930922 0.111842105263157 0.790231411024844
-0.237577341970905 0.111842105263157 0.796176607029712
-0.236767986243585 0.111842105263157 0.810757641574418
-0.24606533608586 0.111842105263157 0.809502621127423
-0.239884900843566 0.111842105263157 0.824616735703383
-0.244560629587621 0.111842105263157 0.834933301022857
-0.228723943112813 0.111842105263157 0.853918314830489
-0.228124584832441 0.111842105263157 0.860625449128966
-0.23093807527853 0.111842105263157 0.866980752079628
-0.241842471881129 0.111842105263157 0.874377792166287
-0.238197256685396 0.111842105263158 0.888633616872255
-0.23685460417313 0.111842105263157 0.89734840844166
-0.246932684704626 0.111842105263157 0.905936811759296
-0.243372020281709 0.111842105263157 0.915687510351448
-0.232939026957195 0.111842105263157 0.937294881398833
-0.239294983232277 0.111842105263157 0.942401781860551
-0.237737157280863 0.111842105263157 0.955338378975931
-0.24407780911321 0.111842105263157 0.952940237323058
-0.241308600626068 0.111842105263157 0.970139684861832
-0.242460287475651 0.111842105263157 0.978174233764499
-0.239117294017188 0.111842105263157 0.989127802540076
-0.241782438601124 0.10237195978326 1.0
-0.258623115406358 0.0974533390649965 1.0
-0.26164146662176 0.090060735926643 1.0
-0.284701508750881 0.0694984141274109 1.0
-0.292762671570929 0.0625102213441894 1.0
-0.299992017530524 0.0610122550593316 1.0
-0.318142927978164 0.0405415466209773 1.0
-0.326123490720746 0.0394941901532468 1.0
-0.348994955152386 0.0192454631818034 1.0
-0.354863428942499 0.00928490532681909 1.0
-0.362151390481438 0.00103162743302856 1.0
-0.226468573607662 0.111842105263157 0.00436178397011806
-0.228890372340708 0.111842105263157 0.0108811655598089
-0.217689717974509 0.111842105263157 0.0332389329312991
-0.219669736744417 0.111842105263157 0.0408888721156265
-0.224717893098505 0.111842105263157 0.0475518652344768
-0.224459733336409 0.111842105263157 0.0449790299438901
-0.216757883042408 0.111842105263157 0.0707229314841207
-0.222915146271207 0.111842105263157 0.0724081998540583
-0.227922197894366 0.111842105263157 0.0809835328144967
-0.225390892679258 0.111842105263157 0.0911545596435835
-0.225165837403232 0.111842105263157 0.102707368307607
-0.222620545822405 0.111842105263157 0.115382762621614
-0.221166057206914 0.111842105263157 0.121851994339432
-0.22234995285591 0.111842105263157 0.132195388207872
-0.221308344634583 0.111842105263157 0.141003111365649
-0.223324601093057 0.111842105263157 0.156532728377247
-0.22585480279692 0.111842105263157 0.163735573013839
-0.216872424247526 0.111842105263157 0.189401799441818
-0.228380634849383 0.111842105263157 0.187961845935652
-0.22451761217903 0.111842105263157 0.199920547399225
-0.221042090856699 0.111842105263157 0.214123372736232
-0.218669833159491 0.111842105263157 0.222201265279487
-0.218281534222265 0.111842105263157 0.22687068996531
-0.21777360515581 0.111842105263157 0.238591293363972
-0.222926038949108 0.111842105263157 0.240128540628495
-0.221581045261984 0.111842105263157 0.269102490610179
-0.225681993123954 0.111842105263157 0.259536215491998
-0.22209527599502 0.111842105263157 0.277559364086352
-0.218233660704764 0.111842105263157 0.300913385361143
-0.221013357903409 0.111842105263157 0.303154885117038
-0.218749033466767 0.111842105263157 0.311710441788206
-0.222321826121737 0.111842105263157 0.311838151461258
-0.222941489768029 0.111842105263157 0.338913424534719
-0.226629483263146 0.111842105263157 0.336716685482508
-0.221946561883375 0.111842105263157 0.346588634223715
-0.223411972691554 0.111842105263157 0.368210792657923
-0.223895423617191 0.111842105263157 0.368004957452709
-0.228540858432159 0.111842105263157 0.383148735313814
-0.226563067230554 0.111842105263157 0.393693960579976
-0.221899820636568 0.111842105263157 0.401498809448214
-0.22263513275667 0.111842105263157 0.410245307707302
-0.214621236402306 0.111842105263157 0.427872814843207
-0.22292802986318 0.111842105263157 0.436940068673111
-0.22476931530693 0.111842105263157 0.446863758116747
-0.220659875526945 0.111842105263157 0.459992119401271
-0.228408797690505 0.111842105263157 0.459442297423614
-0.227459870815491 0.111842105263157 0.471757765680241
-0.218369843934706 0.111842105263157 0.488482485555362
-0.230794752376067 0.111842105263157 0.49268061056099
-0.226330863715911 0.111842105263157 0.50597386030923
-0.21682296092568 0.111842105263157 0.521298104417737
-0.213303484657708 0.111842105263157 0.537659267281578
-0.227872202364399 0.111842105263157 0.536328472162447
-0.218888423131119 0.111842105263157 0.544651213449432
-0.227896252819817 0.111842105263157 0.555233952243124
-0.223548429830256 0.111842105263157 0.571024686752253
-0.216047853213436 0.111842105263157 0.587379363649927
-0.223331996502743 0.111842105263157 0.595964735690162
-0.229518634981508 0.111842105263157 0.599161974323732
-0.217674465172661 0.111842105263157 0.612049538082753
-0.222855023761398 0.111842105263157 0.619711572094516
-0.227393173131012 0.111842105263157 0.623800256185601
-0.219541416955682 0.111842105263157 0.640962086301825
-0.217428618554606 0.111842105263157 0.650751197440317
-0.219939039668623 0.111842105263157 0.652900915321052
-0.224585266749489 0.111842105263157 0.662849313956301
-0.216343492125078 0.111842105263157 0.687728020115904
-0.226698754029616 0.111842105263157 0.687995746637642
-0.213005432581516 0.111842105263157 0.702090994114354
-0.223138400234318 0.111842105263157 0.712023091577157
-0.219927120754742 0.111842105263157 0.722841820357702
-0.220397402319145 0.111842105263157 0.741109727930368
-0.228005343191828 0.111842105263157 0.74159366782859
-0.220973541680732 0.111842105263157 0.753111995783901
-0.22475637210012 0.111842105263157 0.766682590450946
-0.212940658427887 0.111842105263157 0.781590243556669
-0.222548628174917 0.111842105263157 0.783976284892819
-0.222831010066861 0.111842105263157 0.791376457514529
-0.226137015792883 0.111842105263157 0.804278956173447
-0.224803225919231 0.111842105263157 0.816643272063083
-0.220750964895847 0.111842105263157 0.824417281966881
-0.221114396934217 0.111842105263157 0.84060134698966
-0.217573643930632 0.111842105263157 0.844668782052036
-0.217384251131526 0.111842105263157 0.855643057021265
-0.218149649571687 0.111842105263157 0.867808097581153
-0.219716041032796 0.111842105263157 0.881992739103201
-0.222471940287289 0.111842105263157 0.887309875053059
-0.227537040379802 0.111842105263157 0.896581772240948
-0.215147465752505 0.111842105263157 0.90966527388889
-0.22382600809171 0.111842105263157 0.918120387408564
-0.225452569212658 0.111842105263157 0.924747038119233
-0.217078562654512 0.111842105263157 0.936911770494791
-0.216134528784807 0.111842105263157 0.953694651363971
-0.226783828932031 0.111842105263157 0.951401815790764
-0.213790072668985 0.111842105263157 0.975389131367256
-0.218080999010432 0.111842105263157 0.975104217790196
-0.22865674960844 0.111842105263157 0.981493775472654
-0.224708956299414 0.111842105263157 0.994864237070556
-0.236454758414087 0.106217540569745 1.0
-0.245936299866864 0.0961779800086893 1.0
-0.261455611072508 0.0769159948983518 1.0
-0.265705368418504 0.0777726320247103 1.0
-0.279373910803977 0.0557982839762344 1.0
-0.294943306646156 0.0418714315658201 1.0
-0.310248184574279 0.0320997077715294 1.0
-0.329510493780999 0.0227970760453621 1.0
-0.324650201004752 0.0211823833102217 1.0
-0.344328929645073 0.0124651488485038 1.0
-0.365079845105182 -0.00648132158481361 1.0
-0.201622752448577 0.111842105263157 0.0104209196097549
-0.199089426944573 0.111842105263157 0.013531352483857
-0.206280086086358 0.111842105263157 0.026643791121536
-0.196922133447522 0.111842105263157 0.0373840614887218
-0.206921751687073 0.111842105263157 0.0497385212396591
-0.215580016484728 0.111842105263157 0.0436897591061828
-0.211446194844144 0.111842105263157 0.0615044077759252
-0.203109817427849 0.111842105263157 0.0759006311239621
-0.199304162765954 0.111842105263157 0.0866705019797342
-0.198069099006714 0.111842105263157 0.0992631120561304
-0.206160076667857 0.111842105263157 0.110507130639297
-0.209927613534518 0.111842105263157 0.110763331275269
-0.212394749176537 0.111842105263157 0.128750085385295
-0.195209163544209 0.111842105263157 0.148790098624191
-0.205245304527877 0.111842105263157 0.148478481310184
-0.209029542938416 0.111842105263157 0.160964962167523
-0.20808255337162 0.111842105263157 0.16767480134054
-0.207838440838028 0.111842105263157 0.17254469383864
-0.208443822786238 0.111842105263157 0.190266035120194
-0.213673325851429 0.111842105263157 0.194111745480551
-0.203091664235479 0.111842105263157 0.211184614686322
-0.208438490775034 0.111842105263157 0.219345238822653
-0.19853657593751 0.111842105263157 0.2386881442437
-0.201179829254414 0.111842105263157 0.237634223408938
-0.212560495979242 0.111842105263157 0.249373558461449
-0.206962183449309 0.111842105263157 0.260003206802562
-0.198028610638836 0.111842105263157 0.271456689967645
-0.211971055725893 0.111842105263157 0.279193132980446
-0.206850937014727 0.111842105263157 0.289913382292528
-0.2096847640834 0.111842105263157 0.30405268454988
-0.214657415229672 0.111842105263157 0.305439371742586
-0.201110774186868 0.111842105263157 0.330268927397909
-0.207830919064573 0.111842105263157 0.333501810783198
-0.20113970706917 0.111842105263157 0.344770964902164
-0.203705219761369 0.111842105263157 0.351265671635706
-0.204850835061835 0.111842105263157 0.360393326084612
-0.203391995176277 0.111842105263157 0.376954413192392
-0.201640063560397 0.111842105263157 0.389816196096349
-0.204142363402186 0.111842105263157 0.387230106330004
-0.2083580226681 0.111842105263157 0.408610346248145
-0.208475844293624 0.111842105263157 0.404948757524126
-0.200885779195877 0.111842105263157 0.428721747728821
-0.201465221519348 0.111842105263157 0.439201743447553
-0.206674420972099 0.111842105263157 0.45028390908512
-0.197209057730418 0.111842105263157 0.46377634642623
-0.211551636490329 0.111842105263157 0.461014500357588
-0.201493964570324 0.111842105263157 0.480939010585808
-0.201722354703971 0.111842105263157 0.487402223550789
-0.208772453814916 0.111842105263157 0.494102593375641
-0.196984462810604 0.111842105263157 0.50721108965716
-0.20699394624523 0.111842105263157 0.517669941766838
-0.205637191724382 0.111842105263157 0.525920541843887
-0.200183703606209 0.111842105263157 0.532511652008257
-0.210190007460218 0.111842105263157 0.54217492974877
-0.203646790312768 0.111842105263157 0.557666121900194
-0.202265531557459 0.111842105263157 0.57181989653931
-0.208998270145888 0.111842105263157 0.576390245239344
-0.196522630856326 0.111842105263157 0.595807495658919
-0.207032139085282 0.111842105263157 0.60532215729968
-0.21464768346281 0.111842105263157 0.606514072016265
-0.200089136334522 0.111842105263157 0.617443722991025
-0.203959447493009 0.111842105263157 0.633911774925802
-0.206291186317934 0.111842105263157 0.642776538051279
-0.203411393422469 0.111842105263157 0.649327540111478
-0.210839046155528 0.111842105263157 0.658176558131231
-0.19888981533763 0.111842105263157 0.671507283898122
-0.202519178518761 0.111842105263157 0.682667065441287
-0.210924498448393 0.111842105263157 0.690753655199507
-0.198548361662801 0.111842105263157 0.69856961481652
-0.208808772947584 0.111842105263157 0.700421606858963
-0.208364237547945 0.111842105263157 0.717756638318734
-0.203010027754947 0.111842105263157 0.739669219225421
-0.207498541470781 0.111842105263157 0.735276888817216
-0.200275744090583 0.111842105263157 0.751799483888913
-0.206258453496966 0.111842105263157 0.765704932472358
-0.210282045995502 0.111842105263157 0.772219449829978
-0.20792708992982 0.111842105263157 0.789232958777605
-0.203501088443836 0.111842105263157 0.793151140537624
-0.2061521369167 0.111842105263157 0.799941893404216
-0.210002016623693 0.111842105263157 0.807521127177641
-0.205743100593069 0.111842105263157 0.823390338266873
-0.202172031670817 0.111842105263157 0.8416688349872
-0.206538170202617 0.111842105263157 0.838774358793707
-0.215987832310601 0.111842105263157 0.846483126603031
-0.201129017170004 0.111842105263157 0.862840039051321
-0.212267382686562 0.111842105263157 0.867371552485182
-0.20402936451701 0.111842105263157 0.881816125721975
-0.208646188558848 0.111842105263157 0.89371136987746
-0.206677154655773 0.111842105263157 0.900809335969048
-0.205935812106324 0.111842105263157 0.912629140225033
-0.201609944968815 0.111842105263157 0.926745637079511
-0.210859709329049 0.111842105263157 0.936119918804724
-0.207266201571762 0.111842105263157 0.946715438348116
-0.195590743011802 0.111842105263157 0.960397856941192
-0.202019501137092 0.111842105263157 0.967301753419202
-0.213933668293024 0.111842105263157 0.969067520343413
-0.201400531182815 0.111842105263157 0.991812132986933
-0.209256605311594 0.106245401747344 1.0
-0.216712963390496 0.104006274900909 1.0
-0.223151215198804 0.0982908372773225 1.0
-0.229901652502359 0.0899794952657305 1.0
-0.25987143664388 0.0664478396453949 1.0
-0.260836885354316 0.0637606970408895 1.0
-0.266447195940183 0.0539980127263199 1.0
-0.287406639408178 0.0466244981521973 1.0
-0.311422863213852 0.0287631278073485 1.0
-0.314419341947945 0.0107842193811627 1.0
-0.327515187628751 0.00494873199082534 1.0
-0.342181734913903 -0.00504652078230842 1.0
-0.352840598843493 -0.0181270502698766 1.0
-0.365912468552702 -0.0259304314786257 1.0
-0.371782197813609 -0.0368879333121943 1.0
-0.194289147190474 0.111842105263157 0.0117632804839971
-0.188230106846089 0.111842105263157 0.0204820705183067
-0.198671398306353 0.111842105263157 0.0207052557938343
-0.189981688926793 0.111842105263157 0.0394758582848056
-0.198179455688703 0.111842105263157 0.0377838382474927
-0.190873840361844 0.111842105263157 0.0458677649772639
-0.190382990675967 0.111842105263157 0.0636856972180461
-0.18365015138952 0.111842105263157 0.0846834191946742
-0.19755244546166 0.111842105263157 0.0856744710171597
-0.193247105488795 0.111842105263157 0.103580632834841
-0.18570631927428 0.111842105263157 0.113780123353256
-0.19000978082274 0.111842105263157 0.111242846920234
-0.183846863951554 0.111842105263157 0.139497423010061
-0.190840121798037 0.111842105263157 0.13853232317964
-0.193234060000208 0.111842105263157 0.145273810236302
-0.188417066593681 0.111842105263157 0.167875560714624
-0.192832230171527 0.111842105263157 0.157851167032341
-0.187369929656047 0.111842105263157 0.172494689417192
-0.188688544108277 0.111842105263157 0.187240967853087
-0.181780586091374 0.111842105263157 0.206527262158122
-0.181135382814705 0.111842105263157 0.214816696254978
-0.192549479342573 0.111842105263157 0.219288349909729
-0.19285020327957 0.111842105263157 0.227988449225015
-0.199271092051987 0.111842105263157 0.236429066298137
-0.191578099326645 0.111842105263157 0.255496788134896
-0.188008477371189 0.111842105263157 0.26129252636545
-0.19736617202445 0.111842105263157 0.261927857679653
-0.19157505217637 0.111842105263157 0.282952505908092
-0.191543779650219 0.111842105263157 0.280189813710778
-0.188650186838529 0.111842105263157 0.29877528447428
-0.194561046941928 0.111842105263157 0.307924564991908
-0.184948297738153 0.111842105263157 0.325519967859436
-0.1863610729023 0.111842105263157 0.339880310086986
-0.189062117144955 0.111842105263157 0.345683627261469
-0.185436913424306 0.111842105263157 0.361207786262714
-0.192617509625952 0.111842105263157 0.360913852045561
-0.197332634221889 0.111842105263157 0.36185105105051
-0.196222214531033 0.111842105263157 0.383768864400963
-0.191581562850805 0.111842105263157 0.385678055577367
-0.187800407154191 0.111842105263157 0.405560143050365
-0.191765254300294 0.111842105263157 0.414547870856887
-0.190714385548212 0.111842105263157 0.417131331141617
-0.192746139170655 0.111842105263157 0.438653096354165
-0.190346558609865 0.111842105263157 0.441385205736049
-0.191905983990244 0.111842105263157 0.460076476420605
-0.189740140714358 0.111842105263157 0.472238115036121
-0.18651120838294 0.111842105263157 0.470665832270594
-0.193695903000086 0.111842105263157 0.480831886335911
-0.181502204658601 0.111842105263157 0.503031168516266
-0.196854419224504 0.111842105263157 0.503718008231485
-0.185972248913184 0.111842105263157 0.514753904849766
-0.180482146474783 0.111842105263157 0.535923963255862
-0.183281452692901 0.111842105263157 0.545021184692875
-0.183468286976746 0.111842105263157 0.550276752891132
-0.190631701301777 0.111842105263157 0.556513351942794
-0.191480242310206 0.111842105263157 0.57227372716639
-0.187868892658554 0.111842105263157 0.577769178858287
-0.189455350200644 0.111842105263157 0.581745981589517
-0.192856925626738 0.111842105263157 0.595758804918892
-0.191493743270027 0.111842105263157 0.60567312270037
-0.186179691651976 0.111842105263157 0.616251546341777
-0.186325179219633 0.111842105263157 0.622747193822533
-0.192905329528328 0.111842105263157 0.636949838435382
-0.192360277819512 0.111842105263157 0.648506208794668
-0.185991195899601 0.111842105263157 0.658567265112287
-0.196835110026871 0.111842105263157 0.665814801871424
-0.197203818361229 0.111842105263157 0.670600136407256
-0.187790597992763 0.111842105263157 0.695665396077532
-0.190348878896157 0.111842105263157 0.694713908461012
-0.186826837738543 0.111842105263157 0.707654855022346
-0.192287096277659 0.111842105263157 0.71647693992186
-0.197236331863409 0.111842105263157 0.719818136689776
-0.196158168596504 0.111842105263157 0.737747659144405
-0.185759497099758 0.111842105263157 0.747576968094363
-0.183464025488702 0.111842105263157 0.766636121477998
-0.190227263815472 0.111842105263157 0.766898950321561
-0.1911341137201 0.111842105263157 0.776553497777145
-0.190756134220882 0.111842105263157 0.787308233587956
-0.192971650870367 0.111842105263157 0.792585499766782
-0.197797764441489 0.111842105263157 0.81268733651843
-0.196882404375205 0.111842105263157 0.812107763386199
-0.186185571987317 0.111842105263157 0.832940244317737
-0.194482286193815 0.111842105263157 0.846553508230311
-0.19916205524158 0.111842105263157 0.851088353888607
-0.190995648651202 0.111842105263157 0.862671225204335
-0.190074171138894 0.111842105263157 0.868424601700215
-0.195684540616637 0.111842105263157 0.881822509804594
-0.195814293068347 0.111842105263157 0.890254942385715
-0.188759446400526 0.111842105263157 0.904141146633961
-0.189519795123723 0.111842105263157 0.913034718208343
-0.182858252151841 0.111842105263157 0.923516676257858
-0.190695283310137 0.111842105263157 0.925404124482029
-0.183168600393998 0.111842105263157 0.949466405666815
-0.195627332329484 0.111842105263157 0.947117318447918
-0.190311373381458 0.111842105263157 0.957355197291697
-0.186235063460797 0.111842105263157 0.977938649858991
-0.193669308962511 0.111842105263157 0.981551066691139
-0.189306346442062 0.111842105263157 0.990553012819384
-0.187841782892985 0.111063074451876 1.0
-0.208356229404916 0.0960963499886592 1.0
-0.219690280109681 0.0949488549716338 1.0
-0.235044041181726 0.0756779784429636 1.0
-0.2347305661854 0.0748173324429453 1.0
-0.259713967152752 0.0477097479028242 1.0
-0.273414989946644 0.04199323927268 1.0
-0.276713283615674 0.03926343157334 1.0
-0.294330624321682 0.0234757781776951 1.0
-0.310697966470771 0.0071346981954352 1.0
-0.322890768766482 -0.00657800513032437 1.0
-0.329785178600937 -0.0142668021918347 1.0
-0.342837455584559 -0.0252149772657703 1.0
-0.360781474650584 -0.0323604298199381 1.0
-0.366247124195428 -0.0382262588019829 1.0
-0.173705674280298 0.111842105263157 0.00374995038431859
-0.167810764155697 0.111842105263157 0.0181268838789218
-0.171951545918031 0.111842105263157 0.0310282782224291
-0.169053867152052 0.111842105263157 0.0356021350759665
-0.183154825508751 0.111842105263157 0.0402981982880058
-0.173153047361125 0.111842105263157 0.056819193096501
-0.174455307987794 0.111842105263157 0.0692556432986048
-0.173357536626773 0.111842105263157 0.0735407838526531
-0.176015572137813 0.111842105263157 0.0846823703687497
-0.173851957625722 0.111842105263157 0.0963853646734904
-0.179347914167057 0.111842105263157 0.0995902789288529
-0.168299603052023 0.111842105263157 0.125288391679182
-0.170725583272738 0.111842105263157 0.127653491205547
-0.17597944428054 0.111842105263157 0.136898021231891
-0.17521160710274 0.111842105263157 0.147384432126087
-0.175548911878451 0.111842105263157 0.15993068739485
-0.167784281473347 0.111842105263157 0.172086310779015
-0.169345046011908 0.111842105263157 0.179066691509093
-0.184525235238547 0.111842105263157 0.183238533336613
-0.165505246938707 0.111842105263157 0.201909388806621
-0.174960629724351 0.111842105263157 0.217433811166275
-0.175517626569337 0.111842105263157 0.219730257986224
-0.173788265777306 0.111842105263157 0.229507969185713
-0.172020584559066 0.111842105263157 0.250427563401703
-0.174130393232546 0.111842105263157 0.25260546698083
-0.172209843642241 0.111842105263157 0.261241337312475
-0.180584639350635 0.111842105263157 0.266017167133286
-0.168824339294236 0.111842105263157 0.285575999491938
-0.180579706419943 0.111842105263157 0.284891665554267
-0.178973657440884 0.111842105263157 0.293478393272377
-0.173112840891945 0.111842105263157 0.314027230187156
-0.182562547594413 0.111842105263157 0.320031139546349
-0.177953961755189 0.111842105263157 0.321057051316678
-0.181005512350578 0.111842105263157 0.334807507438978
-0.172250627541316 0.111842105263157 0.353030149013825
-0.180550762410323 0.111842105263157 0.35320017547426
-0.165482174876216 0.111842105263157 0.380525721487668
-0.175017073287609 0.111842105263157 0.381067227791982
-0.175030294571322 0.111842105263157 0.389624070880476
-0.178356602876081 0.111842105263157 0.402408156828886
-0.1812804090929 0.111842105263157 0.410169080394293
-0.17274225853194 0.111842105263157 0.427365429127269
-0.174336140627753 0.111842105263157 0.426558938401659
-0.170593720806923 0.111842105263157 0.445449382531522
-0.176407410361657 0.111842105263157 0.453007967862106
-0.166671303635076 0.111842105263157 0.467184831885748
-0.175393510756068 0.111842105263157 0.463128598025289
-0.178226069715098 0.111842105263157 0.485608099711909
-0.17860829336203 0.111842105263157 0.492223824800021
-0.168551469334844 0.111842105263157 0.506775101651082
-0.17616473402604 0.111842105263157 0.520447991200718
-0.174776202714459 0.111842105263157 0.520621237550457
-0.175231545834838 0.111842105263157 0.536456789537538
-0.176014556096013 0.111842105263157 0.550264365040328
-0.174626631755922 0.111842105263157 0.550345898370681
-0.172929057647444 0.111842105263157 0.56579532038606
-0.174639173627084 0.111842105263157 0.567846398043773
-0.165373708620983 0.111842105263157 0.593198304194113
-0.172504973923425 0.111842105263157 0.604349774102049
-0.17617518788804 0.111842105263157 0.602984410887942
-0.173275620234825 0.111842105263157 0.615036530307303
-0.178188738694163 0.111842105263157 0.624640961479365
-0.183528274293047 0.111842105263157 0.632718548291839
-0.16810191956344 0.111842105263157 0.645046470328517
-0.169939296363316 0.111842105263158 0.662718119483874
-0.182390392338923 0.111842105263157 0.658089825358485
-0.178599279478467 0.111842105263157 0.671087672807276
-0.169456177871611 0.111842105263157 0.687335607743153
-0.165954082278503 0.111842105263157 0.701737456488936
-0.170559600797197 0.111842105263157 0.710378642634121
-0.17671012114267 0.111842105263157 0.717440958393446
-0.175774529976369 0.111842105263157 0.728950402575944
-0.167114449531285 0.111842105263157 0.738745160790012
-0.167015295407112 0.111842105263157 0.750489760407449
-0.180264921693681 0.111842105263157 0.754431324477478
-0.175931910890635 0.111842105263157 0.766102942252019
-0.178655474754729 0.111842105263157 0.777105476712941
-0.169440883029203 0.111842105263157 0.796164903925261
-0.172123826276776 0.111842105263157 0.80034600772987
-0.179010855129957 0.111842105263157 0.803527055110334
-0.181264683404748 0.111842105263157 0.811066958976531
-0.170853756931003 0.111842105263157 0.833477949244012
-0.175950879935712 0.111842105263157 0.841160007619707
-0.170540971913568 0.111842105263157 0.850023645131518
-0.179264979840499 0.111842105263157 0.858631206983575
-0.177282623763967 0.111842105263157 0.866979809691264
-0.178675549326778 0.111842105263157 0.877635346572908
-0.172481405883914 0.111842105263157 0.883580318149404
-0.171088898900478 0.111842105263157 0.90103223838146
-0.177713733027004 0.111842105263157 0.903906203585942
-0.16869210199802 0.111842105263157 0.926522309693939
-0.177266689680563 0.111842105263157 0.931055745126478
-0.181393632501497 0.111842105263157 0.941328722696824
-0.177878098903848 0.111842105263157 0.952141075893713
-0.170300709628144 0.111842105263157 0.957958907239024
-0.17049658091814 0.111842105263157 0.974556670981443
-0.184745622520973 0.111842105263157 0.974679319388604
-0.166372324309658 0.111842105263157 0.990417452627032
-0.180366567565886 0.111842105263157 0.997301308919074
-0.184313833924903 0.105877398780108 1.0
-0.205204375664256 0.0854900764177089 1.0
-0.21830335087041 0.0813193708627657 1.0
-0.225159461536679 0.070893375800097 1.0
-0.230243512045923 0.0604945604407387 1.0
-0.255774900091824 0.0504627044877591 1.0
-0.266099974567421 0.0398126193861232 1.0
-0.279476731957252 0.0246071030310263 1.0
-0.29271309172792 0.0112993045004282 1.0
-0.296296145607743 0.00499136719554147 1.0
-0.307604031995922 -0.00259466543589101 1.0
-0.329094109224414 -0.0167678055462158 1.0
-0.347497583497793 -0.0399748552091106 1.0
-0.362200072730925 -0.0495391737198902 1.0
-0.365408165829752 -0.0575320563512481 1.0
-0.159145582382249 0.111842105263157 0.0053464998260299
-0.164234145211636 0.111842105263157 0.0170530514911346
-0.159036050111962 0.111842105263157 0.0294139426956833
-0.163985864863116 0.111842105263157 0.0384315814972076
-0.157742877050519 0.111842105263157 0.045849086290976
-0.151296075250048 0.111842105263157 0.061888043498511
-0.151684431610711 0.111842105263157 0.0748624012033321
-0.166793350930123 0.111842105263157 0.0671920845319884
-0.162123445214837 0.111842105263157 0.0861862418988485
-0.155811602916149 0.111842105263157 0.0956923843540283
-0.156981614998811 0.111842105263157 0.111512944125181
-0.167783477198686 0.111842105263157 0.112623167312192
-0.16028615946833 0.111842105263157 0.130712821101069
-0.160727724230254 0.111842105263157 0.14687336553926
-0.168178853007 0.111842105263157 0.142921265564996
-0.165265510096209 0.111842105263157 0.150745100986662
-0.157673302198023 0.111842105263157 0.163850841444992
-0.157142447349734 0.111842105263157 0.18238448512811
-0.15759316705031 0.111842105263157 0.192600106650735
-0.158446433461955 0.111842105263157 0.197343391491678
-0.15997108263388 0.111842105263157 0.210072560264842
-0.157919441057653 0.111842105263157 0.220583631958295
-0.161671131401643 0.111842105263157 0.228280921087773
-0.160465522489738 0.111842105263157 0.241763729040279
-0.163664065015089 0.111842105263157 0.243852278028328
-0.165923465180133 0.111842105263157 0.25508836430446
-0.169281957942392 0.111842105263157 0.261845571847942
-0.164023363971071 0.111842105263157 0.273124785483658
-0.153465208053335 0.111842105263157 0.295457165270596
-0.16480628269207 0.111842105263157 0.293504114770655
-0.164958084345058 0.111842105263157 0.303424810419666
-0.160120751235574 0.111842105263157 0.319826616976597
-0.163763570961788 0.111842105263157 0.321219557220187
-0.156585324244112 0.111842105263157 0.33669106285177
-0.163277787641713 0.111842105263157 0.341914940994972
-0.157140876569294 0.111842105263157 0.358012703407598
-0.154334653412179 0.111842105263157 0.380492733329595
-0.162092323358006 0.111842105263157 0.377399833837371
-0.157077684433233 0.111842105263157 0.389762182102691
-0.158768566966122 0.111842105263157 0.405262259448932
-0.161561968091163 0.111842105263157 0.406779134455061
-0.154973647352533 0.111842105263157 0.423425759717469
-0.152392533565806 0.111842105263157 0.429860992507551
-0.160999581530486 0.111842105263157 0.439020871848967
-0.161386518041638 0.111842105263157 0.447563191542202
-0.165860198049863 0.111842105263157 0.456575038394748
-0.168982499840229 0.111842105263157 0.464286502952605
-0.152268008743042 0.111842105263157 0.488360422668798
