ply
format ascii 1.0
element vertex 1117
property float x
property float y
property float z
end_header
0.214843489444235 0.125 0.430762779273757
0.21224249310733 0.125 0.44566490058248
0.210457345287086 0.125 0.455137043217371
0.210056223400827 0.125 0.463605492384556
0.210272811759727 0.125 0.478560724940254
0.208132158269431 0.125 0.473732045254722
0.212521524095831 0.125 0.492291291062112
0.206336178527629 0.125 0.493539795592465
0.206805396526122 0.125 0.507047210960762
0.215081845177483 0.125 0.519728689554977
0.208424082415107 0.125 0.521634914664967
0.211802657437869 0.125 0.537999959085723
0.210730147285683 0.125 0.547634587985525
0.212148107684631 0.125 0.554947597907994
0.206715072314696 0.125 0.573232210655807
0.212354570859018 0.125 0.578726285774051
0.209104347809069 0.125 0.58571229744043
0.21190243678716 0.125 0.590828736327591
0.211273957337154 0.125 0.606124335933176
0.210011648827912 0.125 0.612334135519835
0.212627141852341 0.125 0.630547642840152
0.213289691707526 0.125 0.639130578131633
0.20843393540594 0.125 0.642206916375024
0.206528873387548 0.125 0.657662525125723
0.21374515785137 0.125 0.667628285779955
0.214137441059763 0.125 0.667218613472065
0.213826334465706 0.125 0.682550165505057
0.209182787274924 0.125 0.697337886119417
0.21121896816133 0.125 0.695217792662455
0.212102601982066 0.125 0.714565633835524
0.21173291418658 0.125 0.715490416984372
0.209635287290189 0.125 0.72775776300792
0.213149149357448 0.125 0.731468696048569
0.213111849549917 0.125 0.749252793556221
0.209578843519329 0.125 0.755822255825335
0.207131219685315 0.125 0.76245096706165
0.212144662626332 0.125 0.777603809284013
0.212295509606799 0.125 0.784144914553623
0.20634613188591 0.125 0.798766005801432
0.205937852000579 0.125 0.805108683503752
0.209178042098461 0.125 0.818729161415241
0.209042482097726 0.125 0.81745736806136
0.209519868689903 0.125 0.83206484950822
0.206914650370395 0.125 0.846732129276719
0.21035662733984 0.125 0.846539622896036
0.208430809449901 0.125 0.861794853489172
0.211993782685174 0.125 0.875383584088499
0.207988889053485 0.125 0.887289046409284
0.21474929400416 0.125 0.886689732006104
0.209255829238053 0.125 0.896721745176556
0.211605369402722 0.125 0.913140977356537
0.212983580489207 0.125 0.919330498176425
0.206564847340274 0.125 0.935233600787468
0.206807479151712 0.125 0.936866371982856
0.208900012290891 0.125 0.948636148100614
0.213659190786015 0.125 0.962791967806907
0.215006997845754 0.125 0.97137220384979
0.209959374904209 0.125 0.977787956496164
0.215185686220315 0.125 0.988961278825243
0.211982888006037 0.125 0.999467020966312
0.214889940685079 0.108158649876593 1.0
0.214416584077834 0.103320712256903 1.0
0.213273319453354 0.0763613469240769 1.0
0.214711623216872 0.0785491901095549 1.0
0.220528449642702 0.0576775814657936 1.0
0.2128543992975 0.0386293958543912 1.0
0.219559224199652 0.0235373811997319 1.0
0.219546340871976 0.00957172666171095 1.0
0.215706243048977 -0.00494435330435966 1.0
0.219214668393663 -0.0269669163687736 1.0
0.22762940489081 -0.0335558056606198 1.0
0.223522706335544 -0.0417921982947825 1.0
0.224847707097943 -0.0707328268858736 1.0
0.228242516023389 -0.0824600095129014 1.0
0.225330391115477 -0.0966885659744419 1.0
0.232974912671449 -0.110001049716844 1.0
0.233790653468917 -0.11968306794399 1.0
0.221334868475909 0.125 0.109183031096465
0.219024954236143 0.125 0.120205736774256
0.222922736242981 0.124999999999999 0.140814566245409
0.216209818568289 0.125 0.142690431402706
0.217150222200464 0.125 0.155132277040514
0.222279222271471 0.125 0.162541176274123
0.217608873502556 0.125 0.170207002463817
0.222482237099849 0.125 0.177634398859463
0.219857708364904 0.125 0.189143206758193
0.220717269758456 0.125 0.197237090894125
0.219660656318868 0.125 0.212099661008142
0.217617551242233 0.125 0.223999269836348
0.224005827961638 0.125 0.225408288016349
0.217173524116216 0.125 0.240663605349646
0.217326837522342 0.125 0.254367885276358
0.217496728581224 0.125 0.258332209581871
0.222327905240057 0.125 0.266305917499183
0.224204366932291 0.125 0.2757121782531
0.222081245951422 0.125 0.295909892035037
0.219573669995001 0.125 0.295192020311858
0.221078131952724 0.125 0.315455490632252
0.221924557551439 0.125 0.319118755220009
0.219453507836892 0.125 0.334088746139556
0.223065342937118 0.125 0.33615171022335
0.224358054387855 0.125 0.345408201070994
0.223580666664731 0.125 0.356053217286386
0.220551518396592 0.125 0.369003848156663
0.219851853327451 0.125 0.375091290510383
0.217809341969362 0.125 0.38834622727778
0.218246368169768 0.125 0.389522882861477
0.221743973780642 0.125 0.397909410914093
0.220205051974052 0.125 0.420893608690688
0.217890629916126 0.125 0.421807195778871
0.215968590520641 0.125 0.432403133502487
0.224722469810719 0.125 0.438790083507793
0.221072775670937 0.125 0.44886912511078
0.22048192264043 0.125 0.468234744548657
0.220447588006023 0.125 0.471056109668216
0.218684156288177 0.125 0.479497294883407
0.221887349375925 0.125 0.494894732094297
0.217319742852548 0.125 0.502100229271656
0.215528358646468 0.125 0.509633035013132
0.220234978822321 0.125 0.514217495397966
0.21955343728849 0.125 0.523023341423264
0.222385571380507 0.125 0.537516515126693
0.216322665162533 0.125 0.540965329536434
0.222954978111435 0.125 0.555867304528856
0.21864782260659 0.125 0.567189816210461
0.224146909579602 0.125 0.579224277081368
0.222906253756391 0.125 0.58436770457572
0.219610285640006 0.125 0.594251548688234
0.224813090056332 0.125 0.602509596468439
0.217757107370003 0.125 0.606652747513631
0.216463198703168 0.125 0.623229553592749
0.221904026237091 0.125 0.63491271371319
0.217343706388184 0.125 0.645559415065839
0.224734595316081 0.125 0.654515068572644
0.220521300125069 0.125 0.661341075402206
0.223842492711169 0.125 0.67005095844701
0.216278295071392 0.125 0.676221579181932
0.21998977414753 0.125 0.68964124727352
0.220944945968533 0.125 0.698514913942927
0.225513944563507 0.125 0.708100551799195
0.223668092798914 0.125 0.719844740395577
0.216544530704965 0.125 0.72639243630109
0.219471428948022 0.125 0.733963361112023
0.217663383697015 0.125 0.745112522426342
0.221390761295127 0.125 0.754476317900108
0.220809171357563 0.125 0.768697839772075
0.216846716076409 0.125 0.778524647116166
0.224245765235679 0.125 0.78787242051947
0.222936104890198 0.125 0.792352295774787
0.220750361178444 0.125 0.805279146320178
0.216376551231757 0.125 0.818109482254232
0.220146715021808 0.125 0.824185818165792
0.21766681239292 0.125 0.835304965693769
0.223905315121136 0.125 0.850541072037426
0.218294721255537 0.125 0.858633598603088
0.222730654254573 0.125 0.867847289806732
0.223917797765413 0.125 0.873752045165283
0.224664088257788 0.125 0.879315677730995
0.222333556413127 0.125 0.892339287994791
0.22258565874078 0.125 0.898912073298353
0.222349824167292 0.125 0.911398962160561
0.220010557701451 0.125 0.92007141037455
0.223329162507671 0.125 0.927083529757621
0.217415216580477 0.125 0.931575204329525
0.217725438260909 0.125 0.952034045575662
0.223601800616607 0.125 0.951674301667885
0.216171004513303 0.125 0.970128515520126
0.218301022645205 0.125 0.979308778118343
0.224541156856122 0.125 0.989081591172376
0.221373080805017 0.125 0.99103039975661
0.22209433470676 0.112973521746663 1.0
0.222785227818109 0.101014026594216 1.0
0.226307742777979 0.0856827135901272 1.0
0.227374209726574 0.0691025952122456 1.0
0.226822718534628 0.0594634349378932 1.0
0.228578820466368 0.0412352794525663 1.0
0.230959854707713 0.0302963626383765 1.0
0.233109347555854 0.00506147193467037 1.0
0.231572071444911 -0.00139423530859878 1.0
0.230508585007978 -0.0129968794428189 1.0
0.227585879994088 -0.0311618815282842 1.0
0.230335702428414 -0.0481102278866828 1.0
0.2317882537434 -0.0660881583430358 1.0
0.23141019984411 -0.0719496285256196 1.0
0.239528558204243 -0.0973315679004663 1.0
0.239021484105153 -0.111891967863882 1.0
0.233949681665327 0.125 0.117112294280107
0.227542675128435 0.124999999999999 0.123775354712811
0.229184237833234 0.125 0.128936201308192
0.232389001938558 0.125 0.146804575735966
0.227996650151848 0.125 0.15567818680284
0.227288551663089 0.125 0.160399962676135
0.227218245190503 0.125 0.175493964470478
0.234876207584707 0.125 0.174824872187975
0.231473199545613 0.125 0.191032475139099
0.227952886404526 0.125 0.205118138519882
0.225254536099241 0.125 0.213443929670702
0.232750200434917 0.124999999999999 0.22835785501032
0.225472391169016 0.125 0.234727102068254
0.230783992427551 0.125 0.242388616085597
0.234437350979151 0.125 0.241842267830967
0.226861111820292 0.125 0.259534488579301
0.2346712587372 0.125 0.265807346301493
0.228798762181639 0.125 0.279576045517142
0.230996985896795 0.125 0.289140488015225
0.228313503992087 0.125 0.295579033642696
0.225405476685359 0.125 0.308237646466781
0.230031416298676 0.125 0.318256362524032
0.225518289873577 0.125 0.324409513379922
0.231636304896508 0.125 0.331616007220387
0.234275731108643 0.125 0.345024282343056
0.231490111418913 0.125 0.360680453736112
0.229835738626602 0.125 0.356850514039704
0.22636554299577 0.125 0.377031776636274
0.229459756965912 0.125 0.383654712212306
0.234159147474043 0.125 0.394606459450586
0.234223861665306 0.125 0.396699370546218
0.233157713556432 0.125 0.420449702843219
0.231952149310431 0.125 0.416997320075791
0.225494349846303 0.125 0.428841227037876
0.225581855423268 0.125 0.435796608063871
0.230234028600842 0.125 0.454252534926861
0.232681116921175 0.125 0.460430161698527
0.233775646028336 0.125 0.471865810706256
0.234618827327077 0.125 0.480832092341572
0.225669990037537 0.125 0.488048072649302
0.23362747247563 0.125 0.492843949467746
0.230400604445658 0.125 0.509134425362257
0.227652847461392 0.125 0.518583331295621
0.231885258107056 0.125 0.529073810348403
0.229693633408064 0.125 0.541217731281909
0.229916219268677 0.125 0.545860683042111
0.231641310645653 0.125 0.55980974665913
0.225252422739487 0.125 0.567246288850014
0.228728089074538 0.125 0.577739115727854
0.230335795503897 0.125 0.587643427010546
0.227487184550301 0.125 0.598243795563642
0.225196179923966 0.125 0.602132803518496
0.233710035955175 0.125 0.611503146413649
0.228682611289823 0.125 0.625640789081562
0.23253796376067 0.125 0.63398915985612
0.226717600068886 0.125 0.64170419588101
0.232052201293059 0.125 0.652570851985982
0.229907435931852 0.125 0.666162506049386
0.233695085708902 0.125 0.67690521907372
0.231052509403542 0.125 0.682155456134673
0.225804283613687 0.125 0.693528819994899
0.228260561564403 0.125 0.699599665129868
0.225276767356897 0.125 0.712062017075723
0.233543344895683 0.125 0.724552885516333
0.229340539871055 0.125 0.726833098177274
0.227372254924426 0.125 0.734141983052617
0.233979954485283 0.125 0.750742434091821
0.231966243143968 0.125 0.751277890188196
0.232985357410334 0.125 0.76588586971106
0.22666086442385 0.125 0.773553766435833
0.226694703056941 0.125 0.790779796124566
0.230572297103401 0.125 0.791267556326458
0.229031565642263 0.125 0.803936332510569
0.23039745737703 0.125 0.812146358034889
0.233618917738366 0.125 0.822955082001492
0.228358511485072 0.125 0.833944820590192
0.226040637518029 0.125 0.848962901720192
0.228245872158509 0.125 0.848872106406643
0.227270919284495 0.125 0.866247147684445
0.234714658367869 0.125 0.873641220517595
0.233518198911303 0.125 0.879037517869055
0.225367906423092 0.125 0.895323053447363
0.229559776995945 0.125 0.904021313632553
0.232362022899503 0.125 0.905295523507341
0.229244995337135 0.125 0.922597343786204
0.228054075058774 0.125 0.924723072038529
0.226939209922997 0.125 0.938470527467547
0.225396303519485 0.125 0.946397118990706
0.225838872973086 0.125 0.963244365673887
0.231210740845923 0.125 0.975569974339351
0.225459590299831 0.125 0.977345929877107
0.230201237385304 0.125 0.9842678434463
0.231060943812216 0.125 1.0
0.234140324974916 0.117955110855581 1.0
0.235615310841673 0.106268690589302 1.0
0.237375498192474 0.0837053435646541 1.0
0.235199576593567 0.0649141254400182 1.0
0.233452456222761 0.0691742794119209 1.0
0.235370097423721 0.0463078044680007 1.0
0.240719754144287 0.0209876518762967 1.0
0.237781518284353 0.00782147474370991 1.0
0.240369395081666 0.00394691939584695 1.0
0.238884554399735 -0.0124091314197195 1.0
0.246263925916862 -0.0322242274846936 1.0
0.243127627835728 -0.0491026458349229 1.0
0.242864494310768 -0.0585204471940038 1.0
0.242670296964116 -0.0833125021236146 1.0
0.250777835309285 -0.0908357011212494 1.0
0.246667743889287 -0.109387286603833 1.0
0.237397677378333 0.124999999999999 0.118788244675283
0.241285248695724 0.125 0.124234674302365
0.238746127491723 0.125 0.132671984197814
0.239944623769239 0.125 0.137438960929944
0.241487038389116 0.125 0.156527962708317
0.237291055867552 0.125 0.155345998183155
0.23583607673973 0.125 0.170121408350668
0.237174367641134 0.125 0.183218762205151
0.236237523168915 0.125 0.188931729705496
0.236535377855907 0.125 0.193057508738508
0.242174343406556 0.124999999999999 0.21323192559393
0.239121656817124 0.124999999999999 0.225937231713478
0.239839085420361 0.125 0.223195855316006
0.244641853289749 0.125 0.239617118250524
0.240016169786127 0.125 0.243545627002663
0.242700015325292 0.125 0.257296485238699
0.235333276377222 0.125 0.267372243027161
0.243661800715688 0.125 0.285752886640428
0.235889534659272 0.125 0.287666810084965
0.238918551071044 0.125 0.299891463728243
0.236336437599246 0.125 0.299675198869153
0.240671375768725 0.125 0.316702309855914
0.242531442902935 0.125 0.321908220907365
0.23502129836111 0.125 0.331114546020865
0.240163658991294 0.125 0.340476503748049
0.242250022813293 0.125 0.346941649944823
0.240282319890631 0.125 0.368521814744219
0.239869205261697 0.125 0.366610776710709
0.237276339384491 0.125 0.381435960011872
0.24374142479844 0.125 0.396015516252928
0.23993020243575 0.125 0.404616972757482
0.235591473271564 0.125 0.41348007943505
0.243908762319098 0.125 0.416002505416512
0.236541907208647 0.125 0.436093573302664
0.243774096558253 0.125 0.439114281865867
0.239571315954261 0.125 0.446343094859643
0.239002352794252 0.125 0.460853517936632
0.238099986875994 0.125 0.473954291934859
0.242370332441637 0.125 0.477204404964718
0.240503467030445 0.125 0.493629655887996
0.241583964711587 0.125 0.499496435802672
0.237217277119389 0.125 0.508563388896916
0.242353764509246 0.125 0.514589381747797
0.236485467867742 0.125 0.530702012891182
0.238761872094155 0.125 0.534794926021885
0.236162670230647 0.125 0.55359424270936
0.237359364459063 0.125 0.560249637826096
0.237326150790172 0.125 0.570047497356843
0.238087153458393 0.125 0.575060216604505
0.236179869134981 0.125 0.584808786927718
0.243123973840586 0.125 0.599471566612754
0.241781710779861 0.125 0.603536841478396
0.237258137280409 0.125 0.615201200902714
0.241036028448614 0.125 0.627339319421301
0.241171018693835 0.125 0.633761017182445
0.239582279821129 0.125 0.640579852467823
0.240426877533455 0.125 0.656066020097671
0.237121198961603 0.125 0.666561617565798
0.241594485745428 0.125 0.667555850565236
0.244700718385943 0.125 0.683120412868734
0.238733934947675 0.125 0.693788335812063
0.236726264160167 0.125 0.698582639396895
0.237647813848198 0.125 0.716632682658819
0.235716984300901 0.125 0.717249386193774
0.240884803200242 0.125 0.729634226921499
0.234576515044747 0.125 0.742401364274607
0.243496850763006 0.125 0.746511117991332
0.236620002877607 0.125 0.760894426702412
0.235428814901931 0.125 0.767513853428529
0.238196024000678 0.125 0.781697179125012
0.238008980548608 0.125 0.782938101286915
0.235442876295729 0.125 0.796450688073704
0.241385478045918 0.125 0.805962236876951
0.235637339207956 0.125 0.810913149999569
0.235720753006411 0.125 0.825322916535344
0.236841466092481 0.125 0.830632126352525
0.236645094205501 0.125 0.844894638731285
0.242385277691328 0.125 0.853009228908209
0.242550035503205 0.125 0.868049421512379
0.23973527814128 0.125 0.874035638200898
0.243129351338059 0.125 0.885199621101989
0.234942304013803 0.125 0.887879064851322
0.241545992322775 0.125 0.900215758120873
0.243736492416172 0.125 0.90697794620583
0.241336820033453 0.125 0.921682263929262
0.238829834965631 0.125 0.930265795067831
0.237308315914872 0.125 0.938040625378701
0.240834587595048 0.125 0.944251115924564
0.238284598535983 0.125 0.957524510437105
0.238752356837821 0.125 0.968322449546257
0.242381797631092 0.125 0.981290863297328
0.242643995849501 0.125 0.992594434318617
0.237781076135419 0.125 0.995708904254705
0.245015631380736 0.111527311349765 1.0
0.244635305817426 0.105992418690605 1.0
0.241737447819354 0.09356253405041 1.0
0.242242786021306 0.079172482143738 1.0
0.243458449899433 0.0534620365731153 1.0
0.249434986799941 0.0369104599860925 1.0
0.250733376482906 0.0380726555807626 1.0
0.245179096251318 0.0148060058798589 1.0
0.255173488602933 -0.00481321071655003 1.0
0.2498004538847 -0.0139955841629052 1.0
0.254550174099213 -0.0232808770663194 1.0
0.257199835833829 -0.0560764378973429 1.0
0.257356931570298 -0.0613812435690991 1.0
0.259165054696465 -0.0705627216553331 1.0
0.257984033000643 -0.0961804646924037 1.0
0.261595907162588 -0.0975588012653802 1.0
0.249520685366273 0.125 0.118537603595831
0.250414423159266 0.125 0.12454383179816
0.246887843244588 0.125 0.133983214933068
0.24661116635675 0.125 0.147184893660534
0.251053388992593 0.124999999999999 0.15363061079197
0.251846723195873 0.125 0.16943574638592
0.251505663494924 0.125 0.16474963507283
0.252746152802672 0.125 0.174229001187035
0.244544248014192 0.125 0.189271522337958
0.249997799839645 0.125 0.207394534113795
0.245725737328145 0.124999999999999 0.21658266318763
0.247414826048924 0.125 0.220065828975363
0.249053414335109 0.125 0.230389419522507
0.245773087157553 0.125 0.240791072018842
0.246957110132938 0.125 0.249911804115311
0.250934154618655 0.125 0.261214755802272
0.250128127222734 0.125 0.263610396530972
0.246472390912656 0.125 0.284976332600014
0.252486616721591 0.125 0.28158247821269
0.249405364465011 0.125 0.292126483340913
0.246790277237625 0.125 0.300774311176783
0.246755013225959 0.125 0.319781935888502
0.248129320492703 0.125 0.327610094821083
0.249025994105649 0.125 0.332280937233949
0.25147797134549 0.125 0.346272546209115
0.246973268412361 0.125 0.358455719954838
0.250921884299088 0.125 0.36790723569895
0.246770739200075 0.125 0.377952206376689
0.245056190144127 0.125 0.375304574464775
0.24568164476361 0.125 0.39960216835928
0.246220986531481 0.125 0.406554736644902
0.244617220415614 0.125 0.420898884973703
0.246963109042954 0.125 0.418919759883819
0.248078117425457 0.125 0.436543320050684
0.250284484478482 0.125 0.445985921939122
0.249746394651473 0.125 0.446074394664937
0.244945666080905 0.125 0.46039759214202
0.246678311366724 0.125 0.464337200202141
0.245254211179737 0.125 0.485478182148804
0.246126365570488 0.125 0.486657790536148
0.251954219570048 0.125 0.499673983287276
0.247059648764136 0.125 0.509055493847324
0.24951126712082 0.125 0.519277675451611
0.249233779747208 0.125 0.524651213357845
0.246470533791745 0.125 0.542968534613212
0.251982593697613 0.125 0.54862095316619
0.246892794271687 0.125 0.556204729687747
0.247580380250141 0.125 0.568372177969251
0.250494247454367 0.125 0.567259516047634
0.253699524036626 0.125 0.582734563630305
0.253785841034869 0.125 0.591555954453671
0.250947866665179 0.125 0.606817723778093
0.251460274011631 0.125 0.618596340448065
0.248033149125592 0.125 0.617035655612412
0.2538823751005 0.125 0.629786495848656
0.246995177305122 0.125 0.639823042099561
0.246302615065972 0.125 0.651124861742342
0.246436770154301 0.125 0.66274392739916
0.251578111386811 0.125 0.678798407570373
0.253430985149774 0.125 0.682121054786842
0.248199358996164 0.125 0.685424697729955
0.25105941596418 0.125 0.697100578699242
0.245584614711741 0.125 0.70628897740892
0.251208535040458 0.125 0.718237106906594
0.250711946897401 0.125 0.725362959429712
0.252240972723024 0.125 0.737539567468723
0.248911691262371 0.125 0.748116745716401
0.249122308478473 0.125 0.763395358853693
0.251833188852327 0.125 0.764776120213503
0.251863260475401 0.125 0.773637282509647
0.251163730051682 0.125 0.787651020544069
0.24981077237707 0.125 0.798629048552131
0.245353034229975 0.125 0.805496850673337
0.251345981919037 0.125 0.808712561452752
0.251162064093515 0.125 0.821722845140132
0.248845193791647 0.125 0.835500023916778
0.248438853574638 0.125 0.843724906693286
0.245415333295513 0.125 0.858029077091493
0.252907824225765 0.125 0.857223565762233
0.245144247077042 0.125 0.871446778438619
0.247378081401812 0.125 0.879730708802029
0.24754833664259 0.125 0.893580945892162
0.245416695162212 0.125 0.903635473956144
0.244758304605732 0.125 0.910609683666705
0.251544330486021 0.125 0.918769124985168
0.253190039830012 0.125 0.930938647272189
0.246265190266879 0.125 0.938255820404486
0.247019513726223 0.125 0.945980703724152
0.251363150645894 0.125 0.959711530021092
0.251019563531408 0.125 0.974997542430861
0.252066957061241 0.125 0.972335350802049
0.246038014910014 0.125 0.985152042371488
0.252206896380222 0.125 0.994515911417353
0.24971907550662 0.114129983833473 1.0
0.251365817523758 0.108662354555592 1.0
0.252840578983403 0.0893700598051742 1.0
0.254882046979167 0.071011880343486 1.0
0.250219034262183 0.0599510954589623 1.0
0.25355117583275 0.0509290314024006 1.0
0.259655582225714 0.0207599011444616 1.0
0.260387815270906 0.0178621035653985 1.0
0.257735968767915 -0.00306304312026215 1.0
0.258251460188856 -0.0133558192323396 1.0
0.260939175037342 -0.0308988132344289 1.0
0.25956623066114 -0.0396285864654891 1.0
0.263304131702492 -0.0650585332893235 1.0
0.265505009361882 -0.0860409422927405 1.0
0.266228515897267 -0.0939320931939514 1.0
0.26753437269538 -0.117557367274892 1.0
0.274164291735629 -0.12100401377096 1.0
0.262839711435519 0.125 0.121864398360491
0.261830359672406 0.125 0.133407743825127
0.259607227139144 0.125 0.134446617297622
0.255053130616987 0.125 0.141054138176536
0.260945805782236 0.124999999999999 0.155246652082595
0.255595025756815 0.125 0.16564109302887
0.261578685251654 0.125 0.173289105518625
0.263045759260052 0.125 0.173966793718568
0.257280109478452 0.125 0.189007422788286
0.256469084872265 0.125 0.205006688004147
0.254069218342064 0.125 0.218044447216541
0.260489898007881 0.125 0.220588268138573
0.262728079401734 0.125 0.234960782534683
0.261644085769567 0.125 0.245589000575403
0.256597648778783 0.125 0.247112964559363
0.262197266414098 0.125 0.251533141729836
0.2613757261431 0.125 0.269341587871417
0.254444750066188 0.125 0.285328527290353
0.259108287878515 0.125 0.288983535687464
0.256708796783012 0.125 0.294116965460202
0.254995252899584 0.125 0.303652491123079
0.256176222468796 0.125 0.316794131568331
0.262556151987665 0.125 0.326957550275416
0.262692730888387 0.125 0.328992346719549
0.262037415591155 0.125 0.34734201409263
0.25502032250734 0.125 0.349352133050967
0.260449324099374 0.125 0.363048785563404
0.26045727232433 0.125 0.373505508102129
0.258183672372589 0.125 0.383668762084452
0.263187758508046 0.125 0.388705547350571
0.263021847912505 0.125 0.401542117896843
0.259546348033376 0.125 0.413334997374743
0.260285908250441 0.125 0.422508015459775
0.261173289506036 0.125 0.432547562676715
0.260928340398787 0.125 0.439578868707351
0.260793882324199 0.125 0.458600404346855
0.254061183275445 0.125 0.462183789229113
0.26152851274137 0.125 0.476314255174751
0.255683669798074 0.125 0.478887241719351
0.25930428369683 0.125 0.493517567656346
0.255366676533486 0.125 0.505306384332102
0.255936101617822 0.125 0.505096066298833
0.254805809423544 0.125 0.520088232180823
0.263093377034397 0.125 0.525197955136193
0.25413573253731 0.125 0.534735889761474
0.257455293630938 0.125 0.551980957718286
0.261459532951104 0.125 0.55798100341144
0.25825223284564 0.125 0.572297059065901
0.262523862844309 0.125 0.57311547126135
0.258557503231782 0.125 0.580956018381971
0.259471986279558 0.125 0.588583533964029
0.25469160416488 0.125 0.609516328246886
0.255494702916272 0.125 0.615021861719943
0.26349718533228 0.125 0.621838641016586
0.258811508983892 0.125 0.627807716816866
0.257735658978305 0.125 0.640458670312975
0.263604010611785 0.125 0.649960488588744
0.262765606605229 0.125 0.655500405368039
0.256939029001861 0.125 0.672129267730126
0.260454829573928 0.125 0.678289470973253
0.256174751976017 0.125 0.691210242443233
0.254666475101218 0.125 0.701527169698501
0.256656076903276 0.125 0.714772540325503
0.258912788380147 0.125 0.721034041337905
0.255557653005639 0.125 0.729662363811725
0.258917951027237 0.125 0.735694129828739
0.263907062227373 0.125 0.739488039662898
0.254999073491231 0.125 0.762396806684144
0.255896189839682 0.125 0.774205343259619
0.259571078761019 0.125 0.778430844600265
0.256610477083691 0.125 0.789373627577854
0.258285868533003 0.125 0.795791063771571
0.25896213218605 0.125 0.800834995036355
0.259188672592257 0.125 0.811931072584032
0.255672005778856 0.125 0.83047037183129
0.256560914129521 0.125 0.83281768805124
0.254536821897743 0.125 0.83942374340924
0.256771342693099 0.125 0.857065444097396
0.261519106795025 0.125 0.860759915448596
0.26063566926506 0.125 0.873845226866208
0.260339103749563 0.125 0.886354818066952
0.254428596334083 0.125 0.890514820087727
0.259287319223247 0.125 0.897290437251562
0.262102487072376 0.125 0.909952668094421
0.254222827280188 0.125 0.916776551338139
0.261818975900929 0.125 0.93129486813731
0.253819400612301 0.125 0.944166559964462
0.258988203501659 0.125 0.950449461571843
0.255286844119422 0.125 0.956978684569767
0.261125402316179 0.125 0.962244906346807
0.262355530498074 0.125 0.976772974317851
0.255626285526282 0.125 0.98852294164071
0.2625698776868 0.125 0.995789563611067
0.259854482222256 0.118145439551356 1.0
0.261924107926792 0.106139440195511 1.0
0.263679458815117 0.0865356790999598 1.0
0.258640521328108 0.0764347903147765 1.0
0.267819958906035 0.0628922875439381 1.0
0.266166837105473 0.0459460381563738 1.0
0.268205274338473 0.0290593116196111 1.0
0.26838408979171 0.0179901207765933 1.0
0.266205566357639 -0.00442336864288037 1.0
0.269804999788491 -0.0172399160364121 1.0
0.270145738566167 -0.0323752104419458 1.0
0.272554572060161 -0.0417440916923938 1.0
0.278194122605764 -0.058691208855259 1.0
0.272888637879321 -0.0700936841808924 1.0
0.278898686025139 -0.0934094992637063 1.0
0.283529878510297 -0.110172569740852 1.0
0.284471599163051 -0.122988748906382 1.0
0.26546102079064 0.125 0.11977190337567
0.264063639164133 0.125 0.126343142123476
0.267056202699752 0.125 0.132028260921741
0.267574640953435 0.125 0.139745317386757
0.272062937490427 0.125 0.155183042673975
0.273079817944943 0.125 0.167815597920121
0.264190612288131 0.125 0.174830619331797
0.26640519232589 0.125 0.186112772378721
0.264979354985156 0.125 0.193074206300015
0.264495746605634 0.125 0.199773525481535
0.265410195788102 0.125 0.213454630718625
0.269884982101784 0.125 0.214708721861338
0.270615449772382 0.124999999999999 0.223030116663549
0.263834795132112 0.125 0.238187515522197
0.264196613082104 0.125 0.250152795301789
0.271941871801645 0.125 0.254337067665715
0.269340958136481 0.125 0.267853249473463
0.263878116889966 0.125 0.284615253632353
0.267140246466453 0.125 0.285888952612225
0.271698247600192 0.125 0.295906498819402
0.266515175277423 0.125 0.301261873968313
0.270959238455727 0.125 0.316472469397199
0.269858668901603 0.125 0.327558396288152
0.267725825754977 0.125 0.33731108905454
0.265956250936385 0.125 0.346509327766681
0.266945190226223 0.125 0.35308269105205
0.271051772245201 0.125 0.363333245229906
0.265581776634236 0.125 0.369670175164774
0.273378055121605 0.125 0.380773767201464
0.26898139950883 0.125 0.38723945533338
0.269978008662075 0.125 0.399275414756405
0.266731782491677 0.125 0.419165217116033
0.268112494654592 0.125 0.420788571882154
0.273062991236334 0.125 0.4258308589689
0.263677489872675 0.125 0.441422018183442
0.269059543786218 0.125 0.452236078035148
0.271484342870814 0.125 0.457459764873168
0.270453883402849 0.125 0.471102698479362
0.264683008186665 0.125 0.48072079611477
0.26655709426497 0.125 0.485574806100405
0.271879180689182 0.125 0.50278413719184
0.266879253138829 0.125 0.508742097615066
0.269590140332517 0.125 0.512187296031442
0.264844957498022 0.125 0.533387652663734
0.270393974095081 0.125 0.541100314325008
0.269255788464038 0.125 0.550487509557443
0.27133608111913 0.125 0.551607469471243
0.270423418586255 0.125 0.571530419572379
0.271170249665367 0.125 0.570018824834968
0.267408392988514 0.125 0.586190849341397
0.263346544631033 0.125 0.593971491094312
0.267774172921843 0.125 0.598468439126203
0.265059682358099 0.125 0.614955652700063
0.264642433429192 0.125 0.622384048728082
0.269409972255784 0.125 0.63813346991738
0.273012682873034 0.125 0.644406263427733
0.266078182106509 0.125 0.646185673587113
0.268130605141548 0.125 0.666432140200411
0.271928688198523 0.125 0.670290463398266
0.263496247056819 0.125 0.686967490679623
0.269406089870404 0.125 0.691933601128812
0.266037352773064 0.125 0.700024912730048
0.267909542515363 0.125 0.711192247638495
0.263986823693184 0.125 0.718094411134872
0.267323337859005 0.125 0.724620256099402
0.267253199880717 0.125 0.739821873518407
0.271239297269531 0.125 0.752688774113933
0.269639025712779 0.125 0.75415611612814
0.265709639371948 0.125 0.765194968480317
0.263861512147747 0.125 0.780757155389965
0.269750306557301 0.125 0.790711410849136
0.271018309190067 0.125 0.791612847763862
0.273271273470402 0.125 0.802612015588589
0.264525183426111 0.125 0.815800926445545
0.265406087156602 0.125 0.822368879220092
0.272078566446829 0.125 0.829360188832721
0.270872636791704 0.125 0.840126889525401
0.263806437811349 0.125 0.851446806366022
0.264410153350802 0.125 0.860043766998558
0.273467190568347 0.125 0.872691843475114
0.265089496837092 0.125 0.879031327727645
0.269122595185559 0.125 0.892425085295593
0.266358842146548 0.125 0.90142804808825
0.271573263079059 0.125 0.910286109203169
0.265212183013304 0.125 0.920050022186005
0.263472642836239 0.125 0.935507061603944
0.268917416600878 0.125 0.94011949666783
0.263737999174058 0.125 0.951778709725563
0.264226684104262 0.125 0.960398721389234
0.265629344130472 0.125 0.962226288486356
0.26563406792508 0.125 0.977573527980054
0.265897610599032 0.125 0.993073520908261
0.264923712163242 0.123869686921393 1.0
0.270860920989073 0.124183352417604 1.0
0.268107170308082 0.104467099634126 1.0
0.274576573827671 0.0836527031985329 1.0
0.268239873337023 0.0727851173105813 1.0
0.273872722286931 0.0526705648509704 1.0
0.277293646805697 0.0378829918168599 1.0
0.274211950286259 0.0378268602157118 1.0
0.275772870925416 0.0117794946811833 1.0
0.283239149612394 0.0039323469130447 1.0
0.276154425833612 -0.00675743941029924 1.0
0.280613930474857 -0.0279340093317103 1.0
0.280646263509715 -0.0355361896457947 1.0
0.285353492859226 -0.0610152320566143 1.0
0.288059596559227 -0.0854954551815151 1.0
0.290342541357927 -0.0910318054673707 1.0
0.286921952480136 -0.108405845212924 1.0
0.29273802689819 -0.121880008009162 1.0
0.273378388573342 0.124999999999999 0.120173413022677
0.28024547565502 0.125 0.126191048326289
0.277221116311489 0.125 0.132281015385877
0.277180169158591 0.125 0.144555292373192
0.279422384932347 0.125 0.155118479291509
0.280860302481342 0.125 0.163087980630583
0.279004892885588 0.125 0.172285426322645
0.273687949241704 0.125 0.18177619122419
0.278305194140257 0.125 0.195689602850957
0.276384904415744 0.125 0.20050204248052
0.278587807186841 0.125 0.211948504632593
0.282408528477528 0.125 0.223928841448822
0.278124646692517 0.125 0.230899017704639
0.27376925733889 0.125 0.240195903068569
0.274017974276627 0.125 0.253187515634892
0.277403214175337 0.125 0.263669720255638
0.279829915082275 0.125 0.271477474326321
0.280326631632196 0.125 0.273814655524703
0.276518812532825 0.125 0.289396407545007
0.28188336152102 0.125 0.30464171384073
0.277817143319765 0.125 0.312304612130514
0.281917024058253 0.125 0.31385961484506
0.273073378198531 0.125 0.325162211181629
0.276310632515329 0.125 0.33738339931801
0.275931535037556 0.125 0.350344114418217
0.274966510659704 0.125 0.353091407914627
0.275616826086834 0.125 0.367865110397382
0.276698315529728 0.125 0.379447080611016
0.279560434555774 0.125 0.381331313194799
0.2750873911661 0.125 0.388892824709481
0.273411185053475 0.125 0.399790062364382
0.276683436102746 0.125 0.417340068805419
0.272858342831085 0.125 0.422143320630445
0.275307054465744 0.125 0.426070746587736
0.279466307114783 0.125 0.440768249817026
0.281021955427175 0.125 0.453629611324963
0.277553803356508 0.125 0.457139856613778
0.280157197635666 0.125 0.472814839087435
0.282087191190888 0.125 0.478215259771921
0.274150213804172 0.125 0.495522909576922
0.273967672337708 0.125 0.498157687398132
0.282735523675806 0.125 0.511461349031279
0.281887528317089 0.125 0.520591366531379
0.280108444218811 0.125 0.525993223271253
0.274965631573364 0.125 0.539558463867873
0.281323259550406 0.125 0.545598627304579
0.276303575666038 0.125 0.554968592291833
0.278072014721633 0.125 0.562791967752767
0.277775107584167 0.125 0.570616379282345
0.275033186868973 0.125 0.581746886596051
0.278801714898542 0.125 0.593317857805788
0.281999794598989 0.125 0.602147256729361
0.275017524525675 0.125 0.613844370691249
0.276160275947782 0.125 0.620779185197697
0.279428012417237 0.125 0.633826810659378
0.280386399237335 0.125 0.646113059721187
0.277659969447738 0.125 0.649424819137305
0.275117052273302 0.125 0.664300188205682
0.274798807705375 0.125 0.672044256585008
0.279460390063304 0.125 0.686635838926769
0.277202376313466 0.125 0.685849537045356
0.276223517788195 0.125 0.695737677080172
0.275608639332285 0.125 0.710017413610476
0.279284986395881 0.125 0.723824776659042
0.278959822445917 0.125 0.726939966498012
0.279888704673891 0.125 0.738979582895731
0.278773365527774 0.125 0.741000746294057
0.282550001366955 0.125 0.754808944442875
0.280227051657542 0.125 0.769062230082498
0.279243617626394 0.125 0.777586928838717
0.278237202586234 0.125 0.783887085156238
0.281290447814075 0.125 0.802857134144108
0.277417763967421 0.125 0.798784720078551
0.278280124634963 0.125 0.808270632464043
0.273213844390567 0.125 0.819634526967373
0.27502627350967 0.125 0.834434075332395
0.273988065248756 0.125 0.8478680789891
0.278003405548923 0.125 0.857800434393862
0.276297097913849 0.125 0.867683633721575
0.28150155184435 0.125 0.870949674009151
0.277193183617923 0.125 0.886380389475388
0.278969894084838 0.125 0.896270190118879
0.279827405860433 0.125 0.893259052493936
0.281857560015813 0.125 0.90995830539849
0.282559060174779 0.125 0.923430546129046
0.275201578077279 0.125 0.926950085615688
0.279028421474474 0.125 0.941617688161517
0.278419576705008 0.125 0.943106804005983
0.277886253424733 0.125 0.959650348198398
0.27518217045777 0.125 0.967825420258796
0.282263805156627 0.125 0.975567827698667
0.274502662096392 0.125 0.984209909204376
0.282318132521027 0.125 0.999015497469194
0.279720124138301 0.110012847847959 1.0
0.283692213868757 0.0984753422700141 1.0
0.279414101758562 0.0929023769716645 1.0
0.279514110406347 0.069973323577225 1.0
0.279404904441436 0.0570314319855333 1.0
0.289859382569733 0.0461870486349389 1.0
0.286262892439699 0.0318391626198075 1.0
0.289893739944168 0.0132232737106176 1.0
0.289738674793318 0.0102145323563442 1.0
0.288407790107973 -0.0143519823161974 1.0
0.288975990814316 -0.0289387344549504 1.0
0.289058969493329 -0.0413215399378882 1.0
0.298383570949506 -0.0583701575575378 1.0
0.297414390826159 -0.0815573361871667 1.0
0.296362185416554 -0.0849148678438146 1.0
0.301303608559912 -0.100968227758489 1.0
0.290492721879532 0.125 0.110662820815336
0.285163553857177 0.125 0.126691822052953
0.290934680623672 0.125 0.135491932335178
0.286606894697676 0.125 0.140289814058075
0.288167390461306 0.125 0.156507333330827
0.286045750735672 0.125 0.163728477535568
0.289680689009394 0.125 0.181117938095543
0.285495470294954 0.125 0.17625665899248
0.284100071580305 0.125 0.193551730671819
0.28715694655442 0.125 0.204997607891721
0.284980956534401 0.125 0.207027275092249
0.286732655466676 0.125 0.223725557042704
0.289052144089697 0.125 0.231753653529872
0.283725743498179 0.125 0.238695683236546
0.288710818059868 0.125 0.250004677245537
0.290768081701537 0.125 0.25789004830412
0.283997527798812 0.125 0.264675800002446
0.288527395202393 0.125 0.274268075356537
0.283200114270288 0.125 0.282245393571503
0.290966768754908 0.125 0.301458028066055
0.291053111926823 0.125 0.308787169737753
0.288548799186561 0.125 0.318322740498183
0.285771847349573 0.125 0.330820796544919
0.291616016313849 0.125 0.332866804338167
0.291934804716836 0.125 0.350772449451383
0.290976935694558 0.125 0.352463561284838
0.285043229780274 0.125 0.362386742750286
0.289228494879625 0.125 0.370420248764052
0.290956778244204 0.125 0.383850769191321
0.287823466526906 0.125 0.390441725640283
0.288579984386492 0.125 0.407693515698888
0.285546983850131 0.125 0.414097745429633
0.285632058791688 0.125 0.430177213779129
0.291084779405048 0.125 0.428232998862162
0.284078288171772 0.125 0.440992913539391
0.282912540964859 0.125 0.453924472517149
0.288375717124073 0.125 0.454420603527095
0.286531802150205 0.125 0.468595966982072
0.290923585258446 0.125 0.484047558510628
0.289595094120643 0.125 0.489664988286183
0.284050270685573 0.125 0.503464727331699
0.28383566073235 0.125 0.502841742942745
0.283964562051698 0.125 0.517171558387277
0.291872871346171 0.125 0.528375041549966
0.289856631584686 0.125 0.5369824830256
0.291728939231192 0.125 0.546692395139535
0.28414153497886 0.125 0.555513470598346
0.290852021015538 0.125 0.562493991357088
0.289542184966259 0.125 0.574448354775856
0.291621814423305 0.125 0.583176573265401
0.286223402844178 0.125 0.588184982911629
0.286043586427148 0.125 0.604637607453193
0.291757691654269 0.125 0.620646546624422
0.29086338989507 0.125 0.621305807110581
0.288445569903841 0.125 0.634508821554554
0.283162566985249 0.125 0.638853333962741
0.291254992314294 0.125 0.652895489596915
0.286857636771111 0.125 0.664721408803909
0.282969643303727 0.125 0.669250296022057
0.284743348813163 0.125 0.683466083674777
0.286218817712065 0.125 0.694093393021369
0.284561314120294 0.125 0.707826254097061
0.284432533562475 0.125 0.715094394299421
0.288628031618599 0.125 0.721049160949069
0.288707675402949 0.125 0.73102073372231
0.286657415448023 0.125 0.735687201316532
0.284092126179399 0.125 0.752859078455466
0.291851587604938 0.125 0.757914640660304
0.283072259092925 0.125 0.765514304311542
0.288290766157091 0.125 0.776745321799838
0.285574430751417 0.125 0.787469481756506
0.285166714549595 0.125 0.794402386548696
0.28429230322894 0.125 0.805597358730279
0.283355346281461 0.125 0.81698781590377
0.28721221805806 0.125 0.821753945509222
0.28278849069258 0.125 0.834906530243355
0.291269784282307 0.125 0.847247148358344
0.283240415054012 0.125 0.853450959380991
0.284751982127614 0.125 0.862414716205515
0.284265748600325 0.125 0.873738915725624
0.2848370893117 0.125 0.882303900803334
0.288522546730869 0.125 0.897300059756958
0.28688725392619 0.125 0.900303808104008
0.292129836612458 0.125 0.913786386748965
0.289534937800438 0.125 0.91819110271685
0.288196947447747 0.125 0.936366457929983
0.284734053184488 0.125 0.943419838574048
0.284102778961633 0.125 0.950717336879647
0.285712564891972 0.125 0.961778761983526
0.284938817519929 0.125 0.96930226034169
0.284619395596588 0.125 0.979542890294611
0.287910702908937 0.125 0.98681763422938
0.284505092738368 0.125 0.996208807185223
0.285143459703189 0.118453274444532 1.0
0.285730737740409 0.104128573088734 1.0
0.291277141625036 0.0856583064753877 1.0
0.290523977476217 0.0678299982870331 1.0
0.294553608453017 0.0647656583361015 1.0
0.293642327441956 0.0506771252957806 1.0
0.296641971187866 0.0304695628776516 1.0
0.294045376716083 0.00780181576660813 1.0
0.296574798776474 -0.00530321265273778 1.0
0.300384690483168 -0.0144077729078612 1.0
0.299174065163763 -0.0292089157049028 1.0
0.301726592897163 -0.048603836138677 1.0
0.301254849497231 -0.0616421236329293 1.0
0.310126826683473 -0.0833269517613392 1.0
0.306673149313084 -0.0915050512463541 1.0
0.314324991452192 -0.103722069752307 1.0
0.308877521442851 -0.121682618913919 1.0
0.29190055130796 0.125 0.116642343321637
0.293145383316127 0.125 0.120999731618126
0.298469190727469 0.125 0.134974342540884
0.295844441585654 0.125 0.135697765768848
0.294851319402012 0.125 0.156772007601299
0.298142699908579 0.124999999999999 0.158258149482333
0.297258948275768 0.124999999999999 0.180547728129532
0.295163916811423 0.125 0.181645933766832
0.294251598161927 0.125 0.199920088475085
0.3017678276498 0.125 0.200980674299263
0.295615372209626 0.125 0.212713478472296
0.292150143320068 0.125 0.229492349540618
0.297039826916622 0.125 0.229515284505267
0.298750082468622 0.125 0.243092260694384
0.29858097709129 0.125 0.241598992407559
0.297625423540722 0.125 0.261301804663885
0.294983852882527 0.125 0.266717311727108
0.300482636469089 0.125 0.278195657470771
0.29677729048388 0.125 0.293186121648255
0.293212745046486 0.125 0.296723353969446
0.292814216088282 0.125 0.313999551128102
0.294249512305581 0.125 0.314940060457129
0.293735384745916 0.125 0.328133732551291
0.29294075655575 0.125 0.336690184424969
0.298731341185764 0.125 0.347046284620407
0.297590607469846 0.125 0.354460336872788
0.29699875025673 0.125 0.368709058093081
0.301292575616611 0.125 0.370260980947479
0.295159943303498 0.125 0.383883864928213
0.297865676739714 0.125 0.392070750697278
0.298744345487069 0.125 0.406007055088769
0.30163154992345 0.125 0.411497348892525
0.29254801758107 0.125 0.422221297559881
0.299972238906932 0.125 0.435873020546761
0.296917537061813 0.125 0.443436733838664
0.296330808125971 0.125 0.455110671938441
0.298330000073657 0.125 0.465127768175961
0.299574873652563 0.125 0.475074315595636
0.296702595841045 0.125 0.482465823486964
0.293406485743205 0.125 0.495093914016015
0.295830698487081 0.125 0.505589958436898
0.298537469072581 0.125 0.504083736017149
0.297955574211441 0.125 0.522406469261368
0.299228709175143 0.125 0.527894409396816
0.300964395370999 0.125 0.536036319238189
0.294591546015786 0.125 0.542970576197845
0.294096393759345 0.125 0.553132584044098
0.298739418091694 0.125 0.565023140234807
0.301148409676736 0.125 0.569759642088318
0.299359382850049 0.125 0.591385229425696
0.293745107239843 0.125 0.600305698616535
0.300876030091288 0.125 0.598369849372002
0.301589914800304 0.125 0.612451075869696
0.293025620884713 0.125 0.62404002084324
0.292437747470483 0.125 0.631220954511041
0.29964376420151 0.125 0.641162774352413
0.298109278397307 0.125 0.653035934471604
0.301132565894668 0.125 0.66303730753017
0.296515682275166 0.125 0.671033618241339
0.301167817600283 0.125 0.679268704785553
0.298744673856183 0.125 0.685570377187193
0.300946903729605 0.125 0.700113444565609
0.296992683072634 0.125 0.708152212307639
0.298296104430935 0.125 0.712059655052371
0.299148251709188 0.125 0.730238033878532
0.29896433783626 0.125 0.74287186690657
0.295317872728685 0.125 0.743818498540546
0.298518122542135 0.125 0.759057406462074
0.299332106716649 0.125 0.764679080326263
0.300984744015973 0.125 0.77482167384503
0.298439863816258 0.125 0.78297245649713
0.299314037416002 0.125 0.793054808315507
0.296340314286197 0.125 0.801189580789113
0.295720138199516 0.125 0.815712183799779
0.299742515227744 0.125 0.821394891586494
0.298605947915992 0.125 0.83964916402098
0.299510675007551 0.125 0.84351794320478
0.302169933160976 0.125 0.848782737779902
0.293173527049209 0.125 0.861638164453524
0.296930841429022 0.125 0.871384047572014
0.293727654541752 0.125 0.877620454423387
0.294979939051679 0.125 0.894168971815914
0.296266814981927 0.125 0.904331642376113
0.294436339112725 0.125 0.913908049457607
0.300486850788883 0.125 0.921105082694366
0.293374917559526 0.125 0.93146652829114
0.29783935954024 0.125 0.942775985240578
0.295212012836116 0.125 0.953715112440329
0.294328989678887 0.125 0.962408143440496
0.29732977667357 0.125 0.970741385583955
0.293383578247633 0.125 0.97840853375077
0.296423299522661 0.125 0.988891253147768
0.299829309992066 0.124007164823249 1.0
0.297160907253809 0.124055043744438 1.0
0.299995208317195 0.101000034066032 1.0
0.304079572443994 0.0798080582650286 1.0
0.306676188068461 0.067159138462895 1.0
0.306111492232488 0.0526032144910168 1.0
0.303232452744035 0.0386458588570306 1.0
0.310022078516888 0.0232630467667606 1.0
0.311948307778896 0.016191892513031 1.0
0.310432453965668 -0.00387584102088487 1.0
0.307837295127347 -0.0171895080860765 1.0
0.318365902893107 -0.0371100824873386 1.0
0.318210513415944 -0.0496678673877723 1.0
0.317957007772367 -0.0632834087621235 1.0
0.315436406038546 -0.0851776822178848 1.0
0.32116446929391 -0.0873621306819877 1.0
0.321822814175101 -0.100140762560409 1.0
0.311573482016476 0.125 0.11409114707858
0.304663805396481 0.125 0.121837638696288
0.307528570750519 0.125 0.140559168363708
0.303277386344962 0.125 0.136393435116501
0.31006978593401 0.125 0.152254645090224
0.310753543548577 0.125 0.156786600862903
0.310254600454585 0.125 0.176969724861199
0.310225700509681 0.125 0.183782916305241
0.303787880439206 0.125 0.196927141407911
0.307621509835484 0.124999999999999 0.202012195339421
0.307415669908432 0.125 0.207250791319559
0.307698913474159 0.124999999999999 0.215100690184195
0.307312014729787 0.125 0.232924648027291
0.309023708010564 0.125 0.239130738367083
0.302117649205501 0.125 0.248078562751407
0.306338294439075 0.125 0.251592265501439
0.308301499443335 0.125 0.270158442910457
0.308626523849538 0.125 0.282457678128179
0.30927108371929 0.125 0.285134513556179
0.309146397636837 0.125 0.294225000724984
0.302703275673613 0.125 0.310543812713336
0.301696369769517 0.125 0.316872911125945
0.307212712345871 0.125 0.319210461053281
0.305142443013279 0.125 0.329839770633471
0.307111537764023 0.125 0.340021742243834
0.307086818375093 0.125 0.357584951670618
0.308526909771146 0.125 0.368742492579833
0.304497855229201 0.125 0.371730669271322
0.307746454747935 0.125 0.377986183435333
0.302005387744671 0.125 0.390995547996354
0.306981838363117 0.125 0.405503916024032
0.302890221337217 0.125 0.410898596050165
0.306078213278807 0.125 0.421753058998094
0.307846714019198 0.125 0.427292912462045
0.306086435493648 0.125 0.441070979579572
0.309185303643688 0.125 0.453390382338997
0.302061191432605 0.125 0.464138371855675
0.310033645657744 0.125 0.473917662212735
0.303285911237111 0.125 0.483646372333534
0.306642266766474 0.125 0.48521010202142
0.309831660729302 0.125 0.496717540395009
0.310200152135967 0.125 0.502508782485285
0.306633474556573 0.125 0.521328679444176
0.309210835014609 0.125 0.525914557904768
0.303104874150558 0.125 0.540971256910315
0.306933703950219 0.125 0.541420389526534
0.303318627219124 0.125 0.553428896018489
0.303222625135354 0.125 0.564059273567721
0.302718948208853 0.125 0.582790000387816
0.304138117306285 0.125 0.586184237383235
0.307273214498772 0.125 0.591421225533757
0.307451186111832 0.125 0.601536250044101
0.309591690175024 0.125 0.612481496164306
0.307692106956692 0.125 0.62408946423616
0.302794801368503 0.125 0.632867630447979
