ply
format ascii 1.0
element vertex 839
property float x
property float y
property float z
end_header
-0.10225139835401 0.104626865671636 0.974364202294077
-0.106309518168397 0.104626865671636 0.972199197744899
-0.103912715471582 0.104626865671636 0.985680201833677
-0.107125655727438 0.104626865671636 0.995411557177983
-0.115687767985279 0.0951955707925816 0.999999999999948
-0.126003778955647 0.0877866859265766 0.99999999999995
-0.142059782925354 0.0730611895845258 0.999999999999954
-0.141267557152287 0.0748231858264906 0.999999999999954
-0.164832350229257 0.0558191569664536 0.999999999999959
-0.175196485492618 0.0379101422901824 0.999999999999963
-0.192081994378621 0.0319480296669322 0.999999999999965
-0.204424325687364 0.0171642781632515 0.999999999999969
-0.205867274521897 0.0131138774909881 0.99999999999997
-0.222330553013162 -0.00319438400821214 0.999999999999974
-0.236376560986145 -0.00191769910134991 0.999999999999973
-0.24874231606353 -0.0194321597731586 0.999999999999978
-0.255745008664516 -0.0336714797221504 0.999999999999982
-0.275661972084219 -0.0451767575929484 0.999999999999985
-0.28567167035396 -0.0660851540237337 0.99999999999999
-0.297317346013852 -0.0607744703205461 0.999999999999989
-0.310851363495946 -0.0839303758833014 0.999999999999995
-0.330501888554342 -0.094937162704483 0.999999999999997
-0.0934593548439314 0.104626865671636 0.0120351332601819
-0.0849125056340618 0.104626865671636 0.0210224163284395
-0.0933573478715101 0.104626865671636 0.0320545947717246
-0.0987425610182366 0.104626865671636 0.033273747733865
-0.0951444224744033 0.104626865671636 0.0422483376083086
-0.0962161142266522 0.104626865671636 0.0555126723634847
-0.0828716810120438 0.104626865671636 0.0717089209863719
-0.0836354739479725 0.104626865671636 0.0812263650341582
-0.0925620309555397 0.104626865671636 0.0848559613705064
-0.093287787545957 0.104626865671636 0.107411338699439
-0.0964827168682926 0.104626865671636 0.102124337533525
-0.0915947064340208 0.104626865671636 0.113029618225611
-0.0945887935168464 0.104626865671636 0.120845237482643
-0.0995441324853506 0.104626865671636 0.130840165288655
-0.0906516332980957 0.104626865671636 0.155434711765489
-0.0936286094307676 0.104626865671636 0.162227124058264
-0.0918672575669456 0.104626865671636 0.170219306642703
-0.0925722478281136 0.104626865671636 0.182550576971595
-0.0863499706764699 0.104626865671636 0.193129864683996
-0.0917145328464637 0.104626865671636 0.193124544362944
-0.0945412049739958 0.104626865671636 0.208223434624946
-0.0966862529478192 0.104626865671636 0.218877320177725
-0.0885148044144071 0.104626865671636 0.233372159186438
-0.102510246149728 0.104626865671636 0.226557255695286
-0.0919953000915132 0.104626865671636 0.253088096600263
-0.0935334496504225 0.104626865671636 0.253490404990123
-0.0891318592796685 0.104626865671636 0.270628817586477
-0.0897695461806926 0.104626865671636 0.287312575379444
-0.0914003717109908 0.104626865671636 0.290789916242964
-0.0959017514830446 0.104626865671636 0.293171218909704
-0.099099721274805 0.104626865671636 0.306389772157412
-0.0922530638668408 0.104626865671636 0.320742688976335
-0.0949205811162721 0.104626865671636 0.333182402619963
-0.0941958779363211 0.104626865671636 0.328191885884917
-0.0937140557226888 0.104626865671636 0.344626570296753
-0.0952863674521165 0.104626865671636 0.350054005776555
-0.0935311289850417 0.104626865671636 0.359862547492517
-0.0888492953991079 0.104626865671636 0.383554129751222
-0.0871762246750579 0.104626865671636 0.388378743926971
-0.0929721124696738 0.104626865671636 0.397877966167077
-0.0947347408836554 0.104626865671636 0.411684784649386
-0.0895242090850843 0.104626865671636 0.422713338132778
-0.0919136741246963 0.104626865671636 0.426118840380944
-0.0857578483209864 0.104626865671636 0.437988203443356
-0.100543520541485 0.104626865671636 0.445801484370305
-0.0923046935572438 0.104626865671636 0.457847743995983
-0.0882598703692155 0.104626865671636 0.470770294034112
-0.099034157304133 0.104626865671636 0.473625489356811
-0.089409787560666 0.104626865671636 0.494275167210577
-0.0962019811539927 0.104626865671636 0.495379571244995
-0.0983933960293166 0.104626865671636 0.504867794005875
-0.0936694383673397 0.104626865671636 0.52395189216286
-0.086595960847813 0.104626865671636 0.532357033025176
-0.0957945693554286 0.104626865671636 0.540914118058913
-0.0994439115876915 0.104626865671636 0.546240977722723
-0.0878896325287217 0.104626865671636 0.560300004030384
-0.0971170755668077 0.104626865671636 0.563638106234927
-0.101167553867474 0.104626865671636 0.572387116587007
-0.0916913849393486 0.104626865671636 0.581155143443433
-0.088096386037127 0.104626865671636 0.600980428294819
-0.0886784934960678 0.104626865671636 0.61064814015812
-0.100212082303031 0.104626865671636 0.612125537783615
-0.0882304521134652 0.104626865671636 0.633108792609845
-0.090107342002331 0.104626865671636 0.634496874238216
-0.0891550424829668 0.104626865671636 0.647266940777104
-0.0972278281170473 0.104626865671636 0.659332162017768
-0.093655155795065 0.104626865671636 0.66836876684541
-0.0893575566690182 0.104626865671636 0.677693965909186
-0.0941953039291184 0.104626865671636 0.680962205348605
-0.0884944183188037 0.104626865671636 0.698795729745364
-0.0892204406970069 0.104626865671636 0.707973451917124
-0.0933656648189382 0.104626865671636 0.71841652798156
-0.0921549948765536 0.104626865671636 0.720166605726235
-0.0905741473834135 0.104626865671636 0.736838921788531
-0.0985035205286797 0.104626865671636 0.740597617854985
-0.100517570388102 0.104626865671636 0.752069382237052
-0.0888060324891074 0.104626865671636 0.760728308152179
-0.0890185341948593 0.104626865671636 0.780141486820269
-0.091132786438316 0.104626865671636 0.782041555787875
-0.0868409261137075 0.104626865671636 0.793631181849015
-0.0925490966926932 0.104626865671636 0.808167444970789
-0.0866225442576752 0.104626865671636 0.815810257103222
-0.0931480485283235 0.104626865671636 0.821072030105974
-0.0941074844350819 0.104626865671636 0.826951928174127
-0.0918056309100029 0.104626865671636 0.846520015509028
-0.0951155438140339 0.104626865671636 0.851031668896666
-0.0965401730079945 0.104626865671636 0.862420868299696
-0.0970361582714514 0.104626865671636 0.868517658824555
-0.0971126722050959 0.104626865671636 0.890390781620413
-0.0941799537180329 0.104626865671636 0.885851666686159
-0.0975651200169955 0.104626865671636 0.90789670401182
-0.0947116668806701 0.104626865671636 0.910884367919015
-0.0928826810886585 0.104626865671636 0.921017510293453
-0.097051823979698 0.104626865671636 0.935453735917813
-0.0945167475313373 0.104626865671636 0.940109610095532
-0.090188668159794 0.104626865671636 0.953385606069624
-0.0937572551676171 0.104626865671636 0.964998362624287
-0.0915969296849173 0.104626865671636 0.972474822533891
-0.10278542549987 0.104626865671636 0.984940934780408
-0.0963845001575086 0.104626865671636 0.993247661072315
-0.100964708069974 0.0981293714961709 0.999999999999948
-0.102079145261735 0.0899545727439028 0.99999999999995
-0.120066710198253 0.0822255687448541 0.999999999999952
-0.132957299370686 0.0647133364664567 0.999999999999956
-0.142689554445411 0.0656214889814052 0.999999999999956
-0.155060443897438 0.0429722731535566 0.999999999999962
-0.172238139429819 0.0350852586353662 0.999999999999964
-0.17329114276976 0.0223257923291674 0.999999999999967
-0.190435706387784 0.0123050865492618 0.99999999999997
-0.198670824233304 0.00607794643270759 0.999999999999971
-0.214786714398082 -0.00694940659400531 0.999999999999975
-0.217935380810448 -0.0125571544823913 0.999999999999976
-0.235134868957785 -0.0265803688752318 0.99999999999998
-0.258483796405151 -0.0499211662364926 0.999999999999986
-0.261721415799739 -0.0516189455977777 0.999999999999986
-0.283165623100715 -0.0592239428637183 0.999999999999988
-0.292891434258427 -0.0755100242515124 0.999999999999993
-0.308713577788849 -0.0908487126067568 0.999999999999996
-0.318106544679327 -0.101411057755835 0.999999999999999
-0.0804710705201772 0.10463931337869 -3.55333532521625e-006
-0.0735081673919129 0.104626865671636 0.0230621242400381
-0.070970981693921 0.104626865671636 0.0301775492581921
-0.078179747570317 0.104626865671636 0.0327842781024557
-0.0732919448436475 0.104626865671636 0.0517529827375097
-0.0761438685284902 0.104626865671636 0.0651170663462798
-0.0838508390235191 0.104626865671636 0.0608729379050483
-0.0814022677446542 0.104626865671636 0.0717774121282937
-0.0764339548145559 0.104626865671636 0.0860471961552106
-0.0804229260110449 0.104626865671636 0.0982390473064626
-0.0790506668804073 0.104626865671636 0.109396849361872
-0.077980317042705 0.104626865671636 0.120776785772427
-0.0824357546157363 0.104626865671636 0.120401662780769
-0.0805509511214556 0.104626865671636 0.138693947349393
-0.0755345821826542 0.104626865671636 0.146050895651904
-0.0752312603686819 0.104626865671636 0.16037438723252
-0.0800531351800612 0.104626865671636 0.163080673697773
-0.0720517459476665 0.104626865671636 0.177528773551543
-0.0822518907444678 0.104626865671636 0.185588018759213
-0.078080005263313 0.104626865671636 0.207372934615117
-0.0804051319687791 0.104626865671636 0.205289938724397
-0.0822030669183213 0.104626865671636 0.217542090064345
-0.0767927897550658 0.104626865671636 0.235460187056742
-0.0756149803570069 0.104626865671636 0.241213291897023
-0.0770852896970253 0.104626865671636 0.240611611864527
-0.0823407781414204 0.104626865671636 0.254483498743785
-0.0756864547355839 0.104626865671636 0.266435778281029
-0.0823557988482786 0.104626865671636 0.275117533280043
-0.0739170530538102 0.104626865671636 0.296253535858922
-0.0790879649570032 0.104626865671636 0.296785455085234
-0.0851848142377405 0.104626865671636 0.300633333596301
-0.0756114258964726 0.104626865671636 0.314009492296066
-0.0836534666254482 0.104626865671636 0.317989942122634
-0.0768289600366047 0.104626865671636 0.340531070526732
-0.0775057232555075 0.104626865671636 0.351115950779874
-0.0719144606352323 0.104626865671636 0.359677205623003
-0.0780346479492437 0.104626865671636 0.377472913242443
-0.0773203737673907 0.104626865671636 0.371482466769111
-0.0726767951588586 0.104626865671636 0.393838241277359
-0.0821542370310683 0.104626865671636 0.39140562566109
-0.0790114425579924 0.104626865671636 0.408905080820586
-0.0739785090766137 0.104626865671636 0.423004070780447
-0.0760145278310918 0.104626865671636 0.42398472311911
-0.0769111347644275 0.104626865671636 0.437332400571503
-0.0799395943776254 0.104626865671636 0.439107338871397
-0.074677619498356 0.104626865671636 0.46221345275582
-0.081863527014429 0.104626865671636 0.458412190905448
-0.075273443373617 0.104626865671636 0.469254626495907
-0.0794933888630818 0.104626865671636 0.491903561233953
-0.0817389540825265 0.104626865671636 0.496092062685171
-0.0877337862562688 0.104626865671636 0.495255976263774
-0.0710732833631 0.104626865671636 0.5212501768142
-0.0722921672523188 0.104626865671636 0.52556618046593
-0.0785426039078224 0.104626865671637 0.530187787468439
-0.0736898649989024 0.104626865671636 0.549418723917929
-0.0746010752592667 0.104626865671636 0.553145194810453
-0.0708421168217607 0.104626865671636 0.57225787986998
-0.0836116139970151 0.104626865671636 0.570315888561828
-0.0786254533791763 0.104626865671636 0.586174075727627
-0.0774092952051316 0.104626865671636 0.600857213973394
-0.074473026697704 0.104626865671636 0.606872851476305
-0.0880774389819968 0.104626865671636 0.605539734595776
-0.0827431943128298 0.104626865671636 0.618665600153821
-0.0818271565766012 0.104626865671636 0.627423469346608
-0.0820311164391699 0.104626865671636 0.642238238799229
-0.0817112335329662 0.104626865671636 0.650602357018124
-0.0778793087906475 0.104626865671636 0.662169839617812
-0.0704206813511504 0.104626865671636 0.673637967088639
-0.0780620631791606 0.104626865671636 0.677436007277821
-0.0801243704908784 0.104626865671636 0.693330108782957
-0.0815983240219701 0.104626865671636 0.701281109710847
-0.0816939850375405 0.104626865671636 0.715562407506563
-0.0702931958881051 0.104626865671636 0.730984227448992
-0.082125750070243 0.104626865671636 0.735315692735564
-0.0749652392705658 0.104626865671636 0.751337090908955
-0.072978689758161 0.104626865671636 0.757709857976393
-0.0821137565556611 0.104626865671636 0.766364305376351
-0.0753647103914472 0.104626865671636 0.769402947376003
-0.0767521061869316 0.104626865671636 0.785959027533734
-0.0697995967342827 0.104626865671636 0.80025301773776
-0.0746966402902948 0.104626865671636 0.804659084100868
-0.0783677330766896 0.104626865671636 0.816357888839733
-0.0743125632630664 0.104626865671636 0.825598699908706
-0.0749968603572431 0.104626865671636 0.836631613905436
-0.070515732806719 0.104626865671636 0.851508593264998
-0.0798036895176575 0.104626865671636 0.851804838234402
-0.0820307500860957 0.104626865671636 0.865332698414141
-0.0824103179600301 0.104626865671636 0.868296826452452
-0.0835751081438161 0.104626865671636 0.883110516281643
-0.0752697127913061 0.104626865671636 0.892469808974792
-0.0757479736436232 0.104626865671636 0.903715674294658
-0.0803721165681231 0.104626865671636 0.917295936620747
-0.0762558626172189 0.104626865671636 0.923609237797559
-0.0785200666235342 0.104626865671636 0.933763864322935
-0.0767562519183814 0.104626865671636 0.935063800503235
-0.0789748075287065 0.104626865671636 0.949971990978097
-0.0791912170934391 0.104626865671636 0.965508870892925
-0.0802939699857513 0.104626865671636 0.970012862538791
-0.075934847525143 0.104626865671636 0.982492898786089
-0.0815848804056985 0.104626865671636 0.989833287725808
-0.0820155519757692 0.100995348083571 0.999999999999947
-0.0891363423019825 0.0933233568442756 0.999999999999949
-0.106707798214734 0.081675585332419 0.999999999999952
-0.112794972722856 0.0683141904352102 0.999999999999955
-0.130955071039383 0.0547207487195978 0.999999999999959
-0.142165098730863 0.0514933853198245 0.99999999999996
-0.15150020845499 0.0327379633693562 0.999999999999965
-0.16027976540844 0.0277454175392576 0.999999999999966
-0.169984019403359 0.0113823079058911 0.99999999999997
-0.186871879555513 -0.00153087908970124 0.999999999999973
-0.19421635850564 1.65678340622998e-005 0.999999999999973
-0.209742986277511 -0.0144907180918174 0.999999999999977
-0.215001939444728 -0.0296057594373259 0.999999999999981
-0.23869983293441 -0.0391845892265904 0.999999999999983
-0.249640525747637 -0.055568225152341 0.999999999999987
-0.258227475541669 -0.0524037797642352 0.999999999999987
-0.268013766121234 -0.0675443092035626 0.99999999999999
-0.287535246303984 -0.0855659437586012 0.999999999999995
-0.290479958773821 -0.0862284047293744 0.999999999999995
-0.0616618831233985 0.104626865671636 0.0159567612930937
-0.0596791020141467 0.104626865671636 0.0324176132418391
-0.0624722622680326 0.104626865671636 0.0480526653828329
-0.073295006603578 0.104626865671636 0.0425375719231224
-0.0620794077501459 0.104626865671636 0.0582734643898785
-0.0666446480403526 0.104626865671636 0.0587806909198281
-0.0638809074323597 0.104626865671636 0.0691689899357874
-0.0661952219403708 0.104626865671636 0.0913111814937527
-0.0614012007739985 0.104626865671636 0.0944327450107808
-0.0563330993243742 0.104626865671636 0.109625697946513
-0.0627471120365054 0.104626865671636 0.116910354972421
-0.0616219122704232 0.104626865671636 0.125416551092963
-0.071100552371014 0.104626865671636 0.131324311025041
-0.0641338073803536 0.104626865671636 0.141705854750477
-0.0605304096154654 0.104626865671636 0.15377986811262
-0.0667652684921934 0.104626865671636 0.16125944892005
-0.0636625323784408 0.104626865671636 0.174749300313259
-0.0639405363385124 0.104626865671636 0.190875357030894
-0.0618061021845151 0.104626865671636 0.197699062614206
-0.0584078333420221 0.104626865671636 0.21624601592682
-0.0681991438483353 0.104626865671636 0.213029146755597
-0.0688591440769281 0.104626865671636 0.225516703997104
-0.0579495857093432 0.104626865671636 0.24528407447
-0.0590412108137486 0.104626865671636 0.244677797930922
-0.0661723026490234 0.104626865671636 0.260264863264771
-0.0601591292459194 0.104626865671636 0.275262108524351
-0.0566523800423002 0.104626865671636 0.285498781029534
-0.0671084567612815 0.104626865671636 0.290712284834559
-0.0633563647982552 0.104626865671636 0.299966873485707
-0.0659905971731371 0.104626865671636 0.298050002142125
-0.0733280197292573 0.104626865671636 0.31154946325724
-0.0583618119005045 0.104626865671636 0.327918888040593
-0.064358589726165 0.104626865671636 0.328288624062342
-0.0595022855633298 0.104626865671636 0.346253707196389
-0.0604677718934227 0.104626865671636 0.365338438235844
-0.0588094198655811 0.104626865671636 0.365313271517336
-0.0623798764267261 0.104626865671636 0.376187848514902
-0.0646477681330507 0.104626865671636 0.388954361878964
-0.0593334728799289 0.104626865671636 0.401751203919164
-0.0680264466435649 0.104626865671636 0.395459173319586
-0.0663978656933597 0.104626865671636 0.414416062419157
-0.059313329528668 0.104626865671636 0.426075269472759
-0.0636891600177164 0.104626865671636 0.435495927717775
-0.0626124598736206 0.104626865671636 0.444002372530883
-0.0693383789842001 0.104626865671636 0.451429203081379
-0.065621434533459 0.104626865671636 0.468769450499677
-0.0721425570701967 0.104626865671636 0.46654137484785
-0.0673659409041045 0.104626865671636 0.484332529369187
-0.0654506813449505 0.104626865671636 0.489846722204309
-0.064465707528269 0.104626865671636 0.502003090234773
-0.0680142354299671 0.104626865671636 0.512255354646094
-0.0603729316493148 0.104626865671636 0.522675698394172
-0.0562161565591746 0.104626865671636 0.5409596478425
-0.0632297900172439 0.104626865671636 0.549177064619779
-0.0634751978064962 0.104626865671636 0.545423160938847
-0.064348701457322 0.104626865671636 0.567928162606535
-0.0686323883739108 0.104626865671636 0.576558130151132
-0.0736183839648943 0.104626865671636 0.577933484915616
-0.0643598712156834 0.104626865671636 0.583792863635928
-0.0559485865798127 0.104626865671636 0.60436421687439
-0.0635901313065905 0.104626865671636 0.614370690433267
-0.0595744946032784 0.104626865671636 0.624843050423294
-0.0634993308273393 0.104626865671636 0.635397159952719
-0.0548969283750556 0.104626865671636 0.648632003146429
-0.0669122134774498 0.104626865671636 0.651551375495761
-0.0648093503054117 0.104626865671636 0.656804637721203
-0.059709573446937 0.104626865671636 0.673217380511821
-0.0664294232512641 0.104626865671636 0.686057724903763
-0.0613614678337692 0.104626865671636 0.699754659615272
-0.0558947896622304 0.104626865671636 0.708025752787876
-0.0603064067135653 0.104626865671636 0.720457168123848
-0.0652663019793517 0.104626865671636 0.723188432829088
-0.0659216046940685 0.104626865671636 0.736648660274816
-0.0645794694256568 0.104626865671636 0.740427720613119
-0.0583362887490237 0.104626865671636 0.751645028383961
-0.0630725418665376 0.104626865671636 0.759790575195058
-0.0659071230020167 0.104626865671636 0.770036787996734
-0.0699868900389441 0.104626865671636 0.773752533650038
-0.0619588786111757 0.104626865671636 0.794020865222501
-0.0665172710053517 0.104626865671636 0.801165410932179
-0.0717243145832374 0.104626865671636 0.805755577904764
-0.0696174595463357 0.104626865671636 0.814098714569309
-0.0592703996554678 0.104626865671636 0.835963275152961
-0.0674251776132352 0.104626865671636 0.842344002314992
-0.0619324033855657 0.104626865671636 0.85306344396747
-0.0692669066128711 0.104626865671636 0.854774817741412
-0.065508134457155 0.104626865671636 0.870722592077154
-0.0631646345870274 0.104626865671636 0.880242639702134
-0.0705901260526161 0.104626865671636 0.886589133217047
-0.0641039196060145 0.104626865671636 0.902877885703643
-0.0587086305763889 0.104626865671636 0.919155730950265
-0.057275779474969 0.104626865671636 0.919075335484554
-0.0648740897716163 0.104626865671636 0.937152002220113
-0.0635671732792589 0.104626865671636 0.93868340621633
-0.0640066380081217 0.104626865671636 0.947008268046104
-0.0668491439003632 0.104626865671636 0.959751914465614
-0.0618375550735136 0.104626865671636 0.976307659259684
-0.0587209705954062 0.104626865671636 0.981668414155258
-0.0643219005195782 0.104626865671636 0.992575061793274
-0.0720930614238595 0.104626865671636 0.991408687397578
-0.0712867495260319 0.097173892288024 0.999999999999948
-0.0872192420886606 0.0874728166952756 0.99999999999995
-0.101638187477199 0.0686574144135941 0.999999999999955
-0.108790339078952 0.0643491993654637 0.999999999999956
-0.118390251203905 0.0532293105275347 0.999999999999959
-0.121417422282599 0.0452886628891065 0.999999999999961
-0.142985251344801 0.0337681139749036 0.999999999999964
-0.151231179304368 0.0247054662912192 0.999999999999967
-0.162687935663684 0.0113506768903284 0.99999999999997
-0.172223938866359 0.00264026131348215 0.999999999999972
-0.184510990050979 -0.0134435017074886 0.999999999999976
-0.204114086243399 -0.0290826250642563 0.99999999999998
-0.20797370332676 -0.0244343258581588 0.999999999999979
-0.226058732516386 -0.0365802898232557 0.999999999999982
-0.244088017208016 -0.0540419521337475 0.999999999999987
-0.251454903152767 -0.0683948501222399 0.999999999999991
-0.262306260632457 -0.0842223422852012 0.999999999999995
-0.278192522539622 -0.0918669854951672 0.999999999999997
-0.282147122099937 -0.0978541530452371 0.999999999999998
-0.0449770954078926 0.104626865671636 0.0288268871865052
-0.0514863201466839 0.104626865671636 0.0427974052102104
-0.0419254677626524 0.104626865671636 0.0573153018990387
-0.0463698756669364 0.104626865671636 0.0544377610864704
-0.0537542323860944 0.104626865671636 0.0687363737888922
-0.0534264685795719 0.104626865671636 0.0726797767554661
-0.0485758717127109 0.104626865671636 0.086886758498711
-0.0549910680615053 0.104626865671636 0.0956543656663899
-0.0455962046608621 0.104626865671636 0.107968862099075
-0.0440840886892083 0.104626865671636 0.121575400749005
-0.0494231558897458 0.104626865671636 0.131948305062249
-0.0464442401142894 0.104626865671636 0.143172938717368
-0.046168008589764 0.104626865671636 0.146705422932308
-0.0482152608933822 0.104626865671636 0.1607562328629
-0.0519883338349156 0.104626865671636 0.157863738261888
-0.0415441493522333 0.104626865671636 0.185428636188919
-0.0487699311842303 0.104626865671636 0.186989157525499
-0.0458341624905658 0.104626865671636 0.194039541352446
-0.049597431092398 0.104626865671636 0.209324341938697
-0.0403761915187535 0.104626865671636 0.221636463872591
-0.0524358495458171 0.104626865671636 0.222059024007287
-0.053648813618303 0.104626865671636 0.231482843549483
-0.0524962194248457 0.104626865671636 0.243145903229363
-0.0523599911325028 0.104626865671636 0.253391178464036
-0.0457552264414321 0.104626865671636 0.270734648515171
-0.0507135081023995 0.104626865671636 0.267918591956997
-0.0511781569337708 0.104626865671636 0.283617026169178
-0.049726138827499 0.104626865671636 0.290245223802131
-0.0532856115110286 0.104626865671636 0.300902291998682
-0.0398380071252431 0.104626865671636 0.321992663307031
-0.0523643937381886 0.104626865671636 0.331068040639757
-0.0554585902563447 0.104626865671636 0.335448065328544
-0.0514639495047448 0.104626865671637 0.348023107394029
-0.0491180464522923 0.104626865671636 0.361651620982727
-0.0493089945568751 0.104626865671636 0.368673174532414
-0.0431632338905548 0.104626865671636 0.37741037704215
-0.0417932772805745 0.104626865671636 0.387945213321789
-0.052766543959178 0.104626865671636 0.399636055970708
-0.045074867025872 0.104626865671636 0.408212293997774
-0.0451467259207709 0.104626865671636 0.425107032330154
-0.0453822514724202 0.104626865671636 0.422135518869395
-0.0482714344031709 0.104626865671636 0.431273653229463
-0.0458042707905612 0.104626865671636 0.446065382134731
-0.0456563850847929 0.104626865671636 0.456328584362157
-0.04583041876874 0.104626865671636 0.460596478847612
-0.0449921762503045 0.104626865671636 0.474385362197957
-0.0451043099318341 0.104626865671636 0.47940247640381
-0.0510011426587185 0.104626865671636 0.48669649132256
-0.0455281103204507 0.104626865671636 0.506041920151636
-0.0541062166914525 0.104626865671636 0.508031908522544
-0.0560675529178437 0.104626865671636 0.522116498313294
-0.047340838613977 0.104626865671636 0.528325161889838
-0.0487901534043329 0.104626865671636 0.547714450886002
-0.0474300753246066 0.104626865671636 0.552988086947304
-0.0518014972596651 0.104626865671636 0.563241535993598
-0.0416712275150191 0.104626865671636 0.573841738832827
-0.051027985914794 0.104626865671636 0.579376430438121
-0.049628221652952 0.104626865671636 0.597523680607205
-0.0521654190535662 0.104626865671636 0.601301251274525
-0.041776439340559 0.104626865671636 0.613006774819699
-0.0450831775773805 0.104626865671636 0.62923136961577
-0.0541367773985773 0.104626865671636 0.628385669134464
-0.0399392079413067 0.104626865671636 0.643336961628539
-0.0563574269439807 0.104626865671636 0.646542743560415
-0.0582088916239169 0.104626865671636 0.655242603417379
-0.0499510716867926 0.104626865671636 0.662870794261953
-0.053094235429783 0.104626865671636 0.677202589923523
-0.0409042399249382 0.104626865671636 0.69312436668996
-0.0476439053695038 0.104626865671636 0.70527019575587
-0.0501604695672135 0.104626865671636 0.710685026511675
-0.0414226090716998 0.104626865671636 0.729342431794623
-0.0427155716616358 0.104626865671636 0.738000934626958
-0.0546489916964706 0.104626865671636 0.736328775591643
-0.0562001994148993 0.104626865671636 0.743204782778415
-0.0470594516672382 0.104626865671636 0.757443002615012
-0.0487520813502184 0.104626865671636 0.762822917609103
-0.0534070477562949 0.104626865671636 0.778509476623381
-0.0465269176927855 0.104626865671636 0.792735744629592
-0.042640032265846 0.104626865671636 0.805357094009151
-0.0512728581379794 0.104626865671636 0.803287472143255
-0.0413362454509613 0.104626865671636 0.824097012554191
-0.0438513689535266 0.104626865671636 0.832468843859609
-0.0483188465598046 0.104626865671636 0.843286905510425
-0.0485836680132108 0.104626865671636 0.851181155383799
-0.0483683012404359 0.104626865671636 0.864457700691345
-0.0495407742372682 0.104626865671636 0.87102627969376
-0.0509772876912868 0.104626865671636 0.873420397952371
-0.054718289563737 0.104626865671636 0.885173263433975
-0.0443592642942838 0.104626865671636 0.904489210340144
-0.0503472232352126 0.104626865671636 0.905668793124141
-0.052769107284421 0.104626865671636 0.917877840607491
-0.0440920840123734 0.104626865671636 0.928962817810575
-0.0514001694418155 0.104626865671636 0.933703983266576
-0.0478574534892803 0.104626865671636 0.941661416604252
-0.0531389013760022 0.104626865671636 0.94960252929081
-0.0495294507681818 0.104626865671636 0.973119589476694
-0.0489789242998352 0.104626865671636 0.974833990539908
-0.0507557652768023 0.104626865671636 0.988941489072942
-0.0424736147623345 0.104626865671636 0.997860491261782
-0.0636634630975552 0.0894572955100832 0.99999999999995
-0.0605773859632833 0.0910415165592458 0.99999999999995
-0.0747044552925144 0.0809050709918917 0.999999999999952
-0.0800535379476346 0.0770195297369401 0.999999999999953
-0.097087996172992 0.0569699633492511 0.999999999999958
-0.103341921681375 0.0477558006676859 0.999999999999961
-0.113744392784947 0.0427657167195691 0.999999999999962
-0.133902221808782 0.0270487313275644 0.999999999999966
-0.149431368357903 0.0182073189486599 0.999999999999968
-0.161934902830299 0.000492998740030177 0.999999999999973
-0.17016952659343 -0.00793775694008293 0.999999999999975
-0.178721903891546 -0.0172340962996982 0.999999999999977
-0.198005490457435 -0.030801719263594 0.999999999999981
-0.206322739613013 -0.0444298431335573 0.999999999999984
-0.216167536041293 -0.0525010374814208 0.999999999999987
-0.227421521153583 -0.0561949146642412 0.999999999999987
-0.240783822515668 -0.0825351468884843 0.999999999999994
-0.258675445261679 -0.0905976553999472 0.999999999999996
-0.263446526080385 -0.0917987640759501 0.999999999999997
-0.273282568874147 -0.103641987622135 1.0
-0.0390562812487039 0.104626865671636 0.0339723847505596
-0.0305615874424774 0.104626865671636 0.0542641213860772
-0.0423021240435043 0.104626865671636 0.0528297721630446
-0.034755308730518 0.104626865671636 0.0612748154872254
-0.0315650894777599 0.104626865671636 0.0822869929648482
-0.0255269875001928 0.104626865671636 0.09662835370513
-0.032291058026186 0.104626865671636 0.0953049663177537
-0.0313985182200459 0.104626865671636 0.118532179110778
-0.0384549717214372 0.104626865671636 0.119573882820501
-0.0346382343149999 0.104626865671636 0.134171526370357
-0.0379606425691287 0.104626865671636 0.144560688238805
-0.032283180098115 0.104626865671636 0.153230797521305
-0.0341771053311488 0.104626865671636 0.161446437380855
-0.0323554586884555 0.104626865671636 0.165024141432698
-0.0405628517797531 0.104626865671636 0.171682616232611
-0.0359179211628235 0.104626865671636 0.188785941736538
-0.0438667355756843 0.104626865671636 0.1889083786428
-0.0376073731390337 0.104626865671636 0.207474454037202
-0.0375342304490278 0.104626865671636 0.223231777158284
-0.0339198721482247 0.104626865671636 0.230003854850526
-0.0399222969791879 0.104626865671636 0.232872767346262
-0.0326797634915762 0.104626865671636 0.2456925267343
-0.0323543153327659 0.104626865671636 0.253742176925881
-0.0380470336293117 0.104626865671636 0.26962791567712
-0.0293110218693117 0.104626865671636 0.27674867390477
-0.0285230995945232 0.104626865671636 0.291829191238928
-0.035333130339636 0.104626865671636 0.292035941968144
-0.0314332333621717 0.104626865671636 0.305662690715048
-0.0281266628155382 0.104626865671636 0.316283967662115
-0.0341768088269372 0.104626865671636 0.327774308898546
-0.0411088987069013 0.104626865671636 0.330675887303325
-0.0336173512427065 0.104626865671636 0.343282035637248
-0.0358011297180878 0.104626865671636 0.361399746556275
-0.0384022607916107 0.104626865671636 0.358040799749033
-0.0333329446906054 0.104626865671636 0.371307344566395
-0.0366733614530228 0.104626865671636 0.38417991716442
-0.0330074480252853 0.104626865671636 0.393686885497404
-0.0310341276518799 0.104626865671636 0.401860657880341
-0.0339447386842173 0.104626865671636 0.417876215172539
-0.0335575220530451 0.104626865671636 0.414984826771838
-0.0307241085701359 0.104626865671636 0.436004041408051
-0.0343293009502657 0.104626865671636 0.444549974245047
-0.0293177626765655 0.104626865671636 0.452544067492558
-0.031601806014682 0.104626865671636 0.469010014662278
-0.0379779388839558 0.104626865671636 0.463081015448189
-0.0320945692148846 0.104626865671636 0.479690856115952
-0.0395150877997947 0.104626865671636 0.483859403664543
-0.0384892402833104 0.104626865671636 0.497302283177725
-0.0279220225626602 0.104626865671636 0.512950486410229
-0.0378387750768548 0.104626865671636 0.526161753992989
-0.035181699398778 0.104626865671636 0.528733960180609
-0.0393742965200028 0.104626865671636 0.538067188097335
-0.0401045558643145 0.104626865671636 0.546869225875086
-0.033285368326378 0.104626865671636 0.56011212976667
-0.0356415351589139 0.104626865671636 0.571062400453276
-0.0334066862347447 0.104626865671636 0.573231852990799
-0.0259648972200018 0.104626865671636 0.595498195139426
-0.0299270755349394 0.104626865671636 0.602001759826009
-0.0354493762571311 0.104626865671636 0.614666387386322
-0.0382631822486686 0.104626865671636 0.622931381638938
-0.0385302967966047 0.104626865671636 0.62617347277858
-0.0315699361369703 0.104626865671636 0.641811809733911
-0.0318349678604572 0.104626865671636 0.651543506486059
-0.0325886486822289 0.104626865671636 0.65941487488222
-0.0314382257444537 0.104626865671636 0.665118527832723
-0.0397288435384554 0.104626865671636 0.679256368880413
-0.0306427061485669 0.104626865671636 0.691385596371676
-0.0342949140594412 0.104626865671636 0.705132540757335
-0.0389147981695602 0.104626865671636 0.705075645480583
-0.0347175373939147 0.104626865671636 0.714339760823459
-0.0316117258227328 0.104626865671636 0.732163711039924
-0.0368799315301156 0.104626865671636 0.733366017387793
-0.0380668404300902 0.104626865671636 0.741566610175221
-0.0317155354783655 0.104626865671636 0.76481925473916
-0.0366149743997046 0.104626865671636 0.762906236919531
-0.0295904595468819 0.104626865671636 0.782060651691598
-0.0367266529658853 0.104626865671636 0.786792694189334
-0.0268644889728681 0.104626865671636 0.798335888884937
-0.0374271209979881 0.104626865671636 0.806864428062747
-0.0308898326865549 0.104626865671636 0.822688817867094
-0.0356320332465866 0.104626865671636 0.830719178854655
-0.0420677955864242 0.104626865671636 0.828181366589155
-0.0321225452967857 0.104626865671636 0.850946580712017
-0.0421942755197853 0.104626865671636 0.856334394430618
-0.0287589629086403 0.104626865671636 0.863485093098031
-0.0336767003448572 0.104626865671636 0.873451277609111
-0.0301289237124767 0.104626865671636 0.887677465513493
-0.0425649470543993 0.104626865671636 0.894712958725908
-0.0319330871543105 0.104626865671636 0.902841123985504
-0.0422643641430401 0.104626865671636 0.916376499119302
-0.0283190396729387 0.104626865671636 0.93113992337011
-0.0316289711266198 0.104626865671636 0.93831849980813
-0.035169651521766 0.104626865671636 0.948377758059802
-0.0371447477193935 0.104626865671636 0.946005216317096
-0.0374509166293563 0.104626865671636 0.964347698028507
-0.0323703065817554 0.104626865671636 0.976011826171622
-0.0275436325550489 0.104626865671636 0.983654621072003
-0.0318469839170328 0.104626865671636 0.990421131435101
-0.0397864404708036 0.103581133332653 0.999999999999946
-0.0444315967703009 0.092434667301342 0.999999999999949
-0.0579810701275842 0.0777418693000855 0.999999999999953
-0.0714178935725727 0.0756611553559332 0.999999999999953
-0.0870202435098511 0.0551181878802512 0.999999999999959
-0.0973228846240902 0.0519933265120091 0.99999999999996
-0.0990680857581468 0.0423312207777956 0.999999999999962
-0.116384124960224 0.0274143374587093 0.999999999999966
-0.125249848765493 0.0199127252507604 0.999999999999968
-0.137518580621438 0.00988798861060217 0.99999999999997
-0.149862696949827 0.00338461298321361 0.999999999999972
-0.159066539857278 -0.0109158044261487 0.999999999999976
-0.165236617263583 -0.0218731957714974 0.999999999999979
-0.183044941418718 -0.0308865054246535 0.999999999999981
-0.193142778773453 -0.0410426086492644 0.999999999999984
-0.202885765821743 -0.0580923468764418 0.999999999999988
-0.225737088126443 -0.0812213775396612 0.999999999999994
-0.232944124310946 -0.0904100580220276 0.999999999999996
-0.246128767496317 -0.0914743203638634 0.999999999999997
-0.258634190410541 -0.101082491596075 0.999999999999999
-0.0244128267359107 0.104626865671636 0.0484525535532552
-0.0181722800896211 0.104626865671636 0.0622032627918157
-0.0261265990657686 0.104626865671636 0.0699179304998047
-0.0180290352321373 0.104626865671636 0.0821544020017121
-0.0263619965853124 0.104626865671636 0.089684854397504
-0.0208294460810282 0.104626865671636 0.0875648096290216
-0.0206562757854084 0.104626865671636 0.106208632686836
-0.0141677322816797 0.104626865671636 0.116739706943607
-0.0106828888068829 0.104626865671636 0.138835780302764
-0.0135956572757961 0.104626865671636 0.14595160939609
-0.0195467201323559 0.104626865671636 0.156666857984614
-0.0176726176105302 0.104626865671636 0.156150653392972
-0.0238058473605304 0.104626865671636 0.166750284559583
-0.027933327851947 0.104626865671636 0.174301578324961
-0.0140710583472953 0.104626865671636 0.188288329775853
-0.0218882023272599 0.104626865671636 0.195214710731588
-0.0202177778154099 0.104626865671636 0.20767265118156
-0.0166482899629415 0.104626865671636 0.213196531755417
-0.0241317259561977 0.104626865671636 0.216480181420405
-0.0206689935786086 0.104626865671636 0.234834320169292
-0.0239843738253159 0.104626865671636 0.245707128651266
-0.013776407882419 0.104626865671636 0.263519788429063
-0.0219630529417483 0.104626865671636 0.266065615808961
-0.02153925197595 0.104626865671636 0.279808542680997
-0.0176092860596962 0.104626865671636 0.284234266450787
-0.0152770854848046 0.104626865671636 0.294750543458716
-0.0194462821748682 0.104626865671636 0.302964024295409
-0.0130881097126675 0.104626865671636 0.321422961036114
-0.0252866918248946 0.104626865671636 0.321388985084171
-0.0265817599944208 0.104626865671636 0.329341684182199
-0.0184645968949622 0.104626865671636 0.34516491651781
-0.0246043551005519 0.104626865671636 0.34995008432252
-0.0121709495305627 0.104626865671636 0.365204048665079
-0.0162566850382555 0.104626865671636 0.374904167383432
-0.0222193182495333 0.104626865671636 0.379498702696815
-0.0119973021378868 0.104626865671636 0.39563360408747
-0.0207273655381517 0.104626865671636 0.405944926019831
-0.0157038147582319 0.104626865671636 0.420130902161788
-0.0212257946595637 0.104626865671636 0.421398467540319
-0.0206415033459529 0.104626865671636 0.424302024546994
-0.0193311600399011 0.104626865671636 0.443992365904809
-0.0218791848776082 0.104626865671636 0.450403822655959
-0.0120868018400079 0.104626865671636 0.463497125137769
-0.0179790455927423 0.104626865671636 0.473233870079712
-0.0243919183903712 0.104626865671636 0.480142004879734
-0.0280241879914147 0.104626865671636 0.482780824641114
-0.0172040675089561 0.104626865671636 0.501809772710227
-0.0271215937454001 0.104626865671636 0.508823098442987
-0.0156843486004547 0.104626865671636 0.516694637067792
-0.0156064576587115 0.104626865671636 0.530415098050628
-0.023737515377565 0.104626865671636 0.538313954577095
-0.010178925726744 0.104626865671636 0.560601751675332
-0.0108096683793218 0.104626865671636 0.560373023648023
-0.0159645254624566 0.104626865671636 0.570597690437677
-0.0237058830518642 0.104626865671636 0.582874438808612
-0.0259368481709451 0.104626865671636 0.586332353838392
-0.0167469004051711 0.104626865671636 0.602074630197261
-0.0153633918358121 0.104626865671636 0.612078874726517
-0.0189887097598209 0.104626865671636 0.617864003317667
-0.023617250336585 0.104626865671636 0.625600725311785
-0.0190154538216416 0.104626865671636 0.641607889187694
-0.0148010790295443 0.104626865671636 0.65663075652321
-0.0188512055994805 0.104626865671636 0.661019088534437
-0.0277094352493816 0.104626865671636 0.663310785678522
-0.0201812708420931 0.104626865671636 0.678288834904453
-0.0206832388689159 0.104626865671636 0.680014385451982
-0.0197367518600583 0.104626865671636 0.693156840937492
-0.0192046121227553 0.104626865671636 0.714392863908489
-0.0231723964232185 0.104626865671636 0.717457206341419
-0.0244325572087219 0.104626865671636 0.726259441887783
-0.019379413465537 0.104626865671636 0.734549435294555
-0.0144119259115931 0.104626865671636 0.75021295792187
-0.0249959221241367 0.104626865671636 0.756361739931565
-0.0154910758912116 0.104626865671636 0.77056162260966
-0.0154552981009582 0.104626865671636 0.77591680935485
-0.0212306667800129 0.104626865671636 0.783350072665966
-0.023617509226646 0.104626865671636 0.794035459190109
-0.0280107291649361 0.104626865671636 0.804063373152582
-0.023547185602899 0.104626865671636 0.807726972924849
-0.0222694717004438 0.104626865671636 0.830102680751543
-0.0287036290069124 0.104626865671636 0.828590573441715
-0.0288095069695062 0.104626865671636 0.842284203875736
-0.0259367402901956 0.104626865671636 0.848145236385842
-0.0187845624830854 0.104626865671636 0.871256133486166
-0.0244454721834239 0.104626865671636 0.870614828956708
-0.0267832754741198 0.104626865671636 0.882385665505359
-0.0202693363939387 0.104626865671636 0.895823692954306
-0.025634249332776 0.104626865671636 0.894034728355536
-0.0226460918339603 0.104626865671636 0.908113169612606
-0.0163984338818717 0.104626865671636 0.930063698643922
-0.0148478471649304 0.104626865671636 0.931139288993175
-0.0232348866644027 0.104626865671636 0.933977561548223
-0.022305562718559 0.104626865671636 0.9515219089748
-0.0234349069384096 0.104626865671636 0.957142640979039
-0.0149592874071501 0.104626865671636 0.972984521233072
-0.0166528834941274 0.104626865671636 0.982950965966549
-0.0191749924127777 0.104626865671636 0.991467263361248
-0.0164068445152835 0.104626865671636 0.998911580375652
-0.0309484318850588 0.0907468388749488 0.99999999999995
-0.0454052756978713 0.0855805218255927 0.999999999999951
-0.0576756870479284 0.0651398779258161 0.999999999999956
-0.0698673237669699 0.0621712901817914 0.999999999999957
-0.0721320742626391 0.0556091377417408 0.999999999999959
-0.0942477514755584 0.0373228063072919 0.999999999999964
-0.094310080104429 0.0341630256644638 0.999999999999964
-0.107136123235715 0.0184259653920394 0.999999999999968
-0.115192424888897 0.0194189128971899 0.999999999999968
-0.12747063915356 0.00630750252871992 0.999999999999971
-0.143006916294264 -0.0124523425109657 0.999999999999976
-0.162105726216415 -0.0252531842489244 0.99999999999998
-0.165914161952038 -0.0299099999044059 0.999999999999981
-0.186814795674517 -0.0484243466547251 0.999999999999986
-0.190202615575667 -0.0533623856531562 0.999999999999987
-0.198066141776505 -0.0584457927450665 0.999999999999988
-0.208170816288703 -0.0735999180084251 0.999999999999992
-0.225131921806936 -0.0853457103783069 0.999999999999995
-0.00120634916399024 0.104626865671636 0.0624046141289232
-0.00793556374743951 0.104626865671636 0.0696769597724294
-0.00528970008981513 0.104626865671636 0.0822452259492724
-0.00637133215340735 0.104626865671636 0.0897834657518852
-0.00909947179568412 0.104626865671636 0.095989648608181
-0.00572595569065934 0.104626865671636 0.114821712138551
-0.00953544177331364 0.104626865671636 0.116776957402127
-0.00786740309479074 0.104626865671636 0.123547441467636
-0.00650223929027179 0.104626865671636 0.134148040593937
-0.00568231396638808 0.104626865671636 0.143941170774537
0.00282110267410803 0.104626865671636 0.161543382567463
-0.0034677392768686 0.104626865671636 0.171200198424688
-0.000698644915621099 0.104626865671636 0.179000384635228
-0.0034094197072487 0.104626865671636 0.184958212770985
-0.00357838623959951 0.104626865671636 0.201885758875103
-0.00493959474411331 0.104626865671636 0.209698070299521
-0.00196287677024749 0.104626865671636 0.223812887130548
-0.0043139902072682 0.104626865671636 0.217469642639685
-0.00713028968162461 0.104626865671636 0.240939009420742
-0.000889332776979719 0.104626865671636 0.250350435865625
-0.00683467959339305 0.104626865671636 0.256386913183602
0.00239099194733166 0.104626865671636 0.269470725725612
-0.00919018910672349 0.104626865671636 0.278457896416655
-0.00541710871653024 0.104626865671636 0.284639998394009
-0.0103752427805974 0.104626865671636 0.287788685443596
-0.00300419204645015 0.104626865671636 0.310148620505384
-0.00815765529358813 0.104626865671636 0.306083209259777
-0.00671617135641612 0.104626865671636 0.32943383065935
-0.0105922221429017 0.104626865671636 0.331487150361849
-0.00677846841404932 0.104626865671636 0.333225430089164
-0.00491055749241405 0.104626865671636 0.355318467822558
-0.0110836047273124 0.104626865671636 0.36601926783577
-0.0139303031698397 0.104626865671636 0.364559224326156
-0.00682776881011151 0.104626865671636 0.374407850605379
-0.00448953813940047 0.104626865671636 0.388192609000846
-0.00384171472917773 0.104626865671636 0.402242934464858
-0.00469630070629704 0.104626865671636 0.411024038024587
-0.00562391943130342 0.104626865671636 0.419267960980697
-0.00373325214494168 0.104626865671636 0.424987053852496
-0.00875336655650483 0.104626865671636 0.433609687574517
-0.00779257658885529 0.104626865671636 0.444783467498394
-0.00733818170008873 0.104626865671636 0.455508587487617
-0.000369925317452223 0.104626865671636 0.475268995021063
-0.00553374918113501 0.104626865671636 0.482707711622107
-0.00504761773355138 0.104626865671636 0.484374564301758
-0.0123847788896673 0.104626865671636 0.495288835082426
0.00220175795030046 0.104626865671637 0.514605637703658
-0.0137349657096744 0.104626865671636 0.51185249462449
-0.0101209567022056 0.104626865671636 0.531216056910815
-0.0106925346817309 0.104626865671636 0.535230632931629
-0.0083566341968831 0.104626865671636 0.545580407951523
-0.00656192553347504 0.104626865671636 0.555339531399974
-0.00841371404490855 0.104626865671636 0.568332296241427
-0.0135880755998311 0.104626865671636 0.575835078506907
-0.00482457814768516 0.104626865671636 0.589402855994626
-0.00675237876644434 0.104626865671636 0.596809304906004
-0.00398248018979409 0.104626865671636 0.602595696635161
-0.00915263651999443 0.104626865671636 0.615896868395996
-0.00903855426467491 0.104626865671636 0.624550630381368
-0.006295361518159 0.104626865671636 0.633393495886258
-0.00820369314094738 0.104626865671636 0.645053005685239
-0.00243712632618005 0.104626865671636 0.662279387530639
-0.00171360119922724 0.104626865671636 0.664139405903005
-0.0100170140618598 0.104626865671636 0.673222857957991
-0.00652781576391684 0.104626865671636 0.678562219510877
-0.00710136411709771 0.104626865671636 0.696982158435341
0.00017862511603904 0.104626865671636 0.709651582612143
-0.00618977276496578 0.104626865671636 0.708814969862725
-0.0114341512853965 0.104626865671636 0.721623946593716
0.00253154948968395 0.104626865671636 0.737068501667793
0.0034175148043658 0.104626865671636 0.751753040806287
-0.00738173693015481 0.104626865671636 0.751653558468762
-0.0119319075321898 0.104626865671636 0.76390414165292
-0.0143440401628473 0.104626865671636 0.766212692626736
-0.00139238366893768 0.104626865671636 0.78338184763482
-0.0132100265227143 0.104626865671636 0.788161804725509
-0.00458398979923002 0.104626865671636 0.802843131410044
-0.00978367534264301 0.104626865671636 0.813191637156406
-0.00957134245107458 0.104626865671636 0.814476754175496
0.00208892964170204 0.104626865671636 0.832264087140395
-0.00639433821039522 0.104626865671636 0.842117874455173
-0.00395199817846052 0.104626865671636 0.856336028423401
-0.00147223075666028 0.104626865671636 0.859838238890886
-0.00585374659776002 0.104626865671636 0.870164810085162
-0.00487369644983322 0.104626865671636 0.883960868797602
-0.0053250170586704 0.104626865671636 0.893523461415351
-0.0109957991315516 0.104626865671636 0.8990237436958
-0.00765927318030695 0.104626865671636 0.911656478798427
-0.006057371431629 0.104626865671636 0.917296938893177
-0.0119365235305075 0.104626865671636 0.924804076191535
-0.00533698805299605 0.104626865671636 0.936733707098101
-0.0124514078130404 0.104626865671636 0.945394995878862
-0.00365311768267478 0.104626865671636 0.957464835210557
-0.00581302400041862 0.104626865671636 0.965195274967783
-0.00355979453081415 0.104626865671636 0.977527308806266
-0.00580717049673036 0.104626865671636 0.979365412374667
-0.00669062412207212 0.104626865671636 0.999012602884089
-0.017673533991129 0.095488778612202 0.999999999999948
-0.0258718342095992 0.0878448086156827 0.99999999999995
-0.040402461037082 0.0677678119702753 0.999999999999956
-0.0503780004277817 0.0644679065724485 0.999999999999956
-0.0518196891814567 0.0580530086262407 0.999999999999958
-0.0686340211066529 0.0436329684091796 0.999999999999962
-0.080863494749465 0.0348957986641772 0.999999999999964
-0.0892421769857057 0.0167802812621165 0.999999999999969
-0.0994056675009157 0.0118800864997256 0.99999999999997
-0.119434803860727 0.00143919822577987 0.999999999999973
