ply
format ascii 1.0
element vertex 856
property float x
property float y
property float z
end_header
-0.107035650165206 -0.36601629250654 0.651774992534332
-0.0962618576954883 -0.36601629250654 0.67341458428714
-0.103702646157768 -0.36601629250654 0.674533474482808
-0.100748249391278 -0.36601629250654 0.688204586276221
-0.103433624604248 -0.36601629250654 0.688773413177178
-0.100286760946675 -0.36601629250654 0.709410644816682
-0.107758091874875 -0.36601629250654 0.707835289134146
-0.0983386380495794 -0.36601629250654 0.724705779573286
-0.096441507113249 -0.36601629250654 0.734290138910354
-0.0905915163022854 -0.36601629250654 0.744665568539654
-0.09351612394799 -0.36601629250654 0.758628655373659
-0.0947860953194577 -0.36601629250654 0.76525774181678
-0.090502926414538 -0.36601629250654 0.777708387140117
-0.100352174040368 -0.36601629250654 0.782423825582918
-0.0917928927293056 -0.36601629250654 0.788398589781856
-0.100820542610662 -0.36601629250654 0.792926211320313
-0.102510039920232 -0.36601629250654 0.802199104056577
-0.104301662228378 -0.36601629250654 0.811811363095459
-0.0987279097435017 -0.36601629250654 0.827150294359055
-0.103424348852634 -0.36601629250654 0.837330341327854
-0.106914854521231 -0.36601629250654 0.840773805455465
-0.0974610321528479 -0.36601629250654 0.861056328041693
-0.0931722635865149 -0.36601629250654 0.866486558754299
-0.103736405919439 -0.36601629250654 0.86926272150018
-0.098198765255125 -0.36601629250654 0.883822002172104
-0.0970594681183753 -0.36601629250654 0.889041535418183
-0.0997135061568774 -0.36601629250654 0.901712473396589
-0.103082583563485 -0.36601629250654 0.903130642560226
-0.0995902132684318 -0.36601629250654 0.920175241085442
-0.0958038252117848 -0.36601629250654 0.929587412998291
-0.0986020019371586 -0.36601629250654 0.935176748248583
-0.0920789899061504 -0.36601629250654 0.949003047455749
-0.0938189917825047 -0.36601629250654 0.957349198579756
-0.0975378289969076 -0.36601629250654 0.961517971462239
-0.0992311243585311 -0.36601629250654 0.978250439613281
-0.0898711923125584 -0.36601629250654 0.98548052727864
-0.0933065302054942 -0.36601629250654 0.999895450823559
-0.103441005029024 -0.36254448090085 0.99997547822454
-0.113247098538809 -0.345702542744568 0.999856521820015
-0.106489714417293 -0.36601629250654 0.179134923428383
-0.118207494745228 -0.36601629250654 0.172487788991695
-0.107947354947309 -0.36601629250654 0.197149208327321
-0.107948528189708 -0.36601629250654 0.200156217767425
-0.119205650909295 -0.36601629250654 0.197240988791894
-0.108569039717448 -0.36601629250654 0.218445544329167
-0.111454900070328 -0.36601629250654 0.235380351361879
-0.115428152554726 -0.36601629250654 0.239247979668198
-0.112467112293209 -0.36601629250654 0.245061726531563
-0.114123882455209 -0.36601629250654 0.243433463380552
-0.111887365298082 -0.36601629250654 0.267603196724188
-0.114955123954888 -0.36601629250654 0.268069272234042
-0.108526845019478 -0.36601629250654 0.289703840634219
-0.11609284519564 -0.36601629250654 0.282857429242445
-0.113646742905899 -0.36601629250654 0.305897661778143
-0.106110456821711 -0.36601629250654 0.309955451599497
-0.114868372055594 -0.36601629250654 0.321676928367479
-0.117576018685304 -0.36601629250654 0.329717685088662
-0.121621962717481 -0.36601629250654 0.335083318111771
-0.111604144518869 -0.36601629250654 0.354189334131331
-0.11140814250158 -0.36601629250654 0.351796995687402
-0.106322654856246 -0.36601629250654 0.36730091305168
-0.104307647821697 -0.36601629250654 0.387169997232024
-0.110978775097602 -0.36601629250654 0.384113399160953
-0.117907646379506 -0.36601629250654 0.394424116239771
-0.112277607489282 -0.36601629250654 0.40242244088011
-0.113932522718867 -0.36601629250654 0.411984490693311
-0.113045669910273 -0.36601629250654 0.416014059243739
-0.109355985476413 -0.36601629250654 0.427686091545374
-0.111937194376159 -0.36601629250654 0.446539722586755
-0.111362850441198 -0.36601629250654 0.456711105155077
-0.115417376981764 -0.36601629250654 0.463247628630969
-0.110765957330716 -0.36601629250654 0.473201809255197
-0.115484287329932 -0.36601629250654 0.481953773943679
-0.117462493958144 -0.36601629250654 0.481650931603726
-0.11643621988097 -0.36601629250654 0.497302205705597
-0.103383052025187 -0.36601629250654 0.513020523481365
-0.10674340508349 -0.36601629250654 0.520862075538843
-0.12264225860535 -0.36601629250654 0.525321060567556
-0.11009080584804 -0.36601629250654 0.535198441692486
-0.118533215777206 -0.36601629250654 0.542749703505923
-0.116922208766399 -0.36601629250654 0.559038367202655
-0.112705100472055 -0.36601629250654 0.572393669963059
-0.110944559481912 -0.36601629250654 0.577199175596172
-0.110487947220256 -0.36601629250654 0.586411925133553
-0.111898528466483 -0.36601629250654 0.588804023118288
-0.11877125095963 -0.36601629250654 0.59803146838676
-0.114705474169752 -0.36601629250654 0.605973833063317
-0.11441169771597 -0.36601629250654 0.617539507314153
-0.106125529873567 -0.36601629250654 0.639116901508361
-0.112405359202837 -0.36601629250654 0.633711015429343
-0.112795464760129 -0.36601629250654 0.652753356019145
-0.104176132708398 -0.36601629250654 0.659814713925997
-0.111843718926224 -0.36601629250654 0.671328939390394
-0.120640965535809 -0.36601629250654 0.669813685481842
-0.109558627644402 -0.36601629250654 0.691543070651489
-0.115861569006841 -0.36601629250654 0.695500491143032
-0.1084921493828 -0.36601629250654 0.707339520367967
-0.116639875467727 -0.36601629250654 0.712832991863528
-0.112915414893218 -0.36601629250654 0.731430670435392
-0.117026646581717 -0.36601629250654 0.734197985913591
-0.11536758425631 -0.36601629250654 0.738897101093374
-0.117299879530667 -0.36601629250654 0.752746589878622
-0.114490929128419 -0.36601629250654 0.754705289544606
-0.11213351735401 -0.36601629250654 0.768062122187689
-0.108562416276062 -0.36601629250654 0.787566068150321
-0.108110967316644 -0.36601629250654 0.800025690141375
-0.122583806925154 -0.36601629250654 0.790818277957712
-0.11237547939447 -0.36601629250654 0.810916137352017
-0.107592736435271 -0.36601629250654 0.815402522215353
-0.117452491874787 -0.36601629250654 0.82945367586337
-0.113283029948002 -0.36601629250654 0.834670948230961
-0.113844865421235 -0.36601629250654 0.845313698427319
-0.121280485515027 -0.36601629250654 0.847307357207986
-0.113433937556261 -0.36601629250654 0.865539699108217
-0.112152921863958 -0.36601629250654 0.873468014743934
-0.115196448610708 -0.36601629250654 0.887917664060715
-0.113630149765918 -0.36601629250654 0.905202047396489
-0.109094693440705 -0.36601629250654 0.914855548339437
-0.116697206774761 -0.36601629250654 0.922634570808292
-0.112340698221302 -0.36601629250654 0.928266473755869
-0.113578263289008 -0.36601629250654 0.93641552107371
-0.11931125022811 -0.36601629250654 0.946393751754109
-0.112035139462143 -0.36601629250654 0.961648933735796
-0.110700603541292 -0.36601629250654 0.976412339382617
-0.118062489791617 -0.36601629250654 0.978862437083229
-0.115759947885204 -0.36601629250654 0.981317998997906
-0.115448041895031 -0.36601629250654 0.991577540536146
-0.122376934289093 -0.36601629250654 0.20354633083979
-0.120096270521978 -0.36601629250654 0.330398924164128
-0.120474821944065 -0.36601629250654 0.337116801166192
-0.121398102766886 -0.36601629250654 0.422451147693499
-0.122156793551238 -0.36601629250654 0.496992089984512
-0.121278032532644 -0.36601629250654 0.519504830742383
-0.119781546923352 -0.36601629250654 0.566668046035229
-0.12032496835518 -0.36601629250654 0.693283781147302
-0.118933449907324 -0.36601629250654 0.718845824725392
-0.122399009214408 -0.36601629250654 0.747078865904147
-0.122388803022045 -0.36601629250654 0.760131015118083
0.122667035388832 -0.36086604462409 0.117288709768197
0.122667035388832 -0.360711815509723 0.129734916227004
0.122667035388831 -0.363430160391412 0.154159447971799
0.122667035388832 -0.362462575449085 0.163337620848522
0.122667035388832 -0.361078259693155 0.184828643198463
0.122667035388831 -0.361694004206382 0.202015489636076
0.122667035388831 -0.360416644751543 0.204035249541993
0.122667035388831 -0.363778992831701 0.241575118144173
0.122667035388831 -0.364155448538311 0.24308789771371
0.122667035388831 -0.36024874478726 0.256626795248162
0.122667035388832 -0.361673262946678 0.266681860476983
0.122667035388831 -0.361065567066007 0.291880843903735
0.122667035388831 -0.361244495890689 0.292624597677434
0.122667035388831 -0.360220132185518 0.308044997792504
0.122667035388831 -0.360285785466304 0.328804259155947
0.122667035388831 -0.364580639943428 0.335424639187692
0.122667035388832 -0.360422433193852 0.335815634017899
0.122667035388831 -0.362842751611975 0.355984430235289
0.122667035388832 -0.362229549243661 0.362625367523486
0.122667035388831 -0.365707682423579 0.376126113131918
0.122667035388831 -0.365949526831548 0.384889543341954
0.122667035388831 -0.360995131987466 0.398684566475135
0.122667035388832 -0.361932941908789 0.40184029705648
0.122667035388831 -0.364581695122767 0.409293247366195
0.122667035388831 -0.360653235806179 0.422405101183956
0.122667035388831 -0.363491051008567 0.438018859660997
0.122667035388832 -0.362819668054936 0.451094726687665
0.122667035388831 -0.360266707502642 0.456435617568655
0.122667035388832 -0.362463407083898 0.471056756663901
0.122667035388832 -0.365721514064631 0.473068313486394
0.122667035388831 -0.365607745403731 0.485883333356386
0.122667035388831 -0.361752546902318 0.499987918428775
0.122667035388832 -0.359357044924599 0.527411176341236
0.122667035388831 -0.365053956602845 0.536974208380668
0.122667035388832 -0.363566414314293 0.559731674902448
0.122667035388832 -0.361728976107127 0.57055820010917
0.122667035388832 -0.364113976278003 0.616153957199518
0.122667035388831 -0.361087051951623 0.617961068613366
0.122667035388831 -0.3654265342188 0.626107906825007
0.122667035388832 -0.360185049994904 0.642206785727473
0.122667035388831 -0.36053069049708 0.650577974048317
0.122667035388831 -0.361694611017233 0.657164779351711
0.122667035388831 -0.360451588782044 0.692667582048217
0.122667035388831 -0.35988382148106 0.6986585884935
0.122667035388831 -0.364405214814881 0.708835673442745
0.122667035388832 -0.364709072759704 0.722363503376664
0.122667035388831 -0.363710412328392 0.72188598576567
0.122667035388832 -0.362033422661829 0.732884763018297
0.122667035388831 -0.359272237368767 0.751082385948203
0.122667035388832 -0.361003717928769 0.759877506871942
0.122667035388831 -0.362135023787751 0.768343218420942
0.122667035388831 -0.360394627925798 0.766542877099069
0.122667035388832 -0.364569047807279 0.783356698713734
0.122667035388831 -0.360810796913021 0.795952248038282
0.122667035388831 -0.360203852963996 0.807769641276042
0.122667035388832 -0.364277775223909 0.830327336495059
0.122667035388831 -0.362060752748585 0.84501147614952
0.122667035388831 -0.362948994734238 0.863911486748992
0.122667035388832 -0.364505903845076 0.870286486912128
0.122667035388831 -0.363856726799658 0.893069330144057
0.122667035388832 -0.359857517914069 0.921809545751816
0.122667035388831 -0.365629128168288 0.932125815389637
0.122667035388831 -0.363898512219562 0.936128463164062
0.122667035388832 -0.363478537112829 0.948605350969478
0.122667035388832 -0.361297783766106 0.963758359698294
0.122667035388832 -0.360775259280641 0.996037197688192
0.115425593700432 -0.363044171413015 0.999979007591893
0.098852786250273 -0.364164233285523 0.999986918708296
0.122667035388832 -0.353345249525111 0.117939622943906
0.122667035388832 -0.359605010580218 0.121081282739397
0.122667035388831 -0.356871602050641 0.129138552768288
0.122667035388831 -0.352916904950504 0.140547044556023
0.122667035388831 -0.354990432691757 0.152148639005939
0.122667035388831 -0.351737533967405 0.152601122646197
0.122667035388831 -0.35345194132676 0.169373930401716
0.122667035388831 -0.359585491416188 0.181620858558536
0.122667035388831 -0.351973490591113 0.184449545496953
0.122667035388832 -0.355066348953903 0.199416609984658
0.122667035388831 -0.355454490186786 0.20698848490638
0.122667035388832 -0.357383895181643 0.213634262977536
0.122667035388832 -0.357520324018501 0.228095257472309
0.122667035388831 -0.351221654728527 0.242880352903582
0.122667035388831 -0.350484484991565 0.245845222425683
0.122667035388831 -0.352061936118429 0.255616369621975
0.122667035388831 -0.350572711394126 0.272175204790492
0.122667035388832 -0.354299798143107 0.271626466148723
0.122667035388831 -0.354483128093515 0.285331540853509
0.122667035388831 -0.351198638164433 0.292243986725569
0.122667035388831 -0.351686792366681 0.305369202812773
0.122667035388831 -0.356310620673775 0.31592810060758
0.122667035388831 -0.353784007908074 0.323635151382539
0.122667035388831 -0.358094559410758 0.336033608546021
0.122667035388831 -0.357592067898646 0.338882999393222
0.122667035388831 -0.358359771307517 0.347187939315631
0.122667035388831 -0.355133720141175 0.356198674629222
0.122667035388832 -0.350482430902971 0.375436074635767
0.122667035388831 -0.35650765018627 0.384126762410447
0.122667035388831 -0.350114769097584 0.390030072266828
0.122667035388831 -0.352220899341523 0.397579841365934
0.122667035388832 -0.3592364934975 0.41121068684047
0.122667035388832 -0.356369859633349 0.415031047037767
0.122667035388831 -0.354204034823003 0.431013457557106
0.122667035388832 -0.352932216385915 0.44033749407709
0.122667035388832 -0.354982090606851 0.447146177482977
0.122667035388832 -0.35450005449825 0.457267431145332
0.122667035388831 -0.355964283219993 0.460048548819737
0.122667035388832 -0.359876342068128 0.477113780880735
0.122667035388831 -0.349963050636515 0.488968102312628
0.122667035388832 -0.355408284524423 0.496018088853902
0.122667035388832 -0.357193894228758 0.507604577167942
0.122667035388831 -0.358508611732338 0.518583287733248
0.122667035388832 -0.355139103572269 0.518190029790806
0.122667035388832 -0.35791018289797 0.541502193894895
0.122667035388831 -0.351631900909331 0.544449104108142
0.122667035388831 -0.357276107935716 0.553750656739976
0.122667035388832 -0.351648854280534 0.562402307524271
0.122667035388831 -0.357309046460362 0.576975859698262
0.122667035388832 -0.351865522922518 0.585872990489565
0.122667035388831 -0.356877027680894 0.591691359687618
0.122667035388832 -0.350341417952304 0.601080912951314
0.122667035388832 -0.35114617491408 0.612838447942119
0.122667035388832 -0.350934338825129 0.629292562892789
0.122667035388831 -0.353815873706095 0.627276650518587
0.122667035388831 -0.350701151099769 0.640576565938117
0.122667035388831 -0.35185497031647 0.647524766307696
0.122667035388831 -0.355349103355814 0.662027822668204
0.122667035388831 -0.357869027263229 0.663570691202372
0.122667035388831 -0.352086756335089 0.677014482749048
0.122667035388831 -0.357550087456163 0.689105349601513
0.122667035388831 -0.357170348872435 0.699246421911163
0.122667035388831 -0.358022292180517 0.710119934121703
0.122667035388831 -0.351378062890502 0.714034157622547
0.122667035388832 -0.35233710984856 0.730963172597467
0.122667035388832 -0.358202668205104 0.735726615353337
0.122667035388831 -0.357086318176009 0.749142944764201
0.122667035388832 -0.35155222808536 0.760637158126325
0.122667035388831 -0.350060912780645 0.765287325563311
0.122667035388832 -0.357542270116728 0.771773766324704
0.122667035388832 -0.353127651134585 0.784549121263207
0.122667035388831 -0.358161845817244 0.798708082987245
0.122667035388832 -0.357565502199085 0.805999064728519
0.122667035388831 -0.35346544118294 0.8198913619565
0.122667035388832 -0.353766556123907 0.818561403588897
0.122667035388831 -0.353854623129696 0.839075107062917
0.122667035388831 -0.352148031233489 0.844877586205604
0.122667035388831 -0.353647268116685 0.851137776522758
0.122667035388832 -0.353343218162576 0.859098734043888
0.122667035388831 -0.359237003455367 0.870981886547322
0.122667035388831 -0.349610998918253 0.880495576475006
0.122667035388831 -0.358928099827121 0.889880613769139
0.122667035388832 -0.355201864100941 0.899620985888326
0.122667035388831 -0.359087344001919 0.91527914554512
0.122667035388831 -0.355959994075473 0.922606546509322
0.122667035388832 -0.357090907752164 0.922192489346368
0.122667035388831 -0.351176674182318 0.937753729571023
0.122667035388832 -0.355481922826546 0.944100729832766
0.122667035388831 -0.357899792864647 0.963043734266805
0.122667035388831 -0.353889515775419 0.967233214343241
0.122667035388831 -0.352075569986075 0.971402594682469
0.122667035388831 -0.356796426440242 0.990987033158398
0.122667035388831 -0.35377482762079 0.98988070233636
0.120234056757705 -0.351580168902806 0.999898036120117
0.0987061397595379 -0.353346928834282 0.999910514933847
0.082949892956983 -0.360944758502824 0.999964179214714
0.0688225017036165 -0.358336587026911 0.999945757421552
0.0540284725818852 -0.359714911086637 0.999955492671313
0.0389549580307104 -0.360657069305748 0.999962147235247
0.122667035388831 -0.342668478314676 0.11401529929427
0.122667035388831 -0.343235382406139 0.121128163741046
0.122667035388831 -0.340353212442123 0.138798914556635
0.122667035388831 -0.344482847240267 0.138313700955811
0.122667035388831 -0.349818969512808 0.144856177892094
0.122667035388832 -0.350457076490449 0.153453331611778
0.122667035388832 -0.350333039748474 0.167860427931819
0.122667035388831 -0.349530679659848 0.184617935122332
0.122667035388831 -0.345649700511274 0.186155441984315
0.122667035388831 -0.345590639132242 0.197227691872827
0.122667035388831 -0.342634499127061 0.20945243739408
0.122667035388831 -0.342053664753526 0.219493539075704
0.122667035388831 -0.344921045446603 0.233543226291111
0.122667035388832 -0.340760968500981 0.234344003979256
0.122667035388832 -0.342567186489448 0.249101702438552
0.122667035388832 -0.346123480226983 0.250613032346952
0.122667035388832 -0.347913055705222 0.269427659877057
0.122667035388831 -0.340268281990238 0.281787555707209
0.122667035388831 -0.345072401737603 0.285408445557725
0.122667035388832 -0.341088769923131 0.293462126627017
0.122667035388831 -0.34447379291927 0.307503047608156
0.122667035388831 -0.345871189374957 0.316133239407644
0.122667035388831 -0.346628460087916 0.319066315011483
0.122667035388831 -0.349532782992454 0.326371218619324
0.122667035388832 -0.348263676598973 0.346837331119753
0.122667035388832 -0.345300856862475 0.347292027797202
0.122667035388831 -0.349799548048201 0.366037631252171
0.122667035388831 -0.341319848771911 0.379821230790693
0.122667035388831 -0.346745473558441 0.383092909411836
0.122667035388831 -0.346973161265261 0.385134919346313
0.122667035388832 -0.346734179393847 0.405753480432907
0.122667035388831 -0.342618167083586 0.406371546872892
0.122667035388831 -0.343024559926102 0.422134065169269
0.122667035388831 -0.348634671718378 0.422924480645426
0.122667035388831 -0.348660802947367 0.437281925909405
0.122667035388831 -0.346924180011711 0.447705382192359
0.122667035388831 -0.34202017360887 0.46309493304874
0.122667035388831 -0.344199396862752 0.467463022841282
0.122667035388831 -0.347579974126602 0.474797428300032
0.122667035388831 -0.343755075159711 0.484542660558819
0.122667035388831 -0.347478697431279 0.495815664086054
0.122667035388831 -0.348799342422689 0.503767223780342
0.122667035388832 -0.34235110857289 0.508229851485493
0.122667035388831 -0.347885041998581 0.520792723874847
0.122667035388832 -0.342727526289406 0.534154494900325
0.122667035388832 -0.34801548455467 0.54383383044028
0.122667035388832 -0.349459395161318 0.551709796401807
0.122667035388832 -0.340963394552465 0.564970872012368
0.122667035388831 -0.342464633113865 0.573005253915883
0.122667035388831 -0.344383898758165 0.589203670901162
0.122667035388832 -0.349358691029144 0.591490430590204
0.122667035388831 -0.3496334065805 0.599513393095477
0.122667035388831 -0.344980686791001 0.609622886081598
0.122667035388831 -0.34979821970623 0.622305451096373
0.122667035388832 -0.345946025209526 0.625010876186921
0.122667035388831 -0.342777110685218 0.638721455319179
0.122667035388831 -0.343103760208316 0.648823386363442
0.122667035388831 -0.349081376847707 0.665023765601037
0.122667035388832 -0.345156113221699 0.661329947947463
0.122667035388832 -0.342174748065834 0.675546043389538
0.122667035388831 -0.346420667855713 0.684896527570199
0.122667035388831 -0.346382766468104 0.704162757574265
0.122667035388832 -0.346497613813322 0.704870597322842
0.122667035388832 -0.33997941332296 0.723590859294716
0.122667035388832 -0.341396980103324 0.73179377537388
0.122667035388832 -0.341366188083256 0.72900380433461
0.122667035388831 -0.343601892269653 0.744521128719233
0.122667035388831 -0.344854528152428 0.750768949295376
0.122667035388831 -0.345836346150321 0.768937353240716
0.122667035388832 -0.341085820531048 0.777959815079736
0.122667035388831 -0.345309611307413 0.784292635522885
0.122667035388832 -0.343558091846925 0.7901371063425
0.122667035388831 -0.348605074620543 0.802483156337728
0.122667035388831 -0.350340732036626 0.812891825877408
0.122667035388831 -0.342169996444141 0.82156363313239
0.122667035388832 -0.344197968200975 0.831995117410468
0.122667035388831 -0.340804406846173 0.841541149507374
0.122667035388832 -0.346934839014321 0.849859540602651
0.122667035388831 -0.342833870417737 0.86376703758829
0.122667035388832 -0.346506487056072 0.871830618486257
0.122667035388832 -0.345696237124453 0.877331508744733
0.122667035388831 -0.341388924040901 0.888062713446789
0.122667035388832 -0.343115924969246 0.906373804200141
0.122667035388832 -0.340098821912299 0.910881208201906
0.122667035388831 -0.346233570702494 0.911230221177857
0.122667035388831 -0.34628428833369 0.933588876268647
0.122667035388831 -0.340202499350942 0.94118883105309
0.122667035388832 -0.349453691453116 0.948771386844821
0.122667035388832 -0.347235868375797 0.957268410393537
0.122667035388831 -0.341306263225348 0.963952893886348
0.122667035388832 -0.350119074357202 0.973009949419356
0.122667035388831 -0.340765528054399 0.984002958437031
0.122478385807589 -0.344978994984679 0.999851411325058
0.107338070066169 -0.346448464216505 0.999861790342885
0.105614533477072 -0.351402319024891 0.999896779947471
0.0873841467318492 -0.352845779659941 0.999906975263807
0.0717727860240836 -0.353544203102904 0.999911908303035
0.0555533044596951 -0.357444925887091 0.999939459523872
0.037470488314437 -0.358944123838605 0.999950048518815
0.0249805816439631 -0.35874235582363 0.999948623409818
0.00927769389864599 -0.356357892780911 0.999931781693166
0.0108123019938872 -0.354969537755142 0.999921975593623
-0.00491309250032483 -0.365095054272559 0.999993493196151
-0.035939464830893 -0.363678429269725 0.999983487422746
-0.0485855865100628 -0.362613923270003 0.999975968703395
-0.0636624845657201 -0.362566065934695 0.999975630681934
0.122667035388831 -0.333021548545029 0.112834905799569
0.122667035388832 -0.330814446842424 0.12273620528065
0.122667035388832 -0.334621151914255 0.132669266793148
0.122667035388832 -0.331649704175837 0.137607453538813
0.122667035388832 -0.334518949814227 0.15908622738324
0.122667035388831 -0.339143733335042 0.157094864256047
0.122667035388831 -0.339921605522947 0.175460798983442
0.122667035388832 -0.337105147791414 0.187180218549254
0.122667035388831 -0.33277022946893 0.190624967379381
0.122667035388831 -0.339589571482336 0.190679532137895
0.122667035388832 -0.335520769543092 0.212109934420766
0.122667035388831 -0.332521957908933 0.212909446678022
0.122667035388831 -0.331651451151252 0.226470033714409
0.122667035388832 -0.337585186407008 0.236886289457738
0.122667035388832 -0.340128628975775 0.248131272704796
0.122667035388831 -0.336014802735753 0.252451996541489
0.122667035388831 -0.334745668096281 0.261649093635735
0.122667035388832 -0.340566516540738 0.276226020964279
0.122667035388832 -0.334301382445278 0.288332054125869
0.122667035388831 -0.337384145866876 0.296059341078829
0.122667035388831 -0.334865311475488 0.303806160702995
0.122667035388831 -0.333609443190441 0.312527663004792
0.122667035388832 -0.336555168334711 0.322596750448638
0.122667035388831 -0.34012006528792 0.328847764855922
0.122667035388831 -0.338357072309752 0.346223070985805
0.122667035388831 -0.335345937440655 0.352660174460801
0.122667035388831 -0.331310936985562 0.365272935566355
0.122667035388831 -0.337128971058889 0.374104808226882
0.122667035388831 -0.333468765165117 0.376274970374547
0.122667035388831 -0.332533549522613 0.388149406970895
0.122667035388832 -0.33408044993699 0.401886393831285
0.122667035388832 -0.338457632515203 0.407288966354505
0.122667035388831 -0.336383763372263 0.415404615524959
0.122667035388832 -0.339116313296891 0.430540397836874
0.122667035388832 -0.338574257984456 0.443912706712946
0.122667035388831 -0.336685871281976 0.450920805520843
0.122667035388831 -0.33135976961539 0.450079259730907
0.122667035388832 -0.33865555751556 0.46477046093857
0.122667035388831 -0.336223127964192 0.474868889760239
0.122667035388831 -0.332979071163867 0.488520260985408
0.122667035388831 -0.331623534505257 0.49254682155717
0.122667035388831 -0.339934026962886 0.4984832591104
0.122667035388831 -0.339836416464963 0.514741679528171
0.122667035388831 -0.334568061898288 0.5229479706227
0.122667035388831 -0.334111349420784 0.533659254564551
0.122667035388831 -0.335161267136029 0.548394914217271
0.122667035388832 -0.33286712978366 0.556408347229066
0.122667035388832 -0.330836842248531 0.567522036524141
0.122667035388832 -0.337421010990231 0.577646130500083
0.122667035388832 -0.336631774326258 0.585389419213762
0.122667035388831 -0.336553421147933 0.59218426957374
0.122667035388831 -0.334725702606126 0.60531383161842
0.122667035388832 -0.330674235943178 0.616994840303904
0.122667035388831 -0.33791145238458 0.618865605267329
0.122667035388832 -0.339991230266475 0.626917653868752
0.122667035388832 -0.331298333959482 0.637902079023338
0.122667035388832 -0.339797994419249 0.648794374570398
0.122667035388831 -0.338923437455691 0.657927424566509
0.122667035388832 -0.337890370650931 0.668875633562256
0.122667035388832 -0.339227280469001 0.679264686333462
0.122667035388831 -0.334053712520775 0.692232586060021
0.122667035388831 -0.334529232933818 0.694773807922714
0.122667035388831 -0.33236196482462 0.700692153613477
0.122667035388831 -0.338324564580798 0.719943619404034
0.122667035388832 -0.337439687033169 0.727387210648975
0.122667035388831 -0.332501229748718 0.733915668284618
0.122667035388832 -0.337013128654804 0.743576639926758
0.122667035388831 -0.33934381873416 0.750625294136336
0.122667035388832 -0.332272863278294 0.76553606921506
0.122667035388831 -0.332159948189584 0.777918023816403
0.122667035388831 -0.337641286237739 0.78511722790908
0.122667035388831 -0.338356861167302 0.795024589182048
0.122667035388832 -0.334405231062412 0.805242405220281
0.122667035388832 -0.340129532428847 0.817279912215633
0.122667035388832 -0.334727718392203 0.825550321479989
0.122667035388831 -0.338345296462895 0.835172135273114
0.122667035388831 -0.339834898184586 0.840415596018296
0.122667035388832 -0.338556135952223 0.846015340555086
0.122667035388831 -0.333843994128077 0.856631281373148
0.122667035388831 -0.336011525586604 0.872118758273801
0.122667035388831 -0.331106753025325 0.878541547268018
0.122667035388832 -0.339681200247905 0.89376387732332
0.122667035388832 -0.338938166445803 0.897549268009544
0.122667035388832 -0.335189389983881 0.913547077232129
0.122667035388831 -0.33255789896325 0.920416654877317
0.122667035388831 -0.34019050091724 0.931769308386493
0.122667035388831 -0.339151982560224 0.931275234142631
0.122667035388831 -0.337329157089228 0.948142844324521
0.122667035388832 -0.34022431069787 0.961467606259056
0.122667035388831 -0.338018856847287 0.96258687509792
0.122667035388831 -0.340327214682983 0.972422679784115
0.122667035388831 -0.335005107091056 0.991711823584165
0.121353134280489 -0.333781713624943 0.9997723237332
0.109679570348827 -0.332312053881389 0.999761943369768
0.0968522940568379 -0.33646766825537 0.999791294917074
0.0788994866208571 -0.338949469452371 0.999808824143484
0.083141052851715 -0.336190602231985 0.999789337970215
0.0619936623146236 -0.344640790959596 0.999849022553976
0.041060352683325 -0.345117301443935 0.999852388198322
0.0322516084112528 -0.345609937396374 0.999855867738569
0.0189225024923569 -0.351658311719813 0.999898588051163
-0.00160190023310435 -0.34883650785268 0.99987865734965
-0.0119849023578451 -0.354677361118441 0.999919911918892
-0.0327944753671484 -0.353024563652175 0.999908238034202
-0.0451031774587048 -0.356066315310032 0.999929722250408
-0.0690863990992078 -0.352475858658248 0.999904362472339
-0.0741932010485671 -0.356850440384361 0.999935260609394
-0.0878090699307884 -0.364289167141631 0.999987801129438
-0.0973101560211591 -0.363831211512631 0.999984566540014
0.122667035388831 -0.323697072129323 0.109770590923793
0.122667035388831 -0.327604049796831 0.128272109575856
0.122667035388832 -0.325726691532923 0.129876197542389
0.122667035388831 -0.329624666957814 0.137375123811636
0.122667035388832 -0.325644095084645 0.148276435749365
0.122667035388832 -0.321946670296502 0.155422159284547
0.122667035388831 -0.327193866763884 0.169414515094997
0.122667035388831 -0.326890906620372 0.188791298252063
0.122667035388831 -0.322540473948679 0.192212649863764
0.122667035388832 -0.329260282416022 0.200440873191945
0.122667035388832 -0.326827596537307 0.20976310198187
0.122667035388831 -0.322698383318677 0.212273345902061
0.122667035388831 -0.325590700396645 0.233464110978154
0.122667035388832 -0.329182403275727 0.244581961571923
0.122667035388831 -0.324649889664093 0.244476127465363
0.122667035388831 -0.330514755610006 0.259150577249955
0.122667035388832 -0.325415866113525 0.266528274635135
0.122667035388831 -0.330387181381169 0.282132586617199
0.122667035388831 -0.327097002733383 0.281534187523679
0.122667035388832 -0.331126533416621 0.291906831491311
0.122667035388831 -0.325247009191044 0.303673597079278
0.122667035388832 -0.32149170499155 0.317763873590964
0.122667035388831 -0.323866046257238 0.328527965726221
0.122667035388832 -0.330357464440126 0.330811446444465
0.122667035388832 -0.326859161570519 0.339769380946718
0.122667035388831 -0.325224271169463 0.354865564845688
0.122667035388832 -0.33050957419953 0.358961229310119
0.122667035388831 -0.325212765899088 0.368036171052933
0.122667035388831 -0.328435684660282 0.381290815243646
0.122667035388831 -0.326714606991642 0.38661257337673
0.122667035388832 -0.329867339608433 0.399743281960296
0.122667035388832 -0.329289437379248 0.417018684291756
0.122667035388831 -0.326845216397915 0.420666738964388
0.122667035388832 -0.327631854737504 0.433858178448457
0.122667035388831 -0.326717694385418 0.439458541715756
0.122667035388831 -0.330847364788897 0.452977358826346
0.122667035388832 -0.324795498198812 0.457979473390092
0.122667035388831 -0.323480446247118 0.467037925316384
0.122667035388831 -0.32794166589477 0.47898895432232
0.122667035388832 -0.322939619996674 0.491033236075445
0.122667035388831 -0.32203187392578 0.494242683043199
0.122667035388831 -0.3245596441519 0.510024851538021
0.122667035388831 -0.322889119075021 0.520139397999864
0.122667035388831 -0.322339394301321 0.525160199246617
0.122667035388831 -0.322370172840759 0.53776616234234
0.122667035388831 -0.32238311581739 0.540080710823195
0.122667035388831 -0.321429149258541 0.553419004391614
0.122667035388832 -0.324975706927183 0.567596134906232
0.122667035388832 -0.323319467651887 0.576663116113725
0.122667035388831 -0.323566626359258 0.585930897027672
0.122667035388831 -0.326068669919058 0.590903530553268
0.122667035388831 -0.326609265242819 0.604295862347055
0.122667035388831 -0.326538093708471 0.608648764865811
0.122667035388831 -0.329496429744869 0.614926479370577
0.122667035388832 -0.325207176879425 0.637262090248161
0.122667035388831 -0.325942642594185 0.63893199988858
0.122667035388831 -0.323684840494478 0.653384699495922
0.122667035388832 -0.329245327770662 0.657665851175134
0.122667035388831 -0.325868212620414 0.663060506743377
0.122667035388831 -0.325472671998072 0.67600724112505
0.122667035388832 -0.32795854684457 0.68971402391089
0.122667035388831 -0.328824631878673 0.701691694282384
0.122667035388832 -0.328988037874813 0.710816476627053
0.122667035388831 -0.329732389116084 0.724758572885584
0.122667035388831 -0.326533876425971 0.726328113023411
0.122667035388831 -0.327948598117596 0.740195190822717
0.122667035388831 -0.323189296056058 0.750688649630371
0.122667035388832 -0.329072843249208 0.75507251745352
0.122667035388831 -0.325810177073026 0.764914710141536
0.122667035388831 -0.328735530108864 0.777595906512404
0.122667035388831 -0.323098307606616 0.786103815823113
0.122667035388832 -0.330635946207254 0.791238769715024
0.122667035388831 -0.329024389617199 0.801849992860716
0.122667035388832 -0.321917455375471 0.809541061948228
0.122667035388831 -0.324279676126637 0.82506792735318
0.122667035388832 -0.324227855518534 0.835282779736312
0.122667035388832 -0.322117959030087 0.844552281107719
0.122667035388831 -0.322728693766913 0.847517422396858
0.122667035388831 -0.325483833015358 0.859995146368244
0.122667035388832 -0.326138453633051 0.872466692206131
0.122667035388832 -0.327484344173555 0.882570766260065
0.122667035388832 -0.328648426705653 0.891898341116951
0.122667035388832 -0.32588663288808 0.895288666208909
0.122667035388831 -0.326452784356862 0.90837783022985
0.122667035388831 -0.325104299088618 0.924970872983608
0.122667035388832 -0.326617243432416 0.923722131145567
0.122667035388831 -0.330663390215995 0.938939420617212
0.122667035388831 -0.321758357256184 0.94627396219964
0.122667035388831 -0.328240319046574 0.958009287693908
0.122667035388832 -0.328807631804461 0.974213428839744
0.122667035388832 -0.321598303230869 0.977527397794703
0.122667035388831 -0.321387295999659 0.981087125597174
0.122667035388831 -0.324851376059048 0.995961243309671
0.109743390235097 -0.324478868011603 0.999706616742963
0.10406723816679 -0.332768511844815 0.999765167381021
0.0889552988486677 -0.328397494110711 0.999734294416821
0.0705742617710663 -0.333565849012799 0.999770799058433
0.0658187108373837 -0.333520010197582 0.999770475293996
0.0461824394413952 -0.335426144301502 0.999783938522362
0.0279731777904009 -0.341862765460606 0.999829401063744
0.0166428423639647 -0.340899000579109 0.99982259388965
-0.0044089521621482 -0.338023676943155 0.999802285172303
-0.011253255438094 -0.340005740932939 0.999816284701549
-0.0363728767270013 -0.342857203298691 0.999836424884199
-0.0404577159619608 -0.344216933235873 0.999846028801691
-0.0716829777573186 -0.344096195742241 0.999845176019903
-0.0728354115197193 -0.345138100503337 0.999852535104297
-0.0971698936894493 -0.356463810518191 0.999932529801436
-0.113542813310719 -0.356007389408327 0.999929306050483
0.122667035388831 -0.312835362710131 0.113662661014667
0.122667035388832 -0.319772413448614 0.124218703014175
0.122667035388832 -0.320300584680721 0.13040645896963
0.122667035388832 -0.314523947980814 0.13600917204411
0.122667035388831 -0.317277251171186 0.148665453072636
0.122667035388832 -0.315019323854815 0.154426948186579
0.122667035388832 -0.319547817956363 0.176375228312772
0.122667035388831 -0.320431392431304 0.17852337210795
0.122667035388832 -0.314367900571793 0.186184779456135
0.122667035388831 -0.313360424017061 0.198716142974958
0.122667035388831 -0.32158430827253 0.205141590209169
0.122667035388831 -0.321097437144955 0.217134364095738
0.122667035388831 -0.320039473941618 0.22882728294704
0.122667035388831 -0.318070918813989 0.243479456560656
0.122667035388831 -0.315098811751191 0.255038737975602
0.122667035388832 -0.313181129619746 0.255670990360135
0.122667035388832 -0.314089567791588 0.261242583030848
0.122667035388831 -0.321410971527749 0.276857433840102
0.122667035388832 -0.31207998232641 0.292953025041577
0.122667035388831 -0.317721968962581 0.290473424785894
0.122667035388832 -0.315289907143365 0.306059953755074
0.122667035388831 -0.312312821765537 0.311251367350482
0.122667035388831 -0.316966914000979 0.315813406857099
0.122667035388832 -0.319120548716442 0.334430673546427
0.122667035388831 -0.31939095002441 0.344023144938191
0.122667035388831 -0.319155910386534 0.351825932630965
0.122667035388831 -0.314387390928221 0.363766634653873
0.122667035388831 -0.318475559430402 0.371965843507402
0.122667035388831 -0.314320861191487 0.384210194869877
0.122667035388832 -0.320571520549388 0.393013246115692
0.122667035388831 -0.315906164665517 0.400636488084556
0.122667035388831 -0.31956845688157 0.405712576259211
0.122667035388831 -0.320961327718216 0.420232614317262
0.122667035388831 -0.314172020316775 0.424861310592581
0.122667035388831 -0.318334675380607 0.441541649965372
0.122667035388832 -0.314363478267583 0.453740987668864
0.122667035388831 -0.316865998818765 0.45505188279566
0.122667035388831 -0.316222090227751 0.465347300610171
0.122667035388832 -0.313694230319916 0.476936539133668
0.122667035388831 -0.314594234422676 0.47880409752439
0.122667035388831 -0.312577590050059 0.494867941359135
0.122667035388831 -0.313174580805328 0.501167907234189
0.122667035388832 -0.314615339675605 0.513714616891562
0.122667035388831 -0.318148309532141 0.521347756236753
0.122667035388831 -0.313327449069579 0.535170952743865
0.122667035388832 -0.319423328488282 0.546822479555572
0.122667035388832 -0.315702329349105 0.555932797253504
0.122667035388832 -0.315938298426426 0.570068334166382
0.122667035388832 -0.315756940007475 0.569040531106717
0.122667035388832 -0.3128704677878 0.588526872439879
0.122667035388831 -0.314369543812527 0.597129699665856
0.122667035388831 -0.316080815681582 0.602449440238218
0.122667035388831 -0.312884028769962 0.616298411953637
0.122667035388831 -0.317549601299928 0.617640305049938
0.122667035388832 -0.31927871593524 0.627675275904386
0.122667035388832 -0.320452554720027 0.640750091068362
0.122667035388831 -0.315014202201383 0.655926303713472
0.122667035388832 -0.319293036291907 0.657797121451165
0.122667035388832 -0.312236930695835 0.670202453904075
0.122667035388832 -0.317373211861319 0.679441567912234
0.122667035388831 -0.316005519500366 0.690196580011319
0.122667035388831 -0.311828706007887 0.6976427130431
0.122667035388831 -0.313193099308504 0.710173035706601
0.122667035388832 -0.32025427626185 0.720072158154552
0.122667035388832 -0.312371086766296 0.723418076476876
0.122667035388832 -0.318883684863241 0.732118278766221
0.122667035388832 -0.313494605431285 0.74544955141121
0.122667035388831 -0.319987136230179 0.757965758520712
0.122667035388832 -0.316931971986943 0.760438730245998
0.122667035388831 -0.313539630201782 0.776563725896977
0.122667035388831 -0.318405710201782 0.782799101005657
0.122667035388831 -0.312140272160122 0.799826425987531
0.122667035388832 -0.315465257896609 0.806385859243987
0.122667035388832 -0.314212716665429 0.812103229174284
0.122667035388832 -0.319223047391231 0.82614833767434
0.122667035388831 -0.318319894795564 0.835938969909474
0.122667035388832 -0.314108427738197 0.84086162489689
0.122667035388831 -0.318648742330367 0.857061898314497
0.122667035388831 -0.315815322326892 0.858289749286742
0.122667035388831 -0.31834041973856 0.868176212933118
0.122667035388832 -0.315244768625818 0.883117257548855
0.122667035388831 -0.3149217586917 0.887205428511252
0.122667035388832 -0.31195729009495 0.899324330808153
0.122667035388832 -0.316243987216735 0.903524141870847
0.122667035388831 -0.316159503771281 0.925933077406411
0.122667035388832 -0.315100757847921 0.93183999040585
0.122667035388831 -0.318860808141928 0.935416883541496
0.122667035388831 -0.312788468047774 0.949271521717199
0.122667035388832 -0.313319241931153 0.954261504676229
0.122667035388832 -0.314728396510051 0.960740628630243
0.122667035388831 -0.31588440752114 0.978370712065421
0.122667035388832 -0.317277162683274 0.991156238406094
0.117573206230608 -0.315956925575079 0.999646425355107
0.113209430666005 -0.318619048446098 0.999665228212723
0.106912521189028 -0.320677650060928 0.999679768335373
0.0892241401291294 -0.323337777662436 0.999698557100188
0.0732273905298545 -0.318754249201335 0.99966618315007
0.0649232622659628 -0.325271353217279 0.999712214150449
0.0480240132255337 -0.329139918481553 0.999739538239293
0.0334425504421846 -0.324840339277947 0.999709169853049
0.0119326609972767 -0.328081156001873 0.999732060087037
0.00129754994112452 -0.331884604061917 0.999758924246127
-0.0183337985705884 -0.332844973450418 0.999765707437492
-0.0291859461506796 -0.330734583447424 0.999750801527936
-0.043540128495752 -0.338653642584321 0.99980673468678
-0.0606156895322135 -0.339393889503219 0.999811963129678
-0.0739887727233594 -0.338943105188666 0.999808779192011
-0.0871411942653354 -0.340405110840959 0.999819105493781
-0.106013570267545 -0.338437840444919 0.999805210453266
0.122667035388831 -0.30539784385925 0.11743828807067
0.122667035388832 -0.31052006541706 0.122948868341284
0.122667035388831 -0.305883584927932 0.137236923444727
0.122667035388831 -0.305791787387395 0.138599684483292
0.122667035388832 -0.305459908597076 0.157334863807265
0.122667035388832 -0.307584601630376 0.163135893121943
0.122667035388831 -0.308503277876803 0.168155900592387
0.122667035388832 -0.308097198543385 0.185705881267248
0.122667035388831 -0.307085534797664 0.186902128864124
0.122667035388832 -0.310425586111753 0.19200838960289
0.122667035388831 -0.312157748430612 0.202036181284235
0.122667035388831 -0.304384722156875 0.219695687450162
0.122667035388832 -0.307559558160141 0.227177997914423
0.122667035388832 -0.302378890972704 0.239526385529925
0.122667035388832 -0.306314844762148 0.254691933763821
0.122667035388831 -0.310882217487509 0.258953038535621
0.122667035388831 -0.311580539662501 0.262156930603672
0.122667035388832 -0.306262051854822 0.276792419799383
0.122667035388832 -0.30371677187389 0.293346860606017
0.122667035388832 -0.312089359672369 0.295552766729794
0.122667035388831 -0.309656602128866 0.304516621760848
0.122667035388831 -0.302290707909711 0.308775412510796
0.122667035388831 -0.305438975735653 0.321201690213631
0.122667035388832 -0.303491312584496 0.333631253240724
0.122667035388831 -0.310107563671061 0.350718657317624
0.122667035388831 -0.310046006237067 0.356661722068831
0.122667035388831 -0.30612853454439 0.358394084102538
0.122667035388832 -0.306487090812014 0.376201370230946
0.122667035388831 -0.309956026476669 0.375997162584458
0.122667035388831 -0.305901153117757 0.389623488757615
0.122667035388832 -0.30529079194955 0.401182362847769
0.122667035388831 -0.305032268673558 0.410883859962485
0.122667035388831 -0.307583844835362 0.422505521227411
0.122667035388831 -0.307717066972145 0.42908799628553
0.122667035388831 -0.30998108137885 0.436471049492835
0.122667035388831 -0.304948918084071 0.456612071953418
0.122667035388831 -0.306424752641003 0.462779350988968
0.122667035388831 -0.310074487121719 0.460659868278675
0.122667035388831 -0.310248171368284 0.480031793768822
0.122667035388831 -0.309327780966079 0.487132030703102
0.122667035388831 -0.30272719551598 0.497015248333725
0.122667035388831 -0.30248790441577 0.503728599724357
0.122667035388831 -0.310930860221733 0.514648447427583
0.122667035388832 -0.301649199898156 0.527952207516477
0.122667035388832 -0.306990712311343 0.532121551563794
0.122667035388831 -0.311260637588358 0.549902368689482
0.122667035388832 -0.311165020626128 0.553671077569964
0.122667035388831 -0.310676091072954 0.564674050869167
0.122667035388831 -0.302098556917697 0.572771508529737
0.122667035388832 -0.306619078071648 0.58277312533825
0.122667035388831 -0.310384447304671 0.592580911592063
0.122667035388832 -0.309876995985824 0.602576095248349
0.122667035388832 -0.31183869534984 0.615153743768185
0.122667035388831 -0.307607314802456 0.629402801809727
0.122667035388831 -0.308506395550993 0.63221850741335
0.122667035388832 -0.303293528353652 0.63840204568673
0.122667035388832 -0.305926502117405 0.653810910322773
0.122667035388832 -0.309957992486934 0.662668104073026
0.122667035388832 -0.310355584780459 0.668224685176502
0.122667035388832 -0.30280861875035 0.673873245330238
0.122667035388832 -0.303534908926043 0.692375294428235
0.122667035388832 -0.305624040619418 0.70036966190344
0.122667035388832 -0.302739985533642 0.705704667916245
0.122667035388831 -0.309382477102396 0.71191229993866
0.122667035388832 -0.305735133222466 0.729169136888812
0.122667035388832 -0.308311048336936 0.735800691118267
0.122667035388831 -0.302506985626944 0.745273181189059
0.122667035388831 -0.306336760301252 0.75304705852463
0.122667035388832 -0.310040365174834 0.767599367360827
0.122667035388831 -0.311158477705351 0.780295564633184
0.122667035388832 -0.309951719107463 0.782187363913926
0.122667035388831 -0.307613771037695 0.79487100529994
0.122667035388831 -0.304315296054176 0.801081091178049
0.122667035388831 -0.302378554445157 0.819595545630889
0.122667035388832 -0.308091629040833 0.821789878698224
0.122667035388832 -0.302579698053648 0.834303358387157
0.122667035388831 -0.305365909742211 0.840326538776875
0.122667035388832 -0.309747386080815 0.852810323461075
0.122667035388832 -0.309181542831308 0.865658230883457
0.122667035388832 -0.303456041560445 0.86757990033374
0.122667035388831 -0.30762727938777 0.882950943795187
0.122667035388832 -0.308547336276611 0.888535791158258
0.122667035388832 -0.303442982407291 0.904404242963435
0.122667035388831 -0.302106095401399 0.91611441384014
0.122667035388831 -0.309479794270748 0.922359251013033
0.122667035388831 -0.304416981986291 0.928487217809889
0.122667035388832 -0.304934384695244 0.940893081029508
0.122667035388832 -0.311722533439425 0.943374972497991
0.122667035388831 -0.310532668907145 0.957000272165341
0.122667035388832 -0.307561989603924 0.965184349776128
0.122667035388832 -0.311216049669325 0.979606944728216
0.122667035388831 -0.304864180678705 0.988374488875835
0.122667035388831 -0.306414024338694 0.993958863160972
0.115587592734 -0.308263644524052 0.999592086890951
0.0997475544810493 -0.311539579761498 0.999615225170743
0.0835828189337524 -0.306306154090724 0.999578260927355
0.0787383944244353 -0.308267535654886 0.999592114374423
0.0567127882925205 -0.309841942368732 0.999603234576873
0.0441076012030083 -0.314495873351002 0.999636105787503
0.0264451090371016 -0.312212490769316 0.999619978012923
0.00955847673770159 -0.319871692443435 0.999674075770806
-0.00401146236962029 -0.315296460059277 0.999641760416764
-0.00435431391729279 -0.317743396069734 0.999659043386646
-0.0363275817990752 -0.325133666463878 0.999711241654232
-0.0458962098275519 -0.322748464037391 0.999694394715235
-0.0534874925902215 -0.321328879926427 0.999684368041333
-0.0773838128564606 -0.325608694596931 0.999714596828573
-0.0974533955390323 -0.334226897075039 0.999775468111364
-0.119449454641862 -0.329606379044822 0.999742832899976
0.122667035388832 -0.300906453372679 0.112425913001114
0.122667035388831 -0.299667510251976 0.118899646453243
0.122667035388831 -0.298058959271709 0.135478015935696
0.122667035388831 -0.294490553027498 0.13313105765908
0.122667035388832 -0.29665044916754 0.153881536658288
0.122667035388832 -0.299389727856548 0.161576680218883
0.122667035388831 -0.295726145782533 0.169985851684498
0.122667035388831 -0.299960452458285 0.18490674962848
0.122667035388832 -0.300839103401065 0.183796737268122
