ply
format ascii 1.0
element vertex 871
property float x
property float y
property float z
end_header
0.122667035388832 0.219674257105089 0.914593189200492
0.122667035388831 0.219976965696193 0.917912683877732
0.122667035388831 0.217732586961008 0.922083499973102
0.122667035388831 0.223139885495923 0.935317802707919
0.122667035388831 0.217708193413191 0.942022883054676
0.122667035388831 0.223905502082407 0.957751781449593
0.122667035388831 0.221436629042666 0.962334708101624
0.122667035388831 0.221777446130877 0.980261465594382
0.122667035388831 0.218093604652804 0.982101293733509
0.118756732627767 0.21938537841921 0.995865245595279
0.11987606999116 0.218541016992221 0.995871209410045
0.0872500598567594 0.224393943895605 0.995829869563414
0.0831219014855186 0.225202930690452 0.995824155603445
0.0666993852784017 0.227793599292834 0.995805857434945
0.0455652846975584 0.226619346397013 0.995814151308321
0.0362472581523073 0.232352155101006 0.995773659869336
0.0269037565860023 0.23055908609303 0.995786324506877
0.0111657576652637 0.226274105520798 0.995816589781432
0.00443461422015796 0.226772350849094 0.995813070621566
-0.0209672658229263 0.227920203614641 0.995804963215124
-0.0417499164910465 0.233613151997446 0.995764753313836
-0.0538385274792452 0.236102865577344 0.995747168201421
-0.0627952202475237 0.237419721173293 0.995737867109972
-0.0924335002996843 0.237820856868715 0.995735033845794
-0.102031882951783 0.24020827319862 0.995718171269762
-0.119551457250353 0.243442031952448 0.995695330886969
0.122667035388831 0.225385662678876 0.116219720189312
0.122667035388832 0.234911452619769 0.120502729862891
0.122667035388832 0.231582853884816 0.13568881276817
0.122667035388831 0.229376547279688 0.143386950312044
0.122667035388831 0.229491772406215 0.152284303594984
0.122667035388831 0.229398048891738 0.166227115150354
0.122667035388831 0.234499075619801 0.166120768432742
0.122667035388831 0.234920102238728 0.174658138632056
0.122667035388831 0.228361989075941 0.186389886417566
0.122667035388831 0.230750637210551 0.200105956020065
0.122667035388831 0.233590534934941 0.206473153358145
0.122667035388831 0.234337608498063 0.215213412710225
0.122667035388832 0.233858892155387 0.234581137491611
0.122667035388832 0.228199226196781 0.237315697416872
0.122667035388831 0.233155193036577 0.246716803455057
0.122667035388832 0.228327407504061 0.251573178832871
0.122667035388831 0.226437426634841 0.267792293782478
0.122667035388831 0.225641303211264 0.272156314748191
0.122667035388832 0.234644373988951 0.287567734065798
0.122667035388831 0.231340650257459 0.296864975814002
0.122667035388832 0.233903494093028 0.30449452770062
0.122667035388831 0.226093529251074 0.314286868066706
0.122667035388831 0.2264066370399 0.324595150542138
0.122667035388831 0.226484046300267 0.332871335898487
0.122667035388831 0.228038764178342 0.345918990111455
0.122667035388831 0.231932573853898 0.352562286693397
0.122667035388831 0.231111561696943 0.355674233404522
0.122667035388832 0.226461169240162 0.367416939279905
0.122667035388831 0.230879511690933 0.382468745910571
0.122667035388832 0.233307999645781 0.395252642501406
0.122667035388832 0.232303502550932 0.404105613154536
0.122667035388832 0.228405688773759 0.407020806077629
0.122667035388831 0.229298372746212 0.412537406850878
0.122667035388831 0.233071579421708 0.423508780284189
0.122667035388831 0.229969077986254 0.444642122471889
0.122667035388832 0.22614801151839 0.451718532653573
0.122667035388831 0.225596169081674 0.459862766388482
0.122667035388831 0.234091490036652 0.46391904848545
0.122667035388831 0.226938341149921 0.482218728880549
0.122667035388831 0.227824568994487 0.482398309324196
0.122667035388831 0.234032730745965 0.495830876048168
0.122667035388831 0.227386057776458 0.504580338681253
0.122667035388831 0.231056138887901 0.511937555282238
0.122667035388832 0.232533138886132 0.524237628391306
0.122667035388832 0.23327608746107 0.541730246542657
0.122667035388832 0.228809193554517 0.546361450333821
0.122667035388832 0.226464259853786 0.557240738298826
0.122667035388832 0.228094166640155 0.569127553877188
0.122667035388831 0.228993159424999 0.578421893938734
0.122667035388831 0.23452930929573 0.57504476366577
0.122667035388831 0.231678562538574 0.592756035636688
0.122667035388831 0.229329729654362 0.600416172819646
0.122667035388832 0.226857570343047 0.61476394729406
0.122667035388831 0.227759253662909 0.626391300273679
0.122667035388831 0.231388939361927 0.638767828417344
0.122667035388832 0.232014370715347 0.635829133180005
0.122667035388832 0.227162106502226 0.649380828003322
0.122667035388832 0.230995505163527 0.656746050336437
0.122667035388831 0.233976077917417 0.661077021149507
0.122667035388832 0.225886259243596 0.680325784594251
0.122667035388831 0.231978027338718 0.686593113495436
0.122667035388831 0.224960082559821 0.699521183351432
0.122667035388832 0.230996174629786 0.707648967492935
0.122667035388832 0.231618945387959 0.712320878818163
0.122667035388831 0.225655504394847 0.723548034873322
0.122667035388831 0.233196201040893 0.73367692526159
0.122667035388832 0.231496516194075 0.741111215328732
0.122667035388832 0.23355453133271 0.754839941657598
0.122667035388831 0.230087369969127 0.769941031922523
0.122667035388831 0.234894832110203 0.771468287220849
0.122667035388831 0.234820565158762 0.784556856525976
0.122667035388832 0.232715095102777 0.795446632696013
0.122667035388832 0.228696683825773 0.801803360956556
0.122667035388832 0.227995125762837 0.817654961543169
0.122667035388831 0.23251301013448 0.818669651997149
0.122667035388831 0.233697437967734 0.836399236510064
0.122667035388832 0.22787614386262 0.837870634896735
0.122667035388831 0.23134577626511 0.850892981301687
0.122667035388832 0.231840718576511 0.86455081196364
0.122667035388831 0.230506004112925 0.874344801301281
0.122667035388832 0.227453651559863 0.878098896671639
0.122667035388831 0.230158555927969 0.889564921576281
0.122667035388832 0.22792527123186 0.899430837879528
0.122667035388831 0.233926587309622 0.911579683478367
0.122667035388831 0.233661752005272 0.921466666777262
0.122667035388831 0.229504248061802 0.931278895209864
0.122667035388832 0.232240411654493 0.935062430083684
0.122667035388832 0.229278449330834 0.951602866662581
0.122667035388832 0.227233206046111 0.95756458185013
0.122667035388831 0.228695145431906 0.963258778801691
0.122667035388832 0.231812451723227 0.971545451736876
0.122667035388831 0.234229335646845 0.991004196942139
0.118192775042392 0.232167358233851 0.995774965109308
0.115022005445649 0.227381921086455 0.995808765162001
0.0961404740232957 0.235865342406525 0.995748845852896
0.0792295652554022 0.237098301660961 0.99574013733025
0.0715439414237954 0.229824872281049 0.995791510337298
0.0489441544428764 0.233609296465562 0.995764780545868
0.0301268921349212 0.233303125346027 0.995766943065123
0.0258855762470998 0.242082698126605 0.995704932006685
0.0111803141807604 0.239485515935993 0.995723276181352
-0.00172581209533657 0.238361469912233 0.99573121543824
-0.0213094612413025 0.243735916188771 0.99569325515128
-0.0331830469036686 0.245546645568391 0.995680465776651
-0.0495427649801974 0.245770604508149 0.995678883930786
-0.0607167433371779 0.245927662110324 0.9956777746162
-0.0822851578584209 0.245920864988012 0.995677822624998
-0.0954085551625638 0.244590621045756 0.995687218279765
-0.104294578175159 0.248980948799404 0.995656208926839
0.122667035388831 0.24419286441492 0.117847560921802
0.122667035388831 0.244021432278194 0.126655552307322
0.122667035388832 0.242456041179498 0.139116339603381
0.122667035388831 0.239077235147424 0.142611345921484
0.122667035388831 0.243427970164004 0.151306854903558
0.122667035388831 0.242094851954398 0.167231091388598
0.122667035388831 0.239970803254366 0.17328247026856
0.122667035388831 0.24233545047213 0.178301461887476
0.122667035388832 0.236133868112252 0.192355623726935
0.122667035388832 0.236988598038437 0.20203555908988
0.122667035388831 0.242681765684299 0.211553968150419
0.122667035388831 0.23532219740998 0.214450088173353
0.122667035388831 0.241741420146861 0.229709708504167
0.122667035388831 0.236835409345962 0.234336323223484
0.122667035388831 0.240275020581248 0.240543785161921
0.122667035388832 0.237770139443535 0.254172622244663
0.122667035388832 0.243734652749339 0.261756765611585
0.122667035388831 0.241361315007724 0.269196087636588
0.122667035388831 0.23795935395886 0.290443251912543
0.122667035388831 0.241459754347934 0.299105420718856
0.122667035388831 0.242316989728329 0.301734082033939
0.122667035388831 0.237553735469387 0.314860769778845
0.122667035388831 0.24485310109873 0.323687264358628
0.122667035388831 0.240393622155047 0.329142207002236
0.122667035388832 0.238659294161712 0.345128512339136
0.122667035388832 0.244519490121547 0.355012662598682
0.122667035388831 0.237704962440793 0.35777334098945
0.122667035388831 0.24135962560287 0.376577922934733
0.122667035388831 0.239803295522077 0.384525756071895
0.122667035388832 0.242109920302371 0.391365687859404
0.122667035388832 0.234714031602335 0.406343208393203
0.122667035388832 0.240657455654186 0.412973887802631
0.122667035388832 0.236420700849732 0.418958094258437
0.122667035388831 0.242648678136268 0.429543921209811
0.122667035388832 0.24230396895079 0.437419120389464
0.122667035388831 0.237938171900646 0.456175190435939
0.122667035388831 0.236632532814836 0.455626956356809
0.122667035388832 0.238179711538435 0.46793488360823
0.122667035388831 0.23648765052823 0.476008042204424
0.122667035388831 0.237412881576101 0.486170891854401
0.122667035388831 0.235863520144493 0.492740131067466
0.122667035388832 0.241736157264479 0.510819899523869
0.122667035388832 0.244010998062848 0.516096838044972
0.122667035388832 0.240763919540216 0.526800255023862
0.122667035388832 0.241704188833792 0.531841559854986
0.122667035388832 0.239489851029192 0.545352189523079
0.122667035388832 0.241893848618084 0.555214870613062
0.122667035388832 0.244948261208587 0.555438294965511
0.122667035388831 0.242686531634763 0.574377772761016
0.122667035388832 0.235393663145955 0.579465710982981
0.122667035388832 0.23713693084568 0.585567142775133
0.122667035388832 0.244347669007958 0.602332949824449
0.122667035388832 0.239242072030355 0.616105107705587
0.122667035388832 0.235542851661508 0.622731497434485
0.122667035388831 0.23542388530188 0.637509809928466
0.122667035388832 0.243734696148827 0.640160933824077
0.122667035388832 0.236453906956712 0.655506336369398
0.122667035388832 0.243308568488133 0.659306167316821
0.122667035388831 0.241414908081909 0.672626264620676
0.122667035388831 0.242390766272836 0.683547244226287
0.122667035388831 0.236645601649329 0.688536861114195
0.122667035388832 0.241612486342704 0.697933386479928
0.122667035388831 0.238132952837425 0.710322573260784
0.122667035388831 0.241672740772851 0.712664329400571
0.122667035388832 0.243731422146873 0.730068843698952
0.122667035388831 0.240694593525188 0.733097112852469
0.122667035388831 0.242291505089422 0.741140964821937
0.122667035388831 0.236960649020518 0.758538612250603
0.122667035388832 0.24317780628535 0.764005317258378
0.122667035388832 0.24342408130909 0.779370688288582
0.122667035388831 0.238074723689138 0.785555536890147
0.122667035388831 0.243536938535617 0.798811258178639
0.122667035388832 0.23777594896755 0.799234690771275
0.122667035388831 0.243367663216954 0.807958112361711
0.122667035388832 0.244325210855432 0.826471402456071
0.122667035388832 0.236778211638846 0.829150365656772
0.122667035388832 0.23787439544964 0.847499524018892
0.122667035388832 0.24049519701908 0.852389396678623
0.122667035388832 0.23722024497399 0.863823358336047
0.122667035388832 0.237296615661405 0.874733983648532
0.122667035388831 0.239052331229473 0.8852366612954
0.122667035388831 0.241201405043702 0.896582578066337
0.122667035388832 0.240596008109528 0.899085541760059
0.122667035388832 0.242408177829729 0.907719448015268
0.122667035388831 0.243799478072413 0.916151842846054
0.122667035388831 0.241914223800345 0.927193616113383
0.122667035388831 0.243767945586902 0.937936067706666
0.122667035388832 0.236680651906196 0.951583658859033
0.122667035388832 0.238047616644545 0.956419570230495
0.122667035388831 0.238992164155001 0.963904583891351
0.122667035388831 0.23638690726048 0.976490229844558
0.122667035388831 0.24027108897485 0.97912725771899
0.114787353264769 0.241525094399048 0.995708870421252
0.112279132326299 0.244288586752449 0.995689351580175
0.0940352253570302 0.23944086922281 0.995723591525847
0.0891098961290563 0.244899267276962 0.995685038278533
0.0611019765317673 0.249114649975471 0.99565526458118
0.0558446973448322 0.243020509528047 0.995698308144787
0.0315927476401812 0.251778821181992 0.995636447255951
0.0146215440426916 0.246285895547325 0.995675244375247
0.00705423834539573 0.244259189275661 0.995689559217688
-0.00516937746983937 0.251896832396251 0.995635613730165
-0.0275834266196693 0.255973036248303 0.995606823067841
-0.0394659511124905 0.25374776660886 0.995622540384515
-0.0515175211233653 0.250040430612322 0.995648725693855
-0.073737524432933 0.259004062725042 0.995585414604732
-0.0858872451882549 0.252800320810988 0.995629232295181
-0.0995678765689763 0.253405007309049 0.995624961329986
-0.10670488377046 0.25801345976642 0.995592411339026
0.122667035388831 0.246939356795168 0.116028728351961
0.122667035388831 0.245319278954431 0.118739710244677
0.122667035388832 0.247248898980968 0.130843262141909
0.122667035388831 0.246878417852692 0.139564325027172
0.122667035388832 0.249883044892692 0.151765084509418
0.122667035388831 0.247544004006598 0.164077203691136
0.122667035388831 0.252135740140918 0.163460684702475
0.122667035388832 0.250959223446739 0.179781128248093
0.122667035388831 0.251329212908451 0.18661430566773
0.122667035388831 0.250864750094379 0.20241657713523
0.122667035388832 0.250283420957903 0.201498645171581
0.122667035388831 0.249407980286272 0.217034625079719
0.122667035388831 0.250803634216419 0.228781592879629
0.122667035388832 0.246930632323275 0.235266539963273
0.122667035388831 0.245507835801224 0.238199718647848
0.122667035388831 0.246346656587255 0.26361707810996
0.122667035388832 0.245648525340831 0.264378670992365
0.122667035388831 0.249225100759544 0.28032569573002
0.122667035388832 0.250591281740803 0.283490972496197
0.122667035388831 0.250450279343256 0.297155647291478
0.122667035388832 0.248985340617265 0.303703705664953
0.122667035388831 0.254613622034204 0.310647418143174
0.122667035388831 0.250101421182968 0.329284556110394
0.122667035388831 0.251435933968534 0.330030938662787
0.122667035388832 0.250592408859766 0.351178362691393
0.122667035388832 0.249195587944425 0.348458098205589
0.122667035388831 0.251507319865838 0.362856300139632
0.122667035388832 0.246135295564468 0.371819513082618
0.122667035388832 0.251569164717153 0.384919145467588
0.122667035388832 0.253129781182715 0.391183375981993
0.122667035388831 0.248103003096899 0.396403992004719
0.122667035388831 0.248143209199267 0.412998186981277
0.122667035388831 0.248161984951495 0.413363764648381
0.122667035388832 0.25112340553884 0.423689002483015
0.122667035388831 0.253995893541644 0.439791880253737
0.122667035388832 0.249144603695702 0.448911565839364
0.122667035388832 0.248175935882442 0.459618992477353
0.122667035388832 0.246539664523528 0.470183511299302
0.122667035388831 0.251406223434399 0.484679784165267
0.122667035388831 0.247820169842102 0.478338490715266
0.122667035388832 0.252216618424913 0.493109203472986
0.122667035388832 0.25269620177409 0.513933074901379
0.122667035388832 0.24841200151894 0.51426934441303
0.122667035388832 0.252117837544876 0.527608017809094
0.122667035388832 0.249671291680717 0.541650731058774
0.122667035388832 0.248560574794155 0.545472021633322
0.122667035388832 0.247268580887883 0.551591568384091
0.122667035388832 0.249369862198312 0.567087294102145
0.122667035388831 0.245377990994863 0.571850818590679
0.122667035388832 0.250141319606484 0.575873873317669
0.122667035388832 0.25301955653714 0.593531126294336
0.122667035388832 0.248091283778377 0.599348058216474
0.122667035388832 0.250082345408652 0.612989931711208
0.122667035388831 0.250992140726343 0.623613537754537
0.122667035388832 0.250589671232081 0.632877888305965
0.122667035388831 0.252547026464947 0.644418481907201
0.122667035388831 0.252819722182586 0.645790091630985
0.122667035388831 0.244272336898437 0.658344435179703
0.122667035388831 0.244858808157717 0.663246685804058
0.122667035388831 0.246921875008397 0.684177439310455
0.122667035388831 0.253805889103245 0.691940938948825
0.122667035388831 0.249938551434176 0.699856444406753
0.122667035388832 0.245610736152142 0.708422801487462
0.122667035388831 0.249179166769416 0.719466937259466
0.122667035388831 0.254072323473608 0.728733074223752
0.122667035388832 0.250710658194889 0.735070216151764
0.122667035388831 0.251600329151093 0.7476379704847
0.122667035388832 0.25388322993202 0.756573852688174
0.122667035388831 0.24422847510694 0.768119977705277
0.122667035388831 0.247858941795616 0.777070127857791
0.122667035388832 0.246040228685445 0.785929106647314
0.122667035388832 0.253466559537726 0.791777356806145
0.122667035388832 0.244602408473201 0.800384920755643
0.122667035388831 0.25169316651002 0.816075387386414
0.122667035388831 0.252142982757318 0.822845533593357
0.122667035388832 0.244626894518344 0.834583461124285
0.122667035388831 0.250760129991192 0.847515192894637
0.122667035388831 0.252608958548638 0.851261207847942
0.122667035388831 0.246663660002772 0.858424237172787
0.122667035388832 0.245436667595886 0.870030796734354
0.122667035388831 0.25412390404191 0.878448025544414
0.122667035388831 0.251603917447594 0.896895292255033
0.122667035388831 0.247826811368317 0.892915442527399
0.122667035388832 0.244192975118634 0.908249953346587
0.122667035388831 0.244673869703239 0.919125456139985
0.122667035388831 0.244849105056059 0.932888761963156
0.122667035388831 0.253978484461571 0.933819173984139
0.122667035388831 0.246036648889595 0.948255141237625
0.122667035388831 0.25155706486791 0.962545574624384
0.122667035388832 0.246839983331132 0.965977997610315
0.122667035388832 0.246741953079634 0.978942622767635
0.122667035388831 0.244745006107413 0.983897251081672
0.122415569518055 0.249908433054085 0.995649658006679
0.10799019818949 0.246473505141587 0.995673919268683
0.102278346178452 0.248061541899279 0.995662702795782
0.0883718660490646 0.248102052297951 0.995662416666518
0.0629923924885108 0.252172943008582 0.995633663531477
0.0547311449053642 0.258621931538303 0.995588113638039
0.0367585470915627 0.257903226823531 0.995593189926052
0.0266306062044371 0.25417759929463 0.995619504430436
0.00466965791497521 0.263004005315928 0.995557162583825
-0.0156185192347589 0.260810416887612 0.995572656132727
-0.0328834713051035 0.264870430888174 0.99554397982105
-0.0422538127040422 0.261039087366637 0.995571041008758
-0.0545169502155254 0.264689745503096 0.995545256021185
-0.0691856488700598 0.263744209200963 0.99555193444488
-0.0830273270696214 0.271004203756365 0.99550065632943
-0.0931951250435464 0.270180878673463 0.995506471562256
-0.109564368790233 0.27043977842281 0.995504642925728
-0.12264252394928 0.275199060397981 0.995845527381037
0.122667035388832 0.25987812431248 0.114726123547156
0.122667035388831 0.260682508665345 0.122853237158832
0.122667035388832 0.263796978481961 0.130499437219918
0.122667035388831 0.26095197022022 0.144162069700586
0.122667035388831 0.258043016160582 0.154757296312732
0.122667035388831 0.254286655230003 0.161975249341776
0.122667035388832 0.260318474725864 0.167895386797599
0.122667035388831 0.263018539992467 0.172643418300747
0.122667035388832 0.254636093288753 0.193722585911458
0.122667035388832 0.260899434853387 0.198000567950106
0.122667035388832 0.254757933157568 0.208713507658718
0.122667035388831 0.262246215228042 0.218174050619505
0.122667035388832 0.257515977049037 0.220729427423132
0.122667035388832 0.261012658771458 0.2310668110584
0.122667035388831 0.256222926364925 0.246775356456911
0.122667035388831 0.259858195930467 0.256354541169843
0.122667035388831 0.25637683788289 0.25993192280113
0.122667035388831 0.262397162597997 0.28516921705411
0.122667035388832 0.263262548574782 0.290630126667915
0.122667035388831 0.261079018693782 0.301941222902406
0.122667035388831 0.254327942660494 0.298963272226203
0.122667035388831 0.257229222496724 0.311929096333427
0.122667035388831 0.256829474565412 0.316669546039935
0.122667035388831 0.261944864752985 0.333966993286979
0.122667035388831 0.263596150280883 0.345197052229043
0.122667035388831 0.257466842422886 0.349768935680365
0.122667035388831 0.257243534679243 0.369883686216219
0.122667035388831 0.259051813536317 0.372779140654543
0.122667035388832 0.25525581583989 0.382662723135132
0.122667035388832 0.257910490870273 0.38836898806189
0.122667035388832 0.261864858684541 0.39317534725165
0.122667035388831 0.257997748212963 0.403633530604675
0.122667035388832 0.259585212122118 0.424345664397312
0.122667035388831 0.258900957334784 0.425691174982302
0.122667035388832 0.254448450779352 0.437964676065953
0.122667035388831 0.254363070932199 0.447344688490915
0.122667035388832 0.256482247033246 0.456424381646344
0.122667035388832 0.260203759613947 0.468714119432713
0.122667035388831 0.255062286239198 0.47825492155954
0.122667035388831 0.255429504391556 0.494093931801602
0.122667035388832 0.26064063040463 0.496181515519348
0.122667035388831 0.261117819338524 0.500720148033104
0.122667035388832 0.254474421489991 0.51593352771465
0.122667035388832 0.258187009850201 0.52076586789529
0.122667035388831 0.256733014942722 0.530140288030386
0.122667035388831 0.261756279732213 0.547849609032083
0.122667035388831 0.25909203108911 0.553676114880144
0.122667035388832 0.255031173102111 0.569650345887347
0.122667035388832 0.260197741589429 0.569837886299441
0.122667035388832 0.256795711213264 0.580755762472248
0.122667035388832 0.25910290000767 0.592720943473991
0.122667035388831 0.256241355247062 0.598956328119834
0.122667035388831 0.255190889453032 0.607695582392086
0.122667035388832 0.262431074303163 0.626353134027108
0.122667035388832 0.25460733330296 0.637846828286558
0.122667035388832 0.258568220753607 0.639426282544415
0.122667035388832 0.259662408584856 0.642010904166302
0.122667035388831 0.258619097059877 0.664677484920482
0.122667035388831 0.258772935097558 0.668736056281386
0.122667035388832 0.257363487513398 0.679092009699116
0.122667035388832 0.257829503985281 0.68723916850903
0.122667035388832 0.255385088058738 0.699161422137549
0.122667035388832 0.258617208932742 0.703929790328262
0.122667035388831 0.259836930095611 0.719775113086116
0.122667035388831 0.260752366568914 0.72863204211276
0.122667035388831 0.255775026920272 0.734350628531621
0.122667035388831 0.25990068769669 0.750472754741157
0.122667035388832 0.260809115318545 0.759802186671999
0.122667035388831 0.259377460349122 0.771400379777202
0.122667035388831 0.256569120788694 0.771969366057441
0.122667035388832 0.254521679764448 0.781630624980235
0.122667035388831 0.256971520018821 0.800723633304579
0.122667035388832 0.256031620643965 0.803641135679155
0.122667035388832 0.257893466858237 0.819787430492601
0.122667035388832 0.257251586387263 0.822100657896906
0.122667035388831 0.258799929547481 0.831445932908417
0.122667035388832 0.25597107536105 0.841577130724543
0.122667035388831 0.255069003625306 0.853686371620006
0.122667035388832 0.258740624444784 0.860055722961784
0.122667035388832 0.257708145213715 0.871132242577029
0.122667035388832 0.258416287425846 0.884091605772932
0.122667035388831 0.261091526363257 0.884513650095106
0.122667035388832 0.259539131841723 0.89564958566256
0.122667035388831 0.263480890264661 0.906214208707656
0.122667035388831 0.257585918874311 0.915272027143922
0.122667035388831 0.259442595276326 0.929816245846071
0.122667035388831 0.259946463669481 0.932738912621191
0.122667035388832 0.25884441033168 0.9461588817735
0.122667035388831 0.257290236577779 0.956228448409497
0.122667035388831 0.261411783728337 0.966986261820016
0.122667035388831 0.260319278813025 0.970361737586992
0.122667035388831 0.260734595790872 0.98777233478344
0.122667035388831 0.256626431745746 0.99327244367851
0.112877431214733 0.261598361188432 0.995567090798137
0.0882996367161849 0.262657097994219 0.995559612827218
0.0826947131303925 0.25817521216926 0.995591268864562
0.0629028307350393 0.267547969999147 0.995525068076887
0.0465859187453913 0.268341745022354 0.995519461559283
0.0353524663889359 0.266869845081248 0.99552985774547
0.0306896604613265 0.266035229850742 0.995535752721811
0.00422292849953221 0.268723865996098 0.995516762598112
-0.0044022022257858 0.272139369754902 0.995492638530976
-0.0235503515934749 0.268624655258714 0.995517463334126
-0.0409624022140695 0.277652632705182 0.995453697767052
-0.052507870148683 0.279592455594965 0.995439996591199
-0.0728866630937912 0.278851093302913 0.995445232912096
-0.0842216754283967 0.282131040614545 0.995422066294596
-0.101976625232118 0.273774473533334 0.995481089618689
-0.110872439671898 0.283471794326681 0.995412596408205
0.122667035388831 0.272547993136645 0.116935837206022
0.122667035388831 0.267966523460321 0.128726927306288
0.122667035388832 0.265828339722647 0.128525850628025
0.122667035388832 0.264750978700576 0.146239490501329
0.122667035388831 0.269063343266994 0.146128318143022
0.122667035388832 0.267315190683156 0.153943404593624
0.122667035388832 0.265339435488888 0.165923712565288
0.122667035388832 0.265089903742873 0.180335406970802
0.122667035388832 0.266489953549237 0.192110965599321
0.122667035388832 0.273322790783717 0.199621884465674
0.122667035388831 0.270200741999189 0.210833448086507
0.122667035388831 0.264629065141019 0.219892206232645
0.122667035388832 0.269171184963098 0.227545662303035
0.122667035388831 0.269897430761674 0.242956648223187
0.122667035388832 0.267909023625695 0.242970743166926
0.122667035388831 0.264963762477572 0.26488931009703
0.122667035388831 0.266888406465266 0.264637930203628
0.122667035388831 0.272475429332716 0.26840262189817
0.122667035388832 0.26437057418682 0.286786376782521
0.122667035388831 0.272625438024169 0.297508427634857
0.122667035388831 0.273530989151466 0.304960094001791
0.122667035388831 0.270692292141588 0.32130295832113
0.122667035388832 0.268432887790986 0.32235552396947
0.122667035388831 0.268290127285053 0.335434090377588
0.122667035388831 0.270361091724519 0.344866532253489
0.122667035388831 0.270529568133364 0.34875327930404
0.122667035388831 0.269610426441716 0.366146857347078
0.122667035388832 0.270585706722534 0.370313992900099
0.122667035388831 0.26669947503052 0.384371426059627
0.122667035388832 0.26418379305466 0.394086803741998
0.122667035388831 0.264337685284812 0.401800114633948
0.122667035388831 0.264108886089403 0.407735578773221
0.122667035388831 0.267982633659186 0.419640535625018
0.122667035388831 0.268024572754413 0.429373786421544
0.122667035388831 0.266036301361939 0.442442623920474
0.122667035388831 0.26586642206868 0.45260919857186
0.122667035388832 0.271124077869357 0.458878048150387
0.122667035388832 0.271142980723611 0.47034740268541
0.122667035388831 0.268213409129417 0.477502185379203
0.122667035388831 0.267664190133067 0.487321914794533
0.122667035388831 0.273333364250183 0.49769029079472
0.122667035388831 0.27166833507382 0.511964454950214
0.122667035388831 0.265443506112164 0.517483538689029
0.122667035388832 0.271298784094501 0.526416622945442
0.122667035388831 0.272176757520059 0.536146600494393
0.122667035388831 0.265518390485765 0.5429476300226
0.122667035388831 0.2669879589683 0.555509226673692
0.122667035388832 0.26954306247143 0.567284985347158
0.122667035388832 0.265449396374069 0.576545285974063
0.122667035388831 0.270416673750296 0.586502008924456
0.122667035388831 0.264151837862006 0.589153009575461
0.122667035388831 0.266625912052537 0.594017956093427
0.122667035388831 0.272647430134535 0.609767348732049
0.122667035388831 0.266451057923224 0.617669533165664
0.122667035388832 0.266318267737506 0.629234685617787
0.122667035388831 0.272739663844917 0.647795782382642
0.122667035388831 0.26712318850579 0.644278824814199
0.122667035388832 0.265888406348505 0.653595114107785
0.122667035388832 0.272917939821489 0.668878979821967
0.122667035388831 0.271817059598866 0.674046418043464
0.122667035388831 0.266573092397212 0.689268414934689
0.122667035388831 0.270239140319369 0.69749691498555
0.122667035388832 0.271791993073441 0.70979770990485
0.122667035388831 0.265361009333343 0.718472074639923
0.122667035388831 0.269587571995628 0.722308925927041
0.122667035388831 0.268462392060185 0.734322108351134
0.122667035388831 0.266891925940676 0.743911502504806
0.122667035388832 0.264962046998411 0.757904334532559
0.122667035388832 0.268437745280238 0.761580526131494
0.122667035388832 0.272438110501874 0.774449024628443
0.122667035388831 0.272752327107945 0.781302435737895
0.122667035388831 0.268582782996776 0.790024914089423
0.122667035388831 0.26835251959851 0.808968368709924
0.122667035388832 0.267825626917814 0.811022720635985
0.122667035388831 0.272830518500321 0.830706185750787
0.122667035388832 0.26635301375922 0.831044814733118
0.122667035388832 0.273088171587916 0.835861291893825
0.122667035388831 0.267218287794012 0.849157252869003
0.122667035388831 0.27121707420178 0.864361752450562
0.122667035388832 0.268527743488481 0.869321795263661
0.122667035388831 0.266004960476209 0.87949197719529
0.122667035388831 0.270264138254608 0.88824362186044
0.122667035388831 0.268950605207184 0.899969128119914
0.122667035388832 0.264315641004719 0.911896080816424
0.122667035388831 0.27169320890365 0.918896245124196
0.122667035388831 0.270134905067734 0.92636862825541
0.122667035388832 0.273322604935309 0.932703801286692
0.122667035388831 0.267380559524266 0.943070995675232
0.122667035388832 0.269527217941609 0.960023950048726
0.122667035388832 0.264096337848706 0.970124093395089
0.122667035388832 0.26592795017802 0.976423478779052
0.122667035388832 0.264844233539376 0.981778965155535
0.122667035388831 0.270258234251707 0.992734047042381
0.108653882197806 0.267769884374705 0.995523500671997
0.091605338983945 0.271140285364358 0.995499695170527
0.0753872488279022 0.269231709989958 0.995513175641848
0.0761927283934777 0.277316034907851 0.995456075193175
0.0463831073523079 0.271048342413532 0.99550034457339
0.0438707896610426 0.274936841636834 0.995472879688867
0.0169993586418557 0.279828023831469 0.995438332747633
0.0154168215262948 0.278517275541751 0.995447590702527
-0.00034861317366971 0.276706617223823 0.995460379575241
-0.0141990610500145 0.286195432673243 0.995393359060228
-0.0439744678485917 0.284221175614101 0.995407303448289
-0.0472948010415769 0.285192406061799 0.995400443544105
-0.0569470124083465 0.285470847410499 0.995398476883178
-0.080756542644747 0.289719440256677 0.995368468619011
-0.1048574750638 0.294756872491127 0.995332888698157
-0.119612183960624 0.293745893453998 0.995340029350865
0.122667035388831 0.276336154421269 0.108887388332265
0.122667035388832 0.274098058265756 0.121100688668679
0.122667035388831 0.282019244258202 0.126795076214338
0.122667035388832 0.274170901475205 0.150139820624732
0.122667035388831 0.276742071708483 0.153661024661934
0.122667035388831 0.278287119009136 0.153598738016321
0.122667035388832 0.274805189812926 0.168547351296636
0.122667035388831 0.282708642958156 0.183711789558865
0.122667035388831 0.281817392514187 0.183556050659043
0.122667035388832 0.280408114411169 0.202133256605055
0.122667035388831 0.281056562863502 0.215831264842095
0.122667035388831 0.276720324931867 0.226605675043133
0.122667035388832 0.280064129306441 0.232234506678468
0.122667035388831 0.274510178364439 0.239343790442781
0.122667035388831 0.277823539353023 0.251012441705328
0.122667035388831 0.274731922036382 0.261309704118538
0.122667035388832 0.274159507639061 0.269019908835318
0.122667035388832 0.275522701488062 0.275142506880788
0.122667035388832 0.277892388394549 0.288437958146788
0.122667035388832 0.277824393309041 0.303656298858812
0.122667035388832 0.280028438932505 0.306642827801371
0.122667035388832 0.282145513028502 0.30994550845729
0.122667035388831 0.273500397220847 0.319959694022014
0.122667035388832 0.276145411195799 0.332476394200717
0.122667035388831 0.274594743024762 0.338467212232784
0.122667035388832 0.282114968666755 0.354687271785783
0.122667035388831 0.273650347068926 0.36789865332031
0.122667035388832 0.283161594638113 0.371798816812813
0.122667035388831 0.280228905148787 0.382237563727875
0.122667035388831 0.280063344470031 0.393657659540277
0.122667035388832 0.283041146716021 0.40126107626235
0.122667035388831 0.278196450676066 0.417670838239239
0.122667035388832 0.279272834856479 0.423468686879927
0.122667035388832 0.274638788326593 0.430994504387293
0.122667035388831 0.282068381566666 0.443823050132987
0.122667035388831 0.280419510351943 0.451692827189888
0.122667035388831 0.277341144427096 0.459709919274559
0.122667035388832 0.277706432646259 0.466285089441738
0.122667035388832 0.275612947805256 0.477122324148014
0.122667035388832 0.278497385900886 0.479403117495295
0.122667035388831 0.282270703536362 0.496275591905312
0.122667035388832 0.27633024492773 0.505749626115406
0.122667035388831 0.273626142146568 0.513943296861998
0.122667035388831 0.280734740298891 0.519550147826431
0.122667035388832 0.27943206396519 0.5335295576744
0.122667035388831 0.277877480634385 0.544480305684309
0.122667035388831 0.282388154531013 0.55812342754126
0.122667035388831 0.276216398516841 0.571343096287884
0.122667035388832 0.282578647718444 0.579997148621652
0.122667035388832 0.276930419118681 0.588364970594094
0.122667035388831 0.275800855484292 0.596131088295639
0.122667035388831 0.276984499517581 0.593849366200122
0.122667035388831 0.278594001226712 0.608198884738605
0.122667035388832 0.274748609359899 0.62251452624732
0.122667035388831 0.279375117739184 0.630201726080267
0.122667035388831 0.274375255540283 0.640078756265822
0.122667035388832 0.281526024694951 0.651833086548547
0.122667035388832 0.274978061820719 0.661785323989946
0.122667035388831 0.280994035471214 0.663744182588444
0.122667035388832 0.278203350429808 0.680311173967717
0.122667035388832 0.281897113817896 0.684860591148624
0.122667035388832 0.275137776693074 0.695903114134
0.122667035388831 0.278176459739 0.701283585335888
0.122667035388831 0.275299638304883 0.711677560000217
0.122667035388831 0.273806053881036 0.729233550261676
0.122667035388831 0.278995973569238 0.736057205218514
0.122667035388831 0.27398031557841 0.752809420997547
0.122667035388831 0.280507380643688 0.756461081050108
0.122667035388832 0.277565894714179 0.763518257380851
0.122667035388832 0.274045000062959 0.777733002758945
0.122667035388831 0.282232140355764 0.780494841777658
0.122667035388831 0.283380335918487 0.789928466166883
0.122667035388832 0.27590863823691 0.806542443897885
0.122667035388832 0.275879128649839 0.81246318705015
0.122667035388831 0.274302269866756 0.823316282586127
0.122667035388831 0.274503335487468 0.83082306117652
0.122667035388831 0.28232448185449 0.843814445065569
0.122667035388831 0.276921811900417 0.847798025418052
0.122667035388832 0.282207541352266 0.861863034961536
0.122667035388832 0.275085630475463 0.865164710025471
0.122667035388832 0.275268499315839 0.884700523513425
0.122667035388832 0.273009523963123 0.888425584848199
0.122667035388831 0.279300463847877 0.897605839026133
0.122667035388831 0.28113630729533 0.912244488825482
0.122667035388831 0.274338639803697 0.920659586809093
0.122667035388832 0.280966050404764 0.935007367355568
0.122667035388832 0.281986886571041 0.932550179528734
0.122667035388832 0.281665469104852 0.950929663459327
0.122667035388831 0.279722564584221 0.963102622937557
0.122667035388832 0.282225854933644 0.962851107296729
0.122667035388831 0.275913703536038 0.973022520647893
0.122667035388831 0.282717047602885 0.986921237448357
0.122667035388832 0.282484420226561 0.992625071341512
0.100705170563755 0.277592971565503 0.995454119160041
0.103926292401341 0.282164408710127 0.99542183061218
0.0819788684408366 0.286650293165575 0.995390146332083
0.0746478639593792 0.287703623709933 0.995382706546164
0.0453914096268208 0.285917912179233 0.99539531921706
0.0349768567165648 0.288167266148374 0.995379431790198
0.0270023169645123 0.290084978462477 0.995365886783698
0.0158528087904708 0.288048586328259 0.995380270038419
-0.00372029761533005 0.29310646488991 0.995344545702975
-0.0189245708470337 0.293547362645389 0.995341431595128
-0.0431579400953124 0.289940001864501 0.995366910768864
-0.0506103618719081 0.293512969187845 0.995341674519786
-0.0674166209338026 0.298994177452686 0.995302960161523
-0.0808362009582258 0.300291768145712 0.995293795140136
-0.0936697974221162 0.294260831797808 0.995336392286451
-0.121492058400556 0.299887076783345 0.995296653518368
0.122667035388831 0.282963306775245 0.116033394481179
0.122667035388831 0.284914615127407 0.124751230415383
0.122667035388831 0.288258058923691 0.130812089800893
0.122667035388831 0.282847331080491 0.138571332958488
0.122667035388832 0.289712924830581 0.151479114709122
0.122667035388832 0.289077498210586 0.164371558282375
0.122667035388831 0.286483852755034 0.174671149078948
0.122667035388832 0.289388273955801 0.18397196002978
0.122667035388832 0.289456234030639 0.188410686196374
0.122667035388831 0.292293637617032 0.200089517074412
0.122667035388831 0.291917275856194 0.211946106443445
0.122667035388831 0.285655333098491 0.217710304874294
0.122667035388831 0.285713713873547 0.234594213907484
0.122667035388832 0.286106556346394 0.230182226093071
0.122667035388831 0.290655012390272 0.251194855638798
0.122667035388832 0.288163644789152 0.257578876796664
0.122667035388831 0.288183143846796 0.272532281253224
0.122667035388832 0.28911614071335 0.277853629427664
0.122667035388831 0.285876725950177 0.280145108875569
0.122667035388831 0.285910650768172 0.29879803658991
0.122667035388831 0.288841448868748 0.308076335399651
0.122667035388831 0.291353191888141 0.320439713167248
0.122667035388831 0.291125127828736 0.32590664912203
0.122667035388831 0.285800497041507 0.329009146821001
0.122667035388831 0.292095386996952 0.34097321216667
0.122667035388831 0.284451196427881 0.352844659658205
0.122667035388831 0.288976516811802 0.361134160531463
0.122667035388831 0.290945514093981 0.375139714213498
0.122667035388831 0.287816131585928 0.385986397757595
0.122667035388831 0.28485879887274 0.3923190596234
0.122667035388832 0.284011373491797 0.403643472669349
0.122667035388832 0.284947123433245 0.413836277552234
0.122667035388832 0.289631000376752 0.423387716541478
0.122667035388832 0.283128014661065 0.434456726193481
0.122667035388832 0.285421244531881 0.443781612129812
0.122667035388832 0.287955973979991 0.457456380479628
0.122667035388831 0.283527941772983 0.458727867644966
0.122667035388832 0.286135179888887 0.462804556898629
0.122667035388832 0.283827909215123 0.482236321087376
0.122667035388831 0.28550146614984 0.482300996545235
0.122667035388832 0.283439013605786 0.496250337604253
0.122667035388832 0.2914919769759 0.503349572993565
0.122667035388832 0.287849351953512 0.515178303651568
0.122667035388831 0.284661623248705 0.533513862364148
0.122667035388832 0.287377780675297 0.538165501460701
0.122667035388832 0.288768997149034 0.542600005380818
0.122667035388832 0.291331251939725 0.55811497617872
0.122667035388831 0.286713717429259 0.561829015041033
0.122667035388831 0.292600032572861 0.566926192521919
0.122667035388832 0.286571511872726 0.584027101788382
0.122667035388832 0.290195991220936 0.591046685620799
0.122667035388832 0.288496314814892 0.601922218037522
0.122667035388831 0.288637775220118 0.610284200128677
0.122667035388831 0.283666397365785 0.622733882165437
0.122667035388832 0.286238387410043 0.637080929797977
0.122667035388831 0.285734884184218 0.638799485658186
0.122667035388831 0.288022676217644 0.649184658776141
0.122667035388831 0.287953526302281 0.660299583763774
0.122667035388831 0.290207661977226 0.670733358791071
0.122667035388831 0.287629931137935 0.682442519566949
0.122667035388832 0.288869174675652 0.690460836469225
0.122667035388832 0.290447225047436 0.696070109943865
0.122667035388831 0.287367857847949 0.710346605946281
0.122667035388832 0.29022486898364 0.719676024235787
0.122667035388831 0.289554318002748 0.727911085585988
0.122667035388831 0.287889318412114 0.741466707959392
0.122667035388831 0.292441919234353 0.740007231019994
0.122667035388831 0.283566636921205 0.759085313108158
0.122667035388831 0.283949600303658 0.770611562827072
0.122667035388831 0.283900603653322 0.768465567994639
0.122667035388832 0.289219950846221 0.791415184383898
0.122667035388832 0.290110028201555 0.796269054279863
0.122667035388831 0.288021847945457 0.80323886307097
0.122667035388831 0.285624814967944 0.806745721740585
0.122667035388831 0.286538075069148 0.822091165906441
0.122667035388831 0.287547183095923 0.83689527382775
0.122667035388831 0.289811469658352 0.835699774682687
0.122667035388831 0.287852357106413 0.849894036021913
0.122667035388831 0.290389891734275 0.867883547833337
0.122667035388831 0.287771227866292 0.865120695700348
0.122667035388831 0.290963690372158 0.888073818334379
0.122667035388832 0.289584901761757 0.88550306094459
0.122667035388831 0.290358128658846 0.897460823377034
0.122667035388832 0.286740882129087 0.907001890700852
0.122667035388831 0.289540078805415 0.917124922926964
0.122667035388831 0.286974075309616 0.922277867914138
0.122667035388832 0.287527887837534 0.945269872527028
0.122667035388831 0.286847296953284 0.952545477607522
0.122667035388831 0.28361269984353 0.957558201729341
0.122667035388832 0.289510813196084 0.963996125723066
0.122667035388832 0.285839311712393 0.9722090737006
0.122667035388832 0.287392692231345 0.984377997710603
0.119163666576977 0.290663108568756 0.99536180338913
0.104770112693508 0.288438924360518 0.995377513039287
0.0962379771869739 0.294889895454122 0.995331949142789
0.0778380346287799 0.294370687254213 0.995335616365652
0.0645161180865101 0.294870851820056 0.995332083650006
0.0432242434630023 0.291314652410275 0.995357201465524
0.0401797250359616 0.300245459641764 0.995294122222036
0.0131708605721758 0.29920055884013 0.995301502467783
0.00311066851296117 0.300592139868921 0.995291673582636
-0.00750468181899854 0.303511714572582 0.995271052315282
-0.0298014844289802 0.30246024928671 0.995278478926681
-0.0409130333839095 0.30264562157222 0.995277169622467
-0.0489764966473869 0.302986649938925 0.995274760902761
-0.0723174330335854 0.303189659376929 0.995273327025459
-0.0720837327860295 0.304508846999748 0.995264009462656
-0.0995106406789374 0.31360727112468 0.995199746323183
0.122667035388832 0.296309635363844 0.115693325363051
0.122667035388832 0.298348678091199 0.119993776372127
0.122667035388832 0.294461531436682 0.128374706520942
0.122667035388831 0.297788340802394 0.13828763687195
0.122667035388831 0.292832643001872 0.154746758075168
0.122667035388831 0.295201984931035 0.154727270032731
0.122667035388832 0.296196214791424 0.172779673941933
0.122667035388832 0.300099562884829 0.180195735279537
0.122667035388831 0.302181836976645 0.185554046601952
0.122667035388832 0.295819587329772 0.198032245522073
0.122667035388831 0.299253662100612 0.203476621668271
0.122667035388831 0.299432511536359 0.221525559202918
0.122667035388831 0.29431728917847 0.228014818319226
0.122667035388831 0.296530277685784 0.241350236768207
0.122667035388831 0.300367571469318 0.240175965207112
0.122667035388831 0.300728396195587 0.248837825458221
0.122667035388832 0.300585539323668 0.262826455816898
0.122667035388831 0.299028887749862 0.283093511044887
0.122667035388832 0.294718278542331 0.285319749468738
0.122667035388831 0.298051095106034 0.297195121186846
0.122667035388832 0.29988047841913 0.302317041471463
0.122667035388832 0.301428206984192 0.313506125137251
0.122667035388831 0.298683235115737 0.323526700232227
0.122667035388831 0.298375709062697 0.341338266863541
0.122667035388832 0.294208958248024 0.341021629749838
0.122667035388831 0.295098109214065 0.357013519670172
0.122667035388832 0.295818122609405 0.361406173031344
0.122667035388832 0.300527364485047 0.375382308363831
0.122667035388831 0.298767628490466 0.378258368977422
0.122667035388831 0.295423759495487 0.388787989594056
0.122667035388831 0.298376933452441 0.406022099340414
0.122667035388831 0.297212858626647 0.410909922908307
0.122667035388832 0.301028120068647 0.417202348530494
0.122667035388831 0.302286786800295 0.431076378510924
0.122667035388831 0.296292407260527 0.434520402010422
0.122667035388831 0.29264871953314 0.453667209728408
0.122667035388831 0.293259241552589 0.455407429442233
0.122667035388832 0.295801523051243 0.462231177338446
0.122667035388831 0.294130780675905 0.47460146229031
0.122667035388832 0.295534382897366 0.482269130019676
0.122667035388832 0.294034227653988 0.493400041291102
0.122667035388831 0.301582785040017 0.511950343601005
0.122667035388832 0.293989452493167 0.509730243061306
0.122667035388832 0.297725188109473 0.530143035542057
0.122667035388832 0.296168612319979 0.536617562484327
0.122667035388831 0.294474164807574 0.542613567647947
0.122667035388831 0.295918559271786 0.55641005507765
0.122667035388832 0.297294122583287 0.567274409677025
0.122667035388831 0.29801924050401 0.570527467142619
0.122667035388832 0.300259269922849 0.587572705093415
0.122667035388831 0.295759330111293 0.589665632500058
0.122667035388831 0.297160859472355 0.607330571409206
0.122667035388832 0.298887933317442 0.610953782308947
0.122667035388831 0.298185417945507 0.618098792552757
0.122667035388832 0.299981359287115 0.629460173288034
0.122667035388831 0.293936945085968 0.643268949043859
0.122667035388832 0.299537441840932 0.644062191322978
0.122667035388831 0.301892102691947 0.662816445421131
0.122667035388832 0.300181622705393 0.666966320750133
0.122667035388832 0.298664101710424 0.68199908671471
0.122667035388831 0.301820033158095 0.689105484640339
0.122667035388832 0.292660205400032 0.701699607602749
0.122667035388831 0.296749422360495 0.703524183355143
0.122667035388832 0.292458436009411 0.721995880095525
0.122667035388831 0.293122843909679 0.726003614558253
0.122667035388831 0.295316333002207 0.737304383408093
0.122667035388831 0.29739162918903 0.746325265290067
0.122667035388832 0.292509669788152 0.75205139228882
0.122667035388831 0.296633133420058 0.766672118337434
0.122667035388832 0.300821172536358 0.774828097246794
0.122667035388831 0.295622365084298 0.788718255414188
0.122667035388832 0.29949414865315 0.793797995232781
0.122667035388831 0.29675686676282 0.80135667682599
0.122667035388831 0.299864317788455 0.812707062096909
0.122667035388831 0.297270705525445 0.819079345528108
0.122667035388831 0.298769119310628 0.835847613490278
0.122667035388831 0.295484100029144 0.841713105895738
0.122667035388831 0.300840359231626 0.850054506142807
0.122667035388832 0.300614595619239 0.858700822225172
0.122667035388832 0.299569791868284 0.867173311794716
0.122667035388831 0.301850000350895 0.883692588668921
0.122667035388832 0.298263790474059 0.893304141912706
