ply
format ascii 1.0
element vertex 871
property float x
property float y
property float z
end_header
0.174827193734743 0.116237491569825 0.310522703035921
0.163579816602072 0.116237491569825 0.318452758452133
0.169306718030415 0.116237491569825 0.332538104446873
0.162369543588828 0.116237491569825 0.343161706453313
0.172957237141383 0.116237491569825 0.344654094219828
0.17755100155102 0.116237491569825 0.346446881039478
0.174801607880826 0.116237491569825 0.360829515611381
0.168792320312976 0.116237491569825 0.384310865626897
0.163799016719792 0.116237491569825 0.394842642277134
0.166128333913564 0.116237491569825 0.394545001792614
0.165362277796967 0.116237491569825 0.402288347635272
0.179921039392521 0.116237491569825 0.409008364151292
0.167077854129534 0.116237491569825 0.433814061734237
0.170407532084504 0.116237491569825 0.437915602121506
0.163056038284402 0.116237491569825 0.454646721634265
0.174823839532339 0.116237491569825 0.455748077128706
0.167868928615183 0.116237491569825 0.464685534081516
0.16981071565867 0.116237491569825 0.476886662463602
0.176710923534609 0.116237491569825 0.482090027403555
0.163496844017255 0.116237491569825 0.507067350837052
0.171697851846945 0.116237491569825 0.510768230952787
0.165386555927175 0.116237491569825 0.514503676262836
0.168074678500441 0.116237491569825 0.530143396174904
0.170056997781351 0.116237491569825 0.53934637294853
0.166958925103874 0.116237491569825 0.549724572132888
0.17247952885189 0.116237491569825 0.556896906521452
0.170289699605034 0.116237491569825 0.573138592518141
0.180103927532508 0.116237491569825 0.578631606678576
0.168324165353016 0.116237491569825 0.590629431090653
0.166487737074443 0.116237491569825 0.608119009644668
0.171043303941665 0.116237491569825 0.613506199474176
0.160330994278532 0.116237491569825 0.626670224967825
0.170340539984815 0.116237491569825 0.631119448713554
0.169568655651514 0.116237491569825 0.639525876288698
0.16714890215604 0.116237491569825 0.652341565614886
0.167775783141621 0.116237491569825 0.661659207312325
0.172961251822603 0.116237491569825 0.670936069522331
0.164063327679463 0.116237491569825 0.682874934308546
0.162660389442251 0.116237491569825 0.692004187868411
0.165445230002066 0.116237491569825 0.708644094828541
0.170256685720648 0.116237491569826 0.714202279535651
0.165238918044784 0.116237491569825 0.721775391194925
0.172664715719824 0.116237491569825 0.728544774480183
0.171146834153902 0.116237491569825 0.74148812839717
0.165242594385958 0.116237491569825 0.754765115124907
0.172706069694936 0.116237491569825 0.767380307826127
0.167958504591525 0.116237491569825 0.776935060129933
0.172930910224771 0.116237491569825 0.78693899692525
0.163910542856467 0.116237491569825 0.795283211917653
0.176792287048822 0.116237491569825 0.799463984341823
0.160929461440692 0.116237491569825 0.820999953409574
0.162170323713822 0.116237491569825 0.83155777447968
0.167964713117878 0.116237491569825 0.835016608169785
0.166888141204788 0.116237491569825 0.842239994505855
0.175349477639046 0.116237491569825 0.846642307892426
0.171102075935471 0.116237491569825 0.859062934224092
0.167768415771778 0.116237491569825 0.868636385046646
0.171475892196444 0.116237491569825 0.885187629652972
0.170372469697809 0.116237491569825 0.891132006005682
0.169623378666704 0.116237491569825 0.896992839307411
0.166813308875924 0.116237491569825 0.914430868040466
0.163998940994902 0.116237491569825 0.920963999162406
0.17073051217323 0.116237491569825 0.932442477839211
0.164258502102771 0.116237491569825 0.950148369776193
0.170502413476918 0.116237491569825 0.955140417430239
0.170890887809685 0.116237491569825 0.959884582790439
0.169961811650903 0.116237491569825 0.973956192224742
0.165732777623179 0.116237491569825 0.989358722552385
0.17572887229591 0.116237491569825 0.988554749679378
0.182435753515532 0.105962223817316 0.996325847412494
0.195297442853561 0.10011621340209 0.99647893058272
0.205307523789359 0.0887407194164731 0.996776808376038
0.210588999493615 0.0757113102459341 0.997117995462671
0.225957557561611 0.0724014691266779 0.997204666702626
0.238135988446763 0.0492372870582118 0.997811242157485
0.242860290871315 0.0529322537915963 0.997714486048404
0.266907750405708 0.0304664937647773 0.998302772678458
0.267476769786124 0.0312512498256942 0.998282223117796
0.285452950870851 0.0130987607486124 0.998757562773054
0.306178241667319 0.00501511395721531 0.998969240513926
0.306084038158974 -0.00571983379748046 0.999250345013881
0.323402921295878 -0.0150931181390415 0.999495793102494
0.190996371008053 0.116237491569825 0.0104885820154331
0.177537139574547 0.116237491569825 0.0308510988646918
0.194444024802395 0.116237491569825 0.025687330144518
0.183652774832773 0.116237491569825 0.048524835974879
0.19125517637834 0.116237491569825 0.0468217421993007
0.178067315425554 0.116237491569825 0.0680580140132505
0.1852799821887 0.116237491569825 0.069795214288237
0.190583866132323 0.116237491569825 0.080749599708109
0.181775314411953 0.116237491569825 0.0971715910117368
0.182128238640325 0.116237491569825 0.108919576643614
0.191601049867058 0.116237491569825 0.109402807099425
0.188354265818335 0.116237491569825 0.122038821459687
0.180210224375826 0.116237491569825 0.138927016478861
0.187420863670943 0.116237491569825 0.136062460139405
0.18081943805926 0.116237491569825 0.155088848672565
0.181937214895759 0.116237491569825 0.161803083608379
0.188922593357487 0.116237491569825 0.165911394887196
0.180225330967487 0.116237491569825 0.190952928909991
0.183396748337774 0.116237491569825 0.205333925425716
0.192221938939592 0.116237491569825 0.20496010057069
0.189803130091302 0.116237491569825 0.208944421555741
0.187010652686465 0.116237491569825 0.21536796738542
0.180970990809999 0.116237491569825 0.243292291701105
0.186617368605566 0.116237491569825 0.243007967575613
0.185239934451735 0.116237491569825 0.254436358844635
0.18532613001359 0.116237491569825 0.26582801576338
0.178329391730535 0.116237491569825 0.281760150975834
0.186519598309409 0.116237491569825 0.286869448978043
0.18223736848078 0.116237491569825 0.299739129365636
0.181931389181366 0.116237491569825 0.310348267825644
0.176520088776284 0.116237491569825 0.324921511719625
0.189099366978138 0.116237491569825 0.326000330751076
0.188254126179189 0.116237491569825 0.33837371113394
0.189096411635785 0.116237491569825 0.343946544997614
0.184551374747035 0.116237491569825 0.360985589608535
0.180235079279722 0.116237491569825 0.365929996019406
0.195036000345555 0.116237491569825 0.376060224175839
0.187371765397984 0.116237491569825 0.388372290289622
0.188724597722548 0.116237491569825 0.398022615421174
0.187016314990123 0.116237491569825 0.410287010301498
0.187120565810185 0.116237491569825 0.421027927785058
0.187991122759278 0.116237491569825 0.423166335754044
0.17944774580972 0.116237491569825 0.437808255523891
0.188841865404389 0.116237491569825 0.445295757519232
0.187513715544041 0.116237491569825 0.4579941812287
0.183819353974119 0.116237491569825 0.470844855012528
0.178214865482003 0.116237491569825 0.487912006878397
0.185808756650237 0.116237491569825 0.492628138627774
0.187117769026218 0.116237491569825 0.492425897071091
0.187956793763954 0.116237491569825 0.513539883908241
0.1955062223882 0.116237491569825 0.518438341140303
0.194558649154208 0.116237491569825 0.521703822178235
0.188268956412791 0.116237491569825 0.532225690309762
0.186508327232491 0.116237491569825 0.550960162466872
0.185842572862527 0.116237491569825 0.563353606531084
0.184949316004663 0.116237491569825 0.572108994924823
0.182396880180469 0.116237491569825 0.58448372196214
0.181899252736769 0.116237491569825 0.599457712435964
0.184947510960986 0.116237491569825 0.607015021412155
0.185114102580454 0.116237491569825 0.612984225622792
0.179500484193124 0.116237491569825 0.620018981283386
0.188900469252485 0.116237491569825 0.632120677211829
0.181065276550292 0.116237491569825 0.642517932918244
0.178370149038042 0.116237491569825 0.65463958130241
0.177602386666675 0.116237491569825 0.664072407049208
0.185332013034813 0.116237491569825 0.673836627785828
0.195227938954219 0.116237491569825 0.67994522737538
0.186797826185592 0.116237491569825 0.687536170446174
0.194393185764686 0.116237491569825 0.692937832118155
0.183997439728551 0.116237491569825 0.719553388125477
0.189993728903334 0.116237491569825 0.722542344869086
0.188072065293401 0.116237491569825 0.736640823451032
0.182002727294208 0.116237491569825 0.751382549125414
0.185258000782932 0.116237491569825 0.747301326855334
0.18522643718657 0.116237491569825 0.764705307098565
0.187717934393166 0.116237491569825 0.772689128970931
0.192450226065663 0.116237491569825 0.785781845434706
0.177908033311651 0.116237491569825 0.794694880268445
0.18839729445799 0.116237491569825 0.802710768787762
0.188341026025278 0.116237491569825 0.808451264208401
0.190325571598373 0.116237491569825 0.820670082665427
0.182510474903096 0.116237491569825 0.833872267885924
0.184078312945668 0.116237491569825 0.848272773481888
0.182559528539253 0.116237491569825 0.860668695408082
0.186367988532082 0.116237491569825 0.872126460127244
0.183848777460771 0.116237491569825 0.875698906990091
0.19425375493592 0.116237491569825 0.882931018532479
0.185867750395615 0.116237491569825 0.895730503558727
0.182675378590427 0.116237491569825 0.90605937869242
0.188220888002547 0.116237491569825 0.91622311212009
0.179904906360691 0.116237491569825 0.925759751443715
0.188733849769341 0.116237491569825 0.934895610398998
0.192541917328175 0.116237491569825 0.94026300863049
0.182583747736249 0.116237491569825 0.956696438803938
0.181022671650088 0.116237491569825 0.967161372945355
0.191024645450608 0.116237491569825 0.977718752995938
0.187206896295959 0.116237491569825 0.985256176092082
0.192209182752524 0.109735075626705 0.996227051810922
0.203432774281996 0.103270889040496 0.996396322493876
0.210878148485841 0.0922529887508872 0.996684836366717
0.223634591126745 0.0800490769495164 0.997004407043985
0.226599705886635 0.0810725548779689 0.996977606331223
0.241999878211578 0.0654211295696464 0.997387453326793
0.255945369139259 0.0489617277660326 0.997818457931498
0.27139103024566 0.0407708935534326 0.998032942473775
0.275641489355197 0.035175976360649 0.998179450536571
0.296270672380698 0.0201196438747222 0.998573714478167
0.30126793347719 0.0157957916070977 0.998686938534524
0.315464788839303 0.000770566047228062 0.999080387912595
0.206727097460096 0.116237491569825 0.00707286510826531
0.192517376151923 0.116237491569825 0.0263888758800668
0.201345169930663 0.116237491569825 0.0280576790398309
0.19533011594396 0.116237491569825 0.043289950944704
0.203537289111141 0.116237491569825 0.0461630055838481
0.205059177771487 0.116237491569825 0.0520134620746854
0.208167574559752 0.116237491569825 0.0726182376256567
0.203814956534696 0.116237491569825 0.0822141546484871
0.201999462290245 0.116237491569825 0.0885343951471507
0.206449700815333 0.116237491569825 0.0981034156895538
0.204880403829476 0.116237491569825 0.10913909771062
0.192301587405471 0.116237491569825 0.132119119085919
0.210127411515303 0.116237491569825 0.12276061980611
0.200793666326378 0.116237491569825 0.149277887647019
0.201913372093062 0.116237491569825 0.16048542773611
0.201882448664547 0.116237491569825 0.173279973482803
0.199870588224198 0.116237491569825 0.182326877215431
0.204680600827162 0.116237491569825 0.185088811836466
0.202704491421768 0.116237491569825 0.194804737062523
0.197471798253526 0.116237491569825 0.204630138192184
0.196883751982508 0.116237491569825 0.218546027549889
0.201592411844966 0.116237491569825 0.232074260381838
0.195768818884213 0.116237491569825 0.235837075275968
0.198605075969461 0.116237491569825 0.24858775425504
0.192283957757471 0.116237491569825 0.262623167138679
0.208626323631424 0.116237491569825 0.266356305905427
0.20117562836125 0.116237491569825 0.271892076479648
0.198533118423001 0.116237491569825 0.294106311833125
0.203297269005638 0.116237491569825 0.296737783777925
0.208627108682944 0.116237491569825 0.30486845062404
0.200517596716201 0.116237491569825 0.311308136159474
0.201364065836264 0.116237491569825 0.327828850104496
0.201038478202439 0.116237491569825 0.330369987528432
0.19549586745973 0.116237491569825 0.349701063997374
0.203869136644371 0.116237491569825 0.363930216869646
0.199039632451173 0.116237491569825 0.374157719092465
0.197221096860251 0.116237491569825 0.380708400092463
0.201098704528572 0.116237491569825 0.386504330106626
0.200437749269644 0.116237491569825 0.397639403854293
0.193679139668972 0.116237491569825 0.416871951289198
0.205488383814983 0.116237491569825 0.414357373346571
0.201123034481275 0.116237491569825 0.423710446515967
0.210535460453995 0.116237491569825 0.428565997136215
0.210068107966862 0.116237491569825 0.444153519158011
0.196653572484765 0.116237491569825 0.460723810558236
0.192252138318834 0.116237491569825 0.471072670609411
0.207837373619339 0.116237491569825 0.471837926888995
0.191975811523289 0.116237491569825 0.492410835951403
0.199650086005396 0.116237491569825 0.498542743994083
0.205025378087032 0.116237491569825 0.508998859383183
0.205736171356221 0.116237491569825 0.522715911545504
0.197945384309692 0.116237491569825 0.530492412111113
0.207651273175589 0.116237491569825 0.537973077719927
0.208799625908213 0.116237491569825 0.542854559659158
0.207390946582481 0.116237491569825 0.56468044337859
0.205721442419753 0.116237491569825 0.573305282133019
0.202721449290253 0.116237491569825 0.576992981617848
0.206297394339307 0.116237491569825 0.593163628982265
0.199744466545788 0.116237491569825 0.596024122773979
0.203137889521068 0.116237491569825 0.614440733690205
0.20880535537032 0.116237491569825 0.621988581746219
0.197226368997225 0.116237491569825 0.63626637147573
0.207167357157495 0.116237491569825 0.641182032017821
0.192332184126222 0.116237491569825 0.657608355377344
0.199634517625649 0.116237491569825 0.670094009109923
0.206946369195946 0.116237491569825 0.674641526061198
0.198847381408305 0.116237491569825 0.687613244864669
0.195497588966808 0.116237491569825 0.696894783849937
0.199477289268369 0.116237491569825 0.707837102652588
0.193528746468505 0.116237491569825 0.722522869831935
0.200689847997568 0.116237491569825 0.725304927309544
0.20233607988786 0.116237491569825 0.733854175464558
0.198710688846198 0.116237491569825 0.743177007010199
0.190828603127445 0.116237491569826 0.75675566744966
0.195694666971953 0.116237491569825 0.764151092953877
0.200383586689305 0.116237491569825 0.774696238318444
0.198805068471306 0.116237491569825 0.791732572347397
0.209540243542723 0.116237491569825 0.788010024436494
0.193225013339182 0.116237491569825 0.806279448628162
0.201256392620024 0.116237491569825 0.813150700474466
0.203473165034622 0.116237491569825 0.8252016340891
0.199112889666225 0.116237491569825 0.84198329967233
0.200793963393855 0.116237491569825 0.852348490384098
0.196912239245659 0.116237491569825 0.856069464825717
0.197984121137272 0.116237491569825 0.870467808411639
0.204211346348023 0.116237491569825 0.872932577246711
0.206041330409968 0.116237491569825 0.885865803293305
0.208021896918317 0.116237491569825 0.90161796588516
0.203081041420467 0.116237491569825 0.914311045241273
0.209486414169176 0.116237491569825 0.918354217921541
0.199940027531739 0.116237491569825 0.932032195204873
0.198047964090142 0.116237491569825 0.938152844900245
0.198814480681298 0.116237491569825 0.954274449156818
0.207917169026616 0.116237491569826 0.954373409841479
0.20073720122243 0.116237491569825 0.972832533848547
0.204064599361917 0.116237491569825 0.974667264715444
0.198625423228149 0.116237491569825 0.994593294715138
0.208269875616566 0.114011267751821 0.996115075779318
0.214058485385245 0.101168038040027 0.996451387585246
0.222441221888205 0.096329207499645 0.996578096822264
0.236667405521898 0.0904011708119936 0.996733327926026
0.248794504274928 0.0757582746328981 0.997116765656917
0.26400823364098 0.0563586636245473 0.997624762349254
0.271528513853192 0.047142987529604 0.997866083320684
0.281361710327943 0.0408888738037296 0.998029853052194
0.301272270767758 0.0370996528064726 0.998129077296037
0.311672276501819 0.0129823891032064 0.998760610071834
0.223680559995469 0.116237491569825 0.0015461316933207
0.214528012377905 0.116237491569825 0.0254499880342082
0.214753088183997 0.116237491569825 0.0322537970684128
0.212923482565488 0.116237491569825 0.0454752107363779
0.225510527097794 0.116237491569825 0.0488396009508272
0.214688951557203 0.116237491569825 0.0649397831634155
0.223335342397893 0.116237491569825 0.0688409369108135
0.217407123265776 0.116237491569825 0.0803382055218376
0.215721020900731 0.116237491569825 0.0951290975280389
0.21593909003263 0.116237491569825 0.0968426286806378
0.216669919064943 0.116237491569825 0.113750812103119
0.226585183049688 0.116237491569825 0.112167272766742
0.215128421642454 0.116237491569825 0.137839240512664
0.224851808496219 0.116237491569825 0.141517184360261
0.217308536177344 0.116237491569825 0.158202904593943
0.209825708464276 0.116237491569825 0.168050567223934
0.210912673370428 0.116237491569825 0.178463614423736
0.222781653775045 0.116237491569825 0.185642231739689
0.218462379903414 0.116237491569825 0.19339612681242
0.217463485143843 0.116237491569825 0.203274755194144
0.2075305974835 0.116237491569825 0.22521468669664
0.221433969075713 0.116237491569825 0.225737810073899
0.212822079203781 0.116237491569825 0.24270559350004
0.207267523958743 0.116237491569825 0.248208524490254
0.216403831443326 0.116237491569825 0.260417594411073
0.223610167310133 0.116237491569825 0.260949889520659
0.21225950824672 0.116237491569825 0.278397167498305
0.21373116199373 0.116237491569825 0.290888217138633
0.216833906151352 0.116237491569825 0.303154727403076
0.210587783325333 0.116237491569825 0.309164217561754
0.223533674673512 0.116237491569825 0.312402683772506
0.219249736775251 0.116237491569825 0.32551351609329
0.216106423047777 0.116237491569825 0.335492285550214
0.225295282417097 0.116237491569825 0.343599779177524
0.221564691504918 0.116237491569825 0.358932211100075
0.223083690582736 0.116237491569825 0.368784887888936
0.218360837618405 0.116237491569825 0.372642857924025
0.220130000515599 0.116237491569825 0.39154227502587
0.214382216247429 0.116237491569825 0.399783847934673
0.221607330779011 0.116237491569825 0.407678319344018
0.209024214423861 0.116237491569825 0.430311544014224
0.212856733006189 0.116237491569825 0.43537708007729
0.210669263385205 0.116237491569825 0.442685652811481
0.214481027263752 0.116237491569825 0.444926123662067
0.212005559995031 0.116237491569825 0.466883012268707
0.217754843961474 0.116237491569825 0.468298159952062
0.218029378205547 0.116237491569825 0.483570002334792
0.221339729164523 0.116237491569825 0.486072787369039
0.219439807886731 0.116237491569825 0.500893082571422
0.222187700838293 0.116237491569825 0.50846520642154
0.211074098478215 0.116237491569825 0.530842974527337
0.219259771498236 0.116237491569825 0.522469945761581
0.21859421779586 0.116237491569825 0.539537683956028
0.2127656681608 0.116237491569825 0.554470642747003
0.217745834765907 0.116237491569825 0.55596800641158
0.225216116101759 0.116237491569825 0.562929560226116
0.222387664893146 0.116237491569825 0.57883561515746
0.212550683069774 0.116237491569826 0.597511266523705
0.21752081434289 0.116237491569825 0.601165364298059
0.212207642844064 0.116237491569825 0.62069305625184
0.21720433713015 0.116237491569825 0.624747619832897
0.21177663316073 0.116237491569825 0.638576922022074
0.22051122617001 0.116237491569825 0.643703340636935
0.215936795667474 0.116237491569825 0.650347424223241
0.221583794146337 0.116237491569825 0.663577083149889
0.217559735419249 0.116237491569825 0.681318658868788
0.21379016536564 0.116237491569825 0.680553511168858
0.221518839469005 0.116237491569825 0.687270642529517
0.20975891485683 0.116237491569825 0.709206310616162
0.213825849823938 0.116237491569825 0.724671563926453
0.213634782858211 0.116237491569825 0.723689836745393
0.223481597545886 0.116237491569825 0.734581081591868
0.216400072829756 0.116237491569825 0.744262853518387
0.217904882570739 0.116237491569825 0.751431186557848
0.220471933659828 0.116237491569825 0.765539530190786
0.213836876887609 0.116237491569825 0.786323865475948
0.209822540170368 0.116237491569825 0.792432590669698
0.222243911863445 0.116237491569825 0.794157945391598
0.209628728920614 0.116237491569825 0.817068045283657
0.214509405613024 0.116237491569825 0.812295844442959
0.217290734560117 0.116237491569825 0.830745398223392
0.21320868300247 0.116237491569825 0.841309753553798
0.217706623407378 0.116237491569825 0.853952902882903
0.215656060975641 0.116237491569825 0.853625366562977
0.220518988185073 0.116237491569825 0.872438715361984
0.214720298728713 0.116237491569825 0.888662941868752
0.211003087391677 0.116237491569825 0.897424627481471
0.208789104167337 0.116237491569825 0.907932774251971
0.21714088025744 0.116237491569825 0.910233386339961
0.210366287721684 0.116237491569825 0.92759179126321
0.216897800111636 0.116237491569825 0.930322148821276
0.218993490930668 0.116237491569825 0.942425058646145
0.216178045144347 0.116237491569825 0.955851789674294
0.217216131821731 0.116237491569825 0.96103716314213
0.218325799946652 0.116237491569825 0.969331340749907
0.212849705335549 0.116237491569825 0.981823735191979
0.20877814371378 0.116237491569825 0.994053408991327
0.221229317288917 0.11404762576719 0.996114123711179
0.237859927204196 0.100207631357523 0.996476536719309
0.250132969412065 0.0844372304622762 0.996889499200266
0.257206924568305 0.0842245127827684 0.996895069408739
0.272997673997424 0.0739735721778077 0.99716349973543
0.282947892756283 0.0601696490631238 0.997524968183459
0.299764509466776 0.0443343965118253 0.997939628864796
0.309853116528928 0.035803447900857 0.998163019616033
0.318274832648385 0.0256271101487508 0.998429496398271
0.22992834921508 0.116237491569825 0.0092264559913201
0.236245202763506 0.116237491569825 0.00209083571506193
0.233882245373528 0.116237491569825 0.0221043576228277
0.233146275139152 0.116237491569825 0.0360819684544846
0.23308410834009 0.116237491569825 0.0431101794255032
0.242093233458683 0.116237491569825 0.0455136130517538
0.229876166183362 0.116237491569825 0.0663812886975719
0.224562804421888 0.116237491569825 0.082434161886476
0.233814318442389 0.116237491569825 0.0775826124733082
0.239040740050103 0.116237491569825 0.0921807762882543
0.23379748547825 0.116237491569825 0.0983230735854565
0.234193390127052 0.116237491569825 0.11192805946743
0.228912381331894 0.116237491569825 0.126461912878359
0.235174232865862 0.116237491569825 0.132346836340896
0.230258494885512 0.116237491569825 0.149305048537027
0.228902295771094 0.116237491569825 0.1563023752458
0.236885533213042 0.116237491569825 0.168414509958166
0.229478395522737 0.116237491569825 0.175111727633411
0.227413024261733 0.116237491569825 0.192905615082752
0.23243197798757 0.116237491569825 0.195362274705346
0.23682415336632 0.116237491569825 0.201303449767417
0.229803750665842 0.116237491569825 0.216570382978324
0.233622791362911 0.116237491569825 0.221567980048527
0.238245553937437 0.116237491569825 0.226886429495122
0.229179265037415 0.116237491569825 0.251823924917587
0.225952031531275 0.116237491569825 0.264224309514074
0.23067174361791 0.116237491569825 0.269535459635836
0.222100386048285 0.116237491569825 0.287425410510624
0.231355195570016 0.116237491569825 0.297122611441825
0.222276829395521 0.116237491569825 0.30887841216373
0.235773593323095 0.116237491569825 0.3122969248814
0.232377356124353 0.116237491569825 0.307945569319681
0.229495960669152 0.116237491569825 0.330733253882129
0.23942399945259 0.116237491569825 0.336036229240726
0.232034797832381 0.116237491569825 0.350570835137513
0.226839104276205 0.116237491569825 0.359112833827327
0.240303840084928 0.116237491569825 0.366872606084336
0.233399001070757 0.116237491569825 0.377656816568045
0.228677880130891 0.116237491569825 0.40136760449316
0.230621990885977 0.116237491569825 0.406137872902017
0.230813481774273 0.116237491569825 0.419056412868112
0.229468465467323 0.116237491569825 0.423652834757399
0.22799097000111 0.116237491569825 0.429269964311313
0.24016438613465 0.116237491569825 0.436557778394527
0.223928857046025 0.116237491569825 0.460091173741463
0.23247182214879 0.116237491569825 0.465910166287402
0.23464885857209 0.116237491569825 0.466317395026873
0.22921061333009 0.116237491569825 0.486417743631198
0.230007481338456 0.116237491569825 0.495756861084626
0.230718619054091 0.116237491569825 0.505363922982636
0.237287736805876 0.116237491569825 0.515338262280482
0.234414352605403 0.116237491569825 0.527427517536442
0.242091682776254 0.116237491569825 0.529428291803973
0.233637905898623 0.116237491569825 0.544179820566021
0.23078739679806 0.116237491569825 0.564599591274187
0.23394913874489 0.116237491569825 0.569863483903141
0.234243555934559 0.116237491569825 0.578629455292959
0.232615105269664 0.116237491569825 0.584022744835208
0.236783650745325 0.116237491569825 0.591164762436248
0.234432834718615 0.116237491569825 0.606885169467472
0.231029807197885 0.116237491569825 0.620592873827241
0.2241910102465 0.116237491569825 0.634973737467498
0.23076263889747 0.116237491569825 0.642067170741747
0.231307729024171 0.116237491569825 0.643394438129837
0.231137609861791 0.116237491569825 0.656581490263742
0.234390168116896 0.116237491569825 0.673193462889918
0.231641389130142 0.116237491569826 0.683589995033001
0.236369189309708 0.116237491569825 0.678781627633226
0.232813786383954 0.116237491569825 0.699678690446096
0.228721877764596 0.116237491569825 0.709882459552339
0.236159975495491 0.116237491569825 0.718011723478825
0.23887132944208 0.116237491569825 0.723704703031638
0.235050140187424 0.116237491569825 0.738152791714894
0.229678532495018 0.116237491569825 0.754663905080452
0.232781313519583 0.116237491569825 0.751477764314763
0.233374138866153 0.116237491569825 0.764027073084912
0.232693152812139 0.116237491569825 0.772369455937859
0.238439038614692 0.116237491569825 0.786995692303433
0.230420265018206 0.116237491569825 0.801647553682669
0.233071600307608 0.116237491569825 0.813027884902438
0.232568254747791 0.116237491569825 0.819072825395651
0.225027381655076 0.116237491569825 0.832592902610648
0.226592314797702 0.116237491569825 0.846980754044453
0.229125155396686 0.116237491569825 0.855456535570938
0.233384465165124 0.116237491569825 0.866922627388489
0.232905986244618 0.116237491569825 0.867450092441953
0.234947893243972 0.116237491569825 0.879052690914244
0.227996830162643 0.116237491569825 0.899666026152375
0.229099613332464 0.116237491569825 0.91166454946385
0.228658206514845 0.116237491569825 0.916191451175279
0.232776955309415 0.116237491569825 0.921203851437902
0.231535733697087 0.116237491569825 0.932882968624874
0.223658828114469 0.116237491569825 0.950338069134492
0.232805349135779 0.116237491569825 0.948942916034151
0.233999960211846 0.116237491569825 0.957083265981922
0.232609202628264 0.116237491569825 0.969753373233169
0.232274663288584 0.116237491569825 0.990532566179333
0.235703366463554 0.116237491569825 0.993258780625558
0.235580289649139 0.109302508110864 0.996238378989964
0.256466528119902 0.10002758219037 0.996481251472678
0.271433636504006 0.0829579432999607 0.996928235697878
0.284246456684425 0.0729172784068963 0.997191159761269
0.285154048574958 0.0696833319521727 0.997275843629492
0.311079458747067 0.0550446711196672 0.997659170453929
0.320863799433786 0.0480910562195699 0.997841257268326
0.249660468666167 0.116237491569825 0.0176949187848491
0.249088216378767 0.116237491569825 0.017160811030889
0.244483754839762 0.116237491569825 0.0252979682864145
0.249737569029546 0.116237491569825 0.0383197951590601
0.248317261782115 0.116237491569825 0.0576358259622359
0.246242577272702 0.116237491569825 0.0614264868982079
0.24942781580064 0.116237491569825 0.0768891186898079
0.251884498367775 0.116237491569825 0.0771553383185847
0.2554757276942 0.116237491569825 0.0894581068933151
0.24926354907497 0.116237491569825 0.103789964156007
0.254381634558449 0.116237491569825 0.110218046905056
0.250001484344966 0.116237491569825 0.128273672755055
0.250522985212404 0.116237491569825 0.136427536145786
0.250051892372635 0.116237491569825 0.141906524887065
0.251347879174334 0.116237491569825 0.151907765951205
0.251342080729172 0.116237491569825 0.157017123613201
0.243718453017871 0.116237491569825 0.177093433060982
0.243965280759346 0.116237491569825 0.188306941232921
0.242928580599309 0.116237491569825 0.204667826246819
0.252660888844482 0.116237491569825 0.20338125167768
0.246831905635858 0.116237491569825 0.211494645421874
0.252158920882945 0.116237491569825 0.226373682300215
0.253871719102405 0.116237491569825 0.232044508225377
0.242441683583252 0.116237491569825 0.255880065051287
0.249240500929542 0.116237491569825 0.251349237030834
0.257137914412397 0.116237491569825 0.255901874064601
0.249470867383074 0.116237491569825 0.273490355797401
0.250218629717978 0.116237491569825 0.28879407805112
0.257263488238882 0.116237491569825 0.289399031666555
0.247991343753744 0.116237491569825 0.309211745771769
0.251586801869528 0.116237491569825 0.315487824159094
0.246558777623838 0.116237491569825 0.330335469965578
0.247762383654059 0.116237491569825 0.339474548695832
0.246351642431944 0.116237491569825 0.352907440899294
0.257259777201277 0.116237491569825 0.352356155110344
0.25325535778401 0.116237491569825 0.373918682273999
0.2486934946866 0.116237491569825 0.383101012855966
0.24254606409795 0.116237491569825 0.392750510973394
0.253816186064934 0.116237491569825 0.402738781368413
0.242573488651228 0.116237491569825 0.415939865932019
0.254812566773513 0.116237491569825 0.415497700422243
0.247132738832723 0.116237491569825 0.432376602695233
0.242634862808242 0.116237491569825 0.444701486678953
0.252107585949294 0.116237491569825 0.449633231827627
0.247748914613432 0.116237491569825 0.459244862301668
0.24475637087949 0.116237491569825 0.479165269375479
0.255976896545599 0.116237491569825 0.479126424881245
0.249115940876282 0.116237491569825 0.502176987029471
0.257621348559251 0.116237491569825 0.500475471159038
0.242286851289868 0.116237491569825 0.516486245471545
0.248894978581579 0.116237491569825 0.522872104010754
0.252805141087875 0.116237491569825 0.539992636956334
0.257165327288473 0.116237491569825 0.54378541003983
0.245380054767033 0.116237491569825 0.559651867772485
0.249690165373636 0.116237491569825 0.562910313805581
0.25222618065961 0.116237491569825 0.566564941465721
0.243936737103683 0.116237491569825 0.591578697603212
0.252690207226376 0.116237491569825 0.599896395503446
0.242511105770748 0.116237491569825 0.607704020861013
0.257381733270553 0.116237491569825 0.61616650808975
0.251082536287515 0.116237491569825 0.627887793284204
0.251622849834268 0.116237491569825 0.640704251355985
0.251794167177279 0.116237491569825 0.641916478657286
0.244961630352118 0.116237491569825 0.660255690610255
0.256387009665855 0.116237491569825 0.665694094200033
0.246514987408927 0.116237491569825 0.679040023521975
0.245119699741529 0.116237491569825 0.693729826970847
0.248594496100356 0.116237491569825 0.696035980344683
0.241756226293815 0.116237491569825 0.711233303376871
0.247338711813246 0.116237491569825 0.718779457638843
0.246913498804194 0.116237491569825 0.730867039528988
0.246019906585377 0.116237491569825 0.741178849378172
0.249052917569231 0.116237491569825 0.750281560562185
0.257291907212986 0.116237491569825 0.76000397179866
0.247721486052248 0.116237491569825 0.771296047299631
0.244121316876193 0.116237491569825 0.786942615351665
0.249983975979954 0.116237491569825 0.794128500606229
0.253299720861575 0.116237491569825 0.798436143684153
0.248234982408167 0.116237491569825 0.814658894757815
0.253371505179803 0.116237491569825 0.817368219978973
0.241716840957442 0.116237491569825 0.842758100690829
0.252645823124993 0.116237491569825 0.840870964573934
0.244296433624431 0.116237491569825 0.858383213526411
0.252722577821189 0.116237491569825 0.862737687869809
0.242858057652303 0.116237491569825 0.885264589011401
0.246383551111382 0.116237491569825 0.882598938410835
0.257565208261375 0.116237491569825 0.89729485381372
0.246050346290739 0.116237491569825 0.910805946038603
0.242578941626086 0.116237491569825 0.927404098609035
0.25112734422218 0.116237491569825 0.925381313102299
0.251907260039951 0.116237491569825 0.939551454672454
0.255945385736985 0.116237491569825 0.944835589332621
0.253477747558397 0.116237491569825 0.955825079772703
0.254239561835628 0.116237491569825 0.966570627354733
0.245846243923505 0.116237491569826 0.976374184647523
0.248109605240491 0.116237491569825 0.99413879777297
0.257609488565715 0.116237491569825 0.9952274230668
0.2678665817424 0.0955751159554486 0.996597843404295
0.281578003184502 0.083987728443981 0.996901269824863
0.289925384669856 0.0903898928952699 0.996733623248668
0.303013298848059 0.0755144978921312 0.997123149175531
0.314428409681511 0.0581681077847653 0.997577380386391
0.324272264339957 0.0503396583722086 0.997782375548717
0.260056842899419 0.116237491569825 2.38282493534773e-005
0.259294234772626 0.116237491569825 0.0132567101734717
0.26300004437224 0.116237491569825 0.0140249556131379
0.257746408873748 0.116237491569825 0.0364261126601071
0.269992877569285 0.116237491569825 0.0375398018027135
0.256293677419757 0.116237491569825 0.0553687070912085
0.267019928026952 0.116237491569825 0.062594416379376
0.259609449793729 0.116237491569825 0.081317696774298
0.260990720526606 0.116237491569825 0.0862690675903252
0.260417768804174 0.116237491569825 0.0899737057139723
0.27369670626453 0.116237491569825 0.100310105953761
0.253534826359732 0.116237491569825 0.121915764420579
0.261366445886542 0.116237491569825 0.129208999787788
0.271612046952791 0.116237491569825 0.124862522100335
0.266065893313188 0.116237491569825 0.147826294805878
0.267754981300346 0.116237491569825 0.154150151203863
0.264515029103482 0.116237491569825 0.156937442175703
0.26600745338467 0.116237491569825 0.169706986608669
0.264080372756773 0.116237491569825 0.186414338093614
0.271315549202528 0.116237491569825 0.190002468443133
0.255788712920787 0.116237491569825 0.211459960031297
0.26879319388015 0.116237491569825 0.212701050251719
0.266461709389734 0.116237491569825 0.224286857493914
0.269535336538122 0.116237491569825 0.239659627379571
0.26406875326397 0.116237491569825 0.250036419580378
0.266703611374031 0.116237491569825 0.252650484723886
0.261392826252496 0.116237491569825 0.271247705233762
0.270500324631023 0.116237491569825 0.269230279578092
0.262699187280535 0.116237491569825 0.285382050738012
0.263122297711546 0.116237491569825 0.308100311855009
0.263072685804565 0.116237491569825 0.307052636604947
0.259648385718345 0.116237491569825 0.322294660527549
0.258621574500995 0.116237491569825 0.327607408452304
0.269067196464495 0.116237491569825 0.345152130394069
0.260499366654869 0.116237491569825 0.354669787823411
0.262188845369756 0.116237491569825 0.36175612098014
0.261206558319875 0.116237491569825 0.374112205093573
0.260961058117546 0.116237491569825 0.375941754438838
0.273494346839523 0.116237491569825 0.389689457827697
0.261253515860267 0.116237491569825 0.405206902199788
0.257557557564286 0.116237491569825 0.419904465828983
0.261434875991963 0.116237491569825 0.420092351334946
0.261860397070173 0.116237491569825 0.441652597571908
0.262976606743275 0.116237491569825 0.438869203095411
0.260869878571039 0.116237491569825 0.459259404451075
0.265799607933526 0.116237491569825 0.466356325316026
0.261329569426343 0.116237491569825 0.480493364972965
0.266526257171021 0.116237491569825 0.482490800197433
0.266589236216761 0.116237491569825 0.50100218731325
0.265914409074268 0.116237491569825 0.496948044758061
0.267718924985521 0.116237491569825 0.51524148080111
0.257580967115279 0.116237491569825 0.535913303889049
0.258617129168774 0.116237491569825 0.540419110963082
0.266990760997069 0.116237491569825 0.544609283111007
0.256909488503931 0.116237491569825 0.55811870335425
0.266058301542684 0.116237491569825 0.574093158835446
0.262888571224798 0.116237491569825 0.578961497436024
0.262522008896122 0.116237491569825 0.588467574748401
0.266344146935765 0.116237491569825 0.595404307074271
0.264215761348813 0.116237491569825 0.608769846758027
0.261581493547425 0.116237491569825 0.620103882746978
0.272656366359017 0.116237491569825 0.629718453225757
0.26231857526335 0.116237491569825 0.643684667004564
0.261302976728268 0.116237491569825 0.650767613161044
0.262505109001904 0.116237491569825 0.662728006782291
0.268751558720858 0.116237491569825 0.674439060346951
0.263245940448655 0.116237491569826 0.690224021269026
0.261942666633325 0.116237491569825 0.694814073318661
0.262468054317905 0.116237491569825 0.703863635413495
0.259278665954725 0.116237491569825 0.717461375028622
0.260298113415881 0.116237491569825 0.723974076308019
0.268217015124688 0.116237491569825 0.729809443454096
0.266794245998045 0.116237491569825 0.744675340821446
0.263955706635549 0.116237491569825 0.762334123300843
0.256466173530973 0.116237491569825 0.77292269623748
0.267781557169968 0.116237491569825 0.768818366208531
0.255566114814244 0.116237491569825 0.791483552851002
0.25653654643609 0.116237491569825 0.800689484867154
0.273179338214205 0.116237491569825 0.800426042876401
0.266522177678326 0.116237491569825 0.812874236084957
0.264185439212153 0.116237491569825 0.823630955845749
0.271863893989821 0.116237491569825 0.835071425044985
0.263047115530619 0.116237491569825 0.848838440016713
0.267745725885756 0.116237491569825 0.853843983653129
0.267035063868473 0.116237491569825 0.868884691285911
0.259359647153768 0.116237491569825 0.88093113323425
0.27477628213806 0.116237491569825 0.885042719956459
0.260432003495497 0.116237491569825 0.89344535446644
0.262012863423751 0.116237491569825 0.903055569785612
0.262747415766309 0.116237491569825 0.927383441218051
0.258622590988534 0.116237491569825 0.931244917517386
0.259817853562444 0.116237491569825 0.945243986057484
0.260258768237766 0.116237491569825 0.953123062644865
0.272470422232342 0.116237491569825 0.9587331617096
0.260309811890532 0.116237491569825 0.978488189768357
0.257085614191305 0.116237491569825 0.988060617001688
0.271157927571034 0.116237491569825 0.989807659707824
0.264227163064554 0.115985135514185 0.996063388232905
0.277101106450438 0.103929790326257 0.996379068556486
0.294875640974163 0.0911306110619438 0.996714226860851
0.310499382028882 0.0757273238259577 0.99711757613232
0.321375663057106 0.0689164319702197 0.997295925612271
0.274613433625242 0.116237491569825 0.00265526316620668
0.279228263107509 0.116237491569825 0.00220080087763447
0.277273430941268 0.116237491569825 0.0244605961173907
0.287391085267453 0.116237491569825 0.0296815531836695
0.277418658542259 0.116237491569825 0.0488465345646038
0.27278192130456 0.116237491569825 0.0599705710228625
0.276333440602696 0.116237491569825 0.0671647228961737
0.278588530926729 0.116237491569825 0.0759477972305361
0.28475741943255 0.116237491569825 0.0852110370434112
0.275628454198809 0.116237491569825 0.088151434943806
0.276943710899927 0.116237491569825 0.112833210866244
0.277298546204609 0.116237491569825 0.106495403707867
0.278139380360102 0.116237491569825 0.13315050292808
0.274756457574757 0.116237491569825 0.128724004630966
0.289804282614586 0.116237491569825 0.134364006795249
0.279308449879177 0.116237491569825 0.149076807330187
0.276069607266243 0.116237491569825 0.167355579319891
0.274462126609854 0.116237491569825 0.176351219932436
0.281023480340148 0.116237491569825 0.189980970694237
0.277633750349706 0.116237491569825 0.197977388790813
0.282576857705233 0.116237491569825 0.211182016108845
0.281677599530646 0.116237491569825 0.215411465974643
0.282525815203734 0.116237491569825 0.216827120106429
0.270802901186642 0.116237491569825 0.245367012193011
0.286294151952425 0.116237491569825 0.241454666675781
0.276074266594995 0.116237491569825 0.264975200957377
0.280369346105426 0.116237491569825 0.267943854840724
0.273140470068286 0.116237491569825 0.283869247583486
0.28380296796786 0.116237491569825 0.28654931964227
0.282629691762235 0.116237491569825 0.292341247148645
0.28478210644949 0.116237491569825 0.3111886604031
0.281905157370542 0.116237491569825 0.316331979686281
0.285813620087553 0.116237491569825 0.321733189327426
0.285549274683815 0.116237491569825 0.336881797068238
0.286310236720259 0.116237491569825 0.347788548187861
0.279133267669475 0.116237491569825 0.360015272588747
0.285940352035463 0.116237491569825 0.363948478516517
0.281727831335171 0.116237491569825 0.382415820246355
0.276441311981681 0.116237491569825 0.397157006012271
0.27587108911249 0.116237491569825 0.403969669043961
0.279200657961959 0.116237491569825 0.420358561407414
0.2767799811753 0.116237491569825 0.428666255521227
0.282807153689717 0.116237491569825 0.427681472829723
0.277215463025267 0.116237491569825 0.446513336803727
0.277622436030595 0.116237491569825 0.463580605069369
0.280697513013413 0.116237491569825 0.465191947074074
0.278742696237184 0.116237491569825 0.476436734950702
0.28321472107144 0.116237491569825 0.481421914685658
0.272176530870565 0.116237491569825 0.500558459245957
0.276894889236559 0.116237491569825 0.507833700160638
0.273189981330043 0.116237491569825 0.526500614930083
0.287193887493558 0.116237491569825 0.524006932579317
0.27737544578501 0.116237491569825 0.544891995590332
0.272304896500351 0.116237491569825 0.558706661057322
0.280954050232496 0.116237491569825 0.558173170674419
0.279744216551597 0.116237491569825 0.570627048976876
0.275834273105448 0.116237491569825 0.578721324995703
0.277488894212205 0.116237491569825 0.593451123181568
0.279714052399909 0.116237491569825 0.60172039090411
0.278988691964643 0.116237491569825 0.609802183533654
0.283338024665406 0.116237491569825 0.615490280787819
0.28180050955384 0.116237491569825 0.627969717279643
0.270968347078938 0.116237491569825 0.646968532103901
0.283810080294367 0.116237491569825 0.649439289826119
0.287449317051016 0.116237491569825 0.661539938166107
0.280992720020819 0.116237491569825 0.670625365341634
0.284676277675557 0.116237491569825 0.680085539754444
0.28302235370634 0.116237491569825 0.692766641225588
0.276566996370517 0.116237491569825 0.709884121138075
0.273957390409747 0.116237491569825 0.715652553062727
0.274743071546186 0.116237491569825 0.733769578730501
0.278917039579068 0.116237491569825 0.736521830381868
0.276651137695777 0.116237491569825 0.747550932125328
0.285592387415349 0.116237491569825 0.754313460596179
0.281339113321285 0.116237491569825 0.769877374064787
0.280195697867665 0.116237491569825 0.775057867901465
0.282659734449409 0.116237491569825 0.778516566344393
0.28270886867313 0.116237491569825 0.797158716890467
0.272185365476865 0.116237491569825 0.81782322343096
0.273099250394628 0.116237491569825 0.825731123543474
0.27666955009087 0.116237491569825 0.828461035063595
0.276252591579136 0.116237491569825 0.846302638655026
0.291681943166155 0.116237491569825 0.849301353546075
0.284955571146985 0.116237491569825 0.853433419289908
0.278730870014337 0.116237491569825 0.876237381058374
0.288712966852776 0.116237491569825 0.875414391163715
0.284303113408339 0.116237491569825 0.886605955919285
0.28540621586983 0.116237491569825 0.894010614272661
0.27375907042723 0.116237491569825 0.915214798909441
0.283747109484898 0.116237491569825 0.921191033095727
0.26987714364892 0.116237491569825 0.934892438580263
0.288400671433356 0.116237491569825 0.9438264845526
0.279177523446796 0.116237491569825 0.951251498814304
0.273660110931477 0.116237491569825 0.971041623834184
0.279357856788331 0.116237491569825 0.967857874166702
0.278173118154743 0.116237491569825 0.993229609521117
0.280084106177244 0.116237491569825 0.995674779828709
0.287793257528872 0.108853456916425 0.996250137809322
0.293469024597239 0.0999062654835851 0.996484428262447
0.317691569860965 0.094131135890005 0.996635655353036
0.297666271474017 0.116237491569825 0.00189199935215593
0.306154643445147 0.116237491569825 0.0110336346502287
0.302864008872127 0.116237491569825 0.0267959569880262
0.295141863509551 0.116237491569825 0.0335791217204536
0.303473750704219 0.116237491569825 0.0486287914305598
0.30184604469053 0.116237491569825 0.0522877246291759
0.292439990057887 0.116237491569825 0.0753984034264388
0.305702455860639 0.116237491569825 0.0717345361135708
0.302943295015116 0.116237491569825 0.08460182920397
0.304691201637155 0.116237491569825 0.0931192917641518
0.302209654038645 0.116237491569825 0.112025877366341
0.29268766042432 0.116237491569825 0.12420556998116
0.292706861854108 0.116237491569825 0.144789160815344
0.301326586925618 0.116237491569825 0.137187439691401
0.293361218485088 0.116237491569825 0.160805212930196
0.297948902343552 0.116237491569825 0.155666337850892
0.300823853962985 0.116237491569825 0.169964472731699
0.294527393675124 0.116237491569825 0.183856694375433
0.297658201034852 0.116237491569825 0.197336133213894
0.305253345682302 0.116237491569825 0.196027718651374
0.297716383176854 0.116237491569825 0.220683731711881
0.295285328998399 0.116237491569825 0.233977888946341
0.293052683492103 0.116237491569825 0.236233177878098
0.297183314675114 0.116237491569825 0.238912048188894
0.299106293831474 0.116237491569825 0.258787549935842
0.296403462776351 0.116237491569825 0.264361408528828
0.294007671889471 0.116237491569825 0.279272882424256
0.302648561401697 0.116237491569825 0.289450411872148
0.298385435567843 0.116237491569825 0.300702182398073
0.290132840974213 0.116237491569825 0.309880372787785
0.299404304843093 0.116237491569825 0.316261225913283
0.305607588290758 0.116237491569825 0.321036873770057
0.297259573435968 0.116237491569825 0.337405212954796
0.297961413939451 0.116237491569825 0.347426967182503
0.292422752221666 0.116237491569825 0.365597054487317
0.295921576937709 0.116237491569825 0.376364206874922
0.295022733883064 0.116237491569825 0.37927043461581
0.297403679775786 0.116237491569825 0.389159113784879
0.304322251739233 0.116237491569825 0.398991799598776
0.300329210914936 0.116237491569825 0.409049451480837
0.299295186347511 0.116237491569825 0.420473862927284
0.301067396876797 0.116237491569825 0.433054112999716
0.296554415633765 0.116237491569825 0.445057602762367
0.299429798079568 0.116237491569825 0.452083435762912
0.296977138723227 0.116237491569825 0.469057554187758
0.300114745929728 0.116237491569825 0.469086498559307
0.301112151446055 0.116237491569825 0.484835501866446
0.291534517413551 0.116237491569825 0.499239596119596
0.290253290337483 0.116237491569825 0.516567414660321
0.294216834628338 0.116237491569825 0.522276175779277
0.288630329239191 0.116237491569825 0.531766846964287
0.302944878536531 0.116237491569825 0.538265849262204
0.292518448592094 0.116237491569825 0.554359015488063
0.287233821544604 0.116237491569825 0.568299587164957
0.298743872150121 0.116237491569825 0.569138979941942
0.29776235723623 0.116237491569825 0.572085148503619
0.296951803306819 0.116237491569825 0.598137822216142
