ply
format ascii 1.0
element vertex 853
property float x
property float y
property float z
end_header
-0.0646684267451137 -0.084386261204177 0.999999999999995
-0.0447880755690961 -0.0971697534990678 0.999999999999998
-0.0431260691321691 -0.0988848591729787 0.999999999999999
-0.220426246116385 0.104626865671636 0.230002519060093
-0.215715361058638 0.104626865671636 0.231046684712675
-0.223669516771599 0.104626865671636 0.24320653593791
-0.21604115870869 0.104626865671636 0.247541807325766
-0.220926814103118 0.104626865671636 0.264824340177807
-0.216001143098515 0.104626865671636 0.264706382836979
-0.219957338611352 0.104626865671636 0.275961421373254
-0.227362330276782 0.104626865671636 0.293843275511881
-0.220547394987155 0.104626865671636 0.297468191269472
-0.219800450060752 0.104626865671636 0.301147053907671
-0.223408269021135 0.104626865671636 0.314074360982506
-0.221672260437311 0.104626865671636 0.324345572625727
-0.22527457260437 0.104626865671636 0.340450333081751
-0.227182768195046 0.104626865671636 0.342049379158862
-0.216410007583502 0.104626865671636 0.343747458176204
-0.221991979841621 0.104626865671636 0.353819902506502
-0.218751317377658 0.104626865671636 0.366425073886907
-0.217901635128043 0.104626865671636 0.379245487749062
-0.222086539049489 0.104626865671636 0.389891955925065
-0.222370908368309 0.104626865671636 0.396604060442873
-0.218835370493561 0.104626865671636 0.409128765203285
-0.221557183808976 0.104626865671636 0.417705916058502
-0.21757067737677 0.104626865671636 0.418989466644381
-0.22662769429082 0.104626865671636 0.435701162587685
-0.222635886344263 0.104626865671636 0.441760657307316
-0.224359579262024 0.104626865671636 0.449632128164795
-0.219811520786594 0.104626865671636 0.4622853559614
-0.219827623503822 0.104626865671636 0.471749740533013
-0.217602009604604 0.104626865671636 0.481941276057917
-0.22865411010328 0.104626865671636 0.493703554481645
-0.220800024633439 0.104626865671636 0.502742488697145
-0.225433144588973 0.104626865671636 0.511926666876486
-0.22653335813385 0.104626865671636 0.517242121790725
-0.217641491601972 0.104626865671636 0.526136543319127
-0.223750530032055 0.104626865671636 0.54247952711814
-0.218887567471343 0.104626865671636 0.547640057064368
-0.226918637650695 0.104626865671636 0.55420739296377
-0.22089655278347 0.104626865671636 0.562598664831992
-0.217238133715047 0.104626865671636 0.566921513978276
-0.21580843298925 0.104626865671636 0.574054875775998
-0.222567269072358 0.104626865671636 0.586160853368618
-0.222233503197342 0.104626865671636 0.605165638135063
-0.219439751792734 0.104626865671636 0.608305772415411
-0.225748835444442 0.104626865671636 0.626182422014771
-0.21951065843054 0.104626865671636 0.630867988011006
-0.226517279851005 0.104626865671636 0.64050528126839
-0.223021042107741 0.104626865671636 0.645872743517847
-0.222776595170187 0.104626865671636 0.659676332013661
-0.227281377810181 0.104626865671636 0.666854862574337
-0.221836056255885 0.104626865671636 0.67442597926152
-0.221573089928091 0.104626865671636 0.678990956129779
-0.219392312148217 0.104626865671636 0.691753816917651
-0.219780592063732 0.104626865671636 0.702561999814813
-0.22402704458466 0.104626865671636 0.709868224621164
-0.217849551457489 0.104626865671636 0.713340759199345
-0.225712174991096 0.104626865671636 0.72497747578607
-0.218517863886266 0.104626865671636 0.733399089286242
-0.221569313336043 0.104626865671636 0.74404473070993
-0.227783091260449 0.104626865671636 0.763942242308706
-0.229037884394356 0.104626865671636 0.77018989069449
-0.22252255578656 0.104626865671636 0.775139499196741
-0.219934238512171 0.104626865671636 0.790806473990469
-0.220248186639557 0.104626865671636 0.796572952839491
-0.2251423331972 0.104626865671636 0.802440923464298
-0.225101464478378 0.104626865671636 0.818604471657313
-0.222849843268776 0.104626865671636 0.821694521135431
-0.219807898984559 0.104626865671636 0.826168226603665
-0.218303079242939 0.104626865671636 0.842444635242913
-0.224365680536485 0.104626865671636 0.853980065438939
-0.226191724694652 0.104626865671636 0.864597373043763
-0.220217632605459 0.104626865671636 0.86510888155875
-0.227579498486409 0.104626865671636 0.873992360067223
-0.221164075087496 0.104626865671636 0.890445546049965
-0.227496262157963 0.104626865671636 0.896501856222432
-0.220221515177488 0.104626865671636 0.906274319499694
-0.22260120380586 0.104626865671636 0.913991925392739
-0.22803194409569 0.104626865671636 0.920925112542209
-0.22745501110958 0.104626865671636 0.936772597990354
-0.2224142824146 0.104626865671636 0.937134949182855
-0.224699952421055 0.104626865671636 0.949833358218698
-0.221071348694045 0.104626865671636 0.96239857348073
-0.227234127441492 0.104626865671636 0.974532413859596
-0.222325129138815 0.104626865671636 0.97171407796987
-0.228517326315646 0.104626865671636 0.993229616531765
-0.221183847363718 0.104626865671636 0.992921054265913
-0.220449243130225 0.102520329322104 0.999999999999947
-0.205452107691748 0.0849264382724687 0.999999999999951
-0.192918193004112 0.0717374944833608 0.999999999999954
-0.195784856857457 0.0750781459078138 0.999999999999954
-0.174000649430628 0.0559943224697652 0.999999999999959
-0.171713816852016 0.051872361795023 0.99999999999996
-0.16677211175313 0.0464263254418147 0.999999999999961
-0.15888582365318 0.0311509455019457 0.999999999999965
-0.142340401098353 0.0187026763863534 0.999999999999968
-0.132198843290237 0.0169613837544343 0.999999999999969
-0.121597988500695 -0.00246351850077699 0.999999999999974
-0.108226357028984 -0.0129471479601128 0.999999999999976
-0.104545911458653 -0.0269110949256417 0.99999999999998
-0.0934769008243906 -0.0362029190681226 0.999999999999982
-0.0857000170061222 -0.0450224348061511 0.999999999999985
-0.0721498183969195 -0.0537625276102425 0.999999999999987
-0.0684803855504916 -0.0583403495384818 0.999999999999988
-0.0514604199767035 -0.0772084038000952 0.999999999999993
-0.0480976713131359 -0.0865700402971599 0.999999999999995
-0.0287904455036573 -0.0958158137966601 0.999999999999998
-0.207011574809667 0.104626865671636 0.210910867730346
-0.214217619811179 0.104626865671636 0.230023543848102
-0.209135764791051 0.104626865671636 0.230224972006503
-0.203479265729265 0.104626865671636 0.240083797650401
-0.208492365930657 0.104626865671636 0.243313551663566
-0.206555887079892 0.104626865671636 0.254110477395093
-0.207520648973656 0.104626865671636 0.270198370188115
-0.208581964969849 0.104626865671636 0.282048826246019
-0.204639342149034 0.104626865671636 0.282948973633055
-0.207147869264214 0.104626865671636 0.297874660673615
-0.212954920077662 0.104626865671636 0.311082045943369
-0.210125796800959 0.104626865671636 0.313022947610498
-0.207117397110177 0.104626865671636 0.322938262925508
-0.210208349041242 0.104626865671636 0.332694290209022
-0.20616326050972 0.104626865671636 0.339493113605081
-0.209639032887865 0.104626865671636 0.348423155573484
-0.204883946951555 0.104626865671636 0.359418348471365
-0.202878816863056 0.104626865671636 0.368034069112534
-0.217573519006263 0.104626865671636 0.38609590592919
-0.207628917350994 0.104626865671636 0.381269156014851
-0.207505111703744 0.104626865671636 0.397560096284998
-0.20909963486727 0.104626865671636 0.398814057146813
-0.20502927598671 0.104626865671636 0.417444499566647
-0.207532143787723 0.104626865671636 0.429311743299727
-0.205713043264502 0.104626865671636 0.426614613342527
-0.210469774472967 0.104626865671636 0.447583924281685
-0.21403649391792 0.104626865671636 0.451072208282904
-0.212392781029423 0.104626865671636 0.471046581470847
-0.214858798843331 0.104626865671636 0.474808841860611
-0.203127860486179 0.104626865671636 0.479776681115274
-0.216498937742695 0.104626865671636 0.491957181297802
-0.212681648371152 0.104626865671636 0.507417766855004
-0.212148413310086 0.104626865671636 0.51631122139554
-0.207031782563867 0.104626865671636 0.513387353719891
-0.208294493011426 0.104626865671636 0.520470881261605
-0.213168564382205 0.104626865671636 0.536121890066372
-0.207743006765142 0.104626865671636 0.54994403299395
-0.213743515428903 0.104626865671636 0.557042449647567
-0.211047273238035 0.104626865671636 0.567537440209856
-0.205666438561017 0.104626865671636 0.573713266685008
-0.204183092967028 0.104626865671636 0.576501239630258
-0.212487199659005 0.104626865671636 0.595751040853494
-0.203966041655298 0.104626865671636 0.601153532851049
-0.20296937734087 0.104626865671636 0.610580601642673
-0.203338085834725 0.104626865671636 0.622178840126885
-0.203501033392473 0.104626865671636 0.624532043513602
-0.205741863607092 0.104626865671636 0.631406349123462
-0.206508496980835 0.104626865671636 0.646760245300929
-0.212969918340813 0.104626865671636 0.656501143029416
-0.209886895330964 0.104626865671636 0.661726893413481
-0.208029060254969 0.104626865671636 0.677304254762812
-0.209914412675728 0.104626865671636 0.68325383818739
-0.208504499748754 0.104626865671636 0.696227125345655
-0.211265301241824 0.104626865671636 0.705610617875886
-0.215877066576411 0.104626865671636 0.722774930310182
-0.208849251845458 0.104626865671636 0.723167032576844
-0.206535562977146 0.104626865671636 0.728407949359089
-0.20626245135617 0.104626865671636 0.73484975746323
-0.204236281504684 0.104626865671636 0.744998202602348
-0.204592372082937 0.104626865671636 0.754310086633614
-0.208454866878899 0.104626865671636 0.763019374279924
-0.215593634575098 0.104626865671636 0.783311518255178
-0.216090146579062 0.104626865671636 0.788402090320373
-0.209432649313342 0.104626865671636 0.805461495802388
-0.2030845010908 0.104626865671636 0.796615245848952
-0.208854254975948 0.104626865671636 0.81075985905681
-0.216135278368195 0.104626865671636 0.826014573637748
-0.217442173800165 0.104626865671636 0.841742157654216
-0.21070035885038 0.104626865671636 0.838851734692015
-0.208461683149844 0.104626865671636 0.849480456552335
-0.210678389554638 0.104626865671636 0.861356140731683
-0.211778826517143 0.104626865671636 0.865600727754764
-0.206708310350413 0.104626865671636 0.877825549531907
-0.209749828492937 0.104626865671636 0.890027064268766
-0.209467970530567 0.104626865671636 0.895160424662556
-0.207003244879458 0.104626865671636 0.902001540744174
-0.214966762160316 0.104626865671636 0.916875710987333
-0.20479589480012 0.104626865671636 0.923373964084202
-0.209528326482683 0.104626865671636 0.936361032670636
-0.212568521026576 0.104626865671636 0.94737594163105
-0.210405106189408 0.104626865671636 0.960219643431036
-0.209107297489005 0.104626865671636 0.958858950823596
-0.207339475045072 0.104626865671636 0.97589498219589
-0.215246358536543 0.104626865671636 0.979407861950479
-0.206181903559609 0.104626865671636 0.989717745939779
-0.20685635269931 0.104626865671636 0.997488958810548
-0.200415577953296 0.0868984802064977 0.999999999999951
-0.1955302689161 0.0822962813897865 0.999999999999952
-0.183415069596826 0.0756018747942021 0.999999999999953
-0.170469016079216 0.0621961653762109 0.999999999999957
-0.161628676197269 0.0540545806190957 0.999999999999959
-0.153718856636108 0.0529726906961443 0.999999999999959
-0.143285203622022 0.0335183266045318 0.999999999999964
-0.135447518184873 0.0231299935820849 0.999999999999967
-0.123260744151367 0.0211899892345053 0.999999999999967
-0.108328412965856 0.00489717514895678 0.999999999999972
-0.114160220291699 -0.00120546752139159 0.999999999999973
-0.0991945425543236 -0.0169164889612055 0.999999999999977
-0.0867266279934406 -0.0308856364550423 0.999999999999981
-0.0816764173202487 -0.0329670232016578 0.999999999999981
-0.0681074766057045 -0.0480595740312646 0.999999999999985
-0.0518319758421998 -0.0522370603442738 0.999999999999987
-0.0560484961277999 -0.058940432493085 0.999999999999988
-0.0346966390827951 -0.0787312465378219 0.999999999999993
-0.0220167914766914 -0.0904290096723471 0.999999999999996
-0.0132692261428963 -0.0984415035866439 0.999999999999999
-0.194913187513011 0.104626865671636 0.201288316036773
-0.194085444286633 0.104626865671636 0.209100707105396
-0.196439749477456 0.104626865671636 0.230566597868727
-0.204419944513728 0.104626865671636 0.239314800848546
-0.188681358533504 0.104626865671636 0.235434137559469
-0.192096242076694 0.104626865671636 0.242504659273783
-0.205270703636524 0.104626865671636 0.269567928644487
-0.200822805891324 0.104626865671636 0.271892366413827
-0.191861287481284 0.104626865671636 0.270461719288898
-0.189289797978923 0.104626865671636 0.278683606435716
-0.196226558603151 0.104626865671636 0.294759442671883
-0.200445375924252 0.104626865671636 0.310622455427089
-0.190679275286928 0.104626865671636 0.313561777871834
-0.196314319688013 0.104626865671636 0.323050720094651
-0.198281465134593 0.104626865671636 0.328225732845021
-0.190557734452678 0.104626865671636 0.341432129196215
-0.190658324821372 0.104626865671636 0.344231661618244
-0.19991627248038 0.104626865671636 0.368784267244793
-0.19764728789787 0.104626865671636 0.379065083926237
-0.200267269863619 0.104626865671636 0.387151906650112
-0.197469674118822 0.104626865671636 0.390916137860596
-0.196624433387682 0.104626865671636 0.392101877369258
-0.198389426844496 0.104626865671636 0.406488359749874
-0.194187310088366 0.104626865671636 0.416350475122316
-0.19816811249025 0.104626865671636 0.427591930479097
-0.189769059203844 0.104626865671636 0.436395423779282
-0.192286066757515 0.104626865671636 0.440620058383021
-0.197832762061977 0.104626865671636 0.4584869320228
-0.197408783220439 0.104626865671636 0.466171480386704
-0.202715337011831 0.104626865671636 0.47909968196654
-0.203535212089138 0.104626865671636 0.488073237845034
-0.191847603669045 0.104626865671636 0.489765414342444
-0.200355317861424 0.104626865671636 0.50321708795217
-0.200141522997671 0.104626865671636 0.512823240147679
-0.198631351236219 0.104626865671636 0.514616973996909
-0.19359769689853 0.104626865671636 0.52064977551622
-0.202310439974243 0.104626865671636 0.543823059768333
-0.197758853583095 0.104626865671636 0.549364604548696
-0.19702755693308 0.104626865671636 0.551153387801045
-0.196159067474233 0.104626865671636 0.566676137462837
-0.19315393678425 0.104626865671636 0.569393980038804
-0.196417763704441 0.104626865671636 0.577233503188763
-0.198029220441221 0.104626865671636 0.59785116800507
-0.195803796310392 0.104626865671636 0.601500849416613
-0.199479370591191 0.104626865671636 0.617469871718254
-0.191909661025147 0.104626865671636 0.615176969569025
-0.194709131549668 0.104626865671636 0.629233482806866
-0.196768841641852 0.104626865671636 0.643170824900766
-0.189115732773155 0.104626865671636 0.646797710691777
-0.194852489838222 0.104626865671636 0.654841991003137
-0.195430240898202 0.104626865671636 0.665741081903479
-0.200502464861685 0.104626865671636 0.681118338973647
-0.192732375466953 0.104626865671636 0.686776540141265
-0.196104790338492 0.104626865671636 0.68807448022066
-0.197660159888082 0.104626865671636 0.704962343460378
-0.191639913661685 0.104626865671636 0.707868908324193
-0.19614476474878 0.104626865671636 0.723087698022368
-0.20114272456643 0.104626865671636 0.733982549012313
-0.193304340731057 0.104626865671636 0.739028703974889
-0.191453549944572 0.104626865671636 0.750128903969508
-0.191989706236787 0.104626865671636 0.760803006051568
-0.204017621325688 0.104626865671636 0.779834875008453
-0.191148280935664 0.104626865671636 0.779039259618602
-0.200589537700539 0.104626865671636 0.794604521165129
-0.198232074231377 0.104626865671636 0.798735016593321
-0.192935572451726 0.104626865671636 0.804781049862581
-0.200010030144091 0.104626865671636 0.819302755149368
-0.197469492966649 0.104626865671636 0.823478389615791
-0.190697826076954 0.104626865671636 0.826678924793778
-0.189686425414207 0.104626865671636 0.843233749500134
-0.202813313109578 0.104626865671636 0.852040391388257
-0.196314574414661 0.104626865671636 0.870426681930774
-0.195456752688349 0.104626865671636 0.869709147754333
-0.191889762548442 0.104626865671636 0.875257304377657
-0.194530061035461 0.104626865671636 0.892103206227762
-0.196090581572962 0.104626865671636 0.896630554887058
-0.195122734887546 0.104626865671636 0.915568991314783
-0.19669565004515 0.104626865671636 0.924544531303365
-0.191067284860742 0.104626865671636 0.919473550640569
-0.196332486381024 0.104626865671636 0.935128858501448
-0.196793331468813 0.104626865671636 0.948367941844824
-0.191235415093278 0.104626865671636 0.954377201904504
-0.192903767260076 0.104626865671636 0.965851787463995
-0.20030609497951 0.104626865671636 0.975221211606782
-0.200709653014514 0.104626865671636 0.981556716280496
-0.200854305837713 0.104626865671636 0.989732445046134
-0.195597690749641 0.104626865671636 0.999999999999946
-0.18496040613787 0.090649129449303 0.99999999999995
-0.176397089514306 0.0781717848705519 0.999999999999953
-0.164973018378571 0.0712733255639444 0.999999999999955
-0.157409690521615 0.0646342608605851 0.999999999999956
-0.148237706126857 0.0485397766831236 0.99999999999996
-0.133668965314834 0.0439526665738283 0.999999999999962
-0.130110330592376 0.0332691455168098 0.999999999999965
-0.115929423927901 0.0197814262244631 0.999999999999968
-0.11057119379726 0.0125447110357029 0.99999999999997
-0.0966992334400429 0.00241080350050713 0.999999999999972
-0.089967252155643 -0.0128994352581381 0.999999999999976
-0.0823024906429644 -0.0205103548726666 0.999999999999978
-0.0732460972259017 -0.0261376649002911 0.99999999999998
-0.0577544744721184 -0.0315608340971873 0.999999999999981
-0.0530579777218462 -0.0430261327566574 0.999999999999984
-0.0410988221449058 -0.0571164147742419 0.999999999999988
-0.0217267935406461 -0.0748650318611031 0.999999999999992
-0.0121422601093158 -0.0881933428800948 0.999999999999996
0.000613157361413745 -0.100851620118495 0.999999999999999
0.0022023372954708 -0.103223553628096 0.999999999999999
-0.188107752088014 0.104626865671636 0.202893781495097
-0.181213947942067 0.104626865671636 0.202300403957021
-0.180865984433894 0.104626865671636 0.207241088991083
-0.179549449535639 0.104626865671636 0.21586288356121
-0.181829795819133 0.104626865671636 0.237491289778371
-0.1880773129713 0.104626865671636 0.244752948884224
-0.180466592303359 0.104626865671636 0.248788815231102
-0.177866196241943 0.104626865671636 0.25090974909868
-0.183427518974316 0.104626865671636 0.273281258742192
-0.177283271612257 0.104626865671636 0.273575763360942
-0.184672527713077 0.104626865671636 0.292829138463534
-0.187779987960399 0.104626865671636 0.306431947170219
-0.181732413173296 0.104626865671636 0.302767347190236
-0.185487992190577 0.104626865671636 0.314944233195774
-0.178902450709137 0.104626865671636 0.318574966172768
-0.184269074234786 0.104626865671636 0.341338242345415
-0.182567786808095 0.104626865671636 0.343342702683579
-0.185175908645241 0.104626865671636 0.353833195434039
-0.187220645815129 0.104626865671636 0.370669773837949
-0.178589959921845 0.104626865671636 0.369601177548901
-0.189843692080331 0.104626865671636 0.385761518902727
-0.187101187500013 0.104626865671636 0.396414974411159
-0.182854643631997 0.104626865671636 0.407670293412892
-0.185317560175667 0.104626865671636 0.408959555943254
-0.180322162355676 0.104626865671636 0.416644487771082
-0.178463754840073 0.104626865671636 0.4258552995335
-0.181179193449461 0.104626865671636 0.434866917918266
-0.181042499610857 0.104626865671636 0.437415999699636
-0.183947876865406 0.104626865671636 0.463653487177224
-0.191052162163341 0.104626865671636 0.473253263734512
-0.187771937034373 0.104626865671636 0.474707912742765
-0.181283856776311 0.104626865671636 0.487674376127584
-0.179328518170548 0.104626865671636 0.485876251318869
-0.181369206686021 0.104626865671636 0.508494650787709
-0.180119530159253 0.104626865671636 0.512376521026373
-0.177254626582729 0.104626865671636 0.513778547691015
-0.176489840604137 0.104626865671636 0.524653202842846
-0.179625632982 0.104626865671636 0.538435886122889
-0.184079943530382 0.104626865671636 0.546321586515075
-0.185625373487001 0.104626865671636 0.559315237858287
-0.17919361498992 0.104626865671636 0.565039010015334
-0.182713009874316 0.104626865671636 0.5739058620415
-0.182737936365716 0.104626865671636 0.589470760959247
-0.185762907679934 0.104626865671636 0.595628285690809
-0.18246784245096 0.104626865671636 0.602894363392503
-0.184258948282987 0.104626865671636 0.61066138225286
-0.177000119646156 0.104626865671636 0.614148031600853
-0.184424152950564 0.104626865671636 0.630366314699507
-0.184577893627332 0.104626865671636 0.641887186554251
-0.185899309512985 0.104626865671636 0.645735074417632
-0.180907040839828 0.104626865671636 0.661098079675084
-0.182937010775203 0.104626865671636 0.668972395051079
-0.186249449533611 0.104626865671636 0.681584012010571
-0.181946658365058 0.104626865671636 0.68599285558026
-0.190826627403512 0.104626865671636 0.701470637931695
-0.178809338627476 0.104626865671636 0.706067081276694
-0.18296602994187 0.104626865671636 0.71964197190255
-0.183021569526282 0.104626865671636 0.722625887582813
-0.180761499031037 0.104626865671636 0.734177782967747
-0.183745059090049 0.104626865671636 0.73853041426032
-0.180403224640183 0.104626865671636 0.752895230884771
-0.186473771420486 0.104626865671636 0.762754634554141
-0.184768301409108 0.104626865671636 0.771557732825372
-0.18502897432185 0.104626865671636 0.78003927608448
-0.179684181339739 0.104626865671636 0.785343433028747
-0.17903696119643 0.104626865671636 0.798277257553378
-0.179484322477919 0.104626865671636 0.811337340471533
-0.182452663633551 0.104626865671636 0.812912312945055
-0.183238636687375 0.104626865671636 0.830429893772332
-0.187730979005867 0.104626865671636 0.842039275660064
-0.188845739424284 0.104626865671636 0.849568377318664
-0.180666122074583 0.104626865671636 0.855252296440507
-0.18625123649273 0.104626865671636 0.865966370246768
-0.181343420797131 0.104626865671636 0.878610054741041
-0.183372195465045 0.104626865671636 0.883598158394238
-0.179757954981013 0.104626865671636 0.888035975994883
-0.189928405935529 0.104626865671636 0.909668661868847
-0.187928031737789 0.104626865671636 0.916543451910827
-0.188041365724201 0.104626865671636 0.926207900134264
-0.184727007211189 0.104626865671636 0.93120794386219
-0.179957490847285 0.104626865671636 0.938194627197057
-0.183718306725844 0.104626865671636 0.949530563398789
-0.181313512449632 0.104626865671636 0.959575512073016
-0.186640252851571 0.104626865671636 0.968775349757138
-0.180542890793666 0.104626865671636 0.97128498869707
-0.187495447601607 0.104626865671636 0.98883210940187
-0.190201229121893 0.104626865671636 0.999073797646496
-0.181956681702919 0.103135342419861 0.999999999999947
-0.172376235763993 0.0900255170498258 0.99999999999995
-0.157600092965249 0.0804757482459939 0.999999999999952
-0.152909527562321 0.0713498923985947 0.999999999999954
-0.134103089525155 0.0523042148409815 0.99999999999996
-0.132465793872199 0.0511908394420294 0.99999999999996
-0.124282862525637 0.0463345827811044 0.999999999999961
-0.10434115756909 0.0231315137695665 0.999999999999967
-0.106644522495491 0.0158085109897221 0.999999999999969
-0.0884233013986408 0.0102663335503088 0.99999999999997
-0.0868455692113002 0.000973081516695318 0.999999999999973
-0.0678098842759399 -0.0110201312448016 0.999999999999976
-0.0626838278564283 -0.0179088433414577 0.999999999999978
-0.0559469058049851 -0.0309673813791534 0.999999999999981
-0.0383703348951635 -0.0471781459460909 0.999999999999985
-0.032485093395168 -0.0525837034393239 0.999999999999987
-0.0215958175760421 -0.0633688423115203 0.999999999999989
-0.00815292292490348 -0.0799207883705789 0.999999999999994
0.000616692376966304 -0.0923641172373302 0.999999999999997
0.00725577374000531 -0.0952935528999766 0.999999999999998
-0.169408468096417 0.104626865671636 0.194771813398982
-0.171217918461847 0.104626865671636 0.19695299512374
-0.178650240438406 0.104626865671636 0.208974890168698
-0.16143822062867 0.104626865671636 0.204943462030911
-0.165344884325419 0.104626865671636 0.217690835226099
-0.168064408220041 0.104626865671636 0.235352441975466
-0.171773333754401 0.104626865671636 0.247161738938573
-0.16824069789808 0.104626865671636 0.243130947591637
-0.165600445465322 0.104626865671636 0.251886513117023
-0.171902655894338 0.104626865671636 0.271640923258957
-0.165139517392106 0.104626865671636 0.278278503937904
-0.170810479928007 0.104626865671636 0.290713906000389
-0.175985641342374 0.104626865671636 0.300701041832533
-0.167487328601006 0.104626865671636 0.308120062173035
-0.170481063899109 0.104626865671636 0.319352415853181
-0.173355916864168 0.104626865671636 0.322118668239616
-0.16504597633295 0.104626865671636 0.329586157357413
-0.169119883884404 0.104626865671636 0.339070823150743
-0.172915457747193 0.104626865671636 0.356831099929889
-0.167112605716801 0.104626865671636 0.362606753577544
-0.166881082133732 0.104626865671636 0.369645802101118
-0.174996895506041 0.104626865671636 0.385870294704552
-0.168239071534669 0.104626865671636 0.392064066163015
-0.173553207672801 0.104626865671636 0.40010332252013
-0.169538759859685 0.104626865671636 0.405166305464781
-0.164482826704432 0.104626865671636 0.417657695622803
-0.173000002876613 0.104626865671636 0.427572722293242
-0.169322463432114 0.104626865671636 0.439297653470716
-0.176010167106639 0.104626865671636 0.449048801852511
-0.169901973463326 0.104626865671636 0.454150646188877
-0.166353416013274 0.104626865671636 0.467951101906858
-0.16425115041462 0.104626865671636 0.469343900748347
-0.170879242175309 0.104626865671636 0.478330317629098
-0.163448086432874 0.104626865671636 0.493473142265606
-0.171218677723541 0.104626865671636 0.511928329301449
-0.162073672210921 0.104626865671636 0.503576078368711
-0.170171764180796 0.104626865671636 0.524440276722126
-0.171963250473041 0.104626865671636 0.529938992600748
-0.168785652079204 0.104626865671636 0.535978857324993
-0.173837770399956 0.104626865671636 0.553111891273217
-0.167384355702968 0.104626865671636 0.560741127989978
-0.178546763266044 0.104626865671636 0.571902989595454
-0.172728038093271 0.104626865671636 0.577725401219555
-0.172827192047796 0.104626865671636 0.586089614787596
-0.163443230548264 0.104626865671636 0.590961699116488
-0.173675438504306 0.104626865671636 0.603043160087115
-0.169910394301099 0.104626865671636 0.610350741437289
-0.167147616318873 0.104626865671636 0.625601229867591
-0.177810530652191 0.104626865671636 0.640423222526621
-0.172395104916028 0.104626865671636 0.64623842186323
-0.170071083011815 0.104626865671636 0.655357038176187
-0.175895577904403 0.104626865671636 0.663854402086071
-0.171865293987692 0.104626865671636 0.674860856277225
-0.170838736691654 0.104626865671636 0.678959376350286
-0.171084160958093 0.104626865671636 0.686234305099541
-0.168086713357135 0.104626865671636 0.698478794259975
-0.171960546292538 0.104626865671636 0.705223806662502
-0.171339387694382 0.104626865671636 0.717852240822029
-0.170281785567738 0.104626865671636 0.730638846250226
-0.175733903597611 0.104626865671636 0.734443243842381
-0.172807623677009 0.104626865671636 0.750385220271456
-0.170580796802196 0.104626865671636 0.763586657999008
-0.165242558153021 0.104626865671636 0.765117312926953
-0.170773146755772 0.104626865671636 0.775337739812641
-0.172868179987467 0.104626865671636 0.781410167267157
-0.166546901479581 0.104626865671636 0.794640413342527
-0.175234748668261 0.104626865671636 0.808763810056414
-0.171213406747098 0.104626865671636 0.816351428766227
-0.161976198942156 0.104626865671636 0.820592658588057
-0.165872388712951 0.104626865671636 0.827467371036394
-0.176184902316723 0.104626865671636 0.841924235484096
-0.165147076206115 0.104626865671636 0.849532764762195
-0.165652700314057 0.104626865671636 0.85289027276209
-0.167930101367992 0.104626865671636 0.868410880480676
-0.175299692151729 0.104626865671636 0.883268624739146
-0.178455763854308 0.104626865671636 0.887468390010104
-0.178632127113097 0.104626865671636 0.902425599760894
-0.17700290749935 0.104626865671636 0.908877141431991
-0.170028582733895 0.104626865671636 0.91649296786736
-0.173361118387957 0.104626865671636 0.919224317564883
-0.170501996843094 0.104626865671636 0.940686681583596
-0.170223986907755 0.104626865671636 0.943443500858557
-0.169749088138552 0.104626865671636 0.950019014086381
-0.167626121610402 0.104626865671636 0.964638937766105
-0.168758829714956 0.104626865671636 0.965114976839651
-0.171939051019361 0.104626865671636 0.976690884434642
-0.166241514002693 0.104626865671636 0.98148532882318
-0.167258102996162 0.104626865671636 0.993218176164739
-0.162365897408562 0.0927436348897739 0.999999999999949
-0.151854396998901 0.0877320905577445 0.99999999999995
-0.146912964335801 0.082226874385201 0.999999999999952
-0.134305255802448 0.0717316485910301 0.999999999999954
-0.125737888462448 0.0621489409084702 0.999999999999957
-0.113298057593335 0.0459588138832732 0.999999999999961
-0.104966622770748 0.0339877860611506 0.999999999999964
-0.0901181815822122 0.0271875987257378 0.999999999999966
-0.0878900960042983 0.0256017333399539 0.999999999999966
-0.0756846984749123 0.00763329186268903 0.999999999999971
-0.0578654517207155 -0.00690145316259642 0.999999999999975
-0.058286287002645 -0.0152006292776347 0.999999999999977
-0.0527845646496165 -0.0188781683836026 0.999999999999978
-0.0377733257176098 -0.0342238503187283 0.999999999999982
-0.0246121883211676 -0.0494126426163432 0.999999999999986
-0.0224458831559614 -0.0508503926115564 0.999999999999986
-0.00363813472147824 -0.0676923937780544 0.99999999999999
0.00976002453728571 -0.0798693802373222 0.999999999999994
0.012101240377271 -0.0832668926506872 0.999999999999994
0.0228912400703883 -0.101430982234452 0.999999999999999
-0.15611950433724 0.104626865671636 0.176322415845756
-0.158958896506259 0.104626865671636 0.186922633512045
-0.158035546258186 0.104626865671636 0.196452512170208
-0.158812867487129 0.104626865671636 0.203555978157295
-0.149827450038174 0.104626865671636 0.205844016717252
-0.154981501857032 0.104626865671636 0.216749533412088
-0.165128931028863 0.104626865671636 0.237829142091253
-0.152816765390882 0.104626865671636 0.237964666029797
-0.15044759615404 0.104626865671637 0.245703386095917
-0.15201716628211 0.104626865671636 0.255876592233872
-0.151517637534204 0.104626865671636 0.267109155101286
-0.16125052604999 0.104626865671636 0.283247776884411
-0.158604009924011 0.104626865671636 0.290187018553049
-0.157223127359745 0.104626865671636 0.30201018777814
-0.154969728757322 0.104626865671636 0.306110428594599
-0.158573855148464 0.104626865671636 0.323410777895412
-0.153687420796488 0.104626865671636 0.328402259295136
-0.157630223248967 0.104626865671636 0.337874007891575
-0.161816455862414 0.104626865671636 0.345996853766814
-0.158137939916152 0.104626865671636 0.361352939370452
-0.156144340966352 0.104626865671636 0.36216195376594
-0.153162220542442 0.104626865671636 0.369302343134076
-0.154177891334592 0.104626865671636 0.381690995094651
-0.152460112356634 0.104626865671636 0.394658869263897
-0.15909195730399 0.104626865671637 0.401747297080697
-0.151640705303437 0.104626865671636 0.409076014581929
-0.15663636149162 0.104626865671636 0.416948282999995
-0.154866535160127 0.104626865671636 0.429379762549518
-0.155527754488839 0.104626865671636 0.439870111562934
-0.158173540082756 0.104626865671636 0.447998466655735
-0.158497783753393 0.104626865671636 0.454251182217654
-0.155748029930923 0.104626865671636 0.47022990216625
-0.161376009282666 0.104626865671636 0.477074630501986
-0.156138571362411 0.104626865671636 0.491520806938752
-0.158087508374888 0.104626865671636 0.502413081380278
-0.157804138672848 0.104626865671636 0.504588410053625
-0.155948178652003 0.104626865671636 0.516111849633204
-0.161532719508244 0.104626865671636 0.52460366338849
-0.152829803873799 0.104626865671636 0.528698224838673
-0.161661082276139 0.104626865671636 0.540385000833484
-0.159324308295485 0.104626865671636 0.559316657254719
-0.161119210472597 0.104626865671636 0.565832753583891
-0.157937414466345 0.104626865671636 0.575962239163319
-0.163030638962286 0.104626865671636 0.580325168259211
-0.157350757991963 0.104626865671636 0.587341883379949
-0.1555249605388 0.104626865671636 0.596753946269666
-0.154169656156334 0.104626865671636 0.609081482564104
-0.156781081403207 0.104626865671636 0.613764723221409
-0.161782815365678 0.104626865671636 0.631465223252523
-0.157861631882274 0.104626865671636 0.635445872830626
-0.159171749130109 0.104626865671636 0.646809035229624
-0.15725958232052 0.104626865671636 0.651342792721312
-0.158774065713902 0.104626865671636 0.668621329964571
-0.154522290660269 0.104626865671636 0.667850866315418
-0.162046472791742 0.104626865671636 0.681715744583091
-0.158804491588628 0.104626865671636 0.685532538560614
-0.156823987361554 0.104626865671636 0.710098528478519
-0.153526719163475 0.104626865671636 0.712240136443511
-0.16352032821196 0.104626865671636 0.724192035915518
-0.165742797549596 0.104626865671636 0.731781685762789
-0.163955766828821 0.104626865671636 0.74035083287081
-0.152526185831429 0.104626865671636 0.746355252449885
-0.157502987989674 0.104626865671636 0.760532298187986
-0.162348352132877 0.104626865671636 0.767148711893917
-0.156620745864997 0.104626865671636 0.780880352462356
-0.159321024869833 0.104626865671636 0.788060075876627
-0.157221891646917 0.104626865671636 0.795358901351496
-0.162455892926666 0.104626865671636 0.805305328297895
-0.151778337698381 0.104626865671636 0.813515090923156
-0.157975713489382 0.104626865671636 0.82805980980624
-0.156715280221531 0.104626865671636 0.828583735466375
-0.156543244370815 0.104626865671636 0.843167530293876
-0.15888885648523 0.104626865671636 0.85529184769226
-0.156722076670122 0.104626865671636 0.866004570855617
-0.157260551681167 0.104626865671636 0.871223677867381
-0.163872062627285 0.104626865671636 0.877632776202254
-0.154840286903127 0.104626865671636 0.894640164356716
-0.155944450875693 0.104626865671636 0.900438073998706
-0.154287186215651 0.104626865671636 0.909748927679393
-0.158000779699909 0.104626865671636 0.916743906155771
-0.158546604407968 0.104626865671636 0.920527561910013
-0.161369192560939 0.104626865671636 0.936472709752602
-0.162231031439403 0.104626865671636 0.946399939434721
-0.152321378059944 0.104626865671636 0.948495602463642
-0.160999973150573 0.104626865671636 0.961451334015777
-0.151761424035245 0.104626865671636 0.975126933627049
-0.160979066906542 0.104626865671636 0.978861923858677
-0.157403485963879 0.104626865671636 0.994443123239374
-0.153220935395386 0.0983838792043893 0.999999999999948
-0.149502296326358 0.0894284619650262 0.99999999999995
-0.134331470830629 0.084820110626781 0.999999999999951
-0.123907600273639 0.073808942314077 0.999999999999954
-0.120688785249452 0.0695524309152191 0.999999999999955
-0.112740110248266 0.0512392944386545 0.99999999999996
-0.0964080812957849 0.0452562057893185 0.999999999999961
-0.0862782217082241 0.029334238641353 0.999999999999965
-0.0806259482799069 0.0253995325565893 0.999999999999966
-0.0633728665384216 0.00722210350765651 0.999999999999971
-0.0571093394475338 0.00826822716377674 0.999999999999971
-0.0453297527178707 -0.0156284607247819 0.999999999999977
-0.0371597914323946 -0.0157294283041769 0.999999999999977
-0.0317406171488607 -0.0292153943698085 0.999999999999981
-0.0179720888349322 -0.0315125695179364 0.999999999999981
-0.00411880787039771 -0.0508101184093143 0.999999999999986
-0.00122884852399361 -0.0546910928949305 0.999999999999987
0.0233482350353314 -0.0772862837064967 0.999999999999993
0.0245256878772695 -0.075097354584399 0.999999999999992
0.0340734357457597 -0.0885537482881617 0.999999999999996
0.0401784913834781 -0.104328358208949 1.0000209882334
-0.146134607458445 0.104626865671636 0.160718334609337
-0.143735723263153 0.104626865671636 0.174114809460698
-0.143592530971672 0.104626865671636 0.178479382930798
-0.144492316334264 0.104626865671636 0.205143050646392
-0.151891052106039 0.104626865671636 0.211198066824495
-0.137216113270846 0.104626865671636 0.212088744654772
-0.138605233432528 0.104626865671636 0.220030968494265
-0.144719988857346 0.104626865671636 0.22270296398798
-0.144699619407107 0.104626865671636 0.238576933361845
-0.144016265400582 0.104626865671636 0.257496798547576
-0.143706776542237 0.104626865671636 0.266823207635537
-0.144913993876744 0.104626865671636 0.274190120922293
-0.149999540463836 0.104626865671636 0.286036064086285
-0.137453407607958 0.104626865671636 0.288265426824437
-0.139546419359339 0.104626865671636 0.292985786528514
-0.14069735958219 0.104626865671636 0.305431659124183
-0.141972901468696 0.104626865671636 0.314037067546035
-0.14468615206364 0.104626865671636 0.328165444318461
-0.142062841685538 0.104626865671636 0.336242724386855
-0.146187098637478 0.104626865671636 0.341561737287312
-0.143158414978441 0.104626865671636 0.349335915670704
-0.142322729339931 0.104626865671636 0.369770338407438
-0.14202001050449 0.104626865671636 0.375187328533147
-0.14038773837841 0.104626865671636 0.379829677543715
-0.14869743775848 0.104626865671636 0.389787032089017
-0.141661438501942 0.104626865671636 0.407064649860578
-0.14633838339483 0.104626865671637 0.411955730304707
-0.143624383135009 0.104626865671636 0.422391595490223
-0.151947731332404 0.104626865671636 0.437673177416246
-0.144015939728054 0.104626865671636 0.437997097035391
-0.142457289306698 0.104626865671636 0.452816727509493
-0.145217290186206 0.104626865671636 0.457327065581188
-0.135564035238495 0.104626865671636 0.464554949471101
-0.148998224077993 0.104626865671636 0.478713261430726
-0.144516096222534 0.104626865671636 0.481373986091419
-0.144352400184334 0.104626865671636 0.491328134126154
-0.149963714976284 0.104626865671636 0.505436523912674
-0.141051686751883 0.104626865671636 0.512651423138021
-0.149238374786102 0.104626865671636 0.52639771826784
-0.138548754547987 0.104626865671636 0.52888801692792
-0.146604241845056 0.104626865671636 0.549752084172497
-0.142344952565238 0.104626865671636 0.55473017409869
-0.148566513800589 0.104626865671636 0.570964470002697
-0.148591257461768 0.104626865671636 0.572061789430549
-0.146972993493952 0.104626865671636 0.588461494878924
-0.142179073850094 0.104626865671636 0.591823944643381
-0.137510710009866 0.104626865671636 0.595199353944761
-0.147450819832348 0.104626865671636 0.607758020710233
-0.140717078320337 0.104626865671636 0.613144098262118
-0.148659528370408 0.104626865671636 0.633161270371154
-0.138837913652088 0.104626865671636 0.631901122418225
-0.151384507812122 0.104626865671636 0.646337769131169
-0.146541907082379 0.104626865671636 0.652538433037152
-0.138969737757094 0.104626865671636 0.66567701222233
-0.137795307871101 0.104626865671636 0.67720650551626
-0.142669022628233 0.104626865671636 0.682829113610434
-0.145098456105597 0.104626865671636 0.686266635985052
-0.148332444451417 0.104626865671636 0.699663563096385
-0.13830088889949 0.104626865671636 0.710839915960481
-0.145040415285513 0.104626865671636 0.728531831196247
-0.151438839006461 0.104626865671636 0.732329138284423
-0.14137448514736 0.104626865671636 0.737787419564732
-0.147794926995993 0.104626865671636 0.748678938782592
-0.145596948367608 0.104626865671636 0.76703009281759
-0.147604192276664 0.104626865671636 0.771370624987801
-0.142242242645746 0.104626865671636 0.777220824735597
-0.145080910576492 0.104626865671636 0.790140168160607
-0.139439384878742 0.104626865671636 0.794323724494153
-0.1416510827971 0.104626865671636 0.804084858779931
-0.139714186252239 0.104626865671636 0.815838246323326
-0.14786516067499 0.104626865671636 0.81981297747035
-0.143102055577363 0.104626865671636 0.83210539559851
-0.145005723097538 0.104626865671636 0.845758445066569
-0.146553717066748 0.104626865671636 0.856253403391506
-0.141111639333418 0.104626865671636 0.862288840891408
-0.147326505118248 0.104626865671636 0.882047282462551
-0.151845900599866 0.104626865671636 0.882105402335838
-0.144583977027598 0.104626865671636 0.896026219780265
-0.142516805242769 0.104626865671636 0.900547505193654
-0.144638743935478 0.104626865671636 0.918399730594796
-0.142671322697065 0.104626865671636 0.916666201872499
-0.15170642294135 0.104626865671636 0.932335081238154
-0.136072942231085 0.104626865671636 0.931380913863458
-0.15098728103196 0.104626865671636 0.950003816759275
-0.145350158318909 0.104626865671636 0.956395813059988
-0.144926857237933 0.104626865671636 0.968565178977632
-0.146597751612761 0.104626865671636 0.983886534976402
-0.14154184605841 0.104626865671636 0.988804737939694
-0.148272750709756 0.104626865671636 0.99390735633878
-0.132859127491946 0.0999174731351389 0.999999999999947
-0.130475087614501 0.0899164530052658 0.99999999999995
-0.118039558304039 0.0825714938903574 0.999999999999952
-0.114066129210723 0.0687203303320815 0.999999999999955
-0.0978979922018378 0.0573178618688104 0.999999999999958
-0.0957103052599281 0.0498502036988539 0.99999999999996
-0.084826531789124 0.0454165229618769 0.999999999999961
-0.0768011158615598 0.0318724989391685 0.999999999999965
-0.0634698657061231 0.0220650151011808 0.999999999999967
-0.0570059791697433 0.0158785975552303 0.999999999999969
-0.0455961447266147 0.00527560125933229 0.999999999999972
-0.0301354596406518 -0.0112720537275922 0.999999999999976
-0.014708287581577 -0.0278993119026505 0.99999999999998
-0.0095461533118306 -0.0390747054047978 0.999999999999983
0.000377278652947942 -0.0420192006236821 0.999999999999984
0.0108034805800323 -0.0502491672533009 0.999999999999986
0.0223689813380299 -0.0715848129615266 0.999999999999991
0.0385938701897815 -0.085033159566547 0.999999999999995
0.0397559141783262 -0.0852117745289135 0.999999999999995
0.0533683120195581 -0.0935288147327235 0.999999999999997
-0.127581047490186 0.104626865671636 0.159571736701051
-0.133602630447975 0.104626865671636 0.164599232441807
-0.128045995220935 0.104626865671636 0.174573392423502
-0.134504646188115 0.104626865671636 0.190281830759373
-0.128551317416381 0.104626865671636 0.190385640606059
-0.134631455460817 0.104626865671636 0.211742257111819
-0.130078416725105 0.104626865671636 0.220755281932136
-0.125230109802755 0.104626865671636 0.218481235346961
-0.127878153682698 0.104626865671636 0.228913796742203
-0.131164321933092 0.104626865671636 0.241058735740059
-0.129637156590338 0.104626865671636 0.25616967925891
-0.132238074557332 0.104626865671636 0.259847211832534
-0.128161672461172 0.104626865671636 0.271871992074994
-0.131724441694055 0.104626865671636 0.28289136766606
-0.125480645812442 0.104626865671636 0.290531234466206
-0.138062703055837 0.104626865671636 0.300939775497477
-0.127743080486994 0.104626865671636 0.301342554015571
-0.127040469433155 0.104626865671636 0.311685340854974
-0.132377007462323 0.104626865671636 0.328759757091696
-0.132455573417546 0.104626865671636 0.339796573077758
-0.128237506963475 0.104626865671636 0.349430986775539
-0.130290651747346 0.104626865671636 0.354464834301266
-0.131272356294051 0.104626865671636 0.368662984471277
-0.125411901875702 0.104626865671636 0.372647185257499
-0.13001553662653 0.104626865671636 0.380457133346598
-0.131117964381746 0.104626865671636 0.394487569599393
-0.126355140648402 0.104626865671636 0.400461605092604
-0.127825624388903 0.104626865671636 0.415846319346631
-0.127920505871654 0.104626865671636 0.415011616035468
-0.138230083116667 0.104626865671636 0.441259462411814
-0.135072953921307 0.104626865671636 0.444639986359096
-0.131932750241779 0.104626865671636 0.457612169418592
-0.135199690842402 0.104626865671636 0.462918605528683
-0.129607864352334 0.104626865671636 0.477254954465465
-0.127357003151101 0.104626865671636 0.476939912903593
-0.135677050049649 0.104626865671636 0.486558647139745
-0.133666486237301 0.104626865671636 0.494196277704904
-0.133215634286311 0.104626865671636 0.508946913482464
-0.135503731575087 0.104626865671636 0.522068524647579
-0.12507242098971 0.104626865671636 0.517926113247978
-0.140075806411975 0.104626865671636 0.53696868655929
-0.127047049659685 0.104626865671636 0.544271790854093
-0.128256128155513 0.104626865671636 0.545876612201727
-0.128920596958561 0.104626865671636 0.556540583086669
-0.131666443658268 0.104626865671636 0.573768778953217
-0.125989031060273 0.104626865671636 0.583226335303345
-0.133378436276889 0.104626865671636 0.593314546349719
-0.135785744970324 0.104626865671636 0.607512457479493
-0.122415317317754 0.104626865671636 0.605957213246105
-0.130910078102927 0.104626865671636 0.618605474878392
-0.131591896788236 0.104626865671636 0.635194175143834
-0.133528431799686 0.104626865671636 0.634363272112595
-0.130983501021089 0.104626865671636 0.652455874911622
-0.136155482311125 0.104626865671636 0.659848919266494
-0.138565106687199 0.104626865671636 0.673726815740738
-0.139665174668959 0.104626865671636 0.682464969853057
-0.130315936919311 0.104626865671636 0.681595734400081
-0.127372093098039 0.104626865671636 0.689332739808264
-0.132865505404807 0.104626865671636 0.700504126713105
-0.13575444344322 0.104626865671636 0.713181387572814
-0.127694206050816 0.104626865671636 0.724596273422878
-0.128006848651754 0.104626865671636 0.734138145203194
-0.128524385780389 0.104626865671636 0.744859667844493
-0.12814873040366 0.104626865671636 0.7460142675824
-0.125257422918078 0.104626865671636 0.759014495787424
-0.128802380748467 0.104626865671636 0.771225472450759
-0.135722660647829 0.104626865671636 0.784948424003367
-0.1292429643138 0.104626865671636 0.79030030793343
-0.131265073452121 0.104626865671636 0.799829489480993
-0.131638129830531 0.104626865671636 0.802269622848186
-0.126791784531159 0.104626865671636 0.814151925908314
-0.139514626081562 0.104626865671636 0.827678284139931
-0.132581786680515 0.104626865671636 0.836091704885751
-0.125537503992342 0.104626865671636 0.840406192138438
-0.131628198462927 0.104626865671636 0.858871380440034
-0.129390667613942 0.104626865671636 0.867973766897777
-0.128592171595631 0.104626865671636 0.873318108887962
-0.127129158506614 0.104626865671636 0.880886361739419
-0.130567368337373 0.104626865671636 0.893951811032715
-0.135409124155514 0.104626865671636 0.906522723924323
-0.131865672936173 0.104626865671636 0.91700936797311
-0.135429289779455 0.104626865671636 0.920384697178257
-0.139222022669797 0.104626865671636 0.939925266446265
-0.12568374581056 0.104626865671636 0.941940496923674
-0.129058134656112 0.104626865671636 0.952734259091912
-0.127589919162869 0.104626865671636 0.958040356319102
-0.130142700461174 0.104626865671636 0.965437668247924
-0.136347539012691 0.104626865671636 0.977839359334802
-0.127478992933569 0.104626865671636 0.98663162934453
-0.126074267727798 0.104626865671636 0.996654815889941
-0.124615208861753 0.0929620783818018 0.999999999999949
-0.114497763970248 0.0826896439600411 0.999999999999952
-0.105696086794238 0.077777913177668 0.999999999999953
-0.095192613500166 0.0714875800284311 0.999999999999954
-0.0875571626595175 0.0524018325006871 0.999999999999959
-0.0776954531540218 0.0458499282047324 0.999999999999961
-0.0697340616025968 0.0419030938679876 0.999999999999962
-0.0590798671066568 0.0274582921720862 0.999999999999966
-0.0447062181703757 0.0200592850388903 0.999999999999968
